ply
format ascii 1.0
element face 0
property list uchar int vertex_indices
element vertex 954
property float x
property float y
property float z
property uchar diffuse_red
property uchar diffuse_green
property uchar diffuse_blue
end_header
-1.845383e+00 -2.694790e+00 2.853192e+00 79 81 79
-9.741137e-01 -2.567651e+00 2.862520e+00 125 128 133
-1.006657e+00 -2.545390e+00 2.934594e+00 113 113 111
1.631837e+00 -1.116147e+00 3.083113e+00 141 146 143
1.631837e+00 -1.116147e+00 3.083113e+00 141 146 143
1.211393e+00 -1.106969e+00 3.090873e+00 134 135 141
-2.475181e+00 -1.092570e+00 3.060933e+00 18 21 27
2.786962e+00 -1.106901e+00 3.150136e+00 82 82 83
2.806606e+00 -1.089807e+00 3.099479e+00 82 82 83
3.323545e+00 3.007219e-02 2.881421e+00 250 254 255
-3.501230e+00 4.923274e-01 2.668286e+00 254 254 255
-3.509393e+00 5.520643e-01 2.648724e+00 252 252 251
8.782800e-02 8.380534e-01 2.252517e+00 52 55 68
-5.337578e-01 6.614169e-01 2.691666e+00 40 37 46
2.508122e+00 6.914708e-01 2.919869e+00 99 100 94
1.884712e+00 8.153986e-01 2.833876e+00 83 83 81
2.350844e+00 8.957643e-01 2.947883e+00 93 93 88
8.507292e-01 9.940198e-01 2.882341e+00 98 98 96
8.144182e-01 1.036602e+00 2.887412e+00 91 91 89
-2.176501e+00 1.084977e+00 3.003865e+00 84 84 82
8.073040e-01 1.171040e+00 2.925857e+00 85 85 83
-1.207065e+00 1.132490e+00 2.950211e+00 83 82 80
-1.770122e-01 1.330122e+00 2.922741e+00 97 97 97
3.182546e+00 1.412587e+00 2.960886e+00 253 255 253
4.587429e-01 1.451065e+00 2.937623e+00 93 92 91
3.737746e-01 1.432796e+00 3.012248e+00 141 141 139
1.113805e+00 1.446381e+00 3.135561e+00 141 138 133
-1.229762e+00 1.483010e+00 3.032467e+00 125 124 120
-2.673657e+00 1.381967e+00 3.401779e+00 126 125 118
2.261531e+00 2.413925e+00 3.041691e+00 165 166 158
2.242772e+00 2.446002e+00 3.044017e+00 161 160 156
2.098656e-01 2.537298e+00 3.067366e+00 95 95 97
1.457885e-01 2.594505e+00 3.045057e+00 138 136 139
-3.905548e-01 2.566457e+00 3.085702e+00 93 93 95
-4.414357e-01 2.586773e+00 3.085633e+00 81 81 83
-3.508384e-01 2.569665e+00 3.111795e+00 73 72 78
3.242083e+00 2.745273e+00 3.065049e+00 116 112 153
3.242179e+00 2.859735e+00 3.023438e+00 241 254 253
2.258856e+00 2.790412e+00 3.111519e+00 160 160 156
-1.531601e+00 2.875630e+00 3.222494e+00 148 149 144
-2.156316e+00 2.889819e+00 3.225842e+00 156 158 148
2.401726e+00 4.833325e+00 3.078750e+00 95 95 95
1.550245e+00 5.318949e+00 3.151582e+00 144 144 142
-1.490678e+00 5.352215e+00 3.375189e+00 108 103 109
-4.553279e-01 -2.264545e+00 2.817229e+00 123 120 115
-4.200647e-01 -2.124041e+00 2.827316e+00 132 134 131
5.858370e-01 -1.113660e+00 3.052596e+00 138 137 142
2.351839e+00 -1.108317e+00 3.094653e+00 139 139 141
2.612940e+00 -1.102784e+00 3.099433e+00 52 52 54
6.584131e-01 -1.084797e+00 3.053583e+00 142 146 149
-2.801296e+00 -8.803031e-01 3.170392e+00 75 76 80
-2.070285e+00 -8.218609e-01 3.082844e+00 81 83 81
2.034007e+00 -3.301890e-01 3.086770e+00 148 148 140
3.292512e+00 1.840776e-02 2.904813e+00 106 108 131
3.277561e+00 3.052828e-01 2.826800e+00 248 253 255
-3.483306e+00 5.993308e-01 2.661321e+00 157 155 176
2.529720e+00 6.338386e-01 2.931073e+00 90 88 89
-2.718150e+00 4.284730e-01 3.297064e+00 85 89 92
-1.226474e+00 8.395495e-01 2.915289e+00 87 87 86
-2.195287e-01 1.090206e+00 2.731441e+00 96 91 86
1.494588e+00 1.121338e+00 2.900097e+00 90 86 84
-1.863666e+00 1.156738e+00 2.887886e+00 70 63 56
-2.349165e+00 1.107506e+00 2.985671e+00 71 72 76
-1.825067e+00 1.150245e+00 2.931422e+00 142 138 129
-1.945123e+00 1.144230e+00 2.946569e+00 83 79 68
-2.437051e+00 1.246917e+00 3.003322e+00 90 90 92
1.310744e-01 1.322646e+00 2.966634e+00 156 156 154
2.563829e+00 1.375819e+00 3.011874e+00 144 143 141
5.487389e-01 1.441848e+00 2.989099e+00 140 138 139
3.136234e+00 1.522448e+00 2.954357e+00 138 140 160
-6.342674e-01 1.476884e+00 3.011428e+00 116 115 111
-2.587589e+00 1.873411e+00 2.976421e+00 42 43 48
-2.587589e+00 1.873411e+00 2.976421e+00 42 43 48
-2.587589e+00 1.873411e+00 2.976421e+00 42 43 48
-2.739886e+00 1.759746e+00 3.351658e+00 67 68 73
2.294137e+00 2.248673e+00 3.032462e+00 154 154 150
7.674937e-01 2.292186e+00 3.022628e+00 152 152 150
1.500264e+00 2.377407e+00 3.044345e+00 142 142 140
1.613382e+00 2.385794e+00 3.058189e+00 65 65 64
3.168282e+00 2.518597e+00 3.003956e+00 62 61 70
-2.566806e+00 2.294894e+00 3.184940e+00 136 135 127
2.063299e+00 2.493053e+00 3.073164e+00 156 155 150
1.888800e+00 2.520514e+00 3.047227e+00 156 154 157
-7.954152e-01 2.264471e+00 3.334065e+00 162 161 156
-1.014940e+00 2.261622e+00 3.357110e+00 157 156 151
-6.720477e-01 2.480994e+00 3.109169e+00 66 66 68
2.313996e+00 2.580613e+00 3.067825e+00 149 147 137
-2.667015e+00 2.225860e+00 3.442228e+00 97 95 96
-2.667015e+00 2.225860e+00 3.442228e+00 97 95 96
-2.575776e+00 2.211518e+00 3.469593e+00 171 170 168
-2.823575e+00 2.205974e+00 3.487947e+00 153 152 150
6.708288e-01 2.623655e+00 3.050530e+00 139 138 136
5.778352e-01 2.619383e+00 3.061897e+00 146 145 141
-1.157021e-01 2.606314e+00 3.082993e+00 159 159 161
2.258422e+00 2.811296e+00 3.117724e+00 68 67 66
2.179842e+00 2.795935e+00 3.130331e+00 60 60 60
1.606563e+00 2.827517e+00 3.111209e+00 133 134 129
1.550029e+00 2.867680e+00 3.112647e+00 128 129 122
-2.431507e+00 2.825676e+00 3.346096e+00 64 67 75
-7.778298e-01 2.840043e+00 3.443427e+00 130 130 133
-1.009425e+00 2.841851e+00 3.462593e+00 137 138 134
-2.489668e+00 3.452108e+00 3.057311e+00 84 87 93
2.253515e+00 4.769994e+00 2.991825e+00 32 31 47
1.751488e+00 5.016930e+00 3.103222e+00 70 68 71
1.691013e+00 5.066578e+00 3.119295e+00 85 83 87
2.169543e+00 5.118545e+00 3.110711e+00 80 76 73
-1.751263e+00 5.135598e+00 3.216630e+00 133 131 133
1.790065e+00 5.342043e+00 3.163303e+00 143 143 142
-1.654573e+00 5.252215e+00 3.274856e+00 153 152 150
-1.527956e+00 5.261908e+00 3.285404e+00 101 97 99
-2.833026e+00 5.179459e+00 3.532482e+00 57 56 65
1.031326e+00 5.865601e+00 3.233698e+00 251 251 249
7.698438e-02 -1.184073e+00 3.093107e+00 150 151 154
2.142230e+00 -1.142700e+00 3.094087e+00 68 78 80
-2.353778e+00 -1.104183e+00 3.085677e+00 145 150 158
-4.669103e-01 -1.090238e+00 3.016986e+00 146 147 149
-2.029782e+00 -1.094947e+00 3.097489e+00 140 144 154
2.345338e+00 -1.079575e+00 3.105431e+00 145 145 147
2.804728e+00 -9.093215e-01 3.189449e+00 100 100 100
1.461316e+00 -7.001006e-01 3.110424e+00 151 151 147
1.426604e-01 -4.485352e-01 3.058483e+00 105 103 109
-1.813449e+00 6.769760e-02 3.105546e+00 161 162 164
3.273063e+00 3.246422e-01 2.822330e+00 135 138 157
-1.829150e+00 3.447773e-01 2.823434e+00 139 140 134
2.830623e-02 4.972345e-01 2.682336e+00 137 141 138
1.032733e+00 4.371508e-01 2.861792e+00 101 102 104
-4.387491e-03 5.402003e-01 2.683804e+00 170 169 175
-3.485910e+00 6.067617e-01 2.610034e+00 250 251 255
1.015987e+00 5.834886e-01 2.869468e+00 106 104 105
4.470549e-01 6.965616e-01 2.660368e+00 61 64 73
3.780080e-01 7.677630e-01 2.655131e+00 57 64 71
-8.797626e-01 5.130502e-01 3.189469e+00 102 103 108
2.539111e+00 6.949739e-01 2.938894e+00 101 101 101
1.612185e+00 7.416269e-01 2.860241e+00 101 101 99
-2.675771e+00 4.797941e-01 3.305315e+00 104 111 120
2.802231e+00 7.131946e-01 3.103412e+00 105 107 106
-2.129640e+00 1.014075e+00 2.924741e+00 81 80 79
1.972184e+00 1.144486e+00 2.948934e+00 112 111 106
1.469712e+00 1.195071e+00 2.920938e+00 141 138 136
2.934702e-01 1.262136e+00 2.892747e+00 85 81 82
-2.558236e+00 1.195711e+00 3.024376e+00 78 82 83
-1.272209e+00 1.257250e+00 2.954615e+00 86 85 80
-2.015430e+00 1.690922e+00 3.028111e+00 105 106 110
1.741935e+00 2.041722e+00 2.890385e+00 90 91 93
3.061323e+00 2.270189e+00 2.972448e+00 122 122 124
2.257788e+00 2.246192e+00 3.005934e+00 142 142 141
8.212445e-01 2.252788e+00 2.979078e+00 89 89 89
1.513038e+00 2.390422e+00 3.048194e+00 81 83 82
2.051460e+00 2.505493e+00 3.048025e+00 156 155 153
1.859051e+00 2.517696e+00 3.038799e+00 147 146 142
2.694265e+00 2.438423e+00 3.209749e+00 122 124 122
-6.467890e-03 2.507151e+00 3.045596e+00 147 147 149
-1.043708e+00 2.271247e+00 3.347331e+00 156 155 151
1.942388e+00 2.563459e+00 3.053881e+00 117 114 109
1.580538e+00 2.558744e+00 3.055879e+00 146 142 139
-2.798206e+00 2.207813e+00 3.437711e+00 88 88 88
5.359287e-01 2.588437e+00 3.039757e+00 79 78 80
-1.513981e-01 2.569302e+00 3.086005e+00 162 161 165
1.259745e-01 2.608004e+00 3.065064e+00 151 149 152
2.469558e+00 2.787197e+00 3.130618e+00 65 65 67
3.206454e+00 2.904538e+00 3.085463e+00 243 253 255
-2.848039e+00 2.505474e+00 3.519877e+00 79 79 79
1.667181e+00 4.771522e+00 2.997576e+00 119 120 123
1.420755e+00 4.793492e+00 2.973924e+00 135 135 135
2.193699e+00 5.124793e+00 3.117205e+00 141 140 135
-1.434448e+00 5.268640e+00 3.286578e+00 122 117 121
-2.794956e+00 5.054597e+00 3.502071e+00 139 139 139
-2.204305e+00 5.528284e+00 3.357555e+00 91 90 95
-2.727247e+00 -1.081931e+00 3.174798e+00 149 152 159
2.842319e+00 -9.102200e-01 3.160568e+00 86 86 86
-1.784051e-01 -8.466526e-01 3.046403e+00 111 110 105
1.945006e+00 -7.702045e-01 3.062177e+00 127 127 125
1.473458e+00 -7.169149e-01 3.091467e+00 135 130 127
2.016274e+00 -5.147798e-01 3.105832e+00 99 103 107
3.273340e+00 2.897064e-01 2.818454e+00 161 164 178
5.334922e-01 4.834765e-01 2.648453e+00 61 64 73
8.752025e-02 6.066037e-01 2.645974e+00 100 105 98
3.135365e+00 6.640773e-01 2.915810e+00 100 101 103
4.634895e-01 9.175516e-01 3.521607e+00 106 106 106
1.705479e+00 2.168073e+00 2.901167e+00 105 105 106
3.115765e+00 2.157308e+00 2.989558e+00 120 120 125
2.290641e+00 2.197776e+00 3.032591e+00 105 104 102
1.794622e+00 2.240633e+00 3.022953e+00 114 115 109
1.950363e+00 2.234504e+00 3.038517e+00 104 104 104
2.372346e+00 2.352517e+00 3.028553e+00 96 97 91
2.042411e+00 2.370421e+00 3.018153e+00 97 98 93
1.023141e+00 2.248615e+00 3.206952e+00 131 131 131
1.023141e+00 2.248615e+00 3.206952e+00 131 131 131
2.354044e+00 2.399850e+00 3.044455e+00 128 127 122
-1.003406e+00 2.240085e+00 3.360913e+00 96 95 91
3.291547e-01 2.531998e+00 3.083880e+00 135 135 134
4.662531e-01 2.594025e+00 3.078251e+00 118 117 115
2.005172e-01 2.609512e+00 3.060904e+00 152 150 152
3.947706e-01 2.630939e+00 3.054939e+00 151 147 147
-4.211083e-01 2.639482e+00 3.084925e+00 112 112 112
-4.211083e-01 2.639482e+00 3.084925e+00 112 112 112
1.612397e+00 2.790222e+00 3.104525e+00 125 125 124
2.653046e+00 -1.197246e+00 3.074029e+00 87 74 63
-2.429004e+00 -1.148929e+00 2.920702e+00 103 89 82
-2.273932e+00 -1.271320e+00 2.985983e+00 203 184 169
2.709526e+00 -6.645092e-01 3.098761e+00 173 156 136
-1.470480e+00 -2.671020e+00 2.238602e+00 75 61 47
2.996820e+00 -2.477912e+00 2.939349e+00 197 189 170
2.066236e+00 -7.312690e-01 3.031565e+00 59 46 31
2.778022e-01 -6.697060e-01 3.086938e+00 164 147 130
2.962740e+00 -1.342637e+00 3.051537e+00 220 206 190
1.086100e+00 -1.021006e+00 3.072835e+00 173 167 152
2.265291e+00 -8.532822e-01 3.056813e+00 84 72 57
1.609682e+00 -6.774297e-01 3.004821e+00 158 149 135
-2.243999e+00 -2.769319e+00 2.349241e+00 131 116 100
1.198009e+00 -2.544418e+00 2.838739e+00 107 89 75
-2.501372e-01 -2.471050e+00 3.785641e+00 88 67 38
6.248742e-01 -1.477510e+00 3.042690e+00 197 183 170
2.690989e+00 -1.220137e+00 2.982311e+00 98 80 68
2.300804e+00 -9.772726e-01 2.839958e+00 165 151 134
8.779136e-01 -1.010367e+00 3.013625e+00 158 149 132
2.159704e+00 -7.920432e-01 2.476047e+00 173 168 146
-4.222211e-01 -1.080787e+00 2.965923e+00 179 165 154
-2.727102e+00 -7.106527e-02 3.117471e+00 129 127 128
-2.706790e+00 -3.368589e-01 3.133814e+00 67 66 64
1.158440e+00 4.611926e+00 3.332080e+00 117 117 117
-7.443512e-01 5.632868e+00 3.119791e+00 253 255 254
-1.607640e+00 5.277823e+00 3.184916e+00 56 56 56
-2.910288e+00 -7.094038e-01 3.076706e+00 35 35 33
-2.403830e+00 2.486322e+00 3.201857e+00 31 32 34
2.081143e+00 3.945787e+00 2.884723e+00 14 15 16
2.744842e-01 -1.092992e+00 3.041062e+00 115 115 113
-2.644066e+00 -7.143135e-01 3.020603e+00 28 28 28
-3.255583e+00 1.670597e+00 2.973870e+00 136 137 142
2.009717e+00 3.112927e+00 3.073892e+00 15 16 17
-2.117217e+00 4.407473e+00 3.030287e+00 20 20 22
-2.469858e+00 4.405264e+00 3.079317e+00 96 97 100
1.438354e+00 4.485720e+00 3.160806e+00 24 24 26
-2.940936e+00 6.018777e+00 3.103962e+00 109 109 109
1.883549e+00 5.830675e+00 3.171096e+00 77 82 88
2.522403e+00 -1.268090e+00 3.013072e+00 117 113 109
-1.627012e+00 -9.961880e-01 2.820713e+00 33 30 25
2.601000e+00 -6.996925e-01 3.082208e+00 95 91 87
-1.547650e+00 -6.384250e-01 2.948522e+00 83 80 76
2.922279e+00 -3.215456e-01 3.065951e+00 78 76 75
-3.435746e+00 5.098407e-01 2.659601e+00 234 238 243
-3.439979e+00 5.998363e-01 2.662263e+00 228 240 248
-2.045508e+00 1.225073e+00 2.973386e+00 127 126 122
3.221306e+00 2.554589e+00 3.017424e+00 201 209 228
-1.858251e+00 2.594373e+00 3.082670e+00 27 26 24
-3.410407e+00 2.914035e+00 3.016321e+00 75 82 89
-7.159878e-01 2.760076e+00 3.484096e+00 108 106 105
5.780889e-01 4.642467e+00 1.661312e+00 228 222 229
-2.015776e+00 3.616521e+00 3.073995e+00 103 101 100
2.228024e+00 4.752795e+00 3.024663e+00 23 28 31
-1.467643e+00 4.930992e+00 3.132741e+00 26 26 27
1.092411e+00 5.266406e+00 3.458060e+00 92 92 94
6.209076e-01 -1.466661e+00 2.977821e+00 116 110 107
2.520261e+00 -1.057246e+00 3.060337e+00 47 43 38
-1.832585e+00 -1.000825e+00 2.986219e+00 87 85 84
-3.841162e-01 -7.860971e-01 3.012608e+00 39 35 33
1.700754e+00 -7.713666e-01 3.030616e+00 81 77 73
-3.025497e+00 -6.401092e-01 2.978487e+00 55 55 55
-1.977372e+00 -3.216382e-01 3.084355e+00 99 95 90
3.235526e+00 7.339100e-01 2.811757e+00 178 184 199
-3.378878e+00 9.321286e-01 2.794161e+00 124 135 140
-3.358704e+00 9.015007e-01 2.843294e+00 124 135 140
2.658607e-01 1.070820e+00 2.731507e+00 90 86 83
-2.299759e+00 1.261972e+00 2.996146e+00 81 75 75
2.510744e+00 1.575886e+00 2.919326e+00 38 36 39
-2.338022e+00 1.954416e+00 3.035539e+00 98 99 101
-2.123433e+00 2.069998e+00 2.954385e+00 114 111 110
3.150463e+00 2.268605e+00 3.093655e+00 201 207 225
-3.305080e+00 2.435486e+00 3.083855e+00 107 108 113
3.151080e+00 2.375110e+00 3.085843e+00 210 218 232
1.539066e+00 2.498693e+00 3.026389e+00 87 86 82
1.246005e+00 2.560071e+00 3.375382e+00 75 74 72
-7.113583e-01 2.681901e+00 3.474915e+00 109 108 110
2.295808e+00 3.168912e+00 2.972544e+00 102 102 102
-2.344126e+00 5.724258e+00 3.260156e+00 58 56 59
-1.601645e+00 5.689529e+00 3.336105e+00 59 58 61
2.633358e+00 6.524674e+00 2.912930e+00 221 231 247
-2.954453e+00 5.820507e+00 3.404699e+00 60 52 51
-2.206106e+00 -2.278118e-01 3.087435e+00 92 91 89
8.801881e-01 -1.080836e+00 3.000596e+00 89 91 90
-6.283060e-01 -6.381913e-01 3.039578e+00 26 23 24
1.858385e-03 -6.441957e-01 3.048841e+00 20 19 17
-1.472855e+00 -6.388325e-01 3.016589e+00 23 18 18
-3.500024e+00 2.779310e-01 2.771252e+00 213 237 254
-2.465392e+00 -1.021485e+00 2.972831e+00 78 77 79
8.773971e-01 -1.014833e+00 3.026612e+00 73 71 68
-4.348043e-01 1.956280e-01 2.617280e+00 98 96 97
-7.239602e-01 1.442961e-01 3.115430e+00 32 28 29
-3.488072e+00 5.311236e-01 2.635825e+00 96 95 107
1.074768e-01 8.246833e-01 2.690546e+00 20 15 12
2.341346e-01 1.148337e+00 2.784067e+00 77 65 61
-2.097166e+00 1.111260e+00 2.976387e+00 96 91 88
3.238358e+00 2.293947e+00 2.953260e+00 181 204 235
2.198586e+00 2.328719e+00 3.008737e+00 39 36 37
-2.392030e+00 -1.095379e+00 2.998119e+00 79 85 86
-1.520509e+00 -1.074462e+00 2.951110e+00 33 28 25
2.479415e+00 -1.161827e+00 2.998224e+00 44 38 38
7.756741e-01 -1.078258e+00 3.017300e+00 47 39 37
1.179740e+00 -1.080220e+00 3.028442e+00 88 91 97
-4.046104e-01 2.099929e-01 2.625202e+00 91 89 91
-4.755210e-01 3.186625e-01 2.629412e+00 16 14 17
-3.457734e+00 5.224898e-01 2.614774e+00 211 230 243
1.480813e+00 2.157417e+00 2.949543e+00 27 25 30
-1.415028e+00 2.849538e+00 3.237873e+00 42 44 56
-2.770518e+00 -1.114872e+00 3.127686e+00 86 91 100
-2.770518e+00 -1.114872e+00 3.127686e+00 86 91 100
-8.424761e-01 -1.061478e+00 2.987965e+00 23 24 28
-3.724000e-01 -1.064070e+00 2.989192e+00 78 81 85
1.802959e+00 -1.066985e+00 2.963973e+00 28 25 25
-2.676424e+00 -7.020774e-01 3.203467e+00 87 85 86
2.376477e+00 1.076511e+00 2.899599e+00 48 44 44
1.234744e-01 1.358986e+00 2.982209e+00 88 84 83
1.917423e+00 2.316783e+00 3.074229e+00 46 41 41
2.044875e+00 2.518762e+00 3.049764e+00 43 39 38
1.861598e+00 2.482060e+00 3.115600e+00 43 41 39
-2.407220e+00 4.995501e+00 3.110203e+00 10 15 26
2.806414e+00 -3.017220e-01 3.066761e+00 52 51 54
1.453867e+00 2.328669e+00 3.037707e+00 48 46 49
-4.554410e-01 2.549685e+00 3.128128e+00 85 85 87
-3.391860e+00 3.011400e+00 3.148591e+00 82 96 118
-2.000929e+00 2.907264e+00 3.267957e+00 97 93 92
-3.365015e+00 3.083366e+00 3.191206e+00 168 192 219
-2.510694e+00 4.417401e+00 3.144785e+00 54 54 56
3.044190e-01 -1.371014e-01 3.028340e+00 61 60 58
1.610200e+00 7.513949e-01 2.847330e+00 64 56 53
-2.513523e+00 1.033710e+00 2.948324e+00 60 58 61
1.422427e+00 9.354157e-01 2.900549e+00 59 53 53
2.380768e+00 1.565020e+00 2.929675e+00 37 41 51
-2.184174e+00 2.319482e+00 3.131163e+00 80 80 84
-3.369971e+00 2.914231e+00 3.171270e+00 166 192 222
-1.044028e+00 2.849712e+00 3.434530e+00 44 44 44
-3.283799e+00 2.485762e+00 3.350150e+00 193 229 250
2.021997e+00 -2.578364e+00 2.661860e+00 48 44 35
3.344530e+00 -4.356098e-01 2.514963e+00 112 109 91
-9.634791e-01 3.751877e-01 3.193808e+00 137 130 96
1.088613e+00 4.867683e-01 3.051204e+00 151 132 116
1.674049e+00 1.699589e+00 2.752173e+00 21 21 19
-1.664405e+00 5.354720e+00 3.242458e+00 139 118 92
-2.815825e+00 4.320152e-02 3.350903e+00 150 136 109
1.091213e+00 3.604346e-01 3.095832e+00 139 124 101
-2.307189e+00 1.171878e+00 3.104633e+00 144 122 92
-2.458842e+00 1.019890e+00 2.857666e+00 164 145 120
-2.458842e+00 1.019890e+00 2.857666e+00 164 145 120
-1.379469e+00 6.564245e+00 -4.951827e+00 90 59 41
-2.991190e+00 2.822939e+00 3.505244e+00 55 53 45
-3.264725e+00 4.857593e+00 3.171723e+00 169 214 219
1.462720e+00 -2.833336e+00 2.740249e+00 95 90 72
1.146364e+00 -2.486077e+00 2.955409e+00 29 26 19
2.146865e+00 2.376117e-01 -6.481681e-01 93 88 69
-2.934654e+00 8.023624e-02 3.215330e+00 30 30 36
3.798648e-01 2.807453e-01 2.500668e+00 19 12 8
1.441880e+00 1.670284e+00 2.773913e+00 146 129 103
1.876059e+00 2.494521e+00 2.819595e+00 54 38 24
-1.410768e+00 4.600918e+00 3.020116e+00 72 82 81
-3.198733e+00 4.925238e+00 3.410963e+00 153 211 227
7.114764e-01 5.311451e+00 3.020461e+00 151 198 228
2.870292e+00 -2.102281e+00 2.919070e+00 17 19 16
-1.546636e+00 -7.858227e-01 3.106260e+00 32 24 14
-5.360526e-01 5.326606e-01 2.595536e+00 153 129 97
-3.265049e+00 5.309778e-01 2.965882e+00 119 115 91
-3.676315e-01 1.457730e+00 1.411265e-01 133 121 96
-2.654919e-01 6.328104e-01 2.653593e+00 25 22 16
9.988503e-02 9.454897e-01 2.549129e+00 19 20 13
-1.444262e-01 1.619801e+00 2.917563e+00 27 22 18
1.474758e+00 1.721246e+00 2.651722e+00 29 19 18
-3.278945e+00 2.372514e+00 3.257614e+00 96 92 83
1.070568e+00 6.292719e+00 -4.935963e+00 147 128 117
-6.184797e-01 3.517738e+00 1.825822e+00 175 212 228
-3.127939e+00 4.749545e+00 3.454010e+00 157 203 208
1.996792e+00 5.231620e+00 3.046987e+00 76 62 37
-2.719595e+00 -1.368625e+00 3.400568e+00 135 121 94
-2.719595e+00 -1.368625e+00 3.400568e+00 135 121 94
-1.911055e+00 -1.094137e+00 3.063970e+00 57 39 33
-2.696870e+00 -1.137885e+00 3.325610e+00 44 38 28
4.101131e-01 -2.175140e-02 2.440248e+00 33 27 21
-5.335002e-01 3.399885e-01 2.523730e+00 157 136 109
1.640023e-01 4.827327e-01 2.541902e+00 26 17 11
3.354141e+00 5.153078e-01 2.436085e+00 205 227 207
-2.283868e+00 6.582290e+00 -6.003608e+00 7 7 41
-1.897003e+00 6.611922e+00 -5.808412e+00 202 219 242
-3.256134e+00 2.581854e+00 3.275094e+00 59 81 68
1.626319e+00 2.458076e+00 2.880346e+00 129 116 92
2.070562e+00 7.216441e-01 6.520813e+00 49 37 14
-5.590607e-02 2.581762e+00 2.990169e+00 51 34 19
-1.694939e+00 1.156661e+01 -8.985485e+00 44 65 88
-1.694939e+00 1.156661e+01 -8.985485e+00 44 65 88
7.971560e-01 4.559614e+00 3.110788e+00 46 48 39
-3.287037e+00 5.136658e+00 3.258249e+00 153 197 178
-1.349373e+00 5.874300e+00 3.348328e+00 78 80 56
-2.466150e+00 -1.111118e+00 3.265809e+00 126 110 96
-2.527063e+00 -8.890779e-01 3.262983e+00 107 98 91
-3.517345e+00 2.023137e-01 2.730932e+00 210 226 187
6.453486e-01 3.856229e-01 2.467166e+00 63 68 64
-3.444091e+00 5.694510e-01 2.758820e+00 93 105 130
-2.055110e+00 2.261968e+00 3.034303e+00 155 133 108
-1.139176e+00 5.197959e+00 -1.527150e+00 78 82 61
-1.777877e+00 1.030578e+01 -9.021750e+00 157 191 227
-8.760372e-01 9.410955e+00 -4.309313e+00 120 164 199
-8.760372e-01 9.410955e+00 -4.309313e+00 120 164 199
-3.202980e+00 5.408702e+00 3.309983e+00 61 92 92
-3.434858e+00 4.936438e-01 2.740824e+00 92 93 139
-6.724505e-01 2.126220e+00 2.959362e+00 95 77 55
-6.645480e-01 3.553083e+00 1.826877e+00 145 148 160
-1.753967e+00 1.203511e+01 -9.046816e+00 153 183 223
-1.723056e+00 1.220786e+01 -8.872232e+00 155 200 223
-1.708979e+00 1.228263e+01 -8.949318e+00 81 122 146
-1.708979e+00 1.228263e+01 -8.949318e+00 81 122 146
-6.259760e-01 1.336492e+00 3.046965e+00 137 137 129
1.298239e-01 4.362974e-01 2.823169e+00 50 57 59
2.104571e+00 -2.504307e+00 2.250373e+00 15 14 15
1.730504e-01 1.428227e-01 3.096592e+00 114 119 114
1.730504e-01 1.428227e-01 3.096592e+00 114 119 114
3.743865e-01 2.795956e-01 2.838947e+00 49 52 58
1.535363e+00 2.234400e+00 3.054148e+00 49 51 47
1.583281e+00 -8.752769e-01 2.549023e+00 113 110 95
-2.242929e-01 -8.890801e-01 3.056412e+00 162 160 147
1.609071e+00 -8.402660e-01 2.965694e+00 137 131 117
2.403952e-01 -2.139238e-01 3.071250e+00 46 51 53
3.804273e-01 -1.497148e-01 2.954764e+00 45 51 50
4.909314e-01 -3.152715e-02 2.792631e+00 47 50 55
4.293145e-01 3.991790e-01 2.926709e+00 50 55 58
-4.636250e-01 2.578922e+00 2.924009e+00 45 45 46
4.564331e-01 5.091064e-01 2.853054e+00 143 143 122
-1.896299e-01 5.080463e-01 2.911588e+00 157 159 146
1.192865e+00 2.140576e+00 3.214175e+00 150 152 142
2.747152e+00 -2.458652e+00 2.722047e+00 164 166 155
1.353458e+00 -6.971263e-01 2.987673e+00 60 57 51
3.647303e-01 6.650485e-01 2.848475e+00 145 147 139
3.647303e-01 6.650485e-01 2.848475e+00 145 147 139
2.190704e+00 1.663008e+00 2.940032e+00 114 120 114
2.189294e+00 1.893042e+00 2.924069e+00 122 121 117
2.189108e+00 1.937309e+00 2.933094e+00 120 122 116
-2.331994e+00 1.966127e+00 3.056761e+00 139 142 119
3.109629e+00 2.561639e+00 2.815070e+00 142 145 137
2.885553e+00 5.696337e+00 2.989509e+00 162 187 208
1.860074e+00 -9.391430e-01 2.534801e+00 65 64 57
2.621222e+00 -6.139239e-01 2.713111e+00 127 124 111
1.177667e+00 -5.574012e-01 2.766239e+00 45 42 37
3.692379e-01 1.525268e-01 2.763582e+00 39 37 35
2.055909e-01 2.954589e-01 2.830861e+00 32 32 31
2.131571e-01 3.476974e-01 2.833710e+00 146 152 139
2.131571e-01 3.476974e-01 2.833710e+00 146 152 139
5.602771e-02 3.402370e-01 2.879499e+00 161 160 148
2.516355e-01 3.911003e-01 2.861893e+00 146 148 142
2.242653e+00 1.984292e+00 2.908274e+00 23 28 31
2.242956e+00 2.030932e+00 2.934729e+00 25 27 26
1.554392e+00 2.210666e+00 3.067576e+00 24 26 24
-9.448859e-02 2.488746e+00 3.256574e+00 130 137 129
-2.942421e+00 -2.142680e+00 2.665361e+00 149 150 137
-1.853635e-01 6.683687e-01 2.670607e+00 29 28 18
-1.820346e-01 7.085601e-01 2.673227e+00 161 170 163
2.704160e-01 7.319389e-01 2.901939e+00 151 153 143
2.482199e-01 8.267460e-01 2.714124e+00 50 52 55
2.233265e+00 1.601920e+00 2.890585e+00 37 39 41
-2.078007e+00 1.767020e+00 3.049319e+00 142 148 153
-1.423575e+00 2.059923e+00 3.316661e+00 62 70 73
1.535178e+00 2.193728e+00 3.011438e+00 85 87 83
1.499508e+00 2.269225e+00 2.937950e+00 25 25 25
4.989929e-01 2.427968e+00 3.040967e+00 43 45 37
-2.045890e-01 2.389268e+00 3.235116e+00 153 156 150
2.476853e+00 2.461670e+00 3.118836e+00 97 98 90
1.487330e+00 2.505078e+00 3.084074e+00 120 121 106
2.228475e+00 2.818021e+00 3.035477e+00 51 52 51
2.284793e+00 3.144085e+00 2.831058e+00 38 47 48
1.452434e+00 3.348227e+00 2.951365e+00 26 30 31
6.565723e-01 4.830904e+00 3.022533e+00 47 74 132
6.565723e-01 4.830904e+00 3.022533e+00 47 74 132
2.565348e+00 6.695047e+00 2.684971e+00 65 94 134
-1.293556e+00 -2.753573e+00 2.339415e+00 50 53 43
-1.293556e+00 -2.753573e+00 2.339415e+00 50 53 43
4.379047e-02 -2.674039e+00 2.172852e+00 93 90 82
-4.708490e-01 -2.608232e+00 2.381146e+00 115 112 93
8.240035e-01 -2.603121e+00 2.299539e+00 41 38 34
-8.382898e-01 -2.513026e+00 2.660534e+00 109 110 92
1.626282e+00 -2.329326e+00 2.301192e+00 79 69 59
-9.519805e-01 -2.355331e+00 2.670468e+00 74 75 68
2.918086e+00 -2.105255e+00 2.327829e+00 80 79 76
-1.776877e-01 -1.402110e+00 3.004500e+00 157 157 146
-2.094086e+00 -1.074325e+00 2.963639e+00 56 59 52
1.409971e+00 -9.815392e-01 2.481645e+00 153 155 148
3.042138e-01 -3.766697e-01 3.071195e+00 123 120 105
3.381757e-01 8.645816e-03 2.965325e+00 29 31 19
6.646543e-01 2.058809e-01 2.618373e+00 37 43 45
3.719358e-01 2.317899e-01 2.809080e+00 37 41 42
3.097083e-01 1.965177e-01 2.937573e+00 39 44 46
-1.812363e+00 1.224213e+00 2.993700e+00 83 83 76
2.165923e+00 1.754176e+00 2.843500e+00 133 134 128
1.712359e+00 2.151005e+00 2.961365e+00 25 26 20
2.209768e+00 2.198040e+00 2.927708e+00 25 29 31
-1.529002e+00 2.180248e+00 3.207021e+00 68 75 68
2.062470e-01 2.321061e+00 3.291754e+00 50 54 56
3.214489e+00 2.621129e+00 2.723727e+00 101 122 137
1.745826e-01 2.476919e+00 3.099513e+00 73 72 60
3.310577e+00 2.753113e+00 2.601720e+00 89 121 152
-2.618138e-01 2.458622e+00 3.255820e+00 36 37 30
3.259152e+00 2.742369e+00 2.700999e+00 173 204 218
-1.288236e+00 3.821433e+00 3.191580e+00 68 77 69
-1.805511e+00 4.953533e+00 2.916091e+00 24 27 12
6.691856e-01 4.829610e+00 3.094474e+00 139 182 205
3.054002e+00 5.317485e+00 2.692632e+00 78 88 102
2.913993e+00 5.904533e+00 2.830997e+00 94 111 148
1.044335e+00 -2.525118e+00 2.476347e+00 138 141 127
1.285795e+00 -2.518941e+00 3.036537e+00 76 76 65
2.931335e+00 -2.047445e+00 2.383567e+00 172 168 166
2.860901e+00 -2.046008e+00 2.376879e+00 49 49 49
-1.910893e-01 -1.092411e+00 2.990415e+00 48 50 44
2.467518e+00 -1.014564e+00 2.659663e+00 40 40 31
-2.796528e+00 -1.045149e+00 3.001778e+00 194 195 190
2.626604e+00 -8.446626e-01 2.698600e+00 148 151 140
2.379164e+00 -6.996391e-01 2.670531e+00 78 80 69
1.065625e+00 8.904668e-02 3.149513e+00 120 115 100
-2.632457e-01 7.096599e-01 2.683046e+00 138 146 142
-2.200525e-01 7.164560e-01 2.691652e+00 40 48 51
1.631693e+00 9.997937e-01 2.954469e+00 90 88 73
1.660422e+00 2.236245e+00 3.008543e+00 34 37 32
-2.141290e+00 2.344895e+00 3.181845e+00 30 31 14
1.864981e+00 -1.436718e+00 1.103405e+01 49 52 44
1.722987e+00 -1.177420e+00 1.050123e+01 57 56 51
2.536169e+00 2.539331e+00 2.948657e+00 39 39 39
1.530186e+00 2.499323e+00 3.098112e+00 44 43 38
-1.311914e-01 2.537203e+00 3.096055e+00 71 73 58
-3.137631e-01 2.481061e+00 3.287979e+00 37 40 32
3.264327e+00 2.881751e+00 2.778065e+00 102 130 154
-1.231001e+00 3.698612e+00 3.238837e+00 70 75 77
-1.282194e+00 3.757774e+00 3.203896e+00 65 70 64
-2.039828e+00 4.062251e+00 3.122713e+00 136 146 154
-1.934955e+00 4.020649e+00 3.212742e+00 123 124 126
-1.311580e+00 4.609005e+00 3.226917e+00 64 68 68
-1.953487e+00 4.745535e+00 3.250975e+00 122 123 126
8.177559e-01 5.264594e+00 3.091313e+00 75 106 140
8.177559e-01 5.264594e+00 3.091313e+00 75 106 140
2.937423e+00 5.627444e+00 2.852135e+00 87 115 154
2.536990e+00 6.666756e+00 2.684511e+00 140 177 230
-2.476947e+00 -3.068434e+00 2.282066e+00 168 171 153
-1.333527e+00 -2.620112e+00 2.379529e+00 63 60 56
1.015236e+00 -2.399419e+00 2.542271e+00 115 118 109
-8.136985e-01 -2.121900e+00 2.719646e+00 170 170 169
4.467083e+00 -1.941591e+00 4.640887e+00 201 226 231
2.263725e+00 -1.027197e+00 2.698912e+00 59 59 56
-9.788778e-03 -1.055477e+00 2.930324e+00 146 148 129
2.252283e+00 -1.016162e+00 2.724864e+00 157 156 144
1.950651e+00 -8.302631e-01 2.649425e+00 73 76 69
7.810072e-01 -7.343652e-01 3.080354e+00 133 131 119
4.542464e-01 -1.252739e-01 2.727488e+00 129 131 126
2.932558e+00 5.074649e-01 2.752167e+00 152 152 145
-2.633693e-01 6.118507e-01 2.675999e+00 32 41 40
2.392795e+00 1.614480e+00 2.827552e+00 187 192 198
1.491667e+00 1.658725e+00 2.927289e+00 48 51 45
1.487317e+00 1.735826e+00 2.975937e+00 48 49 45
2.256423e+00 2.330931e+00 2.961050e+00 120 123 111
1.783225e+00 2.306269e+00 3.057124e+00 71 71 68
2.478207e+00 2.806274e+00 3.000941e+00 98 106 101
3.253766e+00 2.979309e+00 2.841895e+00 158 190 223
3.225741e+00 3.024563e+00 2.840866e+00 153 189 230
2.786683e+00 2.964034e+00 3.020766e+00 126 128 117
-1.006963e+00 2.935612e+00 3.408259e+00 72 78 74
-1.006963e+00 2.935612e+00 3.408259e+00 72 78 74
1.415343e+00 4.712049e+00 2.995907e+00 116 115 110
3.074516e+00 4.907077e+00 2.840339e+00 150 185 226
3.057450e+00 4.922136e+00 2.836084e+00 42 51 81
-1.306950e+00 4.693943e+00 3.262184e+00 70 71 71
1.140036e+00 4.897911e+00 3.325652e+00 123 123 116
1.646679e+00 5.154924e+00 3.078807e+00 78 82 59
1.688901e+00 5.111354e+00 3.206475e+00 111 113 102
8.625145e-01 5.290004e+00 3.213906e+00 156 185 202
7.731143e-01 -6.141057e-01 3.026689e+00 21 13 11
1.793136e+00 -6.649103e-01 3.132836e+00 28 20 15
-2.296026e+00 7.611308e-01 2.896958e+00 122 126 129
1.780016e+00 1.783260e+00 2.988936e+00 114 117 116
2.123461e+00 1.458024e+00 3.047568e+00 107 116 115
2.259068e+00 2.013081e+00 2.905597e+00 9 13 16
-4.122075e-01 -7.137776e-01 3.183628e+00 26 17 17
-1.343502e-01 -7.216771e-01 3.183425e+00 99 99 92
-2.193338e-01 6.091351e-01 2.629391e+00 130 134 136
2.351319e+00 1.419701e+00 3.062636e+00 109 114 108
2.351319e+00 1.419701e+00 3.062636e+00 109 114 108
2.321077e+00 4.798018e+00 3.198663e+00 67 73 67
1.692216e-01 -7.149234e-01 3.135902e+00 97 94 87
1.738900e-01 -6.717512e-01 3.043084e+00 97 94 87
1.830138e+00 -7.074865e-01 3.152304e+00 20 15 10
1.746304e+00 -6.864496e-01 3.129218e+00 29 19 17
1.581264e+00 -6.906510e-01 3.163127e+00 18 13 10
2.113033e-01 7.779103e-01 2.731363e+00 114 111 106
2.063227e+00 1.508682e+00 3.040103e+00 9 13 16
-3.432861e-01 -8.019611e-01 3.128268e+00 100 100 94
6.704501e-02 -7.566642e-01 3.033936e+00 107 108 101
-2.052657e-01 -6.257914e-01 3.118929e+00 84 76 66
1.557517e+00 -3.797401e-01 3.157989e+00 119 119 112
-3.799141e-02 5.139771e-01 2.617540e+00 7 7 8
7.452793e-01 4.360068e-01 2.699570e+00 117 113 106
1.837543e+00 3.872946e-01 2.764620e+00 101 96 92
1.837543e+00 3.872946e-01 2.764620e+00 101 96 92
-6.404276e-02 7.815422e-01 2.747208e+00 135 142 137
4.536215e-01 1.312405e+00 2.973721e+00 138 141 140
2.433311e+00 1.411112e+00 3.051719e+00 130 136 137
1.554873e+00 1.508024e+00 3.124390e+00 98 106 108
3.361703e-01 -1.024448e+00 2.924187e+00 99 100 92
-4.891600e-01 -6.740324e-01 3.192374e+00 76 67 62
-3.164584e-01 -3.714995e-01 3.168801e+00 134 136 133
2.106058e+00 -4.245135e-01 3.116994e+00 98 99 100
2.106058e+00 -4.245135e-01 3.116994e+00 98 99 100
7.493196e-01 3.064076e-01 2.694012e+00 108 108 100
-1.589117e-01 6.829794e-01 2.707025e+00 132 134 138
6.964257e-01 8.231212e-01 2.788798e+00 113 115 108
2.486120e+00 6.356398e-01 2.958292e+00 123 122 117
3.106412e-01 1.105440e+00 2.816156e+00 99 89 86
4.540829e-01 1.128308e+00 2.776574e+00 64 53 49
1.612368e+00 2.316402e+00 3.088250e+00 140 143 141
2.598803e+00 2.457527e+00 3.332762e+00 106 106 106
2.296418e+00 8.730379e-01 2.983896e+00 131 126 120
1.677327e+00 1.003363e+00 2.989243e+00 62 59 57
2.079202e+00 1.790345e+00 2.918400e+00 12 9 15
1.684082e+00 2.150099e+00 2.960546e+00 73 74 68
1.528320e+00 2.286303e+00 2.959232e+00 47 47 47
1.934332e+00 2.495119e+00 3.162974e+00 112 108 105
2.695664e+00 2.532339e+00 3.277329e+00 94 96 91
1.762275e+00 -3.294057e-01 3.159236e+00 109 106 100
1.422093e+00 9.609598e-02 2.765340e+00 102 104 99
1.422121e+00 1.856465e-01 2.771883e+00 98 100 95
9.335901e-01 3.720993e-01 2.847415e+00 101 98 87
1.919954e+00 3.323309e-01 2.860314e+00 138 144 143
1.458985e+00 4.205537e-01 2.815369e+00 84 80 69
1.444609e+00 9.306410e-01 2.975661e+00 77 81 80
2.143763e-01 1.363855e+00 3.025711e+00 109 105 102
1.492098e+00 1.800561e+00 2.924492e+00 11 12 20
1.491648e+00 1.921382e+00 2.929006e+00 5 4 10
2.220493e+00 1.949892e+00 2.934335e+00 1 1 9
5.057127e-01 2.490007e+00 3.107132e+00 133 134 138
2.268358e+00 2.513161e+00 3.164392e+00 53 51 46
7.150772e-01 4.825642e+00 3.215897e+00 217 214 227
2.020210e+00 5.197466e+00 3.267346e+00 105 108 107
-3.124845e+00 2.253136e+00 3.200073e+00 104 102 103
-1.505621e+00 -1.013324e+00 3.012788e+00 134 133 127
5.660513e-02 8.838195e-01 2.710273e+00 59 64 79
7.197709e-01 3.063605e-01 2.649086e+00 127 128 126
-1.254177e+00 -2.054651e+00 3.329096e+00 115 114 110
5.006772e-01 4.053884e-01 2.653123e+00 61 62 74
1.676284e-01 9.942002e-01 2.920805e+00 47 48 52
-1.875197e+00 1.221476e+00 2.950893e+00 137 136 130
1.588697e+00 -7.401466e-01 3.111087e+00 133 130 118
2.423518e+00 2.083642e-01 2.793665e+00 126 125 121
2.450994e+00 3.612931e-01 2.819930e+00 131 127 124
-5.012118e-01 5.290815e-01 2.665096e+00 51 55 64
2.842507e+00 -2.137273e+00 3.002945e+00 66 68 68
-2.482199e+00 -1.100115e+00 3.107725e+00 146 150 153
1.903789e+00 3.638766e+00 3.037210e+00 102 103 105
2.218993e+00 -3.473864e-01 3.134575e+00 118 118 117
2.091646e+00 -3.412822e-01 3.122215e+00 129 128 124
1.131558e-01 1.313250e+00 2.956616e+00 120 119 117
-2.812936e-01 4.017388e-01 2.652056e+00 54 56 69
1.586790e+00 -1.582734e+00 2.975815e+00 130 126 126
-2.708078e+00 6.125871e+00 3.430512e+00 116 115 119
1.100685e+00 -2.038540e+00 3.077639e+00 135 131 129
2.824078e+00 -2.105955e+00 2.943253e+00 111 105 107
-1.451841e+00 -8.480854e-01 3.010181e+00 60 57 52
-2.536285e+00 5.939557e-01 2.846147e+00 76 72 69
7.042529e-02 9.547244e-01 2.975563e+00 79 76 71
2.609984e+00 1.119397e+00 2.999661e+00 56 55 51
2.016877e+00 5.274167e+00 3.096317e+00 72 72 74
2.176612e+00 -6.837138e-01 3.171259e+00 23 21 22
1.506634e+00 -1.079693e+00 2.969402e+00 99 100 102
2.321495e+00 -1.076384e+00 2.953373e+00 101 103 109
-2.343653e+00 2.405885e+00 3.077115e+00 22 24 29
-4.822992e-01 3.273311e-01 2.666856e+00 95 95 97
-4.822992e-01 3.273311e-01 2.666856e+00 95 95 97
-2.462499e+00 7.970735e-01 2.851754e+00 68 60 57
-9.301205e-03 8.395727e-01 2.712119e+00 27 29 35
-2.977903e-01 9.372007e-01 2.775171e+00 88 77 67
-1.959875e+00 1.086266e+00 2.852813e+00 90 85 82
6.308846e-02 1.142478e+00 2.816132e+00 78 67 63
1.285985e+00 2.832287e+00 3.269313e+00 38 36 37
-4.518663e-01 3.335924e-01 2.669241e+00 88 88 89
-8.009913e-02 7.166334e-01 2.702120e+00 22 19 24
2.484783e+00 5.701486e-01 2.933928e+00 54 48 45
-1.998496e+00 8.167851e-01 2.801472e+00 40 40 40
-2.373153e+00 9.773842e-01 2.934410e+00 47 45 43
1.500281e-01 1.064725e+00 2.733828e+00 19 16 14
-6.724826e-02 1.140895e+00 2.857222e+00 37 31 28
-1.624180e+00 1.171563e+00 2.960712e+00 47 39 37
7.040569e-01 1.353964e+00 2.900757e+00 110 106 105
1.488454e+00 2.041456e+00 2.940200e+00 22 21 25
-2.178316e+00 2.429760e+00 3.089437e+00 95 95 99
1.354734e-01 2.479197e+00 3.097333e+00 102 100 101
-4.050556e-02 2.611234e+00 3.153992e+00 59 55 55
5.327725e-01 2.661606e+00 3.068154e+00 43 39 39
1.913461e+00 2.531872e+00 3.160459e+00 50 41 42
1.459584e+00 -3.672074e-01 3.132566e+00 40 36 35
4.390138e-01 4.046209e-01 2.677979e+00 31 34 39
1.969880e+00 7.690180e-01 2.873208e+00 94 93 91
-1.125911e-01 1.286942e+00 3.007899e+00 50 45 43
4.573428e-01 1.382277e+00 3.033246e+00 41 37 36
4.011160e-01 1.383499e+00 3.037782e+00 46 42 42
1.114954e+00 1.459255e+00 3.113555e+00 91 86 82
1.489438e+00 1.746410e+00 2.919961e+00 33 32 37
1.701487e+00 1.975716e+00 2.929503e+00 25 24 29
5.555269e-01 2.507207e+00 3.089419e+00 44 39 43
1.719744e-01 2.541012e+00 3.113086e+00 38 33 37
1.135183e-01 2.550431e+00 3.111864e+00 38 35 36
-7.845248e-01 -7.505961e-01 3.207633e+00 78 75 68
9.047909e-01 -7.027672e-01 3.157573e+00 22 20 19
2.927497e-01 8.130212e-01 2.721833e+00 30 33 40
1.349894e-01 1.036081e+00 2.716513e+00 23 22 23
1.461213e+00 1.167187e+00 2.988762e+00 53 45 42
1.649771e-01 1.302351e+00 2.985365e+00 103 98 95
5.570080e-01 2.419656e+00 3.085700e+00 25 24 28
1.698483e+00 2.378884e+00 3.099824e+00 91 86 83
1.458454e-01 2.582999e+00 3.132985e+00 98 93 90
1.183334e+00 2.377112e-03 3.177051e+00 57 52 48
5.994560e-01 1.338381e+00 3.000924e+00 101 96 93
1.494250e+00 2.013974e+00 2.943077e+00 57 57 60
1.494250e+00 2.013974e+00 2.943077e+00 57 57 60
1.348817e+00 2.015544e+00 2.956758e+00 59 54 51
8.859929e-01 2.391488e+00 3.077786e+00 52 46 46
2.450305e+00 2.716868e+00 3.217297e+00 35 34 36
2.837011e+00 2.706013e+00 3.394777e+00 88 87 92
2.008798e-01 -6.656867e-01 3.159125e+00 74 63 57
-5.511470e-01 4.761764e-01 2.697896e+00 80 81 81
-8.276131e-02 1.087095e+00 2.751187e+00 45 34 33
-7.475702e-02 2.383919e+00 3.080375e+00 89 89 91
1.832985e+00 2.307516e+00 3.097195e+00 65 57 55
5.334725e-01 2.507870e+00 3.108899e+00 95 95 97
3.554429e-01 2.575296e+00 3.125239e+00 104 96 94
3.156634e+00 2.496128e+00 3.106199e+00 91 95 111
1.285360e+00 2.757612e+00 3.370578e+00 73 71 73
2.829070e+00 2.680951e+00 3.383089e+00 72 71 76
-2.591380e+00 4.753359e+00 3.056166e+00 93 79 53
1.569132e+00 -1.574867e+00 2.894251e+00 128 124 106
1.527360e+00 -4.990378e-01 3.100444e+00 97 89 78
2.770058e+00 -4.482523e-01 2.955348e+00 116 109 91
4.038546e+00 -1.978171e+00 3.709682e+00 43 38 42
6.910576e-01 -9.173673e-01 3.041779e+00 65 52 41
-2.553942e+00 -6.295016e-01 3.096585e+00 24 13 3
2.020785e+00 -6.271668e-01 3.077006e+00 20 15 11
1.696833e+00 -5.045946e-01 3.086952e+00 105 98 79
4.464613e+00 -1.615601e+00 3.122243e+00 47 39 31
4.315041e+00 -1.661947e+00 3.374503e+00 37 35 32
4.829244e+00 -1.469675e+00 2.986134e+00 59 54 53
2.974748e+00 -1.158961e+00 2.951473e+00 50 52 41
-8.806194e-01 2.400534e-01 3.133209e+00 147 127 105
5.074210e+00 -1.829672e+00 2.995355e+00 65 71 57
5.200426e+00 -1.595181e+00 2.954397e+00 55 51 43
5.131752e+00 -1.541721e+00 3.019959e+00 223 212 184
-1.284841e+00 -8.599450e-01 3.049203e+00 128 111 92
1.617705e+00 -3.951050e-01 3.059378e+00 36 34 34
3.326453e+00 -2.906550e+00 2.679377e+00 18 21 25
4.520578e-01 5.727734e-01 2.666008e+00 115 104 75
1.945619e-01 8.249390e-01 2.670677e+00 115 90 62
3.149828e+00 -2.910232e+00 2.709090e+00 29 28 28
3.238252e+00 -2.889189e+00 2.706999e+00 20 25 29
3.238252e+00 -2.889189e+00 2.706999e+00 20 25 29
1.824179e-01 -1.261938e+00 3.014435e+00 34 25 22
1.343461e+00 -1.043176e+00 2.967328e+00 19 17 10
1.557768e+00 -1.060900e+00 3.077979e+00 20 16 13
2.165864e+00 -1.044728e+00 3.030329e+00 16 12 10
-9.322084e-02 -8.949069e-01 3.048742e+00 32 28 26
1.229253e+00 -8.562603e-01 3.057410e+00 121 106 83
4.753259e-01 -6.599763e-01 3.057977e+00 84 68 44
-2.658813e+00 -5.768970e-01 3.143617e+00 56 37 31
1.203742e+00 -6.400336e-01 3.140620e+00 13 10 8
1.867855e-01 -2.724252e-01 3.136878e+00 122 105 83
1.694422e+00 9.412320e-01 2.874919e+00 149 115 87
1.141175e+00 2.198069e+00 3.234438e+00 66 54 46
1.447697e+00 4.864918e+00 2.917266e+00 99 83 57
3.189184e+00 -2.894921e+00 2.775689e+00 90 91 81
1.356769e+00 -2.563847e+00 2.742105e+00 40 29 24
4.619037e+00 -1.669285e+00 3.078105e+00 69 42 82
4.816888e+00 -1.432159e+00 3.075212e+00 226 215 198
2.728182e+00 -7.717036e-01 3.073502e+00 91 91 74
-2.130879e+00 -6.729474e-01 3.061729e+00 98 93 61
-2.292791e+00 -6.527562e-01 3.077044e+00 18 13 17
2.184682e+00 -4.724999e-01 3.172021e+00 39 30 31
1.773107e+00 -4.088878e-01 3.253028e+00 37 36 32
1.629688e+00 -3.710245e-01 3.154248e+00 41 31 30
-6.982263e-02 5.461989e-01 2.409679e+00 151 125 98
-4.511413e-01 1.193615e+00 2.970093e+00 146 127 99
-3.988940e-01 2.398302e+00 3.048041e+00 151 128 93
1.173391e+00 -2.058734e+00 2.947430e+00 58 57 53
2.353306e+00 -1.589324e+00 3.083205e+00 108 110 98
1.866271e+00 -1.086475e+00 3.190582e+00 99 83 68
1.644061e+00 -1.043147e+00 3.067174e+00 98 84 70
8.724994e-02 -7.790762e-01 3.023753e+00 28 26 13
1.701084e+00 -3.838640e-01 3.218829e+00 45 34 25
1.701084e+00 -3.838640e-01 3.218829e+00 45 34 25
1.599550e+00 -3.666602e-01 3.209271e+00 125 109 78
4.784685e-01 -2.418792e-01 3.153981e+00 12 11 6
4.784685e-01 -2.418792e-01 3.153981e+00 12 11 6
5.145552e-01 -2.387091e-01 3.171019e+00 101 93 83
4.202068e-01 3.162054e-01 2.477705e+00 29 14 8
-3.256901e-01 5.014482e-01 2.589023e+00 22 12 10
-2.014900e-01 6.810524e-01 2.644781e+00 27 17 5
1.840726e+00 5.663980e-01 2.868071e+00 143 125 106
-4.085834e-01 8.955258e-01 2.667289e+00 22 15 4
-1.708413e+00 -7.036084e-01 3.072401e+00 102 82 64
1.495297e+00 -3.016731e-01 3.183694e+00 131 106 81
1.517275e+00 -2.662912e-01 3.195546e+00 97 65 44
3.336060e-01 3.294802e-01 2.521616e+00 34 27 24
6.141894e-01 8.788951e-01 2.563568e+00 62 60 45
-1.787843e-01 1.079206e+00 2.684029e+00 125 95 68
1.920476e+00 1.123331e+00 2.941662e+00 121 97 70
1.987821e+00 1.139031e+00 2.959134e+00 72 51 37
1.615703e+00 1.161251e+00 2.943255e+00 67 54 23
-2.860488e-02 1.431020e+00 2.986149e+00 48 28 16
-4.703655e-01 2.425377e+00 3.050141e+00 128 115 98
-4.306784e-01 2.577650e+00 3.090007e+00 44 28 12
7.352869e-01 -1.075458e+00 2.974751e+00 122 103 92
3.140803e-01 -2.729817e-01 3.166625e+00 35 32 17
1.884358e-01 4.336049e-01 2.534175e+00 147 127 109
1.884358e-01 4.336049e-01 2.534175e+00 147 127 109
-8.635572e-02 1.066911e+00 2.610546e+00 31 19 6
-3.765905e-01 1.177327e+00 2.962158e+00 153 118 91
-4.509291e-01 8.041084e-01 2.699876e+00 136 106 78
-2.822712e+00 -1.396555e+00 3.080803e+00 147 148 151
4.294180e-01 -1.007649e+00 3.138085e+00 126 118 105
1.401077e+00 -6.684051e-01 3.009118e+00 127 122 103
-1.759070e+00 -6.533994e-01 3.067156e+00 40 32 27
1.734739e-01 6.186064e-01 2.555013e+00 124 124 122
7.383549e-01 1.168316e+00 2.867111e+00 136 135 140
1.190505e+00 -2.281930e+00 2.958405e+00 79 68 66
2.867639e+00 -2.149835e+00 2.984296e+00 118 117 115
9.242973e-01 -1.062647e+00 3.151407e+00 22 20 25
8.620087e-01 -1.054566e+00 3.133537e+00 27 27 34
1.399624e+00 -1.004208e+00 3.345064e+00 118 114 100
6.859528e-01 1.359829e+00 2.868354e+00 139 138 134
1.177644e+00 -2.120977e+00 2.987269e+00 133 128 127
7.006505e-01 6.654216e-01 2.534528e+00 110 104 100
4.845466e-01 7.328441e-01 3.299755e+00 28 29 36
-1.508965e+00 5.268755e+00 3.244424e+00 72 72 75
8.304479e-01 1.019214e+00 2.816565e+00 88 84 83
7.920347e-01 1.064187e+00 2.815160e+00 84 79 76
7.098208e-01 1.149259e+00 2.828191e+00 92 86 87
2.359219e+00 -1.065485e+00 2.916216e+00 35 30 45
1.602466e+00 -2.741438e+00 2.906542e+00 43 43 43
2.581143e+00 -7.451751e-01 2.612188e+00 79 71 65
1.418300e+00 -9.908272e-01 2.969459e+00 153 150 140
2.763211e+00 -3.972396e-01 2.992818e+00 184 182 174
1.275213e+00 -7.424433e-01 3.072640e+00 101 96 93
6.003030e-01 -1.394321e+00 2.980412e+00 181 178 172
1.542895e+00 -7.875126e-01 3.001772e+00 98 94 93
2.907403e+00 -2.256434e+00 2.889295e+00 125 125 123
2.416687e+00 -1.050000e+00 2.932394e+00 111 112 105
1.264956e+00 -2.304313e+00 2.920450e+00 139 144 140
2.170771e+00 3.415980e+00 2.657039e+00 20 27 33
-1.592863e+00 4.733009e+00 2.530713e+00 17 20 25
-2.243707e+00 -7.366942e-01 2.955031e+00 62 63 46
-1.903945e-01 2.251949e+00 1.433079e+00 21 24 28
-2.484519e+00 3.774536e+00 2.962583e+00 139 148 133
-2.484787e+00 3.908544e+00 2.959968e+00 149 154 139
1.457418e+00 4.260905e+00 3.038941e+00 19 20 25
-2.226069e+00 6.029402e-01 2.589712e+00 42 43 38
2.392147e+00 9.725600e-01 3.048365e+00 141 144 130
-1.350679e+00 -9.964061e-01 2.939766e+00 139 139 128
-1.890955e-01 -3.728061e-01 3.158158e+00 154 155 140
-1.823049e+00 8.675659e-01 2.796379e+00 67 69 58
-1.679327e+00 9.740404e-01 2.843976e+00 60 60 53
-2.132235e-01 1.046829e+00 2.668100e+00 120 116 96
-2.132235e-01 1.046829e+00 2.668100e+00 120 116 96
-1.755656e+00 1.081445e+00 2.837281e+00 112 113 100
4.901159e-01 2.450944e+00 3.135661e+00 134 139 138
6.927494e-01 2.563800e+00 3.021673e+00 42 45 42
-4.385934e-02 2.572947e+00 3.082952e+00 148 152 145
-7.772152e-01 5.748339e+00 2.862623e+00 82 105 163
-2.979900e+00 -3.092103e+00 2.457834e+00 35 46 52
-3.816279e+00 -2.767324e+00 2.179923e+00 164 154 149
-3.694840e+00 -2.747830e+00 2.292499e+00 169 156 153
-2.815047e+00 -1.079132e+00 2.817953e+00 58 64 69
1.559507e+00 -1.088374e+00 3.017274e+00 136 140 128
1.448399e+00 -1.073141e+00 2.926650e+00 22 23 16
-4.447085e-02 -1.001732e+00 2.997863e+00 102 99 90
4.880307e-01 -3.662202e-01 3.083417e+00 86 83 70
-1.870828e+00 1.247919e+00 2.938180e+00 85 83 70
3.011650e+00 2.316916e+00 3.075683e+00 142 143 136
2.140536e+00 2.404616e+00 2.935102e+00 76 80 77
-4.996276e-01 2.458329e+00 3.133701e+00 136 138 126
-1.515002e+00 2.606301e+00 3.149192e+00 127 129 116
6.276162e-01 2.637236e+00 3.057140e+00 67 67 56
1.870001e-02 2.638458e+00 3.107885e+00 80 83 67
9.236854e-01 -2.167894e+00 2.802149e+00 68 65 54
-2.081743e+00 -8.475822e-01 3.021677e+00 131 127 106
-1.362537e-01 -3.869473e-01 3.113803e+00 154 154 148
1.360893e+00 4.275428e-01 3.096069e+00 94 89 71
2.439661e-01 1.346290e+00 2.915881e+00 80 80 68
1.703545e+00 1.944828e+00 2.768856e+00 55 56 52
2.156956e+00 1.777349e+00 3.151093e+00 143 146 136
-1.746386e+00 2.443662e+00 3.165470e+00 148 149 139
1.827921e+00 2.523411e+00 2.973073e+00 82 82 64
2.678950e-03 2.567237e+00 3.073070e+00 46 48 44
-2.285318e+00 3.087026e+00 2.985418e+00 54 60 58
1.193964e+00 5.074983e+00 3.089001e+00 123 128 114
-7.680552e-01 5.112314e+00 2.152209e+00 95 122 183
-3.279253e+00 5.521858e+00 3.122812e+00 102 139 160
-2.713966e+00 6.168662e+00 3.247739e+00 81 86 82
-4.844369e-01 4.291488e-01 2.653943e+00 15 24 33
-4.377723e-01 -1.109436e+00 3.014124e+00 110 114 117
7.555996e-01 -1.651484e+00 2.979725e+00 37 34 38
-2.017588e+00 -8.929302e-01 2.962858e+00 40 38 42
2.003660e+00 -4.621050e-01 3.092232e+00 30 33 40
-6.104410e-01 1.149693e+00 2.932114e+00 118 118 116
-2.458320e+00 5.075961e+00 3.065707e+00 87 97 97
-1.810792e+00 -8.364580e-01 2.969354e+00 43 44 46
-2.015653e+00 9.403675e-01 2.806724e+00 99 106 104
-8.926787e-01 1.307823e+00 3.219261e+00 147 153 158
2.084267e+00 3.727847e+00 2.868053e+00 39 54 63
-2.422095e+00 -6.245833e-01 3.083588e+00 68 69 61
-7.996005e-01 -3.294080e-01 3.126249e+00 115 117 112
2.156147e-03 7.885374e-01 2.658980e+00 8 5 3
2.297100e+00 5.130070e-01 2.777744e+00 86 86 76
-2.021228e+00 1.075937e+00 2.836538e+00 94 94 89
-1.333046e+00 1.418003e+00 2.978110e+00 65 66 63
-1.418621e+00 1.740403e+00 2.931290e+00 112 118 117
-1.493407e+00 1.733461e+00 2.951775e+00 131 138 141
-2.090561e+00 4.833363e+00 2.997237e+00 116 116 115
7.101917e-02 -1.657308e+00 2.965915e+00 71 73 71
-3.691254e-01 -1.498742e+00 2.819626e+00 32 32 30
-8.395553e-01 -8.565879e-01 3.063540e+00 98 102 101
-1.483080e+00 -5.894208e-01 3.007993e+00 91 88 82
6.838579e-02 -1.955360e+00 3.010050e+00 62 63 57
1.215851e-01 -1.659085e+00 2.996155e+00 17 15 7
-1.756612e+00 -1.122331e+00 3.006703e+00 28 31 46
-1.871740e+00 2.628590e+00 3.147588e+00 53 54 48
-1.474473e+00 5.896846e+00 3.467495e+00 60 79 104
-1.352140e+00 2.574212e+00 3.173182e+00 118 119 114
2.731284e+00 -1.088234e+00 3.026461e+00 123 128 133
1.850386e-01 -1.270635e+00 3.016123e+00 70 67 62
2.607035e-02 -1.021313e+00 2.941544e+00 55 54 59
6.270433e-01 -6.449974e-01 3.029704e+00 51 47 46
-1.354388e+00 -6.440713e-01 3.030934e+00 36 32 31
-2.349724e+00 -6.123981e-01 3.020109e+00 39 37 38
-1.501098e+00 -4.037585e-01 2.988423e+00 45 60 67
-1.464677e+00 -2.810619e-01 2.990563e+00 126 126 118
-1.969609e+00 -3.191824e-01 3.096989e+00 145 145 143
2.470254e+00 2.318492e+00 3.100400e+00 117 117 118
-1.420272e+00 -7.349569e-01 2.957817e+00 129 126 121
-1.502779e+00 -2.929859e-01 2.983679e+00 55 57 59
-1.502779e+00 -2.929859e-01 2.983679e+00 55 57 59
-1.024811e+00 2.893412e+00 3.321491e+00 88 87 92
-1.535066e+00 -7.051509e-01 2.996229e+00 60 58 59
-1.753753e+00 -6.842092e-01 2.952610e+00 61 59 63
-2.049941e+00 -6.122043e-01 3.015360e+00 123 119 116
-1.004848e+00 1.243732e-01 3.150423e+00 138 136 137
2.072668e+00 2.484191e+00 3.092454e+00 141 138 133
-1.526024e+00 2.465339e+00 3.117151e+00 149 148 144
2.524163e-01 2.534149e+00 3.108173e+00 90 90 92
2.449818e+00 5.108719e+00 3.102935e+00 89 88 93
-1.813704e+00 -1.574964e+00 3.021454e+00 62 58 51
-1.921516e-01 6.190571e-01 2.630771e+00 63 64 69
-1.896627e+00 8.714962e-01 2.820098e+00 64 63 61
2.190995e+00 2.484101e+00 3.090572e+00 78 74 74
-3.098185e+00 5.937131e+00 3.472931e+00 138 126 162
2.401989e-02 -2.585247e+00 2.928471e+00 117 118 112
-3.557416e-01 -2.371114e+00 2.956570e+00 49 45 41
5.087911e-01 -2.401661e+00 2.919968e+00 87 87 87
-2.126858e-02 -2.226183e+00 2.896131e+00 80 79 82
1.854117e+00 -1.482789e+00 3.576790e+00 193 176 152
-2.070411e+00 -1.256240e+00 2.988576e+00 187 174 155
