ply
format ascii 1.0
element face 0
property list uchar int vertex_indices
element vertex 952
property float x
property float y
property float z
property uchar diffuse_red
property uchar diffuse_green
property uchar diffuse_blue
end_header
-1.858734e+00 -4.241572e-01 2.970355e+00 96 105 113
2.383822e+00 8.317201e-01 3.013767e+00 135 139 142
7.722513e-01 1.531385e+00 2.940428e+00 139 143 144
-1.229376e+00 2.470239e+00 3.093167e+00 14 14 20
2.216610e+00 3.889880e+00 2.869698e+00 2 2 14
2.109449e+00 4.992277e+00 3.120313e+00 62 62 61
1.248274e+00 5.510253e+00 3.197411e+00 73 83 84
7.587778e-01 -1.680157e+00 2.985136e+00 99 92 80
5.324899e-01 -1.411957e+00 3.061745e+00 34 30 30
-9.032513e-01 -5.938483e-01 3.005856e+00 18 13 10
-5.932105e-01 -6.098694e-01 3.053418e+00 25 16 15
-2.711169e-01 -5.948470e-01 2.995105e+00 19 14 11
-6.428138e-02 -6.121000e-01 3.044832e+00 23 21 16
-2.519228e+00 7.466763e-01 3.242472e+00 128 138 142
-2.623889e+00 8.560342e-01 3.162044e+00 35 39 45
-2.562647e+00 7.904450e-01 3.275117e+00 35 39 45
2.391764e+00 1.041324e+00 3.044328e+00 128 122 115
-8.724355e-01 2.172600e+00 3.309067e+00 104 102 105
-2.462417e+00 2.662042e+00 3.301350e+00 33 36 44
-2.536938e+00 2.801648e+00 3.374976e+00 124 133 138
2.254125e+00 2.742356e+00 3.162217e+00 78 77 74
2.524331e+00 2.562312e+00 3.384261e+00 90 100 105
2.033559e+00 3.673544e+00 2.788295e+00 2 1 8
-2.418643e+00 4.633115e+00 3.068517e+00 93 104 105
-1.367303e+00 4.817454e+00 3.158306e+00 94 99 95
2.231637e+00 4.659327e+00 3.025661e+00 93 104 98
-1.131389e+00 4.867718e+00 3.309252e+00 47 48 53
-2.701236e+00 6.405160e+00 3.190626e+00 115 136 151
5.174913e-01 -9.948297e-01 3.016120e+00 1 1 1
-1.286751e+00 -7.385095e-01 3.031350e+00 114 115 110
-2.046567e+00 -6.553356e-01 3.082098e+00 89 91 86
-2.318371e+00 -6.154970e-01 3.036633e+00 12 12 14
-2.119778e+00 -6.056876e-01 2.998833e+00 9 7 14
1.247843e+00 -8.362364e-01 3.020700e+00 44 43 39
-1.933916e+00 -5.959980e-01 2.977287e+00 7 5 9
-4.456512e-01 -7.316013e-01 3.064244e+00 106 110 105
-1.045285e+00 -6.570043e-01 3.081573e+00 96 94 87
1.625665e+00 -7.015241e-01 3.037055e+00 21 16 12
2.018102e+00 -7.107609e-01 3.061897e+00 17 17 13
5.737155e-01 -5.965186e-01 3.054353e+00 22 17 13
9.096890e-01 -6.234071e-01 3.092005e+00 23 15 13
9.611428e-01 -6.118751e-01 3.082063e+00 19 11 12
1.549550e+00 -6.461252e-01 3.149800e+00 18 13 10
1.168850e+00 -6.155485e-01 3.147556e+00 24 16 12
2.100728e+00 -6.338597e-01 3.103930e+00 23 16 12
-1.530013e+00 -2.635057e-01 3.012959e+00 62 61 59
-1.786408e+00 -1.882903e-01 2.971134e+00 98 101 95
-2.542735e+00 3.335531e-01 3.088081e+00 122 132 141
-2.321599e+00 1.290567e+00 2.938736e+00 59 63 64
-5.810381e-01 1.124152e+00 2.942141e+00 118 118 116
2.390054e+00 1.181175e+00 3.048311e+00 130 128 119
2.390054e+00 1.181175e+00 3.048311e+00 130 128 119
2.183432e+00 1.568739e+00 2.926925e+00 29 28 33
2.184183e+00 1.570912e+00 2.924666e+00 29 28 33
2.529136e+00 1.474512e+00 3.037453e+00 105 109 110
-2.569286e+00 2.256576e+00 3.134772e+00 58 65 65
1.906418e+00 2.929896e+00 3.080564e+00 97 102 107
-2.545539e+00 4.974298e+00 3.232280e+00 101 113 113
1.656273e+00 4.651592e+00 3.060499e+00 92 94 91
4.657288e-01 -1.801828e+00 2.830845e+00 34 33 29
8.056891e-01 -1.636820e+00 3.063064e+00 111 112 109
4.598735e-01 -1.304094e+00 3.020148e+00 123 131 131
-1.590154e-01 -9.809581e-01 2.970455e+00 7 8 9
-7.645899e-02 -1.009013e+00 3.059136e+00 14 14 11
-1.219677e+00 -8.934992e-01 2.966950e+00 87 88 82
3.171536e-01 -9.725637e-01 2.934170e+00 3 3 5
9.359403e-01 -9.843560e-01 2.987742e+00 95 96 90
1.610467e+00 -1.035648e+00 3.074780e+00 33 32 31
-4.794516e-01 -8.892825e-01 3.059877e+00 18 17 14
-1.232877e-01 -8.826494e-01 3.003143e+00 103 100 91
-9.442682e-01 -7.328465e-01 3.091244e+00 98 98 93
-2.188562e+00 -6.291639e-01 3.097683e+00 9 6 17
-1.990240e+00 -6.335891e-01 3.085068e+00 15 10 18
-2.003091e+00 -6.199648e-01 3.053855e+00 15 10 18
1.406292e+00 -7.699249e-01 3.076826e+00 111 118 123
-8.245762e-01 -6.113821e-01 3.143665e+00 25 20 16
-8.245762e-01 -6.113821e-01 3.143665e+00 25 20 16
1.459037e+00 -7.586192e-01 3.116843e+00 95 95 89
-1.846927e+00 -2.900999e-01 3.040201e+00 112 112 100
-1.913239e+00 -2.999119e-01 3.063453e+00 116 117 108
-2.493052e+00 1.798199e-01 3.128535e+00 16 19 35
-2.469719e+00 1.535461e-01 3.165685e+00 16 19 35
2.472362e-01 5.110626e-01 2.664709e+00 130 133 136
2.450883e+00 2.969872e-01 2.885013e+00 126 128 130
-2.292403e+00 8.773617e-01 2.888243e+00 68 64 63
-2.012082e+00 9.913735e-01 2.867020e+00 62 64 61
-8.235798e-01 7.259865e-01 3.163674e+00 149 154 158
-1.979725e+00 1.035439e+00 2.892439e+00 48 52 48
-1.550971e+00 1.017641e+00 2.937861e+00 124 124 116
2.372860e+00 7.035261e-01 2.916655e+00 54 51 42
2.331811e+00 7.730999e-01 2.907561e+00 65 63 53
-2.131484e+00 2.000772e+00 2.959982e+00 104 112 109
-2.284780e+00 2.020139e+00 2.978284e+00 114 118 115
2.546014e+00 1.365682e+00 3.251696e+00 125 133 136
-6.455526e-01 2.320369e+00 3.070668e+00 81 77 81
2.364496e+00 2.305098e+00 3.010530e+00 113 117 116
2.726139e+00 2.175514e+00 3.277764e+00 63 66 62
-1.989497e+00 3.532402e+00 2.950735e+00 107 113 115
-8.840758e-01 5.455966e+00 1.511558e+00 248 251 248
-2.780135e+00 5.482214e+00 3.282552e+00 118 122 127
1.899564e+00 4.811245e+00 3.219350e+00 123 132 131
1.496092e+00 5.345442e+00 3.310937e+00 55 56 58
-2.174292e+00 -9.793678e-01 2.788201e+00 83 88 90
-1.191358e+00 -9.869156e-01 2.953701e+00 4 4 3
-2.140167e-01 -1.037093e+00 3.037939e+00 25 17 19
7.674477e-01 -1.030206e+00 3.022294e+00 45 41 38
1.217958e+00 -1.038338e+00 3.062081e+00 123 129 127
2.111341e+00 -1.066965e+00 3.104439e+00 98 107 105
4.331323e-02 -7.462041e-01 2.998683e+00 26 25 21
4.331323e-02 -7.462041e-01 2.998683e+00 26 25 21
8.322457e-01 -7.597275e-01 3.035149e+00 34 29 24
2.440728e-01 -7.277739e-01 3.053744e+00 39 35 32
2.440774e-01 -7.228461e-01 3.038511e+00 39 35 32
4.446189e-01 -7.091018e-01 3.006434e+00 37 36 32
6.700251e-01 -7.433384e-01 3.101689e+00 101 97 88
-2.437841e+00 -2.849798e-01 3.048142e+00 75 80 74
-2.437841e+00 -2.849798e-01 3.048142e+00 75 80 74
-1.734235e+00 -2.984172e-01 3.037666e+00 32 23 25
-1.734235e+00 -2.984172e-01 3.037666e+00 32 23 25
-1.628961e+00 -2.817890e-01 3.035930e+00 89 90 80
-1.554542e+00 -2.862651e-01 3.042300e+00 93 94 88
-1.332109e+00 -2.938939e-01 3.054327e+00 97 96 91
-1.043641e+00 -2.925520e-01 3.039503e+00 118 120 114
-9.218407e-01 -3.001956e-01 3.122620e+00 113 114 106
1.060278e+00 -2.913241e-01 3.116010e+00 31 30 28
1.890247e+00 -3.441080e-01 3.125048e+00 55 51 46
-4.562250e-01 2.748786e-01 2.632225e+00 13 16 24
1.763116e+00 2.386558e-01 2.751727e+00 106 102 98
4.925689e-01 4.496298e-01 2.671116e+00 123 123 118
-2.174836e+00 6.720413e-01 2.713664e+00 87 84 80
-2.461165e-01 5.666244e-01 2.670975e+00 13 11 15
-1.935487e+00 8.199391e-01 2.784963e+00 42 46 50
-1.817673e+00 8.466391e-01 2.830862e+00 37 34 35
2.162885e+00 5.040838e-01 2.839859e+00 90 90 81
-1.678355e+00 1.021472e+00 2.793130e+00 103 104 100
-1.606463e+00 9.984309e-01 2.834812e+00 120 116 105
4.925211e-01 9.701586e-01 2.685249e+00 10 5 9
-2.419092e+00 1.157367e+00 2.904584e+00 36 41 46
-2.073345e+00 1.103771e+00 2.969622e+00 46 51 52
-1.984720e+00 1.163347e+00 2.963811e+00 54 58 56
2.069121e+00 8.853929e-01 2.865309e+00 111 110 108
2.173012e+00 9.478155e-01 3.010019e+00 49 49 44
-2.274275e+00 1.811288e+00 2.867503e+00 3 3 16
-2.294910e+00 1.798456e+00 2.907521e+00 103 112 108
-2.221724e+00 2.519652e+00 3.107677e+00 106 115 114
2.417931e+00 2.251594e+00 3.118804e+00 86 86 86
-2.049802e+00 2.789745e+00 3.243961e+00 27 35 47
-2.049802e+00 2.789745e+00 3.243961e+00 27 35 47
-1.911622e+00 2.820381e+00 3.211666e+00 30 35 46
1.558425e+00 2.531948e+00 3.118344e+00 60 57 56
-2.240397e+00 3.019340e+00 3.143161e+00 22 35 43
2.952104e+00 2.643888e+00 3.120343e+00 70 77 89
2.435935e+00 2.651927e+00 3.187110e+00 19 22 26
-2.003902e+00 3.790549e+00 2.957234e+00 116 120 123
-2.006021e+00 4.052046e+00 2.986715e+00 110 115 118
2.961260e+00 3.513112e+00 3.035954e+00 253 253 253
-1.405785e+00 4.799513e+00 3.084548e+00 80 84 87
-3.245086e+00 5.276356e+00 3.103159e+00 113 148 149
-2.598323e+00 5.002136e+00 3.275846e+00 28 38 47
2.285712e+00 4.614864e+00 3.001059e+00 40 45 41
2.879136e+00 4.595437e+00 3.095581e+00 37 40 47
1.823675e+00 4.652585e+00 3.206983e+00 55 55 57
-1.823522e+00 5.494427e+00 3.311778e+00 46 53 59
1.494175e+00 5.225841e+00 3.258518e+00 44 50 48
2.085034e+00 5.139811e+00 3.269304e+00 42 49 45
2.098897e+00 5.232718e+00 3.207351e+00 42 49 45
2.184307e+00 5.129977e+00 3.274527e+00 38 42 45
2.184307e+00 5.129977e+00 3.274527e+00 38 42 45
2.200297e+00 5.288594e+00 3.297044e+00 44 46 41
2.200297e+00 5.288594e+00 3.297044e+00 44 46 41
1.927508e+00 -1.394041e+00 3.166131e+00 34 35 41
-2.273657e+00 -1.104528e+00 3.078033e+00 26 33 51
-2.285380e+00 -1.064094e+00 3.028960e+00 91 98 103
-1.485563e+00 -1.089152e+00 3.030935e+00 11 15 27
-1.489311e+00 -1.043710e+00 3.023554e+00 18 21 27
-6.051190e-01 -1.049141e+00 3.015760e+00 110 121 116
1.313612e-01 -1.116469e+00 3.088052e+00 33 39 42
-5.657992e-02 -1.040769e+00 3.001642e+00 113 117 120
5.520287e-01 -1.049284e+00 3.011224e+00 101 106 104
2.169656e-01 -1.021224e+00 3.031966e+00 81 77 74
2.189435e-01 -1.020005e+00 3.031042e+00 81 77 74
-1.772955e+00 -8.151735e-01 3.025542e+00 17 16 21
2.523107e-01 -7.593766e-01 3.048488e+00 30 24 21
-1.686386e+00 -5.558787e-01 3.025669e+00 86 82 73
1.246409e+00 -6.999363e-01 3.174600e+00 101 95 85
-1.537079e+00 -3.346407e-01 3.050780e+00 29 28 33
-9.686722e-01 -3.052756e-01 3.078620e+00 115 116 111
-9.686722e-01 -3.052756e-01 3.078620e+00 115 116 111
-2.521980e+00 3.957405e-01 2.886395e+00 30 34 43
-2.460317e+00 5.196398e-01 2.846333e+00 51 54 63
-2.166867e+00 6.829118e-01 2.757689e+00 51 50 46
2.398374e+00 3.430879e-01 2.823032e+00 39 36 29
2.395392e+00 3.391575e-01 2.832243e+00 39 36 29
-1.962135e+00 8.889527e-01 2.814493e+00 32 32 36
-1.830577e+00 8.942918e-01 2.816569e+00 103 112 113
-2.077051e+00 1.057367e+00 2.897607e+00 56 57 52
-1.604300e+00 1.088446e+00 2.877713e+00 117 115 110
2.402879e+00 7.032329e-01 2.946423e+00 120 119 114
-1.973816e+00 1.138849e+00 2.953237e+00 118 117 113
-2.013825e+00 1.133500e+00 2.974067e+00 49 54 51
-1.710182e+00 1.202509e+00 2.974984e+00 43 43 45
2.246693e+00 8.847894e-01 3.009521e+00 61 61 56
-2.160840e+00 1.449215e+00 3.023412e+00 50 50 50
-1.733109e+00 1.446572e+00 3.022808e+00 51 54 54
-6.548344e-01 1.444473e+00 2.982550e+00 45 44 45
-2.321792e+00 2.378987e+00 3.052390e+00 19 30 29
-2.530160e+00 2.451807e+00 3.021331e+00 78 86 88
-2.784790e+00 2.363845e+00 3.227877e+00 115 118 123
-2.038194e+00 2.641211e+00 3.174336e+00 56 56 56
2.181857e+00 2.332821e+00 3.049400e+00 28 29 23
2.498218e+00 2.237828e+00 3.145828e+00 99 100 98
2.029387e+00 2.433504e+00 3.053970e+00 39 41 36
1.622431e+00 2.508289e+00 3.145138e+00 54 55 49
2.591946e+00 2.423678e+00 3.354693e+00 35 40 40
-2.406010e+00 4.105216e+00 2.974180e+00 85 93 96
2.906100e+00 3.825779e+00 3.132294e+00 79 100 98
-1.876101e+00 4.790439e+00 3.186216e+00 112 113 115
2.254182e+00 4.528022e+00 3.002014e+00 122 127 127
2.001003e+00 4.694051e+00 2.960593e+00 70 70 75
-2.401647e+00 5.468306e+00 3.242166e+00 115 118 124
-2.064716e+00 5.338837e+00 3.327491e+00 121 129 131
2.480283e+00 4.852442e+00 3.220017e+00 15 23 25
-1.931032e+00 5.502361e+00 3.318376e+00 48 56 61
1.675152e+00 5.065139e+00 3.236344e+00 128 132 135
2.284393e+00 5.140191e+00 3.256219e+00 43 48 49
-1.804963e+00 -1.583757e+00 2.897083e+00 33 38 42
-1.760695e+00 -1.564471e+00 2.889326e+00 26 25 31
2.505972e-01 -1.632248e+00 2.806780e+00 67 67 60
8.175185e-01 -1.696011e+00 3.066317e+00 34 34 37
8.314898e-01 -1.684103e+00 3.053100e+00 114 118 117
4.363598e-01 -1.598605e+00 2.906432e+00 92 90 78
3.121049e-01 -1.579146e+00 2.858265e+00 27 22 20
2.991911e-01 -1.522738e+00 2.910626e+00 80 76 68
-1.725526e+00 -1.278425e+00 3.020462e+00 37 36 42
-1.725526e+00 -1.278425e+00 3.020462e+00 37 36 42
-1.733815e+00 -1.219255e+00 3.028350e+00 108 118 109
-2.089071e+00 -1.093022e+00 3.049532e+00 29 35 47
-2.205476e+00 -1.067012e+00 3.060509e+00 102 107 107
-2.094692e+00 -1.061082e+00 3.043772e+00 29 36 42
-1.418832e+00 -1.054814e+00 3.001930e+00 113 115 110
-1.174282e+00 -1.041247e+00 3.021192e+00 109 115 115
-8.025111e-01 -1.050529e+00 3.075121e+00 104 112 114
-5.335143e-01 -1.044433e+00 3.074258e+00 117 127 129
-9.648707e-01 -1.008873e+00 3.066244e+00 40 40 38
-2.536001e-01 -1.034940e+00 3.041391e+00 10 9 8
3.191505e-01 -1.029602e+00 3.002916e+00 13 15 11
1.002359e+00 -1.067327e+00 3.083995e+00 91 92 96
1.699055e+00 -1.099571e+00 3.114244e+00 24 25 28
1.997097e+00 -1.086631e+00 3.093557e+00 40 46 52
-2.002027e+00 -7.940515e-01 3.074426e+00 44 49 60
1.928569e+00 -1.062118e+00 3.101594e+00 119 122 124
-1.901928e+00 -7.068853e-01 3.041528e+00 69 69 67
4.310136e-01 -8.121234e-01 3.051602e+00 29 27 25
-2.240197e+00 -5.827265e-01 3.104751e+00 70 72 67
-1.262730e+00 -6.346387e-01 3.077353e+00 91 92 83
9.582087e-01 -6.500171e-01 3.119155e+00 7 4 2
1.738559e+00 -6.663442e-01 3.162406e+00 72 72 67
-1.056133e+00 -2.493742e-01 2.756243e+00 63 67 70
-2.319637e+00 -2.886473e-01 3.095272e+00 77 76 73
1.684960e+00 -5.802640e-01 3.171717e+00 99 99 97
-1.704266e+00 3.593806e-01 2.777058e+00 49 51 50
-1.728425e+00 4.539894e-01 2.749938e+00 48 46 40
4.394153e-02 4.485465e-01 2.656133e+00 14 15 19
-7.726785e-01 2.810434e-01 3.125320e+00 74 81 83
1.749196e+00 3.761692e-01 2.754293e+00 94 87 77
1.958609e+00 3.812444e-01 2.851658e+00 36 34 27
2.178423e+00 5.436966e-01 2.835914e+00 47 44 34
2.058481e+00 6.353003e-01 2.871041e+00 82 86 87
-1.942617e+00 1.097245e+00 2.942572e+00 61 56 53
-2.508231e+00 1.159599e+00 2.969904e+00 96 98 102
-1.810523e+00 1.134649e+00 2.951643e+00 51 48 47
-1.643527e+00 1.126027e+00 2.952190e+00 64 60 57
-2.043578e+00 1.153515e+00 2.975424e+00 137 141 144
-1.834527e+00 1.213345e+00 2.961396e+00 51 53 49
2.173137e+00 8.792599e-01 3.007138e+00 77 68 59
-2.477893e+00 1.492329e+00 3.006071e+00 75 77 79
-1.930231e+00 1.432946e+00 3.038159e+00 52 54 50
-1.771763e+00 1.472728e+00 3.017537e+00 113 114 112
2.561207e+00 1.045068e+00 3.004247e+00 120 127 124
2.204563e+00 1.521533e+00 2.981257e+00 121 127 126
2.510510e+00 1.501497e+00 2.992708e+00 35 44 43
2.039996e+00 1.690049e+00 2.872742e+00 16 14 22
-2.360771e+00 2.267040e+00 3.011283e+00 42 49 50
2.034844e+00 1.937661e+00 2.919359e+00 10 9 16
-2.121396e+00 2.366255e+00 3.060093e+00 13 17 18
-1.652766e+00 2.403885e+00 3.129359e+00 122 128 123
-8.726657e-01 2.174182e+00 3.298860e+00 108 105 107
-1.641574e+00 2.484649e+00 3.135819e+00 82 83 80
-2.186778e+00 2.594845e+00 3.092815e+00 86 88 83
2.881439e+00 2.658391e+00 3.377452e+00 249 253 254
2.660063e+00 2.688908e+00 3.379804e+00 22 32 34
2.603867e+00 2.665246e+00 3.408581e+00 31 43 41
-2.531838e+00 4.884762e+00 3.126971e+00 46 51 55
-3.220469e+00 5.059539e+00 3.217186e+00 221 240 242
1.596354e+00 4.865073e+00 3.006617e+00 68 69 65
2.903924e+00 4.425286e+00 3.167899e+00 90 104 102
-2.148540e+00 5.483505e+00 3.279994e+00 103 116 117
1.108340e+00 4.704311e+00 3.464290e+00 59 65 63
1.997911e+00 5.045898e+00 3.237160e+00 112 117 120
-1.526897e+00 5.606269e+00 3.321934e+00 99 101 105
-2.307741e+00 5.799461e+00 3.306621e+00 87 92 97
2.423466e+00 5.208631e+00 3.308689e+00 48 52 54
3.094059e+00 3.106621e+00 3.723828e+00 253 254 255
-1.804259e+00 1.970983e+00 2.959512e+00 156 157 159
-2.956337e+00 7.355843e-01 3.107422e+00 144 148 151
-3.161636e+00 2.834944e+00 2.951481e+00 119 115 112
2.914022e+00 5.148379e+00 2.821841e+00 121 121 121
2.709790e+00 -9.588441e-02 3.108440e+00 152 156 159
-6.069874e-01 1.358669e+00 3.017944e+00 118 117 113
-2.145370e+00 1.838201e+00 3.014130e+00 128 129 133
2.118788e+00 3.230668e+00 2.875783e+00 42 46 55
6.691371e-01 4.644491e+00 1.938665e+00 128 126 131
-2.559258e+00 5.896054e-01 3.299833e+00 154 159 162
1.305079e+00 5.616914e+00 3.444980e+00 255 255 255
-1.599647e+00 1.283725e+00 2.959635e+00 153 155 154
-1.599647e+00 1.283725e+00 2.959635e+00 153 155 154
-1.974170e+00 2.109348e+00 3.003673e+00 140 140 140
2.662282e+00 -4.636320e-01 3.142610e+00 143 144 148
-2.645093e+00 1.387533e+00 3.287915e+00 99 95 92
1.900307e+00 -4.643604e-01 3.069849e+00 155 159 163
-2.474439e+00 3.466378e-01 3.345557e+00 146 153 156
1.566911e+00 1.480501e+00 2.998919e+00 135 140 143
-2.469076e+00 1.171872e+00 3.426995e+00 154 158 159
3.143131e+00 2.357379e+00 3.017146e+00 246 255 253
-2.086596e+00 2.278185e+00 3.030646e+00 32 31 36
-1.669300e+00 3.434329e+00 2.859682e+00 28 27 33
-1.670776e+00 4.099087e+00 2.919277e+00 32 32 42
-1.867043e+00 5.303305e+00 3.298994e+00 155 159 160
-2.703626e+00 -2.185764e+00 3.103280e+00 64 64 66
-2.232648e+00 -9.576054e-01 3.051707e+00 118 118 118
2.893657e+00 -5.758915e-01 3.150487e+00 104 100 96
-2.452453e+00 4.544897e-02 3.307796e+00 150 153 158
3.681781e-01 6.347670e-01 2.651941e+00 64 66 78
1.168840e+00 4.442182e-01 3.116761e+00 112 113 117
-3.467706e-01 8.322458e-01 2.744162e+00 55 61 73
2.347008e+00 1.231019e+00 2.979524e+00 154 154 147
-1.520866e+00 1.618170e+00 2.958307e+00 135 138 143
-1.957006e+00 2.419985e+00 3.179417e+00 46 45 41
-1.509818e+00 2.546811e+00 3.134482e+00 135 134 129
-2.280376e+00 5.237851e+00 3.300277e+00 157 156 154
9.767277e-01 -2.616865e+00 2.877970e+00 114 114 114
1.377955e+00 -2.568835e+00 3.008398e+00 61 62 56
-1.595422e-01 -2.482811e+00 2.610895e+00 103 105 100
2.722135e+00 -2.091869e+00 3.057791e+00 89 89 89
-1.339404e+00 -1.051795e+00 3.010939e+00 126 131 137
-1.731720e+00 -1.055732e+00 3.040719e+00 133 136 148
1.568581e+00 -7.476246e-01 3.068481e+00 129 125 124
-2.411743e+00 -5.650385e-01 2.653342e+00 62 62 64
-2.454614e+00 -7.352363e-01 3.224040e+00 47 47 49
-2.534281e+00 -7.577457e-01 3.304972e+00 53 53 51
-2.484968e+00 -6.837204e-01 3.306476e+00 131 131 131
-2.636977e+00 -6.983766e-01 3.375393e+00 39 37 38
-2.261635e+00 1.176992e+00 3.018112e+00 146 146 144
2.499798e+00 1.485316e+00 2.925588e+00 121 122 124
1.976001e+00 2.194633e+00 3.076886e+00 87 87 85
-1.308529e+00 2.341610e+00 3.086947e+00 55 54 52
-2.052839e+00 2.326694e+00 3.117631e+00 41 39 42
-1.780515e+00 -2.817055e+00 2.675840e+00 15 15 17
8.944190e-01 -2.592600e+00 2.839657e+00 110 111 115
-6.493920e-01 -2.536237e+00 3.109529e+00 120 121 126
-2.328782e+00 -6.017925e-01 2.608119e+00 128 132 134
1.016235e+00 -7.290228e-01 3.094945e+00 44 43 41
1.615852e+00 -7.041382e-01 3.076899e+00 57 53 50
1.807380e+00 -6.913511e-01 3.088188e+00 48 47 43
6.267226e-01 -6.897366e-01 3.074837e+00 70 69 67
-1.681131e+00 -6.781563e-01 3.071093e+00 69 68 66
-2.176468e+00 -5.564843e-01 2.698599e+00 50 50 48
-1.147297e+00 -6.404657e-01 3.051339e+00 153 149 146
-1.716479e+00 -6.742512e-01 3.162880e+00 139 135 136
-2.442098e+00 -2.982386e-01 3.118778e+00 80 78 81
3.214637e+00 7.448753e-02 2.890679e+00 92 93 98
3.091803e+00 1.430364e+00 2.957495e+00 254 255 253
-2.688185e+00 1.377950e+00 3.224565e+00 93 91 92
1.752959e+00 2.237535e+00 3.014914e+00 131 132 129
-1.679807e+00 2.350048e+00 3.098592e+00 62 61 59
-1.897921e+00 2.427687e+00 3.120199e+00 153 154 149
-1.411159e+00 2.518274e+00 3.100044e+00 42 40 45
-1.784229e+00 2.511867e+00 3.124505e+00 44 40 44
2.690119e+00 5.425394e+00 3.198227e+00 133 131 132
-1.513869e+00 5.197810e+00 3.288298e+00 166 162 163
2.429524e+00 -2.890164e+00 2.780307e+00 42 43 45
-2.061657e+00 -2.798416e+00 2.631100e+00 84 84 84
-1.364285e+00 -2.741515e+00 2.664273e+00 106 106 106
-1.148587e+00 -2.733520e+00 2.873100e+00 100 104 105
2.448877e+00 -2.648863e+00 2.841429e+00 106 107 104
-2.648188e+00 -2.544138e+00 3.270088e+00 63 67 70
-2.617973e+00 -2.490878e+00 2.886654e+00 117 127 128
-1.574278e+00 -2.423823e+00 2.690778e+00 109 115 115
-5.561785e-01 -2.386668e+00 2.910808e+00 83 83 81
-7.556787e-01 -1.035908e+00 3.077724e+00 68 68 70
-2.347653e+00 -1.030642e+00 3.122167e+00 27 25 36
1.828529e+00 -1.004139e+00 3.049108e+00 76 76 75
-7.831324e-01 -1.000919e+00 3.079891e+00 120 119 117
4.236681e-02 -9.303877e-01 3.038210e+00 54 53 56
-1.485563e+00 -6.652976e-01 3.052028e+00 45 44 42
5.685265e-01 -6.619542e-01 3.096721e+00 144 143 141
-1.644517e+00 -6.413345e-01 3.057507e+00 122 121 118
-2.030262e+00 -6.547778e-01 3.103737e+00 133 132 130
-1.439616e+00 -5.983575e-01 3.060944e+00 41 36 33
-2.707964e+00 -5.992802e-01 3.217038e+00 115 115 115
3.104649e+00 5.506923e-02 2.914227e+00 81 77 76
-2.334466e+00 1.256870e+00 3.027345e+00 149 150 152
4.744001e-01 2.430167e+00 3.065667e+00 144 144 146
2.562942e+00 2.483765e+00 3.231511e+00 146 147 143
2.802049e+00 2.619284e+00 3.275981e+00 129 132 139
1.323182e+00 2.605398e+00 3.286494e+00 85 83 84
7.411871e-01 5.314918e+00 1.581836e+00 137 135 148
1.918525e+00 4.911537e+00 3.141165e+00 149 151 150
2.810597e+00 5.480736e+00 3.212217e+00 255 255 255
7.592822e-01 -2.920433e+00 2.783528e+00 104 105 108
-1.156077e+00 -2.850566e+00 2.827606e+00 108 109 104
2.352246e+00 -2.716047e+00 2.782207e+00 36 37 39
-2.237962e+00 -2.607165e+00 2.902672e+00 90 106 103
-1.188675e+00 -2.592161e+00 2.938309e+00 98 99 99
-1.188675e+00 -2.592161e+00 2.938309e+00 98 99 99
2.422617e+00 -2.616338e+00 2.819305e+00 54 53 58
-7.000190e-01 -2.316087e+00 2.877516e+00 76 76 84
-3.210250e-01 -2.285378e+00 2.923762e+00 61 58 53
-1.244961e+00 -2.249560e+00 3.108834e+00 51 47 44
-2.658667e+00 -2.136292e+00 3.165048e+00 37 39 40
1.228238e+00 -1.095109e+00 3.118372e+00 58 57 62
1.686119e+00 -1.018727e+00 3.081681e+00 28 28 30
-2.225114e+00 -8.744309e-01 2.540109e+00 46 46 47
-1.205339e+00 -9.036548e-01 3.022527e+00 127 123 112
-3.405441e+00 -6.069688e-01 2.558513e+00 138 143 149
-1.137079e+00 -6.778127e-01 2.782493e+00 29 29 30
-1.589189e+00 -7.445554e-01 3.090012e+00 117 117 116
-1.194325e+00 -6.192107e-01 3.056875e+00 35 33 34
-3.740437e-01 1.178309e-01 2.642537e+00 52 55 73
-3.377135e+00 2.325042e-01 2.745247e+00 92 93 97
-3.297442e+00 1.495860e-01 2.933764e+00 92 93 97
-3.377486e+00 5.706229e-01 2.655977e+00 134 131 159
-3.389275e+00 5.833787e-01 2.622656e+00 134 131 159
6.911039e-01 7.080471e-01 2.669561e+00 57 56 64
-1.107221e-01 8.131119e-01 2.712856e+00 51 56 68
-1.192925e+00 7.530531e-01 2.863122e+00 106 105 104
-1.590077e+00 1.091347e+00 2.941998e+00 94 91 84
-3.897496e-01 2.335204e+00 1.940675e+00 254 254 254
-8.900235e-01 1.486421e+00 3.236543e+00 148 152 156
-2.055687e+00 2.326666e+00 3.032210e+00 25 24 28
1.972612e+00 2.383939e+00 3.112121e+00 146 145 140
1.417567e-01 2.443723e+00 3.072313e+00 143 142 147
6.298112e-01 2.524960e+00 3.043948e+00 152 150 152
2.208320e-01 2.538868e+00 3.049749e+00 153 152 153
-8.651389e-01 2.563199e+00 3.420664e+00 132 128 124
-2.168980e+00 2.722150e+00 3.276699e+00 124 126 124
-2.050302e+00 2.811461e+00 3.216875e+00 39 38 56
-2.125584e+00 2.814755e+00 3.217458e+00 46 43 62
-1.864999e+00 4.749997e+00 3.208890e+00 154 152 153
1.682918e+00 5.048767e+00 3.107813e+00 150 149 147
8.141942e-01 -2.893412e+00 2.812850e+00 46 48 47
-1.127474e+00 -2.783604e+00 2.862937e+00 44 46 45
-9.068327e-01 -2.493337e+00 2.831829e+00 72 73 77
-9.068327e-01 -2.493337e+00 2.831829e+00 72 73 77
1.148084e+00 -2.064272e+00 2.988423e+00 49 49 50
2.166026e+00 -1.032038e+00 3.045516e+00 79 75 76
2.170853e+00 -1.025682e+00 3.028370e+00 79 75 76
-2.185245e+00 -9.004370e-01 2.583571e+00 122 122 122
-2.661845e+00 -1.048143e+00 3.136693e+00 58 57 62
2.468391e+00 -7.658597e-01 3.066444e+00 32 32 32
-1.727326e+00 -5.800656e-01 2.713405e+00 61 59 63
-2.374736e+00 -6.457279e-01 3.137192e+00 35 35 35
2.845782e+00 -3.335297e-01 3.145288e+00 144 146 145
-2.341622e-01 4.122229e-01 2.637037e+00 145 146 150
3.172789e+00 3.768649e-01 2.846765e+00 107 108 128
1.988048e+00 4.445939e-01 2.825025e+00 75 69 58
-2.112060e+00 6.354451e-01 2.666337e+00 130 128 116
-2.151012e+00 6.172770e-01 2.703602e+00 127 125 113
1.863589e+00 7.795838e-01 2.854674e+00 136 135 131
1.819169e-01 8.477631e-01 2.692882e+00 66 66 80
-2.358006e+00 7.646633e-01 2.894089e+00 98 97 95
-4.986428e-01 9.610106e-01 2.893820e+00 80 76 73
-2.123110e-01 1.258489e+00 2.972952e+00 100 99 104
5.666320e-01 1.387054e+00 2.989699e+00 91 89 90
2.619685e+00 1.360479e+00 3.120162e+00 74 71 66
3.070969e+00 1.538866e+00 2.951924e+00 244 255 254
-1.358947e+00 1.470663e+00 3.044256e+00 69 69 67
-4.510917e-02 3.366575e+00 8.466740e-01 253 253 251
2.834502e+00 2.225449e+00 3.179278e+00 130 131 128
2.142524e+00 2.371038e+00 3.026943e+00 129 130 125
2.362364e+00 2.465184e+00 3.046600e+00 139 135 132
-7.602757e-02 2.487312e+00 3.118921e+00 92 92 94
-7.994971e-02 2.530782e+00 3.064873e+00 92 92 94
-2.105107e+00 2.446035e+00 3.189022e+00 152 152 148
-1.869556e+00 4.706278e+00 3.206608e+00 159 159 159
-1.249025e+00 -2.887492e+00 2.820865e+00 55 57 57
-1.778256e+00 -2.598682e+00 2.804788e+00 79 81 79
-9.246128e-01 -2.475032e+00 2.859044e+00 125 128 133
-9.564628e-01 -2.452970e+00 2.924689e+00 113 113 111
1.595525e+00 -1.067278e+00 3.089995e+00 141 146 143
1.595525e+00 -1.067278e+00 3.089995e+00 141 146 143
1.188579e+00 -1.059008e+00 3.097454e+00 134 135 141
-2.384408e+00 -1.048076e+00 3.051827e+00 18 21 27
2.715844e+00 -1.055412e+00 3.150120e+00 82 82 83
2.730150e+00 -1.042798e+00 3.114043e+00 82 82 83
3.238191e+00 4.740260e-02 2.891754e+00 250 254 255
-3.391123e+00 4.900812e-01 2.671118e+00 254 254 255
-3.403249e+00 5.521860e-01 2.642348e+00 252 252 251
9.857525e-02 8.342622e-01 2.268416e+00 52 55 68
-5.054646e-01 6.597570e-01 2.694572e+00 40 37 46
2.445992e+00 6.875449e-01 2.930138e+00 99 100 94
1.841172e+00 8.067932e-01 2.846956e+00 83 83 81
2.293374e+00 8.858433e-01 2.956878e+00 93 93 88
8.382217e-01 9.802272e-01 2.890080e+00 98 98 96
8.029564e-01 1.021677e+00 2.894728e+00 91 91 89
-2.101719e+00 1.066376e+00 3.000545e+00 84 84 82
7.957497e-01 1.151975e+00 2.932150e+00 85 85 83
-1.160592e+00 1.116929e+00 2.944706e+00 83 82 80
-1.598554e-01 1.308510e+00 2.923049e+00 97 97 97
3.103389e+00 1.392409e+00 2.966111e+00 253 255 253
4.572937e-01 1.425392e+00 2.940845e+00 93 92 91
3.748161e-01 1.406991e+00 3.013501e+00 141 141 139
1.092469e+00 1.419058e+00 3.136544e+00 141 138 133
-1.183356e+00 1.457114e+00 3.025812e+00 125 124 120
-2.581744e+00 1.348582e+00 3.392860e+00 126 125 118
2.208303e+00 2.366103e+00 3.043545e+00 165 166 158
2.190109e+00 2.397448e+00 3.045655e+00 161 160 156
2.135944e-01 2.481800e+00 3.067451e+00 95 95 97
1.514037e-01 2.540807e+00 3.041920e+00 138 136 139
-3.701215e-01 2.512895e+00 3.080305e+00 93 93 95
-4.196658e-01 2.532805e+00 3.080008e+00 81 81 83
-3.312974e-01 2.512150e+00 3.110245e+00 73 72 78
3.164582e+00 2.694591e+00 3.063694e+00 116 112 153
3.161706e+00 2.800340e+00 3.030679e+00 241 254 253
2.206103e+00 2.734241e+00 3.110065e+00 160 160 156
-1.480909e+00 2.811866e+00 3.213316e+00 148 149 144
-2.089244e+00 2.825753e+00 3.215607e+00 156 158 148
2.349159e+00 4.740922e+00 3.074489e+00 95 95 95
1.518020e+00 5.216894e+00 3.144061e+00 144 144 142
-1.451296e+00 5.243741e+00 3.359439e+00 108 103 109
-4.218666e-01 -2.181190e+00 2.824876e+00 123 120 115
-3.880303e-01 -2.045068e+00 2.834515e+00 132 134 131
5.834907e-01 -1.066179e+00 3.059212e+00 138 137 142
2.293277e+00 -1.058194e+00 3.099327e+00 139 139 141
2.546731e+00 -1.052161e+00 3.102752e+00 52 52 54
6.541094e-01 -1.037168e+00 3.056672e+00 142 146 149
-2.701459e+00 -8.429144e-01 3.157598e+00 75 76 80
-1.989910e+00 -7.870020e-01 3.081403e+00 81 83 81
1.984906e+00 -3.050821e-01 3.092844e+00 148 148 140
3.208102e+00 3.621695e-02 2.913934e+00 106 108 131
3.193873e+00 3.144378e-01 2.839279e+00 248 253 255
-3.374029e+00 5.941643e-01 2.664798e+00 157 155 176
2.466887e+00 6.315873e-01 2.940990e+00 90 88 89
-2.623192e+00 4.252451e-01 3.286155e+00 85 89 92
-1.178660e+00 8.319792e-01 2.910645e+00 87 87 86
-2.008241e-01 1.075627e+00 2.736632e+00 96 91 86
1.462636e+00 1.104085e+00 2.909343e+00 90 86 84
-1.800490e+00 1.142507e+00 2.878949e+00 70 63 56
-2.272155e+00 1.092747e+00 2.974733e+00 71 72 76
-1.759556e+00 1.130530e+00 2.931665e+00 142 138 129
-1.879170e+00 1.129186e+00 2.937246e+00 83 79 68
-2.358173e+00 1.228303e+00 2.991963e+00 90 90 92
1.394223e-01 1.299877e+00 2.968666e+00 156 156 154
2.500828e+00 1.353940e+00 3.017131e+00 144 143 141
5.443893e-01 1.414879e+00 2.992849e+00 140 138 139
3.058479e+00 1.499249e+00 2.959833e+00 138 140 160
-6.043960e-01 1.450874e+00 3.007839e+00 116 115 111
-2.505732e+00 1.835134e+00 2.972341e+00 42 43 48
-2.505732e+00 1.835134e+00 2.972341e+00 42 43 48
-2.505732e+00 1.835134e+00 2.972341e+00 42 43 48
-2.648838e+00 1.717515e+00 3.342556e+00 67 68 73
2.239824e+00 2.204760e+00 3.034991e+00 154 154 150
7.560837e-01 2.245135e+00 3.023091e+00 152 152 150
1.467621e+00 2.327629e+00 3.047099e+00 142 142 140
1.577444e+00 2.335742e+00 3.060872e+00 65 65 64
3.092079e+00 2.472391e+00 3.005353e+00 62 61 70
-2.486548e+00 2.245550e+00 3.173838e+00 136 135 127
2.014503e+00 2.440600e+00 3.076456e+00 156 155 150
1.845896e+00 2.469488e+00 3.048336e+00 156 154 157
-7.620716e-01 2.212079e+00 3.326388e+00 162 161 156
-9.751302e-01 2.208439e+00 3.349105e+00 157 156 151
-6.436447e-01 2.427600e+00 3.104653e+00 66 66 68
2.259573e+00 2.529276e+00 3.068279e+00 149 147 137
-2.578365e+00 2.168149e+00 3.434318e+00 97 95 96
-2.578365e+00 2.168149e+00 3.434318e+00 97 95 96
-2.489095e+00 2.153251e+00 3.461971e+00 171 170 168
-2.729319e+00 2.146715e+00 3.480628e+00 153 152 150
6.618045e-01 2.568921e+00 3.049127e+00 139 138 136
5.713896e-01 2.564622e+00 3.059969e+00 146 145 141
-1.028998e-01 2.551630e+00 3.078636e+00 159 159 161
2.205759e+00 2.754836e+00 3.115815e+00 68 67 66
2.127739e+00 2.736016e+00 3.131950e+00 60 60 60
1.571456e+00 2.768985e+00 3.109289e+00 133 134 129
1.516419e+00 2.807911e+00 3.110836e+00 128 129 122
-2.354559e+00 2.757884e+00 3.336556e+00 64 67 75
-7.462625e-01 2.770864e+00 3.434557e+00 130 130 133
-9.710791e-01 2.771550e+00 3.453705e+00 137 138 134
-2.418051e+00 3.378713e+00 3.049945e+00 84 87 93
2.203166e+00 4.673799e+00 2.994460e+00 32 31 47
1.714408e+00 4.919898e+00 3.097425e+00 70 68 71
1.655295e+00 4.968190e+00 3.113291e+00 85 83 87
2.122552e+00 5.020175e+00 3.105914e+00 80 76 73
-1.706390e+00 5.037136e+00 3.199875e+00 133 131 133
1.752191e+00 5.239824e+00 3.156048e+00 143 143 142
-1.611939e+00 5.149921e+00 3.258221e+00 153 152 150
-1.488023e+00 5.158407e+00 3.269408e+00 101 97 99
-2.761048e+00 5.069853e+00 3.516178e+00 57 56 65
1.010399e+00 5.749704e+00 3.228055e+00 251 251 249
9.123729e-02 -1.134653e+00 3.096362e+00 150 151 154
2.090003e+00 -1.091948e+00 3.099462e+00 68 78 80
-2.261972e+00 -1.062603e+00 3.089920e+00 145 150 158
-4.355789e-01 -1.043635e+00 3.018357e+00 146 147 149
-1.949085e+00 -1.052268e+00 3.097577e+00 140 144 154
2.286948e+00 -1.030343e+00 3.109684e+00 145 145 147
2.733092e+00 -8.637932e-01 3.187756e+00 100 100 100
1.430120e+00 -6.647676e-01 3.116309e+00 151 151 147
1.536240e-01 -4.208862e-01 3.058489e+00 105 103 109
-1.744444e+00 7.710490e-02 3.101157e+00 161 162 164
3.189513e+00 3.332051e-01 2.835020e+00 135 138 157
-1.764008e+00 3.517120e-01 2.817187e+00 139 140 134
4.107076e-02 4.998807e-01 2.688525e+00 137 141 138
1.015074e+00 4.384078e-01 2.872757e+00 101 102 104
9.230601e-03 5.416705e-01 2.689768e+00 170 169 175
-3.376745e+00 6.014257e-01 2.615622e+00 250 251 255
9.987476e-01 5.806904e-01 2.879654e+00 106 104 105
4.473413e-01 6.924358e-01 2.672015e+00 61 64 73
3.802439e-01 7.619860e-01 2.666043e+00 57 64 71
-8.395233e-01 5.104360e-01 3.184234e+00 102 103 108
2.476053e+00 6.910557e-01 2.948404e+00 101 101 101
1.576743e+00 7.347154e-01 2.872141e+00 101 101 99
-2.582059e+00 4.749456e-01 3.294577e+00 104 111 120
2.729671e+00 7.079235e-01 3.109813e+00 105 107 106
-2.056879e+00 9.989198e-01 2.921691e+00 81 80 79
1.925926e+00 1.127045e+00 2.957385e+00 112 111 106
1.438457e+00 1.175821e+00 2.929241e+00 141 138 136
2.971778e-01 1.241887e+00 2.896510e+00 85 81 82
-2.475689e+00 1.177882e+00 3.012755e+00 78 82 83
-1.224375e+00 1.238549e+00 2.948497e+00 86 85 80
-1.949026e+00 1.660661e+00 3.017881e+00 105 106 110
1.703211e+00 2.002011e+00 2.897457e+00 90 91 93
2.987161e+00 2.228892e+00 2.975847e+00 122 122 124
2.204584e+00 2.202414e+00 3.009187e+00 142 142 141
8.084571e-01 2.207238e+00 2.980602e+00 89 89 89
1.480014e+00 2.340301e+00 3.050867e+00 81 83 82
2.004071e+00 2.455126e+00 3.049302e+00 156 155 153
1.816936e+00 2.466537e+00 3.040359e+00 147 146 142
2.629372e+00 2.391823e+00 3.204935e+00 122 124 122
3.511011e-03 2.455493e+00 3.042085e+00 147 147 149
-1.003173e+00 2.218131e+00 3.339227e+00 156 155 151
1.898009e+00 2.511480e+00 3.054826e+00 117 114 109
1.546098e+00 2.506052e+00 3.056555e+00 146 142 139
-2.705859e+00 2.150590e+00 3.429715e+00 88 88 88
5.307304e-01 2.534716e+00 3.038139e+00 79 78 80
-1.375597e-01 2.512834e+00 3.084659e+00 162 161 165
1.321012e-01 2.553539e+00 3.061697e+00 151 149 152
2.409345e+00 2.727806e+00 3.132866e+00 65 65 67
3.130242e+00 2.850404e+00 3.083109e+00 243 253 255
-2.754011e+00 2.437244e+00 3.512861e+00 79 79 79
1.631223e+00 4.674431e+00 2.998903e+00 119 120 123
1.391946e+00 4.701342e+00 2.970128e+00 135 135 135
2.146202e+00 5.026609e+00 3.112052e+00 141 140 135
-1.396604e+00 5.164628e+00 3.270961e+00 122 117 121
-2.723274e+00 4.947499e+00 3.485824e+00 139 139 139
-2.151405e+00 5.424308e+00 3.336910e+00 91 90 95
-2.627970e+00 -1.038925e+00 3.163831e+00 149 152 159
2.769623e+00 -8.647013e-01 3.160039e+00 86 86 86
-1.566064e-01 -8.079113e-01 3.049308e+00 111 110 105
1.898962e+00 -7.314179e-01 3.069035e+00 127 127 125
1.441926e+00 -6.810606e-01 3.098077e+00 135 130 127
1.967667e+00 -4.842036e-01 3.111324e+00 99 103 107
3.189716e+00 2.992183e-01 2.831392e+00 161 164 178
5.314786e-01 4.848225e-01 2.661982e+00 61 64 73
9.850865e-02 6.055588e-01 2.655586e+00 100 105 98
3.055954e+00 6.630862e-01 2.924563e+00 100 101 103
4.616077e-01 9.004957e-01 3.513478e+00 106 106 106
1.667822e+00 2.125306e+00 2.907511e+00 105 105 106
3.039883e+00 2.118774e+00 2.992570e+00 120 120 125
2.236355e+00 2.155043e+00 3.035226e+00 105 104 102
1.754095e+00 2.195622e+00 3.025775e+00 114 115 109
1.905428e+00 2.189873e+00 3.041019e+00 104 104 104
2.316090e+00 2.306489e+00 3.030909e+00 96 97 91
1.995161e+00 2.323047e+00 3.020869e+00 97 98 93
1.003959e+00 2.200753e+00 3.203967e+00 131 131 131
1.003959e+00 2.200753e+00 3.203967e+00 131 131 131
2.298414e+00 2.352923e+00 3.045843e+00 128 127 122
-9.638451e-01 2.187382e+00 3.352886e+00 96 95 91
3.295442e-01 2.477800e+00 3.082350e+00 135 135 134
4.629045e-01 2.539299e+00 3.076116e+00 118 117 115
2.045806e-01 2.555069e+00 3.057825e+00 152 150 152
3.934221e-01 2.576106e+00 3.052477e+00 151 147 147
-4.000371e-01 2.584452e+00 3.079146e+00 112 112 112
-4.000371e-01 2.584452e+00 3.079146e+00 112 112 112
1.577029e+00 2.732135e+00 3.103372e+00 125 125 124
2.578879e+00 -1.147711e+00 3.098680e+00 87 74 63
-2.335688e+00 -1.104674e+00 2.928068e+00 103 89 82
-2.183859e+00 -1.225229e+00 2.993928e+00 203 184 169
2.632475e+00 -6.336615e-01 3.124659e+00 173 156 136
-1.413065e+00 -2.575884e+00 2.217056e+00 75 61 47
2.916826e+00 -2.382654e+00 2.956147e+00 197 189 170
2.016034e+00 -6.939688e-01 3.039853e+00 59 46 31
2.848221e-01 -6.360494e-01 3.089141e+00 164 147 130
2.878535e+00 -1.287464e+00 3.076762e+00 220 206 190
1.066398e+00 -9.735538e-01 3.070336e+00 173 167 152
2.205839e+00 -8.141220e-01 3.074781e+00 84 72 57
1.574925e+00 -6.400059e-01 3.007039e+00 158 149 135
-2.169212e+00 -2.672888e+00 2.320697e+00 131 116 100
1.180629e+00 -2.447090e+00 2.826573e+00 107 89 75
6.204573e-01 -1.415837e+00 3.037680e+00 197 183 170
2.622501e+00 -1.163696e+00 2.980097e+00 98 80 68
2.246589e+00 -9.369403e-01 2.882156e+00 165 151 134
8.661439e-01 -9.653208e-01 3.021010e+00 158 149 132
2.114742e+00 -7.763636e-01 2.624933e+00 173 168 146
-3.908550e-01 -1.037067e+00 2.978138e+00 179 165 154
-2.632357e+00 -5.829230e-02 3.108468e+00 129 127 128
-2.610045e+00 -3.175648e-01 3.127140e+00 67 66 64
1.134242e+00 4.511493e+00 3.326516e+00 117 117 117
-7.265389e-01 5.540920e+00 3.095674e+00 253 255 254
-1.571102e+00 5.191898e+00 3.156496e+00 56 56 56
-2.807193e+00 -6.788460e-01 3.069810e+00 35 35 33
-2.334094e+00 2.442341e+00 3.178743e+00 31 32 34
2.035756e+00 3.870099e+00 2.884347e+00 14 15 16
2.824732e-01 -1.045537e+00 3.044038e+00 115 115 113
-2.536612e+00 -6.922211e-01 3.043430e+00 28 28 28
-3.166291e+00 1.651236e+00 2.946942e+00 136 137 142
1.963572e+00 3.046795e+00 3.075815e+00 15 16 17
-2.067614e+00 4.339277e+00 3.000684e+00 20 20 22
-2.413575e+00 4.338170e+00 3.046904e+00 96 97 100
1.408246e+00 4.395659e+00 3.153908e+00 24 24 26
-2.888576e+00 5.941029e+00 3.063166e+00 109 109 109
1.843787e+00 5.721470e+00 3.163236e+00 77 82 88
2.458233e+00 -1.212731e+00 3.022415e+00 117 113 109
-1.572346e+00 -9.406459e-01 2.785850e+00 33 30 25
2.536242e+00 -6.601135e-01 3.081908e+00 95 91 87
-1.485444e+00 -6.055030e-01 2.945115e+00 83 80 76
2.846132e+00 -2.950268e-01 3.073765e+00 78 76 75
-3.325465e+00 5.059679e-01 2.666020e+00 234 238 243
-3.334020e+00 5.972420e-01 2.658171e+00 228 240 248
-1.973967e+00 1.202164e+00 2.972570e+00 127 126 122
3.143424e+00 2.506783e+00 3.019401e+00 201 209 228
-1.796492e+00 2.535532e+00 3.082032e+00 27 26 24
-3.327899e+00 2.873920e+00 2.982116e+00 75 82 89
-6.864221e-01 2.695581e+00 3.471775e+00 108 106 105
5.714186e-01 4.589414e+00 1.654772e+00 228 222 229
-1.962359e+00 3.555019e+00 3.049721e+00 103 101 100
2.179850e+00 4.663379e+00 3.019565e+00 23 28 31
-1.432364e+00 4.849336e+00 3.106374e+00 26 26 27
1.069815e+00 5.155991e+00 3.447060e+00 92 92 94
6.218598e-01 -1.412491e+00 3.015912e+00 116 110 107
2.458232e+00 -1.006433e+00 3.059400e+00 47 43 38
-1.756588e+00 -9.620394e-01 2.993935e+00 87 85 84
-3.557419e-01 -7.490611e-01 3.014367e+00 39 35 33
1.662405e+00 -7.328708e-01 3.037862e+00 81 77 73
-2.927259e+00 -6.057797e-01 2.959494e+00 55 55 55
-1.899569e+00 -3.035478e-01 3.087230e+00 99 95 90
3.152750e+00 7.299801e-01 2.825956e+00 178 184 199
-3.284392e+00 9.311055e-01 2.769750e+00 124 135 140
-3.264384e+00 9.010207e-01 2.817816e+00 124 135 140
2.705948e-01 1.057761e+00 2.738761e+00 90 86 83
-2.221220e+00 1.237537e+00 2.994976e+00 81 75 75
2.448773e+00 1.547411e+00 2.929710e+00 38 36 39
-2.267481e+00 1.922976e+00 3.017111e+00 98 99 101
-2.054797e+00 2.027532e+00 2.951154e+00 114 111 110
3.073319e+00 2.226624e+00 3.094185e+00 201 207 225
-3.219582e+00 2.400753e+00 3.052465e+00 107 108 113
3.074224e+00 2.330746e+00 3.086381e+00 210 218 232
1.505375e+00 2.445137e+00 3.031242e+00 87 86 82
1.219633e+00 2.499649e+00 3.373190e+00 75 74 72
-6.816624e-01 2.619194e+00 3.463021e+00 109 108 110
2.242966e+00 3.104994e+00 2.974931e+00 102 102 102
-2.296108e+00 5.635624e+00 3.226666e+00 58 56 59
-1.565780e+00 5.592449e+00 3.308288e+00 59 58 61
2.579268e+00 6.410850e+00 2.911144e+00 221 231 247
-2.888783e+00 5.711283e+00 3.380979e+00 60 52 51
-2.123248e+00 -2.117932e-01 3.085644e+00 92 91 89
8.686974e-01 -1.032816e+00 3.005888e+00 89 91 90
-5.923566e-01 -6.064936e-01 3.041932e+00 26 23 24
1.772547e-02 -6.111032e-01 3.051499e+00 20 19 17
-1.402675e+00 -6.166276e-01 3.052183e+00 23 18 18
-3.389193e+00 2.821034e-01 2.766701e+00 213 237 254
-2.361321e+00 -9.901054e-01 3.000058e+00 78 77 79
8.657348e-01 -9.681824e-01 3.029349e+00 73 71 68
-4.072759e-01 2.058476e-01 2.627320e+00 98 96 97
-6.872292e-01 1.526290e-01 3.113816e+00 32 28 29
-3.380778e+00 5.303617e-01 2.632102e+00 96 95 107
1.176407e-01 8.176711e-01 2.699056e+00 20 15 12
2.402191e-01 1.130337e+00 2.792831e+00 77 65 61
-2.024122e+00 1.091943e+00 2.973622e+00 96 91 88
3.157167e+00 2.247374e+00 2.963972e+00 181 204 235
2.146113e+00 2.279592e+00 3.015926e+00 39 36 37
-2.298299e+00 -1.055406e+00 3.004849e+00 79 85 86
-1.456153e+00 -1.030440e+00 2.953484e+00 33 28 25
2.416708e+00 -1.110429e+00 3.007478e+00 44 38 38
7.673502e-01 -1.029660e+00 3.019945e+00 47 39 37
1.158345e+00 -1.031886e+00 3.033546e+00 88 91 97
-3.778728e-01 2.194943e-01 2.635868e+00 91 89 91
-4.470782e-01 3.253270e-01 2.638874e+00 16 14 17
-3.351332e+00 5.221888e-01 2.611391e+00 211 230 243
1.449558e+00 2.114664e+00 2.953233e+00 27 25 30
-1.367279e+00 2.785990e+00 3.228653e+00 42 44 56
-2.669415e+00 -1.072370e+00 3.120514e+00 86 91 100
-2.669415e+00 -1.072370e+00 3.120514e+00 86 91 100
-7.991221e-01 -1.016468e+00 2.990478e+00 23 24 28
-3.439701e-01 -1.017927e+00 2.991917e+00 78 81 85
1.760446e+00 -1.022136e+00 2.986623e+00 28 25 25
-2.579591e+00 -6.716992e-01 3.193791e+00 87 85 86
2.318243e+00 1.061216e+00 2.910852e+00 48 44 44
1.323463e-01 1.333311e+00 2.986559e+00 88 84 83
1.872843e+00 2.267856e+00 3.078346e+00 46 41 41
1.996735e+00 2.464441e+00 3.055540e+00 43 39 38
1.819303e+00 2.429896e+00 3.115958e+00 43 41 39
-2.349305e+00 4.901682e+00 3.092171e+00 10 15 26
2.733105e+00 -2.776932e-01 3.076161e+00 52 51 54
1.422551e+00 2.278385e+00 3.042808e+00 48 46 49
-4.325512e-01 2.492738e+00 3.125663e+00 85 85 87
-3.300411e+00 2.954817e+00 3.124219e+00 82 96 118
-1.946571e+00 2.864712e+00 3.223082e+00 97 93 92
-3.273725e+00 3.020816e+00 3.172495e+00 168 192 219
-2.446773e+00 4.331173e+00 3.127263e+00 54 54 56
3.098660e-01 -1.185885e-01 3.030987e+00 61 60 58
1.575270e+00 7.463400e-01 2.856096e+00 64 56 53
-2.430612e+00 1.018300e+00 2.941821e+00 60 58 61
1.392879e+00 9.246182e-01 2.907707e+00 59 53 53
2.322684e+00 1.536229e+00 2.939866e+00 37 41 51
-2.126569e+00 2.295468e+00 3.079778e+00 80 80 84
-3.277042e+00 2.854902e+00 3.153401e+00 166 192 222
-1.005707e+00 2.783115e+00 3.423033e+00 44 44 44
-3.183684e+00 2.426550e+00 3.342784e+00 193 229 250
1.976278e+00 -2.480387e+00 2.664873e+00 48 44 35
3.259506e+00 -4.036152e-01 2.536566e+00 112 109 91
-9.212678e-01 3.773255e-01 3.185105e+00 137 130 96
1.069562e+00 4.848135e-01 3.061438e+00 151 132 116
1.639329e+00 1.660289e+00 2.781786e+00 21 21 19
-1.623870e+00 5.250728e+00 3.226208e+00 139 118 92
-2.713222e+00 4.707556e-02 3.348634e+00 150 136 109
1.072100e+00 3.617810e-01 3.105645e+00 139 124 101
-2.229923e+00 1.151303e+00 3.095724e+00 144 122 92
-2.378736e+00 1.005827e+00 2.851809e+00 164 145 120
-2.378736e+00 1.005827e+00 2.851809e+00 164 145 120
-1.390333e+00 6.670207e+00 -5.115784e+00 90 59 41
-2.899965e+00 2.754773e+00 3.493884e+00 55 53 45
-3.224845e+00 4.818740e+00 3.076333e+00 169 214 219
1.435510e+00 -2.728673e+00 2.751096e+00 95 90 72
1.128100e+00 -2.392508e+00 2.960791e+00 29 26 19
2.115865e+00 2.799909e-01 -6.327319e-01 93 88 69
-2.829927e+00 8.379375e-02 3.215481e+00 30 30 36
3.990592e-01 2.619999e-01 2.611245e+00 19 12 8
1.412408e+00 1.638239e+00 2.788804e+00 146 129 103
1.834007e+00 2.442334e+00 2.832351e+00 54 38 24
-1.372168e+00 4.509073e+00 3.011168e+00 72 82 81
-3.126224e+00 4.832928e+00 3.381316e+00 153 211 227
6.991527e-01 5.203732e+00 3.021192e+00 151 198 228
2.796078e+00 -2.020343e+00 2.933364e+00 17 19 16
-1.482431e+00 -7.510367e-01 3.103158e+00 32 24 14
-4.952142e-01 5.184703e-01 2.653277e+00 153 129 97
-3.156106e+00 5.237098e-01 2.968777e+00 119 115 91
-3.506821e-01 1.466222e+00 1.552947e-01 133 121 96
-2.466160e-01 6.353517e-01 2.650203e+00 25 22 16
1.096068e-01 9.371023e-01 2.557309e+00 19 20 13
-1.277833e-01 1.587091e+00 2.924420e+00 27 22 18
1.444735e+00 1.689575e+00 2.668023e+00 29 19 18
-3.179184e+00 2.317308e+00 3.251365e+00 96 92 83
1.066585e+00 6.390529e+00 -5.078472e+00 147 128 117
-5.983360e-01 3.465693e+00 1.828597e+00 175 212 228
-3.053676e+00 4.656312e+00 3.427503e+00 157 203 208
1.953876e+00 5.115714e+00 3.063176e+00 76 62 37
-2.610915e+00 -1.323298e+00 3.404527e+00 135 121 94
-2.610915e+00 -1.323298e+00 3.404527e+00 135 121 94
-1.833945e+00 -1.051512e+00 3.064869e+00 57 39 33
-2.590996e+00 -1.099107e+00 3.329351e+00 44 38 28
4.127704e-01 -2.927265e-03 2.453840e+00 33 27 21
-4.814633e-01 3.207576e-01 2.628527e+00 157 136 109
1.855545e-01 4.646313e-01 2.621719e+00 26 17 11
3.270653e+00 5.207931e-01 2.458185e+00 205 227 207
-2.309075e+00 6.725749e+00 -6.234224e+00 7 7 41
-1.916973e+00 6.747047e+00 -6.021910e+00 202 219 242
-3.158414e+00 2.522017e+00 3.267820e+00 59 81 68
1.591060e+00 2.405634e+00 2.891779e+00 129 116 92
2.002495e+00 6.776563e-01 6.444037e+00 49 37 14
-4.488419e-02 2.527253e+00 2.989335e+00 51 34 19
-1.759715e+00 1.198023e+01 -9.504614e+00 44 65 88
-1.759715e+00 1.198023e+01 -9.504614e+00 44 65 88
7.829965e-01 4.462190e+00 3.110660e+00 46 48 39
-3.235373e+00 5.070360e+00 3.189774e+00 153 197 178
-1.318061e+00 5.762197e+00 3.329949e+00 78 80 56
-2.368816e+00 -1.071653e+00 3.268243e+00 126 110 96
-2.429012e+00 -8.564613e-01 3.264644e+00 107 98 91
-3.405032e+00 2.072749e-01 2.731667e+00 210 226 187
6.406977e-01 3.924316e-01 2.482314e+00 63 68 64
-3.332832e+00 5.628218e-01 2.764232e+00 93 105 130
-1.990682e+00 2.216578e+00 3.024009e+00 155 133 108
-1.128596e+00 5.203597e+00 -1.564703e+00 78 82 61
-1.837590e+00 1.066352e+01 -9.511452e+00 157 191 227
-8.929012e-01 9.546941e+00 -4.481605e+00 120 164 199
-8.929012e-01 9.546941e+00 -4.481605e+00 120 164 199
-3.138347e+00 5.318235e+00 3.273160e+00 61 92 92
-3.323498e+00 4.890909e-01 2.746809e+00 92 93 139
-6.441735e-01 2.084538e+00 2.954260e+00 95 77 55
-6.435009e-01 3.500512e+00 1.829313e+00 145 148 160
-1.823307e+00 1.247466e+01 -9.583247e+00 153 183 223
-1.791378e+00 1.264756e+01 -9.398532e+00 155 200 223
-1.777775e+00 1.272940e+01 -9.483148e+00 81 122 146
-1.777775e+00 1.272940e+01 -9.483148e+00 81 122 146
-5.952852e-01 1.311602e+00 3.047055e+00 137 137 129
1.422448e-01 4.344414e-01 2.843894e+00 50 57 59
2.056544e+00 -2.398781e+00 2.172178e+00 15 14 15
1.841194e-01 1.485128e-01 3.109545e+00 114 119 114
1.841194e-01 1.485128e-01 3.109545e+00 114 119 114
3.788531e-01 2.837718e-01 2.856015e+00 49 52 58
1.502565e+00 2.180788e+00 3.072261e+00 49 51 47
1.550196e+00 -8.279222e-01 2.553955e+00 113 110 95
-1.963687e-01 -8.549141e-01 3.088716e+00 162 160 147
1.573998e+00 -7.957539e-01 2.958917e+00 137 131 117
2.485819e-01 -1.943995e-01 3.076236e+00 46 51 53
3.839560e-01 -1.307017e-01 2.960520e+00 45 51 50
4.914766e-01 -1.584267e-02 2.805152e+00 47 50 55
4.321338e-01 3.983315e-01 2.944557e+00 50 55 58
-4.391900e-01 2.520330e+00 2.934062e+00 45 45 46
4.582352e-01 5.059132e-01 2.871496e+00 143 143 122
-1.678366e-01 5.039309e-01 2.927200e+00 157 159 146
1.169241e+00 2.095028e+00 3.211679e+00 150 152 142
2.678665e+00 -2.361135e+00 2.705965e+00 164 166 155
1.326258e+00 -6.594153e-01 2.990014e+00 60 57 51
3.692871e-01 6.569610e-01 2.867546e+00 145 147 139
3.692871e-01 6.569610e-01 2.867546e+00 145 147 139
2.138483e+00 1.626594e+00 2.961846e+00 114 120 114
2.137390e+00 1.850457e+00 2.946413e+00 122 121 117
2.137188e+00 1.892974e+00 2.956278e+00 120 122 116
-2.256063e+00 1.923753e+00 3.053892e+00 139 142 119
3.033143e+00 2.506166e+00 2.837133e+00 142 145 137
2.825850e+00 5.627337e+00 2.941491e+00 162 187 208
1.818589e+00 -8.854624e-01 2.519965e+00 65 64 57
2.557716e+00 -5.679966e-01 2.690906e+00 127 124 111
1.154199e+00 -5.158387e-01 2.745663e+00 45 42 37
3.735361e-01 1.623968e-01 2.777821e+00 39 37 35
2.153537e-01 2.989423e-01 2.848132e+00 32 32 31
2.225149e-01 3.498251e-01 2.850266e+00 146 152 139
2.225149e-01 3.498251e-01 2.850266e+00 146 152 139
7.017570e-02 3.422520e-01 2.894287e+00 161 160 148
2.597840e-01 3.916034e-01 2.878411e+00 146 148 142
2.189335e+00 1.939751e+00 2.930472e+00 23 28 31
2.189501e+00 1.984123e+00 2.957981e+00 25 27 26
1.520927e+00 2.158002e+00 3.084455e+00 24 26 24
-8.028956e-02 2.428338e+00 3.260665e+00 130 137 129
-2.858022e+00 -2.061326e+00 2.613222e+00 149 150 137
-1.666913e-01 6.659998e-01 2.678665e+00 29 28 18
-1.635426e-01 7.057461e-01 2.686064e+00 161 170 163
2.777982e-01 7.212502e-01 2.919991e+00 151 153 143
2.539496e-01 8.178909e-01 2.724876e+00 50 52 55
2.179975e+00 1.566894e+00 2.915539e+00 37 39 41
-2.007358e+00 1.729090e+00 3.048715e+00 142 148 153
-1.370283e+00 2.010430e+00 3.314682e+00 62 70 73
1.502523e+00 2.142075e+00 3.029630e+00 85 87 83
1.468180e+00 2.216762e+00 2.956930e+00 25 25 25
4.970714e-01 2.368702e+00 3.057151e+00 43 45 37
-1.867074e-01 2.330908e+00 3.240840e+00 153 156 150
2.417205e+00 2.410953e+00 3.119885e+00 97 98 90
1.455723e+00 2.445422e+00 3.098709e+00 120 121 106
2.174284e+00 2.742078e+00 3.072029e+00 51 52 51
2.232090e+00 3.077381e+00 2.844294e+00 38 47 48
1.421881e+00 3.275513e+00 2.958940e+00 26 30 31
6.422124e-01 4.750060e+00 2.994740e+00 47 74 132
6.422124e-01 4.750060e+00 2.994740e+00 47 74 132
