ply
format ascii 1.0
element face 0
property list uchar int vertex_indices
element vertex 941
property float x
property float y
property float z
property uchar diffuse_red
property uchar diffuse_green
property uchar diffuse_blue
end_header
2.422399e+00 -9.850423e-01 2.957980e+00 102 86 74
2.317084e+00 -6.553809e-01 2.943470e+00 80 66 52
-1.333974e+00 -6.834864e-01 2.968996e+00 172 162 147
2.408663e+00 -6.017561e-01 2.964334e+00 56 39 29
2.213996e+00 -6.001286e-01 2.958871e+00 45 31 22
8.687064e-01 -5.873438e-01 2.969334e+00 170 158 142
2.159134e+00 -5.835876e-01 2.925186e+00 52 33 28
-1.190604e+00 -5.910753e-01 2.927751e+00 171 157 144
9.612809e-01 -5.698585e-01 2.927938e+00 40 23 18
2.960851e+00 -5.132614e-01 2.910153e+00 112 98 84
2.383457e-01 -4.879390e-01 2.922891e+00 118 107 98
2.644552e+00 -3.887217e-01 2.925534e+00 136 125 107
2.052287e+00 -3.124757e-01 2.959274e+00 75 66 61
2.248348e-01 4.195143e-01 3.238131e+00 190 182 176
2.248348e-01 4.195143e-01 3.238131e+00 190 182 176
8.534715e-01 8.676153e-01 3.081355e+00 168 158 146
-4.775518e-01 1.087071e+00 3.066047e+00 158 149 134
-2.334827e+00 1.146105e+00 2.995859e+00 81 72 63
-1.225011e+00 1.288811e+00 2.992327e+00 182 178 166
7.714918e-01 1.577564e+00 3.073485e+00 180 176 167
2.427913e+00 1.588223e+00 3.018604e+00 62 55 60
2.049240e+00 1.823503e+00 3.111109e+00 29 24 25
1.646743e+00 1.854226e+00 3.142244e+00 56 48 40
1.646743e+00 1.854226e+00 3.142244e+00 56 48 40
2.050096e+00 1.872626e+00 3.111574e+00 35 28 30
2.102579e+00 2.286554e+00 3.030644e+00 188 182 170
2.789732e+00 2.320052e+00 3.018841e+00 80 71 60
2.872030e+00 2.383293e+00 3.020396e+00 188 180 176
1.579017e+00 2.522003e+00 3.016098e+00 148 138 126
1.611631e+00 3.432415e+00 3.359446e+00 69 73 84
1.871520e+00 4.541593e+00 3.050456e+00 90 84 69
-1.952562e+00 5.363620e+00 3.147153e+00 66 60 57
6.168747e-01 -2.930384e+00 2.991425e+00 142 132 109
2.390325e+00 -2.888236e+00 2.977504e+00 136 127 111
2.395905e+00 -2.890333e+00 2.991833e+00 136 127 111
2.392246e+00 -2.827659e+00 2.983552e+00 142 128 109
-2.431605e+00 -2.813136e+00 2.973513e+00 84 68 58
1.401788e+00 -2.710277e+00 2.971802e+00 121 104 86
2.317731e+00 -2.685742e+00 2.977379e+00 153 141 126
1.423558e+00 -2.663250e+00 2.978101e+00 169 152 132
7.345377e-01 -2.673341e+00 2.983568e+00 151 138 123
7.338870e-01 -2.672536e+00 2.983970e+00 151 138 123
1.001744e+00 -2.566070e+00 2.969316e+00 93 75 56
-1.796728e+00 -2.527961e+00 2.981500e+00 73 56 46
1.626629e+00 -2.472526e+00 2.995981e+00 149 134 119
1.316511e+00 -2.457299e+00 2.951144e+00 90 78 68
1.099538e+00 -2.456045e+00 2.952414e+00 92 79 73
7.218274e-01 -2.427717e+00 2.997866e+00 102 86 60
2.788444e+00 -2.385069e+00 2.964697e+00 115 102 85
-2.346623e+00 -2.393208e+00 2.978424e+00 158 145 128
1.579670e+00 -2.318342e+00 3.002181e+00 146 132 119
-1.944466e+00 -2.241658e+00 2.992512e+00 111 92 78
1.668031e+00 -1.997147e+00 3.014877e+00 145 129 108
1.084016e+00 -1.942101e+00 2.934649e+00 212 208 196
-1.232128e+00 -1.957371e+00 2.969756e+00 100 77 57
5.212327e-01 -1.915148e+00 3.016471e+00 85 60 46
-2.254226e+00 -1.844481e+00 2.988871e+00 113 95 81
-1.568220e+00 -1.592068e+00 2.953391e+00 85 68 58
9.396903e-02 -1.463011e+00 2.993328e+00 126 109 93
-2.522036e-01 -1.338984e+00 2.932350e+00 158 142 127
-1.000438e-02 -1.301842e+00 2.961621e+00 145 130 110
2.665882e+00 -1.130867e+00 2.922286e+00 150 145 125
1.451354e+00 -1.109174e+00 2.930772e+00 114 99 83
-9.885534e-01 -1.119815e+00 2.911796e+00 164 154 144
2.672936e+00 -1.083740e+00 2.931685e+00 106 100 96
1.627519e+00 -9.970491e-01 2.945049e+00 91 77 67
2.751130e+00 -9.782523e-01 2.941488e+00 183 179 167
2.033544e+00 -9.866866e-01 2.959758e+00 100 86 75
1.512259e+00 -9.760873e-01 2.948150e+00 55 39 33
2.757061e+00 -9.145920e-01 2.948793e+00 187 183 171
2.373344e+00 -9.131956e-01 2.937618e+00 183 170 161
2.229346e+00 -8.817079e-01 2.952848e+00 84 71 62
6.418984e-01 -8.464353e-01 2.965227e+00 95 78 62
-8.130804e-01 -8.317936e-01 2.921297e+00 157 149 135
-1.447415e+00 -8.100568e-01 2.937206e+00 160 152 133
2.641248e+00 -7.897248e-01 2.965375e+00 73 61 52
2.235513e+00 -7.872957e-01 2.962143e+00 88 70 60
2.462600e+00 -7.158384e-01 2.957028e+00 170 157 144
2.462600e+00 -7.158384e-01 2.957028e+00 170 157 144
2.673603e+00 -6.942558e-01 2.950367e+00 187 176 166
2.673603e+00 -6.942558e-01 2.950367e+00 187 176 166
1.483123e+00 -6.999885e-01 2.972504e+00 169 153 139
1.802334e+00 -6.835478e-01 2.948615e+00 172 159 156
2.564883e+00 -6.231477e-01 2.940589e+00 174 163 145
2.364484e+00 -6.182010e-01 2.953920e+00 159 149 135
2.797110e+00 -6.028489e-01 2.953155e+00 169 152 139
2.612221e+00 -5.999435e-01 2.961816e+00 46 32 19
1.931615e+00 -5.915228e-01 2.952654e+00 56 36 26
1.768381e+00 -5.746528e-01 2.922353e+00 51 31 22
2.515049e+00 -5.583122e-01 2.922866e+00 140 120 96
8.714585e-02 -5.506137e-01 2.903291e+00 152 134 111
-1.842841e-01 -5.390305e-01 2.893298e+00 134 112 91
-2.723663e-01 -5.362781e-01 2.891624e+00 135 110 90
-5.677816e-01 -2.693502e-01 2.944217e+00 195 186 179
-2.048238e+00 -2.284240e-01 2.963047e+00 189 180 165
1.088480e+00 -2.112589e-01 2.884884e+00 199 195 186
-2.771143e+00 -1.834736e-01 2.969034e+00 92 79 70
-2.831747e+00 -1.806735e-01 2.967929e+00 97 88 80
2.643744e+00 1.977615e-01 2.971085e+00 202 200 188
-1.826795e+00 5.516999e-01 3.047029e+00 205 198 188
6.790105e-01 6.774187e-01 3.258598e+00 23 14 5
-1.881459e+00 6.353489e-01 3.035081e+00 200 193 188
2.036417e+00 7.160824e-01 3.021894e+00 76 66 49
1.024076e-01 8.085601e-01 3.275232e+00 23 15 8
6.734557e-01 8.347009e-01 3.217042e+00 151 139 127
2.027895e+00 8.001504e-01 3.017668e+00 67 58 45
1.703750e+00 8.474113e-01 3.023304e+00 147 138 123
-2.040234e+00 9.814233e-01 2.981251e+00 184 177 164
1.436440e+00 1.140198e+00 3.076741e+00 107 91 73
-3.815030e-01 1.236283e+00 3.039574e+00 183 178 174
-1.275775e+00 1.313358e+00 3.003912e+00 187 179 168
-1.293053e+00 1.406796e+00 2.999281e+00 117 103 92
1.441466e+00 1.942712e+00 3.138746e+00 198 188 186
2.198077e+00 2.423405e+00 3.031777e+00 38 24 23
-1.410811e+00 2.406859e+00 2.909079e+00 175 170 158
-2.862620e-01 2.579185e+00 2.837299e+00 153 142 137
1.047046e+00 2.523601e+00 2.711319e+00 126 116 108
1.047046e+00 2.523601e+00 2.711319e+00 126 116 108
2.535368e+00 2.638796e+00 2.858926e+00 198 200 191
2.545196e+00 2.772285e+00 2.893307e+00 193 184 175
-1.813515e+00 3.323849e+00 2.897843e+00 187 187 181
1.420272e+00 4.577696e+00 3.166876e+00 26 22 28
1.832483e+00 4.696116e+00 3.039354e+00 82 74 67
-1.801356e+00 5.728168e+00 3.238826e+00 177 172 163
2.537377e+00 -2.921184e+00 2.980552e+00 66 54 45
6.293543e-01 -2.864701e+00 2.985984e+00 66 49 34
1.933946e+00 -2.831881e+00 2.979287e+00 144 127 112
8.493545e-01 -2.836272e+00 2.974371e+00 52 36 26
-2.118270e+00 -2.799987e+00 2.982196e+00 107 92 77
1.431473e+00 -2.745429e+00 2.980849e+00 182 172 150
5.321632e-01 -2.693706e+00 3.000427e+00 94 77 57
-1.758342e+00 -2.679232e+00 2.991056e+00 78 56 45
2.357766e+00 -2.623280e+00 2.980769e+00 62 44 27
2.382193e+00 -2.593507e+00 2.989651e+00 143 133 111
7.738098e-01 -2.583469e+00 2.993008e+00 51 33 20
2.384078e+00 -2.564260e+00 2.990020e+00 48 31 17
2.523226e+00 -2.555839e+00 2.972006e+00 40 23 15
2.636664e+00 -2.485975e+00 2.969811e+00 83 65 53
2.951221e+00 -2.447945e+00 2.969433e+00 90 82 73
2.890249e+00 -2.451087e+00 2.979100e+00 94 84 76
1.237802e+00 -2.452671e+00 2.947868e+00 96 84 78
1.170072e+00 -2.451528e+00 2.947650e+00 93 82 77
2.643810e+00 -2.426545e+00 2.964792e+00 83 70 60
-1.971958e+00 -2.413960e+00 2.983310e+00 69 49 37
2.271189e+00 -2.343900e+00 2.993657e+00 86 70 51
-1.116959e+00 -2.360375e+00 2.970613e+00 154 143 125
-2.306996e+00 -2.366940e+00 2.969953e+00 75 58 41
-1.458289e+00 -2.282311e+00 2.985483e+00 147 134 124
7.051826e-01 -2.252279e+00 2.999530e+00 96 75 55
2.792913e+00 -2.222731e+00 2.961111e+00 95 82 70
-1.303342e+00 -2.228586e+00 2.972120e+00 71 53 39
6.648813e-01 -2.200488e+00 3.003406e+00 151 136 111
1.004667e+00 -2.112196e+00 2.952292e+00 94 77 59
2.805990e+00 -2.090990e+00 2.965776e+00 78 71 53
2.824237e+00 -2.054457e+00 2.955721e+00 199 193 181
2.822993e+00 -2.024878e+00 2.957736e+00 57 42 42
2.750785e+00 -1.972565e+00 2.951256e+00 96 87 86
9.872978e-01 -1.944256e+00 2.954891e+00 182 173 154
1.832136e+00 -1.944571e+00 3.015425e+00 86 69 47
1.868057e+00 -1.934049e+00 3.011983e+00 146 133 114
2.686463e+00 -1.884932e+00 2.949479e+00 205 204 191
1.073609e+00 -1.891818e+00 2.939698e+00 210 204 190
2.463176e+00 -1.690680e+00 2.947576e+00 193 185 168
2.087206e+00 -1.455654e+00 2.947764e+00 90 73 56
2.132155e-01 -1.455797e+00 2.995744e+00 120 103 86
9.178120e-01 -1.357781e+00 2.946507e+00 160 145 130
-1.662024e-01 -1.324118e+00 2.932605e+00 215 203 193
-1.879668e+00 -1.287321e+00 2.946911e+00 191 178 160
1.227731e-01 -1.151795e+00 2.930987e+00 161 153 145
2.556771e+00 -1.107390e+00 2.939667e+00 88 74 61
1.723849e+00 -1.107812e+00 2.934695e+00 105 91 81
2.557042e-01 -1.108153e+00 2.921801e+00 113 97 89
2.145860e+00 -1.024076e+00 2.943033e+00 187 180 174
2.356826e+00 -1.004132e+00 2.941275e+00 88 73 67
-6.625354e-01 -1.013354e+00 2.939948e+00 209 199 193
2.486690e+00 -9.836947e-01 2.947697e+00 60 41 36
2.233617e+00 -9.844898e-01 2.953220e+00 90 78 64
2.514869e+00 -8.306244e-01 2.936386e+00 218 211 194
1.849037e+00 -8.299938e-01 2.966760e+00 83 70 54
2.460107e+00 -8.185031e-01 2.939514e+00 183 169 158
2.611579e+00 -7.495145e-01 2.950899e+00 211 201 201
1.985005e+00 -7.583588e-01 2.944634e+00 142 131 121
1.985005e+00 -7.583588e-01 2.944634e+00 142 131 121
1.643642e+00 -7.239346e-01 2.957992e+00 77 60 47
2.266558e+00 -7.042896e-01 2.952236e+00 180 164 149
8.359716e-01 -7.186818e-01 2.954612e+00 74 54 45
-2.282988e+00 -6.555105e-01 2.951059e+00 161 159 151
2.115272e+00 -5.943990e-01 2.937673e+00 54 34 24
1.266542e+00 -5.604090e-01 2.883244e+00 151 130 107
5.263428e-01 -5.381461e-01 2.929944e+00 148 131 111
-2.376931e+00 -5.159748e-01 2.953584e+00 129 116 107
2.405744e+00 -3.222255e-01 2.935631e+00 105 92 78
1.158016e+00 -3.000624e-01 2.890526e+00 129 112 99
1.814552e+00 -2.808617e-01 2.926686e+00 193 181 166
1.348874e+00 -2.586777e-01 2.985022e+00 196 187 171
1.240974e+00 -2.692027e-01 2.886676e+00 179 163 148
1.088771e+00 -2.677993e-01 2.883736e+00 175 161 146
1.166496e+00 -2.643519e-01 2.885114e+00 178 163 150
2.666744e+00 -2.325466e-01 2.920275e+00 206 207 199
-7.824891e-01 -2.429322e-01 2.887246e+00 179 166 150
-2.867323e+00 -2.021580e-01 2.967231e+00 189 182 170
6.309731e-01 8.141975e-02 3.216926e+00 191 180 168
2.728169e+00 1.184867e-01 2.918721e+00 191 180 171
6.082103e-01 1.428864e-01 3.222171e+00 194 184 182
6.082103e-01 1.428864e-01 3.222171e+00 194 184 182
6.675019e-01 1.532324e-01 3.223089e+00 181 171 162
2.512871e+00 3.329371e-01 3.025336e+00 173 164 150
-5.206979e-01 3.892747e-01 3.225788e+00 45 36 34
1.975521e+00 4.218275e-01 3.098142e+00 96 75 63
2.222618e+00 4.698736e-01 3.090484e+00 128 115 98
2.740430e+00 4.814338e-01 2.912924e+00 104 101 92
2.014164e-01 5.508845e-01 3.253412e+00 216 207 202
-1.420007e+00 6.042598e-01 3.108410e+00 137 124 108
1.952106e+00 6.256254e-01 3.097209e+00 104 96 83
-4.961200e-01 6.829774e-01 3.246746e+00 172 161 154
2.132475e+00 7.321047e-01 3.061260e+00 196 191 172
8.569945e-01 7.411843e-01 3.107066e+00 104 90 78
1.472545e+00 9.595283e-01 3.073472e+00 150 141 130
-2.225508e+00 1.008349e+00 2.986978e+00 181 173 160
4.382806e-01 1.092719e+00 3.194985e+00 91 74 51
2.418351e+00 1.044733e+00 3.015688e+00 186 182 173
-1.964768e+00 1.045294e+00 3.046636e+00 145 133 120
2.545461e+00 1.038049e+00 3.001721e+00 49 39 25
-2.410495e+00 1.036178e+00 2.985686e+00 140 131 122
-1.362943e+00 1.054790e+00 3.002417e+00 195 189 179
-1.617272e+00 1.079292e+00 3.047129e+00 159 147 135
-1.497101e+00 1.089790e+00 3.012740e+00 175 165 152
-5.062458e-02 1.174481e+00 3.199999e+00 89 70 50
2.379134e+00 1.161597e+00 3.011510e+00 82 73 62
5.793376e-01 1.200362e+00 3.056518e+00 94 86 73
2.737263e+00 1.365047e+00 2.935914e+00 83 75 60
2.737263e+00 1.365047e+00 2.935914e+00 83 75 60
-1.682447e+00 1.468641e+00 2.963975e+00 94 88 72
2.818133e+00 1.549745e+00 2.927053e+00 141 139 127
1.144353e+00 1.549206e+00 2.859918e+00 199 193 179
-9.623541e-01 1.550409e+00 2.702563e+00 153 150 138
2.153322e+00 1.890048e+00 3.110619e+00 153 145 146
2.018106e+00 1.898248e+00 3.119854e+00 158 146 154
-2.070483e+00 1.943750e+00 3.033124e+00 201 190 181
2.170676e+00 2.093314e+00 3.097695e+00 19 10 8
-7.802176e-01 2.117722e+00 2.565681e+00 174 163 157
1.871816e+00 2.425529e+00 3.019812e+00 35 25 23
5.951468e-01 2.523100e+00 3.025655e+00 53 48 40
-1.870892e+00 2.501907e+00 2.951872e+00 115 102 87
2.798505e+00 2.540309e+00 2.914071e+00 67 60 50
9.907800e-01 2.539583e+00 2.729781e+00 130 116 104
-1.764472e+00 4.496659e+00 2.673335e+00 170 162 154
2.267741e+00 4.984161e+00 3.020908e+00 105 106 98
2.467575e+00 -2.923284e+00 2.995785e+00 60 42 31
2.395205e+00 -2.922209e+00 2.995469e+00 60 42 32
8.120684e-01 -2.901542e+00 2.979538e+00 60 40 22
9.501664e-01 -2.846234e+00 2.972262e+00 148 138 114
7.936670e-01 -2.756408e+00 2.988364e+00 138 123 102
1.433846e+00 -2.696587e+00 2.967855e+00 195 186 171
8.423760e-01 -2.697790e+00 2.970440e+00 69 50 34
1.394715e+00 -2.639592e+00 2.974765e+00 88 73 51
2.496294e+00 -2.631034e+00 2.987573e+00 52 36 23
2.569811e+00 -2.621694e+00 2.979443e+00 87 70 52
2.447556e+00 -2.594425e+00 2.979490e+00 154 143 120
1.351886e+00 -2.502241e+00 2.954107e+00 92 77 67
-1.572419e+00 -2.537426e+00 2.984753e+00 58 42 30
1.961592e+00 -2.472727e+00 2.987554e+00 147 127 119
4.448990e-01 -2.486259e+00 3.013703e+00 43 28 21
2.795730e+00 -2.447998e+00 2.975528e+00 87 76 70
2.910937e+00 -2.413780e+00 2.979284e+00 115 110 98
2.456209e-01 -2.426391e+00 3.014765e+00 116 101 82
1.264552e+00 -2.392131e+00 2.950000e+00 170 156 143
1.990879e-01 -2.389899e+00 3.016370e+00 101 85 66
-1.540773e+00 -2.404474e+00 2.980925e+00 69 50 35
1.739418e+00 -2.372804e+00 2.999634e+00 152 137 118
-1.368658e+00 -2.391354e+00 2.986932e+00 154 142 125
2.589788e+00 -2.346719e+00 2.968967e+00 88 74 54
8.128428e-01 -2.265930e+00 2.976907e+00 154 139 119
-1.671008e+00 -2.284680e+00 2.984992e+00 145 132 118
-2.416298e+00 -2.281045e+00 2.901071e+00 96 80 65
6.546879e-01 -2.156754e+00 3.006580e+00 134 119 96
7.193942e-01 -2.144610e+00 2.994088e+00 142 126 102
1.074892e+00 -2.116097e+00 2.938778e+00 92 79 63
1.074892e+00 -2.116097e+00 2.938778e+00 92 79 63
1.211093e+00 -2.108098e+00 2.940143e+00 90 78 66
1.211093e+00 -2.108098e+00 2.940143e+00 90 78 66
2.865487e+00 -2.081499e+00 2.955782e+00 157 139 134
-1.269764e+00 -2.043113e+00 2.981217e+00 74 55 41
8.754681e-01 -2.007692e+00 2.967592e+00 166 150 134
2.928352e+00 -1.986644e+00 2.956437e+00 191 187 173
1.106784e+00 -1.993847e+00 2.934489e+00 190 183 176
2.025875e+00 -1.991001e+00 3.008773e+00 99 84 61
-1.404086e-02 -1.991775e+00 3.034988e+00 136 120 99
2.873407e-01 -1.924565e+00 3.043187e+00 84 71 55
-2.139923e+00 -1.731578e+00 2.963206e+00 93 75 63
-1.530917e+00 -1.595299e+00 2.970246e+00 157 143 132
4.570412e-01 -1.534858e+00 2.980613e+00 140 124 106
1.984698e+00 -1.339583e+00 2.941099e+00 104 91 78
3.453804e-01 -1.354024e+00 2.960969e+00 155 139 124
1.948345e+00 -1.333071e+00 2.941775e+00 192 181 172
-1.491909e+00 -1.180852e+00 2.962249e+00 191 183 172
-5.646359e-01 -1.047334e+00 2.929142e+00 180 174 168
2.829461e+00 -1.018264e+00 2.937801e+00 230 223 214
2.750333e+00 -1.012901e+00 2.936098e+00 233 231 219
2.723844e+00 -1.015500e+00 2.934169e+00 83 78 67
5.476091e-01 -1.024217e+00 2.933916e+00 194 180 165
1.982803e+00 -1.011766e+00 2.941397e+00 98 92 81
1.906187e+00 -1.002389e+00 2.965584e+00 202 192 184
7.651393e-01 -1.004799e+00 2.936290e+00 95 82 73
2.380959e+00 -9.826989e-01 2.933779e+00 171 156 143
2.378003e+00 -9.564347e-01 2.923259e+00 167 154 146
-8.849752e-01 -9.625122e-01 2.922256e+00 166 149 139
1.815672e+00 -9.271197e-01 2.940858e+00 174 161 150
2.132770e+00 -9.226083e-01 2.941065e+00 151 140 122
2.550781e+00 -8.517084e-01 2.936410e+00 126 114 98
2.179760e+00 -7.689975e-01 2.932528e+00 190 180 170
1.951909e+00 -7.442308e-01 2.932324e+00 196 188 176
1.567133e+00 -7.381030e-01 2.938686e+00 182 170 156
1.797186e+00 -7.191269e-01 2.925221e+00 126 113 102
-4.556464e-01 -7.247922e-01 2.928024e+00 122 107 91
2.312157e+00 -6.952458e-01 2.943723e+00 164 156 143
2.563289e+00 -6.607877e-01 2.924882e+00 164 148 132
1.312570e+00 -5.968250e-01 2.902614e+00 184 170 157
2.868873e+00 -5.674047e-01 2.919312e+00 138 120 96
2.868873e+00 -5.674047e-01 2.919312e+00 138 120 96
1.691171e+00 -5.748092e-01 2.918046e+00 160 141 123
3.205449e+00 -5.740491e-01 3.011755e+00 177 181 172
1.833933e+00 -5.335831e-01 2.931433e+00 96 78 54
1.906746e+00 -5.303711e-01 2.928602e+00 97 76 59
1.633088e+00 -5.345150e-01 2.921208e+00 107 90 72
-1.057731e+00 -5.419242e-01 2.928586e+00 112 93 74
-5.384643e-01 -5.101163e-01 2.890910e+00 100 81 65
2.641747e+00 -2.943469e-01 2.932584e+00 85 73 60
2.616684e+00 -2.892070e-01 2.932041e+00 161 149 138
-7.177445e-01 -2.706905e-01 2.919512e+00 178 165 153
1.774903e+00 3.819115e-02 3.129386e+00 136 123 107
-2.976777e-01 4.726511e-02 3.205141e+00 194 187 181
2.643510e+00 2.192583e-01 2.921326e+00 134 130 124
8.864493e-01 4.031197e-01 3.133002e+00 106 91 72
9.395632e-01 4.557981e-01 3.076632e+00 163 157 144
9.395632e-01 4.557981e-01 3.076632e+00 163 157 144
1.610552e+00 4.904875e-01 3.152962e+00 82 66 49
-8.653669e-01 5.879950e-01 2.835193e+00 209 203 196
1.958832e+00 6.550390e-01 3.095296e+00 211 206 194
1.685514e-01 7.023257e-01 3.261081e+00 194 184 176
1.685514e-01 7.023257e-01 3.261081e+00 194 184 176
-2.432260e+00 6.487488e-01 2.995395e+00 103 91 76
-1.672564e+00 6.968077e-01 3.041249e+00 107 102 99
2.102984e+00 7.282702e-01 3.064598e+00 103 95 79
1.422803e+00 7.681922e-01 3.064416e+00 184 172 156
1.928211e+00 7.986590e-01 3.097391e+00 182 176 162
2.834311e+00 7.781583e-01 2.917303e+00 71 69 53
1.492486e+00 8.166988e-01 3.073891e+00 104 92 78
1.652206e+00 8.657331e-01 3.083948e+00 191 181 171
1.460056e+00 8.896291e-01 3.053454e+00 182 178 169
2.037504e+00 9.164073e-01 3.098845e+00 137 122 103
1.520886e+00 9.244576e-01 3.052135e+00 105 92 81
1.559999e+00 9.266984e-01 3.055942e+00 186 175 151
1.419104e+00 9.580388e-01 3.065848e+00 137 131 119
9.923045e-02 1.021504e+00 3.289549e+00 163 150 138
1.727738e+00 1.041133e+00 3.052950e+00 181 165 143
2.017440e+00 1.047486e+00 3.033762e+00 173 156 141
1.693929e-01 1.137634e+00 3.262318e+00 86 71 55
2.530734e+00 1.075491e+00 3.017184e+00 154 139 134
-5.836353e-01 1.086043e+00 3.043561e+00 125 121 110
1.917580e+00 1.087437e+00 3.036174e+00 182 172 154
2.328399e+00 1.108711e+00 3.035314e+00 107 93 79
1.581397e+00 1.141893e+00 3.059194e+00 107 96 77
-1.727181e+00 1.230119e+00 3.000039e+00 76 72 60
6.873502e-02 1.360753e+00 3.041317e+00 170 157 148
-4.823870e-02 1.442859e+00 3.003254e+00 171 164 153
2.427038e+00 1.447403e+00 3.021734e+00 113 106 102
-1.165107e+00 1.436393e+00 2.980518e+00 131 119 107
2.458942e+00 1.565794e+00 3.040598e+00 97 86 93
2.458942e+00 1.565794e+00 3.040598e+00 97 86 93
1.128689e+00 1.641061e+00 2.884124e+00 155 148 138
1.744997e+00 1.758488e+00 3.100227e+00 156 148 135
2.967012e+00 2.159581e+00 3.033372e+00 75 65 63
2.258695e+00 2.269116e+00 3.006246e+00 73 62 55
2.771803e+00 2.296467e+00 2.924516e+00 205 203 191
1.498280e+00 2.482854e+00 3.020166e+00 56 43 32
-1.863932e+00 2.453768e+00 2.926729e+00 192 182 168
2.056330e+00 2.517624e+00 2.986296e+00 94 79 62
2.635573e-03 2.539715e+00 2.991020e+00 52 38 31
1.462206e+00 2.539024e+00 2.979754e+00 98 83 67
8.625904e-01 2.568236e+00 2.972426e+00 67 55 40
-2.032521e+00 2.667753e+00 2.870594e+00 82 75 60
-2.443815e+00 3.231590e+00 2.845729e+00 186 184 179
7.993137e-01 3.537514e+00 3.116014e+00 91 82 72
2.638006e+00 4.314839e+00 2.993312e+00 189 187 181
1.828410e+00 4.563331e+00 3.057763e+00 169 158 150
-1.634619e+00 4.072332e+00 2.406032e+00 107 105 99
8.087549e-01 4.873799e+00 3.039954e+00 179 176 169
1.760189e+00 4.957264e+00 3.035673e+00 184 179 175
-2.261968e+00 5.638615e+00 3.142735e+00 176 175 170
-2.302000e+00 -3.042788e+00 3.007518e+00 180 169 163
1.486396e+00 -2.902532e+00 2.976866e+00 148 134 122
1.410291e+00 -2.894412e+00 2.971677e+00 157 143 124
-2.194332e+00 -2.891893e+00 2.988961e+00 98 84 71
2.371367e+00 -2.756980e+00 2.984904e+00 154 148 127
1.439538e+00 -2.713971e+00 2.969220e+00 131 119 107
1.414605e+00 -2.712166e+00 2.969152e+00 106 93 74
8.612569e-01 -2.649372e+00 2.971077e+00 95 82 65
1.930746e+00 -2.560651e+00 2.985305e+00 70 55 35
2.598428e+00 -2.537576e+00 2.979492e+00 85 67 57
1.448463e+00 -2.510171e+00 2.967554e+00 176 164 151
-1.843964e+00 -2.532455e+00 2.974270e+00 90 75 59
-1.843964e+00 -2.532455e+00 2.974270e+00 90 75 59
2.602862e+00 -2.486896e+00 2.974739e+00 159 146 129
2.602862e+00 -2.486896e+00 2.974739e+00 159 146 129
2.593050e+00 -2.462576e+00 2.974681e+00 97 82 62
2.157685e+00 -2.456554e+00 2.993253e+00 153 139 126
1.059922e-01 -2.462751e+00 3.011080e+00 99 83 67
2.708247e+00 -2.428700e+00 2.969607e+00 184 175 172
1.713406e+00 -2.423095e+00 2.995781e+00 106 89 73
-2.143541e-02 -2.422207e+00 3.015424e+00 102 85 65
4.573578e-01 -2.415223e+00 3.016193e+00 108 93 74
1.645490e+00 -2.369908e+00 2.998546e+00 140 123 104
3.810175e-01 -2.385719e+00 3.022469e+00 104 92 71
1.760913e+00 -2.368563e+00 2.996538e+00 145 130 110
2.161531e+00 -2.363865e+00 2.994586e+00 140 125 106
1.751931e+00 -2.349609e+00 2.996948e+00 83 67 52
1.720008e+00 -2.350170e+00 2.999207e+00 88 73 57
1.623074e+00 -2.350263e+00 2.998896e+00 83 65 51
1.154771e+00 -2.317875e+00 2.946638e+00 90 78 62
1.154771e+00 -2.317875e+00 2.946638e+00 90 78 62
1.858215e+00 -2.321530e+00 2.994447e+00 166 149 132
7.044122e-01 -2.323336e+00 2.993196e+00 97 83 59
1.969440e+00 -2.302526e+00 3.001046e+00 118 103 80
-1.832908e+00 -2.334794e+00 2.979854e+00 63 46 30
1.165850e+00 -2.271672e+00 2.951718e+00 123 111 95
1.184187e+00 -2.268365e+00 2.946742e+00 191 179 165
-1.726026e+00 -2.304287e+00 2.983124e+00 87 71 54
2.517698e+00 -2.244737e+00 2.949393e+00 112 97 75
1.026536e+00 -2.209867e+00 2.956993e+00 92 76 60
8.620316e-01 -2.213386e+00 2.975211e+00 112 93 70
1.906387e-01 -2.209852e+00 3.024622e+00 71 53 39
1.842869e+00 -2.190443e+00 3.004932e+00 102 85 63
-8.733583e-01 -2.192255e+00 2.952088e+00 78 67 65
2.879164e+00 -2.162955e+00 2.969239e+00 181 167 160
6.309410e-01 -2.177485e+00 3.011007e+00 134 120 96
-1.810699e+00 -2.197638e+00 2.980749e+00 126 110 95
-1.654176e+00 -2.193341e+00 2.983895e+00 129 110 95
2.780455e+00 -2.103482e+00 2.959250e+00 86 74 55
-1.989525e+00 -2.154415e+00 2.977221e+00 76 58 50
1.749180e+00 -2.116935e+00 3.002243e+00 117 99 76
1.749180e+00 -2.116935e+00 3.002243e+00 117 99 76
1.327129e+00 -2.104644e+00 2.946728e+00 100 89 73
8.990456e-01 -2.089964e+00 2.969228e+00 153 137 115
1.753065e+00 -2.070486e+00 3.004108e+00 103 85 61
2.896941e+00 -2.016432e+00 2.954449e+00 194 192 177
2.882643e+00 -2.002685e+00 2.955458e+00 110 103 90
2.832981e+00 -1.996983e+00 2.952654e+00 175 165 158
2.699339e+00 -1.983949e+00 2.949314e+00 195 189 177
-2.279150e+00 -2.009768e+00 2.978099e+00 165 153 137
4.927656e-01 -1.987459e+00 3.026780e+00 93 76 52
-1.531586e-02 -1.933252e+00 3.040458e+00 127 109 88
2.541938e+00 -1.860463e+00 2.954952e+00 129 115 96
6.094987e-01 -1.792697e+00 2.996707e+00 140 124 109
-1.451995e+00 -1.763227e+00 2.980284e+00 151 137 128
1.048496e-02 -1.733477e+00 3.043740e+00 63 41 26
8.725863e-01 -1.709050e+00 2.954983e+00 194 187 169
5.065848e-01 -1.693249e+00 2.999097e+00 72 55 34
2.824052e-01 -1.672545e+00 2.974352e+00 127 106 86
2.356945e+00 -1.591368e+00 2.943217e+00 121 108 89
-1.610539e+00 -1.627164e+00 2.982046e+00 76 57 46
-4.390687e-03 -1.580817e+00 3.015124e+00 64 47 31
1.818748e+00 -1.519126e+00 2.967063e+00 140 124 104
-2.450291e-01 -1.530677e+00 2.965426e+00 174 161 145
-2.450291e-01 -1.530677e+00 2.965426e+00 174 161 145
-1.026773e-02 -1.510167e+00 2.999606e+00 139 125 109
-2.085558e+00 -1.513863e+00 2.966901e+00 192 179 162
-1.509413e+00 -1.475774e+00 2.966960e+00 153 138 119
1.080299e-01 -1.444348e+00 2.993735e+00 126 107 93
4.354399e-01 -1.424545e+00 2.963440e+00 149 133 117
5.336458e-01 -1.363483e+00 2.942259e+00 99 80 68
4.553191e-01 -1.310804e+00 2.944214e+00 93 80 68
2.747184e-01 -1.295365e+00 2.955934e+00 111 94 78
-1.597186e+00 -1.178115e+00 2.960523e+00 194 184 175
2.607971e+00 -1.143343e+00 2.939113e+00 123 105 93
1.516530e+00 -1.026492e+00 2.966259e+00 221 212 213
2.327006e+00 -1.016599e+00 2.938847e+00 202 193 181
1.957711e+00 -1.016781e+00 2.939180e+00 195 186 177
2.774443e+00 -1.005277e+00 2.933602e+00 86 76 74
1.767029e+00 -1.012658e+00 2.940930e+00 71 57 44
1.938130e+00 -1.008966e+00 2.944436e+00 105 95 83
2.651825e+00 -9.987587e-01 2.930687e+00 198 199 182
5.721042e-01 -1.006442e+00 2.958195e+00 71 57 48
2.432353e+00 -9.921532e-01 2.935028e+00 111 101 80
1.562858e+00 -9.810054e-01 2.933435e+00 164 151 134
1.416408e+00 -9.751673e-01 2.964230e+00 173 156 147
-1.929384e+00 -9.972338e-01 2.961305e+00 70 60 49
-1.973647e+00 -9.975448e-01 2.966497e+00 63 52 46
2.360964e+00 -9.672874e-01 2.929726e+00 103 94 79
1.158866e+00 -9.741912e-01 2.917128e+00 167 151 135
1.181965e+00 -9.203717e-01 2.914727e+00 185 173 157
2.395301e+00 -8.181685e-01 2.925008e+00 215 204 202
1.764352e+00 -8.153336e-01 2.925581e+00 104 94 84
5.976584e-01 -8.217585e-01 2.915339e+00 109 97 88
1.613854e+00 -8.103886e-01 2.941155e+00 177 164 155
2.572125e+00 -7.978594e-01 2.934322e+00 185 172 156
2.572125e+00 -7.978594e-01 2.934322e+00 185 172 156
6.099378e-01 -8.076938e-01 2.915516e+00 205 197 187
1.779264e+00 -7.894545e-01 2.924021e+00 209 200 191
2.554738e+00 -7.831575e-01 2.930898e+00 124 116 102
2.305836e+00 -7.841954e-01 2.941231e+00 82 71 53
1.988301e+00 -7.862902e-01 2.930093e+00 204 191 182
2.329962e+00 -7.594534e-01 2.924719e+00 107 97 86
2.348652e+00 -7.548548e-01 2.925410e+00 119 111 95
1.549907e+00 -7.596946e-01 2.930581e+00 128 114 101
1.549907e+00 -7.596946e-01 2.930581e+00 128 114 101
-1.684482e+00 -7.482045e-01 2.951879e+00 133 127 113
1.582461e+00 -7.238496e-01 2.923081e+00 141 131 116
-8.485662e-01 -7.177337e-01 2.899361e+00 106 96 87
-2.068935e+00 -7.126015e-01 2.967713e+00 157 149 140
-5.126975e-02 -6.479758e-01 2.920587e+00 100 83 73
-1.543007e+00 -6.505250e-01 2.947641e+00 166 150 139
6.600674e-02 -5.130876e-01 2.889210e+00 88 71 55
-6.024890e-01 -5.112365e-01 2.906401e+00 93 70 56
-1.988360e+00 -4.929492e-01 2.946966e+00 94 77 61
1.075909e+00 -4.294563e-01 2.884289e+00 236 230 219
2.841445e+00 -2.846499e-01 2.925300e+00 111 99 88
-7.905657e-01 -2.767219e-01 2.884869e+00 129 113 97
2.440931e+00 -1.241329e-01 3.045272e+00 192 181 164
2.455801e+00 -1.103057e-01 3.043477e+00 140 126 113
2.440710e+00 -9.463209e-02 3.043561e+00 178 165 149
2.440710e+00 -9.463209e-02 3.043561e+00 178 165 149
2.441380e+00 -6.426118e-02 3.047511e+00 187 174 159
5.657183e-01 -2.292956e-02 3.213169e+00 40 31 27
2.456763e+00 1.642023e-02 3.047245e+00 129 112 94
1.789626e+00 9.707989e-02 3.115574e+00 167 158 141
2.441458e+00 1.187157e-01 3.048398e+00 169 156 139
2.351070e+00 1.592059e-01 3.081256e+00 160 149 131
3.176224e+00 2.857961e-01 3.050947e+00 242 250 245
1.867791e+00 3.308933e-01 3.067835e+00 221 215 199
2.731041e+00 4.282282e-01 2.919124e+00 110 106 95
-2.843186e+00 4.548640e-01 2.967030e+00 132 129 120
-8.498410e-01 4.258875e-01 2.834169e+00 121 112 106
4.980280e-02 5.109336e-01 3.245955e+00 127 118 109
1.949425e+00 4.926415e-01 3.072117e+00 214 204 195
1.507273e-01 5.289939e-01 3.253512e+00 34 20 10
-8.461409e-01 4.700041e-01 2.827987e+00 178 168 161
9.664684e-01 6.931108e-01 3.076023e+00 112 99 89
9.474837e-01 7.492816e-01 3.075455e+00 101 91 79
3.144531e-01 8.303821e-01 3.279084e+00 173 162 152
1.753388e+00 7.935108e-01 3.112975e+00 180 171 158
-1.652825e+00 8.059619e-01 3.083080e+00 198 190 179
1.280757e+00 8.257572e-01 2.875501e+00 217 216 208
1.709536e+00 9.249540e-01 3.085937e+00 97 85 71
-9.772332e-01 8.600532e-01 2.780912e+00 75 69 63
1.889946e+00 9.554997e-01 3.108369e+00 166 156 141
-6.241196e-01 9.490685e-01 3.035214e+00 108 98 86
-2.345007e+00 9.358537e-01 2.988041e+00 98 91 81
-1.964062e+00 9.842762e-01 3.049452e+00 171 162 147
2.072756e+00 9.954080e-01 3.042793e+00 113 103 78
-1.283682e+00 1.015188e+00 3.021915e+00 191 184 174
-5.949261e-01 1.062128e+00 3.032943e+00 186 176 166
1.534795e+00 1.085208e+00 3.056768e+00 186 178 168
-1.525744e+00 1.069099e+00 2.980711e+00 107 94 78
2.360206e+00 1.107753e+00 3.020606e+00 123 111 94
-6.400703e-01 1.098680e+00 2.996200e+00 199 193 181
-2.022371e+00 1.129986e+00 3.014277e+00 111 102 86
9.084188e-01 1.171111e+00 3.071057e+00 163 157 145
-6.598464e-02 1.206899e+00 3.171170e+00 138 122 107
-1.888314e+00 1.176200e+00 3.008347e+00 107 98 80
2.994100e+00 1.206036e+00 3.028383e+00 195 183 170
2.935880e+00 1.224575e+00 3.028695e+00 131 119 103
-2.362761e+00 1.227195e+00 3.002412e+00 123 109 99
2.269404e+00 1.287085e+00 3.017164e+00 175 157 143
1.762994e+00 1.309639e+00 3.041004e+00 166 153 137
1.729802e+00 1.312479e+00 3.044161e+00 171 162 144
3.009180e+00 1.305508e+00 3.014572e+00 197 195 180
3.009180e+00 1.305508e+00 3.014572e+00 197 195 180
2.940768e+00 1.310211e+00 3.019658e+00 176 170 156
2.976738e+00 1.315397e+00 3.018280e+00 153 141 123
-2.164769e+00 1.325551e+00 3.000900e+00 211 201 192
-2.164769e+00 1.325551e+00 3.000900e+00 211 201 192
7.340911e-01 1.360251e+00 3.074930e+00 155 143 127
-2.166697e+00 1.342741e+00 2.991274e+00 161 154 138
-6.548673e-01 1.358001e+00 3.009125e+00 151 142 132
-4.581202e-01 1.383385e+00 3.021966e+00 160 150 140
-4.920601e-01 1.424301e+00 3.026312e+00 146 134 122
-1.187588e+00 1.426611e+00 2.989995e+00 102 89 73
2.419597e+00 1.463922e+00 3.009557e+00 210 201 199
1.866716e+00 1.487378e+00 3.045145e+00 233 226 220
1.866716e+00 1.487378e+00 3.045145e+00 233 226 220
-7.363961e-01 1.383429e+00 2.754966e+00 98 84 71
-8.723412e-01 1.381062e+00 2.743749e+00 108 91 74
2.516575e+00 1.504837e+00 3.015129e+00 177 176 155
1.405213e+00 1.532119e+00 3.067367e+00 138 129 114
3.031860e+00 1.523950e+00 3.033450e+00 177 179 167
-2.708310e+00 1.530416e+00 2.939237e+00 101 89 73
-2.708310e+00 1.530416e+00 2.939237e+00 101 89 73
-2.776814e+00 1.540337e+00 2.943854e+00 146 137 120
-6.109201e-02 1.596753e+00 3.031944e+00 198 197 195
-1.255768e+00 1.593593e+00 2.989003e+00 211 208 199
-1.632928e+00 1.602646e+00 2.980718e+00 217 214 202
-2.402893e+00 1.621254e+00 2.970298e+00 212 206 195
2.253344e+00 1.747355e+00 3.087025e+00 194 190 181
1.419051e+00 1.772225e+00 3.132320e+00 147 140 121
1.126147e+00 1.800834e+00 2.867776e+00 154 148 135
2.787875e+00 1.864815e+00 2.940266e+00 151 147 136
2.787875e+00 1.864815e+00 2.940266e+00 151 147 136
2.289008e+00 1.930851e+00 3.083533e+00 167 161 145
3.000386e+00 1.909947e+00 3.031638e+00 127 117 107
2.272755e+00 1.940503e+00 3.084551e+00 86 79 69
-1.335067e+00 2.094046e+00 3.116804e+00 170 156 145
8.191284e-01 2.269640e+00 3.071734e+00 100 87 78
2.391564e+00 2.251831e+00 3.027628e+00 76 72 60
-6.013092e-01 2.280428e+00 2.890583e+00 197 189 180
1.046563e+00 2.273382e+00 2.785312e+00 95 93 83
8.579769e-01 2.403467e+00 3.037365e+00 160 151 140
-1.349912e+00 2.372425e+00 2.938072e+00 162 158 148
1.961462e+00 2.423538e+00 3.015268e+00 79 72 51
-1.839155e+00 2.427722e+00 2.928032e+00 107 96 86
-1.291939e+00 2.423433e+00 2.908343e+00 184 177 167
-2.206526e+00 2.494575e+00 2.927184e+00 187 181 176
7.560415e-01 2.572334e+00 3.031796e+00 159 146 133
-1.892784e+00 2.566683e+00 2.900662e+00 193 186 176
-1.698878e+00 2.621183e+00 2.882698e+00 171 160 144
-1.698878e+00 2.621183e+00 2.882698e+00 171 160 144
1.233662e+00 2.634079e+00 2.741919e+00 214 210 202
3.126626e+00 2.764294e+00 2.983990e+00 245 245 245
2.553465e+00 2.801050e+00 2.888516e+00 105 101 95
2.553465e+00 2.801050e+00 2.888516e+00 105 101 95
-2.189139e+00 2.925161e+00 2.888165e+00 75 68 62
2.641397e+00 4.277663e+00 2.994469e+00 182 179 174
2.663263e+00 4.427633e+00 2.993939e+00 131 125 118
2.376842e+00 4.485370e+00 3.029373e+00 164 157 143
2.225732e+00 4.536768e+00 3.050906e+00 149 150 139
2.158872e+00 4.641215e+00 3.054080e+00 117 115 97
1.322560e+00 4.767372e+00 3.066517e+00 93 89 77
-1.684325e+00 3.864159e+00 2.122982e+00 129 109 105
1.751816e+00 4.764019e+00 3.033611e+00 167 167 154
1.433784e+00 4.829740e+00 3.092620e+00 109 100 91
1.161186e+00 4.989775e+00 3.028427e+00 191 193 180
2.310779e+00 5.122638e+00 3.033181e+00 165 164 154
-1.356686e+00 5.126437e+00 2.956459e+00 189 185 174
1.272378e+00 5.207520e+00 3.028058e+00 164 159 154
-1.350217e+00 5.359295e+00 3.125015e+00 99 100 94
-2.156997e+00 5.529388e+00 3.086524e+00 179 177 173
-2.036749e+00 5.948884e+00 3.315657e+00 161 160 154
-1.141535e+00 6.376571e+00 3.601718e+00 163 153 154
-1.141535e+00 6.376571e+00 3.601718e+00 163 153 154
1.510860e+00 -2.935371e+00 2.982448e+00 68 53 34
2.549254e+00 -2.893077e+00 2.993393e+00 174 165 158
1.495274e+00 -2.883426e+00 2.979483e+00 110 97 81
6.086766e-01 -2.883080e+00 2.989248e+00 129 112 101
8.196197e-01 -2.847491e+00 2.976970e+00 143 131 119
-1.387776e+00 -2.623455e+00 2.977828e+00 123 103 91
2.491136e+00 -2.584577e+00 2.981189e+00 67 52 36
-1.525660e+00 -2.581196e+00 2.979631e+00 151 138 121
1.534916e-01 -2.528411e+00 3.002860e+00 128 110 103
1.534916e-01 -2.528411e+00 3.002860e+00 128 110 103
6.170362e-02 -2.464311e+00 3.011382e+00 103 90 71
3.734904e-01 -2.439568e+00 3.014701e+00 123 110 93
8.802664e-01 -2.392991e+00 2.972354e+00 104 89 69
2.458371e-01 -2.399463e+00 3.012104e+00 150 134 111
8.794508e-02 -2.401230e+00 3.014018e+00 109 96 77
-1.588369e+00 -2.407912e+00 2.976186e+00 93 80 61
1.036606e+00 -2.335791e+00 2.957682e+00 101 86 71
-6.223020e-02 -2.346380e+00 3.018846e+00 152 137 114
1.383039e+00 -2.318885e+00 2.966680e+00 114 97 81
8.433435e-01 -2.311151e+00 2.977941e+00 97 80 63
1.263491e+00 -2.244606e+00 2.940123e+00 181 168 159
2.582407e+00 -2.238297e+00 2.964639e+00 165 150 130
7.233178e-01 -2.223577e+00 2.991418e+00 125 109 84
7.952945e-01 -2.218125e+00 2.984679e+00 116 96 74
7.188001e-01 -2.201626e+00 2.996384e+00 111 96 75
1.882065e+00 -2.189670e+00 3.000803e+00 110 93 68
1.611182e+00 -2.165155e+00 3.008364e+00 103 86 66
5.994432e-02 -2.180288e+00 3.027715e+00 115 102 83
2.510452e+00 -2.138820e+00 2.964773e+00 113 96 78
7.557282e-01 -2.140163e+00 2.990064e+00 131 113 92
2.828056e+00 -2.089213e+00 2.957000e+00 162 154 143
1.442569e+00 -2.095009e+00 2.967582e+00 159 142 126
1.416796e+00 -2.095393e+00 2.971660e+00 160 143 125
1.426695e+00 -2.069951e+00 2.966478e+00 160 143 126
1.992901e+00 -2.029534e+00 3.005742e+00 109 93 69
4.954355e-01 -2.007910e+00 3.028448e+00 132 115 99
9.531350e-01 -1.904531e+00 2.954545e+00 130 118 96
6.813160e-01 -1.905933e+00 2.993400e+00 153 138 118
1.795415e+00 -1.890290e+00 3.013521e+00 105 87 64
3.589077e-02 -1.885534e+00 3.046451e+00 93 78 57
9.521008e-02 -1.868516e+00 3.055113e+00 144 128 113
-1.127293e-01 -1.863026e+00 3.034872e+00 82 57 38
1.875916e+00 -1.841158e+00 3.013485e+00 96 81 60
1.909178e-01 -1.842136e+00 3.051271e+00 94 75 56
1.845370e+00 -1.786382e+00 3.021370e+00 95 78 60
1.672917e+00 -1.773667e+00 2.991515e+00 82 64 46
8.839082e-01 -1.733339e+00 2.952071e+00 192 183 170
3.912390e-01 -1.739920e+00 3.025873e+00 129 110 95
2.668193e-01 -1.732056e+00 3.037709e+00 122 103 86
1.611518e+00 -1.663922e+00 2.960628e+00 83 67 51
5.030713e-01 -1.673933e+00 2.996068e+00 124 105 90
2.968539e-01 -1.588038e+00 3.008220e+00 116 98 83
6.675186e-01 -1.473361e+00 2.950093e+00 126 111 95
-1.027459e-01 -1.423405e+00 2.962492e+00 150 133 117
-1.021664e-01 -1.422919e+00 2.960410e+00 150 133 117
2.499018e+00 -1.387375e+00 2.949937e+00 204 193 182
-1.953071e+00 -1.334035e+00 2.966457e+00 204 189 170
-2.050240e+00 -1.302205e+00 2.968954e+00 157 149 135
-2.023866e+00 -1.285236e+00 2.970993e+00 203 192 174
-2.047342e+00 -1.285580e+00 2.968912e+00 199 188 171
-1.945041e+00 -1.281063e+00 2.967279e+00 197 180 161
2.407110e+00 -1.088992e+00 2.929177e+00 164 157 151
2.306815e+00 -1.024113e+00 2.934451e+00 131 120 117
2.813996e+00 -9.974750e-01 2.932435e+00 87 79 69
-6.464707e-01 -9.831186e-01 2.938002e+00 147 130 117
-8.405462e-01 -9.724510e-01 2.930972e+00 173 157 144
9.741951e-01 -9.557171e-01 2.963646e+00 115 105 94
-4.682849e-01 -9.631202e-01 2.940872e+00 188 175 158
2.779315e+00 -8.660790e-01 2.920561e+00 139 126 119
2.792103e+00 -8.573974e-01 2.919391e+00 190 183 172
1.747946e+00 -8.528354e-01 2.926239e+00 121 112 95
2.729550e+00 -8.339152e-01 2.929287e+00 143 137 115
-4.169093e-01 -8.386091e-01 2.926157e+00 166 153 137
-1.073950e+00 -8.368190e-01 2.943326e+00 138 123 106
2.810490e+00 -8.007553e-01 2.923389e+00 202 190 181
1.556817e+00 -8.012862e-01 2.924463e+00 200 191 179
2.539437e+00 -7.935903e-01 2.933469e+00 174 162 146
1.201791e+00 -7.876441e-01 2.899036e+00 199 189 179
1.792070e+00 -7.806941e-01 2.921263e+00 199 191 181
5.761176e-01 -7.806093e-01 2.965164e+00 119 105 94
1.786232e+00 -7.685339e-01 2.925644e+00 119 110 100
2.536921e+00 -7.642296e-01 2.934452e+00 185 175 162
1.181439e+00 -7.620481e-01 2.901194e+00 183 173 162
4.728806e-03 -7.644992e-01 2.911029e+00 95 82 70
-1.692794e+00 -7.643940e-01 2.955151e+00 180 173 161
3.899997e-01 -7.536210e-01 2.903821e+00 128 119 105
1.393089e-01 -7.553544e-01 2.921940e+00 100 88 77
1.366339e+00 -7.299460e-01 2.921210e+00 119 109 92
2.567948e+00 -6.845976e-01 2.937610e+00 111 92 84
-1.681156e+00 -6.936523e-01 2.952483e+00 135 127 116
2.214710e-01 -6.661290e-01 2.919879e+00 144 127 118
2.947964e+00 -6.277183e-01 2.922734e+00 126 119 107
-1.142544e-01 -5.300807e-01 2.896272e+00 140 120 98
-5.215135e-01 -5.279284e-01 2.901714e+00 144 126 106
7.834908e-01 -5.182932e-01 2.891600e+00 102 86 70
7.834908e-01 -5.182932e-01 2.891600e+00 102 86 70
-2.323295e-02 -5.097285e-01 2.884397e+00 101 83 69
7.884776e-01 -4.575830e-01 2.892859e+00 188 186 181
1.117849e+00 -2.647469e-01 2.889801e+00 111 92 83
1.789857e+00 -2.780661e-04 3.111738e+00 168 157 140
2.741322e+00 1.892365e-02 2.925519e+00 125 123 111
3.208477e+00 3.047433e-02 3.016533e+00 119 117 102
1.806120e+00 1.166498e-01 3.120167e+00 123 109 96
2.440493e+00 1.794095e-01 3.047125e+00 156 143 127
2.506080e+00 2.007626e-01 3.025235e+00 116 109 92
1.869343e+00 2.555164e-01 3.071407e+00 177 172 154
1.869343e+00 2.555164e-01 3.071407e+00 177 172 154
6.219251e-03 3.576256e-01 3.229274e+00 167 160 146
9.950738e-01 4.183606e-01 3.079625e+00 149 138 120
2.114292e+00 5.866114e-01 3.061224e+00 142 136 124
-1.309781e+00 5.944295e-01 3.090064e+00 99 82 64
1.591986e+00 6.018008e-01 3.083098e+00 217 213 204
-1.747363e+00 5.924446e-01 3.056334e+00 203 196 188
1.699953e+00 6.098629e-01 3.098854e+00 205 201 190
-1.897433e+00 6.069677e-01 3.056945e+00 149 145 135
1.948583e+00 6.506833e-01 3.094085e+00 209 206 192
-2.795417e+00 6.592394e-01 2.950414e+00 123 124 119
-1.947802e+00 6.582513e-01 3.034684e+00 157 150 142
-1.987129e+00 6.686683e-01 3.033591e+00 207 199 191
-1.991185e+00 6.877913e-01 3.035634e+00 138 130 122
1.041713e+00 6.904747e-01 2.887614e+00 206 200 189
-2.305535e+00 7.171369e-01 3.017692e+00 118 110 100
1.900154e+00 7.606211e-01 3.096302e+00 98 90 76
2.596590e+00 8.159253e-01 2.933753e+00 154 153 141
1.489022e+00 9.561913e-01 3.056409e+00 155 148 136
-2.596616e+00 9.604898e-01 2.927479e+00 111 109 105
2.409913e+00 9.751682e-01 3.022343e+00 189 184 165
3.009369e+00 1.011734e+00 3.031153e+00 133 130 118
2.997431e+00 9.949726e-01 2.996348e+00 133 130 118
2.435182e+00 1.028590e+00 3.024169e+00 124 117 108
2.316746e+00 1.041092e+00 3.025459e+00 188 180 170
1.382202e+00 1.062756e+00 3.060032e+00 167 153 145
2.302538e+00 1.072181e+00 3.030872e+00 204 191 182
2.720011e+00 1.086171e+00 2.944547e+00 138 134 125
2.720011e+00 1.086171e+00 2.944547e+00 138 134 125
9.016418e-01 1.133558e+00 3.076004e+00 115 102 92
2.457622e+00 1.146512e+00 3.003751e+00 104 99 82
8.463807e-01 1.186306e+00 3.091107e+00 111 105 94
2.275390e+00 1.187816e+00 3.027131e+00 93 91 78
1.371714e+00 1.333716e+00 3.058737e+00 170 154 138
-1.722608e+00 1.336538e+00 3.014860e+00 149 133 120
5.387200e-01 1.351882e+00 3.039594e+00 163 151 137
3.022640e+00 1.375974e+00 3.015554e+00 212 208 199
2.970590e+00 1.457468e+00 3.040933e+00 110 101 94
-6.662908e-01 1.823473e+00 3.056386e+00 85 80 69
-6.345084e-01 1.967305e+00 3.023577e+00 131 126 121
2.148440e+00 2.031997e+00 3.094481e+00 141 131 121
2.179911e+00 2.122360e+00 3.103430e+00 81 76 62
2.962677e+00 2.175812e+00 3.023130e+00 153 150 140
1.221461e+00 2.129833e+00 2.848104e+00 116 102 93
1.236366e+00 2.155963e+00 2.822232e+00 99 90 79
2.781760e+00 2.212812e+00 2.913468e+00 176 177 163
1.877716e+00 2.266882e+00 3.027489e+00 185 180 166
1.146546e+00 2.193250e+00 2.812746e+00 180 174 162
1.795085e+00 2.323611e+00 3.027494e+00 179 175 166
1.782741e+00 2.324682e+00 3.031079e+00 108 100 90
7.305961e-01 2.316884e+00 3.000550e+00 106 106 87
1.779552e+00 2.350741e+00 3.032011e+00 152 139 126
-2.139344e+00 2.364957e+00 2.935410e+00 174 172 162
-1.402578e+00 2.346006e+00 2.885920e+00 176 171 160
1.486537e+00 2.425552e+00 3.011718e+00 164 157 138
-1.457110e+00 2.385687e+00 2.914871e+00 156 144 132
2.170801e+00 2.456058e+00 3.033710e+00 172 163 152
-1.303446e+00 2.405363e+00 2.925791e+00 126 115 98
-1.283649e+00 2.400246e+00 2.899611e+00 117 108 95
1.947569e+00 2.465202e+00 3.018921e+00 83 78 58
-2.738399e+00 2.492064e+00 2.956005e+00 175 164 155
1.221418e+00 2.404205e+00 2.818796e+00 136 131 119
2.290116e+00 2.498393e+00 2.988010e+00 137 118 110
-5.749065e-01 2.448374e+00 2.892155e+00 145 139 127
-2.187342e+00 2.488537e+00 2.933516e+00 142 130 121
1.964542e+00 2.515836e+00 2.985086e+00 112 96 83
-1.809352e+00 2.479536e+00 2.903268e+00 113 107 101
2.788113e-01 2.541894e+00 2.989434e+00 196 189 181
-2.866180e+00 2.583813e+00 2.955599e+00 206 204 193
-1.960410e+00 2.551930e+00 2.895662e+00 91 86 71
-2.380496e+00 2.599852e+00 2.926351e+00 130 128 113
-1.643265e+00 2.608680e+00 2.867566e+00 164 150 141
-2.739222e+00 2.720109e+00 2.957656e+00 185 179 166
-2.243152e+00 2.672708e+00 2.924267e+00 163 150 137
-2.739832e+00 2.740775e+00 2.962654e+00 140 133 122
2.855800e+00 2.759592e+00 2.906342e+00 82 84 77
2.855800e+00 2.759592e+00 2.906342e+00 82 84 77
2.541920e+00 2.811010e+00 2.879101e+00 185 179 171
9.955079e-01 2.709052e+00 2.698786e+00 66 62 59
9.955079e-01 2.709052e+00 2.698786e+00 66 62 59
1.511319e+00 3.426658e+00 3.383807e+00 14 22 24
1.878216e+00 3.585519e+00 3.103611e+00 186 184 175
9.664994e-01 3.665928e+00 3.134788e+00 133 125 116
1.386192e+00 4.578511e+00 3.134339e+00 131 120 112
9.717213e-01 4.633788e+00 3.054022e+00 150 135 128
9.429151e-01 4.650952e+00 3.070832e+00 163 144 141
1.769202e+00 4.720225e+00 3.037192e+00 155 148 138
1.735161e+00 4.726594e+00 3.040141e+00 136 127 118
-2.047692e+00 4.100930e+00 2.289257e+00 121 126 128
2.482029e+00 4.810553e+00 3.001470e+00 167 149 147
1.541447e+00 4.880044e+00 3.053649e+00 129 119 105
1.716935e+00 4.946683e+00 3.029579e+00 143 134 127
1.716935e+00 4.946683e+00 3.029579e+00 143 134 127
1.099159e+00 5.012986e+00 3.032352e+00 189 179 170
-1.849297e+00 4.759917e+00 2.746656e+00 133 124 117
-1.518052e+00 5.725837e+00 3.309130e+00 142 138 137
-1.804781e+00 5.883939e+00 3.301848e+00 86 77 74
-2.245831e+00 5.874823e+00 3.250192e+00 80 80 75
-2.298615e+00 5.880869e+00 3.252285e+00 83 77 74
-2.266837e+00 5.964258e+00 3.312199e+00 166 162 158
-2.507693e+00 5.848695e+00 3.204559e+00 91 79 77
-2.355312e+00 5.893491e+00 3.242479e+00 142 133 124
-2.624360e+00 5.877325e+00 3.217026e+00 76 63 60
-2.681625e+00 5.879009e+00 3.200375e+00 145 136 127
-1.155888e-01 -9.387784e-01 3.137320e+00 148 143 128
1.737256e-01 -5.993129e-01 3.155953e+00 48 44 37
3.407920e-01 -1.141206e+00 3.104521e+00 90 87 81
-4.245515e-01 2.829856e-01 2.684399e+00 46 52 55
-5.690029e-03 6.724290e-01 2.917153e+00 48 50 52
-3.206368e-02 7.459638e-01 2.706892e+00 48 50 52
-2.100681e-01 5.926994e-01 2.694527e+00 157 159 146
1.759038e+00 5.692068e-01 2.902312e+00 179 179 169
1.798492e-01 -1.212651e+00 3.061260e+00 72 70 58
1.455941e+00 -5.734982e-01 2.833063e+00 131 127 116
-2.637527e-01 5.054274e-01 2.689375e+00 160 164 150
3.446468e-01 7.086025e-01 2.733850e+00 145 147 139
-2.316062e+00 1.134717e+00 2.960586e+00 88 88 80
-2.827841e-01 -2.123372e+00 2.804596e+00 116 105 84
-2.277594e+00 -8.998942e-01 3.288323e+00 65 69 70
1.242651e+00 -7.082125e-01 3.112172e+00 48 46 33
-1.456254e+00 -6.401929e-01 3.125062e+00 123 125 101
2.243040e-01 -6.091304e-01 3.106594e+00 44 44 39
-2.090684e-01 3.703755e-01 2.668426e+00 165 168 150
2.642085e-01 5.021009e-01 2.651806e+00 33 38 37
-3.952852e-02 5.063127e-01 2.660964e+00 35 36 41
-4.952944e-01 5.113206e-01 2.693465e+00 153 152 139
-4.948084e-01 5.128134e-01 2.686684e+00 153 152 139
-7.289620e-02 6.948004e-01 2.295906e+00 39 42 47
1.436701e+00 1.149433e+00 2.924493e+00 107 101 85
-2.350896e+00 1.192375e+00 3.021152e+00 107 106 98
-2.286297e+00 1.302388e+00 3.040163e+00 153 163 152
-1.922305e-01 2.440841e+00 3.106717e+00 144 146 142
-7.744943e-01 -2.153765e+00 3.120092e+00 73 73 61
-2.983856e-01 -2.089749e+00 2.815774e+00 75 67 49
-2.407530e-01 -1.944495e+00 2.846325e+00 70 62 45
-2.165613e+00 -9.765796e-01 3.089168e+00 148 145 130
6.434153e-01 -9.949252e-01 3.065252e+00 57 55 36
-4.585683e-01 -9.810690e-01 3.072552e+00 152 148 139
-3.253854e-01 -7.139901e-01 3.072760e+00 149 146 127
4.733706e-01 -7.162540e-01 3.092755e+00 146 143 129
-3.770701e-01 -6.053122e-01 3.089650e+00 46 45 41
-1.234232e+00 -6.228231e-01 3.227436e+00 39 39 31
5.502111e-01 4.510966e-02 2.671515e+00 136 135 130
6.162024e-01 1.150107e-01 2.624080e+00 35 37 41
-4.067123e-01 1.703719e-01 2.640317e+00 168 167 147
-1.104452e-01 2.298265e-01 3.260293e+00 40 40 24
4.821100e-01 4.206026e-01 2.673176e+00 41 43 36
7.310230e-01 4.590059e-01 2.638037e+00 123 123 105
2.404472e-01 5.141524e-01 2.698310e+00 154 157 153
2.400470e-01 5.185010e-01 2.694467e+00 154 157 153
4.781005e-01 5.446134e-01 2.701377e+00 39 37 32
1.797087e-01 8.540066e-01 2.709964e+00 46 49 51
-2.024437e+00 1.085488e+00 2.965402e+00 83 82 62
-1.590619e+00 1.123333e+00 3.016452e+00 138 139 128
5.326394e-02 2.443532e+00 3.080842e+00 140 144 130
-2.086362e+00 2.446831e+00 3.163967e+00 93 95 90
1.754694e-01 2.467966e+00 3.092081e+00 135 140 134
1.912552e-01 2.579699e+00 3.102114e+00 61 62 50
-1.065749e+00 -1.029665e+00 3.069689e+00 70 71 60
8.886266e-01 -7.490551e-01 3.025469e+00 40 36 30
1.920027e-01 -6.003909e-01 2.914488e+00 53 50 39
6.831751e-01 -5.652727e-01 2.880514e+00 45 38 30
6.113998e-01 2.032253e-01 2.652084e+00 125 126 123
-5.077485e-01 3.480259e-01 2.663112e+00 46 46 37
-4.458477e-01 3.676698e-01 2.658356e+00 150 154 145
-4.743619e-01 3.814257e-01 2.681602e+00 51 54 45
4.667555e-01 4.022374e-01 2.650484e+00 142 144 136
1.568725e-02 4.452958e-01 2.666827e+00 164 163 152
-1.962538e-01 4.522946e-01 2.686095e+00 57 58 49
4.056367e-01 6.013301e-01 2.661385e+00 29 30 34
7.111699e-01 7.008034e-01 2.698742e+00 107 104 92
-9.736795e-02 7.058729e-01 2.710217e+00 146 148 137
1.907925e-01 7.791048e-01 2.707409e+00 149 143 132
-4.310414e-01 1.116428e+00 1.994575e+00 43 39 33
-1.386759e-02 1.068242e+00 2.729969e+00 35 34 24
2.069116e+00 1.053210e+00 2.928524e+00 130 131 117
-1.327057e+00 1.233998e+00 3.024528e+00 70 72 56
4.211045e-01 1.275390e+00 2.962251e+00 86 86 78
1.550150e+00 2.291814e+00 3.050598e+00 61 58 48
1.240234e-01 2.372477e+00 3.080443e+00 149 151 148
3.887625e-01 2.434951e+00 3.068106e+00 141 141 140
4.871850e-01 2.556822e+00 3.106299e+00 72 70 57
4.881276e-01 4.832114e+00 1.363225e+00 39 66 124
-4.800815e-01 -7.689747e-01 3.106339e+00 105 102 96
9.178955e-01 -6.436184e-01 3.120387e+00 50 50 41
-4.205845e-01 2.253560e-01 2.697486e+00 40 43 31
6.939323e-02 5.698050e-01 2.682673e+00 33 28 12
-1.830438e-01 6.091829e-01 2.695237e+00 39 42 29
5.053407e-01 9.160543e-01 2.709580e+00 41 41 34
-2.259456e+00 1.274250e+00 3.031282e+00 92 94 89
2.412036e+00 1.634536e+00 2.979757e+00 40 46 44
1.460541e+00 1.859135e+00 2.888730e+00 41 39 40
9.042126e-01 -6.962818e-01 3.081705e+00 102 103 94
3.372143e-02 4.739849e-01 2.679329e+00 124 124 117
1.641713e-02 5.289439e-01 2.673038e+00 124 123 103
-1.207412e+00 8.585874e-01 2.986375e+00 81 84 75
