ply
format ascii 1.0
element face 0
property list uchar int vertex_indices
element vertex 196
property float x
property float y
property float z
property uchar diffuse_red
property uchar diffuse_green
property uchar diffuse_blue
end_header
2.241667e-01 -9.543204e-01 2.845497e+00 154 153 149
5.860879e-02 -9.386872e-01 2.812908e+00 26 31 35
-3.923954e-02 -7.937551e-01 2.730112e+00 29 34 37
-4.342227e-02 -7.531488e-01 2.793739e+00 157 154 145
-1.054455e-01 -7.397648e-01 2.744513e+00 32 33 37
-1.054455e-01 -7.397648e-01 2.744513e+00 32 33 37
-8.843616e-02 -6.971737e-01 2.794042e+00 153 151 138
-8.861635e-02 -6.997460e-01 2.796995e+00 153 151 138
-2.565308e-01 -3.034660e-01 2.749864e+00 128 126 114
2.192828e-01 -2.619035e-01 2.789220e+00 72 65 60
8.425182e-01 -1.062337e+00 2.841617e+00 126 120 108
1.615863e-01 -9.067203e-01 2.795203e+00 35 33 39
-2.990285e-01 -6.496471e-01 2.727335e+00 50 58 68
-4.600256e-01 -6.424684e-01 2.708508e+00 45 50 56
-9.355717e-01 -1.307128e-01 2.899705e+00 75 72 64
-1.154083e+00 -2.116020e-01 3.027764e+00 156 152 149
-6.609451e-01 -2.402943e-01 2.779012e+00 121 117 108
-4.321421e-01 -2.685737e-01 2.718220e+00 128 118 101
9.661091e-01 -2.118057e+00 3.051961e+00 33 35 42
8.289735e-01 -2.400703e+00 3.162558e+00 130 128 129
8.402252e-01 -9.721269e-01 2.827172e+00 43 38 42
-2.597878e-01 -2.602336e-01 2.756356e+00 46 45 45
8.714358e-01 -4.699599e-01 2.948053e+00 128 125 119
8.025314e-01 -3.871185e-01 2.937385e+00 138 135 129
-8.678725e-01 -1.947698e-01 2.927331e+00 72 68 60
-7.711074e-01 -1.435352e-01 2.924686e+00 73 70 63
-3.643557e-01 -7.793050e-02 2.897977e+00 138 135 125
1.138786e+00 -4.873273e-01 2.984940e+00 126 125 120
-8.150424e-01 -1.665478e-01 2.924445e+00 70 69 63
-7.439502e-01 -8.248270e-01 2.710209e+00 43 47 46
2.549458e-01 -1.037889e+00 2.882720e+00 149 148 148
4.369641e-01 -4.167544e-01 2.753778e+00 70 64 49
-1.299122e+00 -1.570294e+00 2.488018e+00 143 145 140
6.354389e-01 -7.552367e-01 2.819402e+00 76 70 65
-7.210338e-01 -1.949031e-01 2.788036e+00 92 89 76
6.588476e-02 -2.729459e-01 2.739370e+00 133 131 120
-5.811555e-01 -2.095857e-01 2.775676e+00 125 122 113
-9.957118e-01 -5.155091e-02 2.946399e+00 165 160 155
-2.567965e-01 -7.546089e-01 2.773134e+00 163 154 139
8.707975e-01 -2.210333e+00 2.968632e+00 123 114 105
4.094916e-01 -1.201912e+00 2.858707e+00 140 141 135
4.094916e-01 -1.201912e+00 2.858707e+00 140 141 135
-1.054341e+00 -6.226793e-01 2.585050e+00 30 33 40
-4.171884e-01 -6.821698e-01 2.736450e+00 153 153 145
-5.266495e-01 -3.109760e-01 2.618300e+00 33 34 39
-8.447298e-01 -3.144303e-01 2.744011e+00 130 127 120
-1.183296e-02 -2.946917e-01 2.737514e+00 141 138 128
-5.080563e-01 -1.364691e-01 2.817238e+00 87 83 72
-3.748308e-01 -8.452091e-02 2.789278e+00 80 74 69
-2.680259e+00 -4.905466e+00 4.734017e+00 65 62 52
-2.514637e+00 -4.755200e+00 4.738243e+00 63 61 51
-2.624985e+00 -4.664820e+00 4.724205e+00 126 123 115
-1.439118e+00 -1.474318e+00 2.614808e+00 150 152 150
9.275569e-01 -1.388388e+00 2.852266e+00 127 121 108
8.760115e-01 -1.163141e+00 2.844930e+00 29 32 43
-6.254731e-01 -8.645906e-01 2.716711e+00 150 149 154
2.241667e-01 -9.543204e-01 2.845497e+00 154 153 149
5.880938e-01 -8.192307e-01 2.785648e+00 33 37 40
-9.492092e-01 -5.741656e-01 2.667558e+00 144 138 126
-3.030518e-01 -6.826752e-01 2.765234e+00 49 56 66
5.525642e-01 -5.813914e-01 2.755454e+00 33 37 40
5.525642e-01 -5.813914e-01 2.755454e+00 33 37 40
-7.220020e-01 -3.929666e-01 2.658945e+00 135 129 116
3.439312e-01 -4.080156e-01 2.735822e+00 29 34 41
-2.993565e-01 -2.757175e-01 2.667550e+00 30 34 38
-3.703320e-01 -2.390725e-01 2.656132e+00 31 34 39
1.164613e-01 -2.919098e-01 2.713737e+00 32 33 37
-2.509644e-01 -2.580764e-01 2.692899e+00 128 126 114
-1.260695e-01 -2.470212e-01 2.693779e+00 30 35 41
-7.218163e-01 -2.560798e-01 2.751562e+00 123 120 114
5.074657e-01 -3.429326e-01 2.910598e+00 88 84 72
5.074657e-01 -3.429326e-01 2.910598e+00 88 84 72
2.815272e-01 -2.325607e-01 2.799123e+00 117 111 103
-4.785705e-01 -1.705490e-01 2.767004e+00 120 117 108
-4.323491e-01 -1.764618e-01 2.792707e+00 113 108 103
1.164571e+00 -7.062675e+00 6.028134e+00 65 62 53
9.320867e-01 -2.190006e+00 3.024811e+00 130 126 116
9.571017e-01 -1.667418e+00 2.913521e+00 130 127 113
9.487818e-01 -1.534970e+00 2.875419e+00 34 37 42
9.028212e-01 -1.251941e+00 2.852747e+00 127 119 105
-6.104384e-01 -7.702478e-01 2.692942e+00 40 40 48
6.360528e-01 -7.172768e-01 2.822428e+00 129 126 111
-6.720399e-01 -3.980896e-01 2.651996e+00 40 41 50
-4.388226e-01 -2.975480e-01 2.660231e+00 42 42 44
-1.164849e+00 -2.829977e-01 2.890989e+00 84 80 79
-1.164849e+00 -2.829977e-01 2.890989e+00 84 80 79
-1.087220e+00 -2.238772e-01 2.891177e+00 71 71 70
-1.012072e+00 -1.750289e-01 2.892883e+00 73 72 71
-1.029513e+00 -3.147605e-02 2.954791e+00 80 79 75
9.316904e-01 -2.232653e+00 2.952134e+00 46 41 45
3.297054e-01 -1.365728e+00 2.870976e+00 58 62 72
9.314621e-01 -1.220481e+00 2.885021e+00 123 122 106
-3.861482e-02 -1.001654e+00 2.833540e+00 148 148 140
1.120966e+00 -6.309098e-01 3.181761e+00 142 141 139
-1.200928e+00 -1.758550e-01 2.932050e+00 164 164 152
-1.211851e+00 -1.351058e-01 2.938726e+00 72 68 68
-1.211851e+00 -1.351058e-01 2.938726e+00 72 68 68
-1.118478e+00 -7.515385e-02 2.940730e+00 79 78 73
9.064917e-01 -2.530245e+00 3.046107e+00 141 138 130
-2.750533e+00 -4.565265e+00 4.697019e+00 117 116 97
-1.276980e+00 -5.198871e+00 5.182121e+00 106 104 105
-1.446228e+00 -1.664860e+00 2.618345e+00 167 170 161
9.583249e-01 -2.032802e+00 2.918640e+00 123 117 101
-1.679374e+00 -1.065306e+00 2.897591e+00 96 96 88
-1.192335e+00 -7.707834e-01 2.634198e+00 38 36 38
8.437638e-01 -9.919952e-01 2.847394e+00 43 38 42
5.549659e-01 -7.152684e-01 2.772754e+00 56 59 67
-1.176144e+00 -3.532518e-01 2.855947e+00 103 99 91
-1.227781e+00 -3.005195e-01 2.903353e+00 140 140 131
-8.983791e-01 -1.527237e-01 2.829150e+00 83 80 72
-1.074914e+00 -1.814038e-01 2.900112e+00 148 141 138
-7.870895e-01 -1.052504e-01 2.890862e+00 138 138 133
-9.406945e-01 -1.875335e-02 2.942957e+00 157 153 150
-9.112026e-01 -7.268551e-03 2.947363e+00 155 154 148
1.097624e+00 -2.783754e+00 3.316270e+00 103 102 101
1.111800e+00 -2.639946e+00 3.253442e+00 96 95 91
-1.208889e+00 -4.572758e+00 4.996845e+00 71 69 70
-1.617374e+00 -1.659239e+00 2.705895e+00 123 123 119
-1.439528e+00 -3.943326e+00 4.614394e+00 153 153 153
-1.319575e+00 -1.004834e+00 2.602105e+00 148 144 144
-1.710732e+00 -1.084631e+00 2.819798e+00 138 133 118
2.187071e-01 -1.069755e+00 2.829914e+00 156 159 155
-1.573721e+00 -7.578823e-01 2.929465e+00 89 88 83
1.678374e-01 -3.927116e-01 2.731667e+00 37 38 39
9.920763e-01 -7.355225e-01 3.112958e+00 137 136 131
9.302981e-01 -6.470093e-01 3.108958e+00 132 128 121
7.109761e-01 -4.960000e-01 2.953782e+00 81 78 71
9.835468e-01 -6.920140e-01 3.162065e+00 87 85 82
9.835468e-01 -6.920140e-01 3.162065e+00 87 85 82
1.536567e-01 -2.400744e-01 2.811818e+00 69 66 61
7.417907e-01 -4.107722e-01 3.058510e+00 138 135 128
-1.107859e+00 -1.822915e-01 2.916069e+00 107 99 96
-7.486379e-01 -9.125705e-02 2.896256e+00 146 143 134
-7.226230e-01 -1.465116e-02 2.931321e+00 121 118 106
7.797023e-01 -2.483477e+00 2.967995e+00 142 143 138
-1.085457e+00 -4.725401e+00 5.007931e+00 93 93 95
8.486353e-01 -2.199991e+00 2.988174e+00 146 146 144
8.486353e-01 -2.199991e+00 2.988174e+00 146 146 144
-1.474999e+00 -1.527368e+00 2.565758e+00 148 149 144
-1.295930e+00 -3.565585e+00 4.691107e+00 97 97 95
-6.993958e-01 -3.258624e+00 4.566027e+00 102 102 101
-1.679497e+00 -1.276984e+00 2.843339e+00 120 119 113
-7.649885e-01 -3.257189e+00 4.633861e+00 175 173 176
2.994125e-01 -1.200860e+00 2.870850e+00 138 137 136
8.387326e-01 -1.109543e+00 2.857262e+00 135 132 125
-1.648454e+00 -9.497516e-01 2.861864e+00 162 163 155
-4.486154e-01 -8.251764e-01 2.761978e+00 153 152 152
-2.402617e-01 -8.398475e-01 2.806196e+00 143 142 141
-2.634781e-01 -8.251590e-01 2.798718e+00 165 165 155
6.971563e-01 -8.173437e-01 2.831183e+00 119 115 105
8.491166e-01 -8.535255e-01 2.926501e+00 142 139 132
-1.494659e+00 -6.508502e-01 2.907774e+00 84 84 81
-7.980218e-01 -4.218108e-01 2.689581e+00 144 141 128
-1.394351e+00 -5.731450e-01 2.869910e+00 160 160 152
8.102348e-01 -6.509437e-01 2.985944e+00 87 79 76
-2.348980e-01 -2.940768e-01 2.718520e+00 111 108 102
9.037712e-01 -6.250381e-01 3.077943e+00 82 77 72
8.605608e-01 -5.057094e-01 3.106315e+00 86 82 81
-6.302855e-01 -1.435007e-01 2.833187e+00 135 130 126
-6.028275e-01 -1.290024e-01 2.825848e+00 138 134 130
-2.811886e-01 -6.644912e-02 2.867542e+00 101 97 94
-1.683518e+00 -5.800867e+00 5.458430e+00 119 114 108
9.403947e-01 -2.419078e+00 3.047907e+00 33 33 30
9.757463e-01 -2.230049e+00 3.015867e+00 50 49 42
8.013170e-01 -2.130736e+00 2.960448e+00 58 59 61
9.858851e-01 -2.125719e+00 2.968248e+00 103 99 89
-1.070220e+00 -1.562970e+00 2.637919e+00 90 94 98
-8.991088e-01 -3.913832e+00 4.764748e+00 139 138 145
-8.692021e-01 -3.883737e+00 4.752276e+00 55 54 59
-8.692021e-01 -3.883737e+00 4.752276e+00 55 54 59
4.938552e-01 -1.628375e+00 2.891548e+00 162 163 164
4.317588e-01 -1.382083e+00 2.864608e+00 153 154 149
-7.061933e-01 -3.301961e+00 4.646800e+00 161 160 157
-7.021058e-01 -3.302622e+00 4.681284e+00 90 89 87
-5.092755e-01 -7.742165e-01 2.752758e+00 59 65 71
-1.036177e+00 -6.061939e-01 2.632387e+00 95 88 79
-7.136683e-02 -8.125061e-01 2.802174e+00 156 159 152
-9.113868e-01 -5.893596e-01 2.674982e+00 107 107 107
-1.555251e+00 -7.420301e-01 2.884106e+00 145 142 137
6.543523e-01 -7.598956e-01 2.827175e+00 79 74 70
-8.930791e-02 -6.711421e-01 2.786986e+00 110 106 99
-7.338175e-01 -3.710832e-01 2.669846e+00 136 131 121
-1.335910e+00 -5.331412e-01 2.870131e+00 111 108 101
-9.957632e-01 -3.245660e-01 2.796875e+00 141 137 133
1.503996e-01 -3.439072e-01 2.765405e+00 139 138 130
7.119043e-01 -4.040749e-01 3.044469e+00 72 70 58
-7.440641e-01 -5.565069e-02 2.942168e+00 130 129 124
-1.028883e+00 5.411501e-02 2.935943e+00 155 154 152
2.979571e-01 3.535992e+00 -1.505062e+00 0 255 0
2.999130e-01 3.565486e+00 -1.545389e+00 255 255 0
1.740166e-01 3.202324e+00 -1.670200e+00 255 0 0
1.778667e-01 3.237517e+00 -1.705509e+00 255 255 0
1.168489e+00 3.911153e+00 -1.584746e+00 0 255 0
1.177049e+00 3.958585e+00 -1.598046e+00 255 255 0
1.814257e-01 3.934369e-01 4.130415e+00 255 0 0
1.885511e-01 4.015027e-01 4.081587e+00 255 255 0
