ply
format ascii 1.0
element face 0
property list uchar int vertex_indices
element vertex 957
property float x
property float y
property float z
property uchar diffuse_red
property uchar diffuse_green
property uchar diffuse_blue
end_header
3.080603e+00 2.332638e+00 3.088438e+00 210 218 232
1.508008e+00 2.439792e+00 3.041686e+00 87 86 82
1.223115e+00 2.499204e+00 3.376620e+00 75 74 72
-6.776485e-01 2.620005e+00 3.464343e+00 109 108 110
2.249284e+00 3.107806e+00 2.978563e+00 102 102 102
-2.285737e+00 5.632179e+00 3.240306e+00 58 56 59
-1.557183e+00 5.592730e+00 3.319251e+00 59 58 61
2.594510e+00 6.430290e+00 2.916146e+00 221 231 247
-2.880075e+00 5.711843e+00 3.391329e+00 60 52 51
-2.118769e+00 -2.122529e-01 3.085840e+00 92 91 89
8.678072e-01 -1.035625e+00 3.008880e+00 89 91 90
-5.903529e-01 -6.080726e-01 3.043925e+00 26 23 24
1.884535e-02 -6.136799e-01 3.055184e+00 20 19 17
-1.400889e+00 -6.160535e-01 3.044574e+00 23 18 18
-3.382224e+00 2.839290e-01 2.765826e+00 213 237 254
-2.354510e+00 -9.911323e-01 3.004330e+00 78 77 79
8.647905e-01 -9.713906e-01 3.033845e+00 73 71 68
-4.036939e-01 2.043334e-01 2.632700e+00 98 96 97
-6.835420e-01 1.485461e-01 3.121059e+00 32 28 29
-3.373475e+00 5.326066e-01 2.631680e+00 96 95 107
1.210300e-01 8.147052e-01 2.706506e+00 20 15 12
2.435700e-01 1.127483e+00 2.799555e+00 77 65 61
-2.018309e+00 1.091164e+00 2.976253e+00 96 91 88
3.155036e+00 2.224841e+00 2.993534e+00 181 204 235
2.148182e+00 2.272473e+00 3.028438e+00 39 36 37
-2.295815e+00 -1.053298e+00 2.999390e+00 79 85 86
-1.453496e+00 -1.030421e+00 2.953231e+00 33 28 25
2.413409e+00 -1.116350e+00 3.015318e+00 44 38 38
7.664965e-01 -1.032546e+00 3.023840e+00 47 39 37
1.157075e+00 -1.035204e+00 3.036925e+00 88 91 97
-3.743905e-01 2.180319e-01 2.640991e+00 91 89 91
-4.432733e-01 3.236473e-01 2.644560e+00 16 14 17
-3.344064e+00 5.245020e-01 2.610971e+00 211 230 243
1.452633e+00 2.109481e+00 2.962979e+00 27 25 30
-1.361124e+00 2.783282e+00 3.235014e+00 42 44 56
-2.661280e+00 -1.073816e+00 3.126394e+00 86 91 100
-2.661280e+00 -1.073816e+00 3.126394e+00 86 91 100
-7.976296e-01 -1.016988e+00 2.990510e+00 23 24 28
-3.431091e-01 -1.018984e+00 2.992859e+00 78 81 85
1.758217e+00 -1.026422e+00 2.992323e+00 28 25 25
-2.572367e+00 -6.739231e-01 3.198828e+00 87 85 86
2.318494e+00 1.054381e+00 2.921995e+00 48 44 44
1.358118e-01 1.329334e+00 2.993989e+00 88 84 83
1.875221e+00 2.261739e+00 3.089160e+00 46 41 41
1.999156e+00 2.457489e+00 3.067897e+00 43 39 38
1.822871e+00 2.424644e+00 3.125638e+00 43 41 39
-2.341103e+00 4.902720e+00 3.100519e+00 10 15 26
2.730281e+00 -2.856463e-01 3.087143e+00 52 51 54
1.425319e+00 2.272766e+00 3.053085e+00 48 46 49
-4.275051e-01 2.489383e+00 3.132839e+00 85 85 87
-3.285541e+00 2.945426e+00 3.138959e+00 82 96 118
-1.937578e+00 2.857775e+00 3.234548e+00 97 93 92
-3.266135e+00 3.020760e+00 3.176583e+00 168 192 219
-2.438823e+00 4.331377e+00 3.134569e+00 54 54 56
3.111930e-01 -1.228070e-01 3.038575e+00 61 60 58
1.575993e+00 7.412285e-01 2.865133e+00 64 56 53
-2.423813e+00 1.016837e+00 2.945796e+00 60 58 61
1.393965e+00 9.193641e-01 2.916884e+00 59 53 53
2.323583e+00 1.529122e+00 2.951750e+00 37 41 51
-2.118707e+00 2.292381e+00 3.086072e+00 80 80 84
-3.269589e+00 2.854457e+00 3.157716e+00 166 192 222
-1.000041e+00 2.778494e+00 3.430689e+00 44 44 44
-3.185719e+00 2.435760e+00 3.325619e+00 193 229 250
1.971695e+00 -2.480448e+00 2.662090e+00 48 44 35
3.256248e+00 -4.114226e-01 2.555653e+00 112 109 91
-9.197735e-01 3.766979e-01 3.181372e+00 137 130 96
1.069304e+00 4.822541e-01 3.060744e+00 151 132 116
1.640148e+00 1.655579e+00 2.798823e+00 21 21 19
-1.617402e+00 5.252852e+00 3.234965e+00 139 118 92
-2.715395e+00 5.216470e-02 3.328666e+00 150 136 109
1.071324e+00 3.597412e-01 3.102559e+00 139 124 101
-2.228038e+00 1.154563e+00 3.087096e+00 144 122 92
-2.376867e+00 1.010820e+00 2.841433e+00 164 145 120
-2.376867e+00 1.010820e+00 2.841433e+00 164 145 120
-1.357179e+00 6.694628e+00 -5.066860e+00 90 59 41
-2.899874e+00 2.760868e+00 3.482837e+00 55 53 45
-3.207871e+00 4.806373e+00 3.104606e+00 169 214 219
1.431361e+00 -2.728211e+00 2.744992e+00 95 90 72
1.124174e+00 -2.392662e+00 2.952890e+00 29 26 19
2.125214e+00 2.761274e-01 -5.673996e-01 93 88 69
-2.832861e+00 9.042503e-02 3.192981e+00 30 30 36
3.992652e-01 2.642997e-01 2.603357e+00 19 12 8
1.414576e+00 1.634125e+00 2.797296e+00 146 129 103
1.837175e+00 2.434098e+00 2.850270e+00 54 38 24
-1.365402e+00 4.509790e+00 3.020097e+00 72 82 81
-3.127452e+00 4.847256e+00 3.370202e+00 153 211 227
7.081929e-01 5.191014e+00 3.051605e+00 151 198 228
2.790489e+00 -2.024291e+00 2.938946e+00 17 19 16
-1.482752e+00 -7.486297e-01 3.090503e+00 32 24 14
-4.920357e-01 5.182146e-01 2.655014e+00 153 129 97
-3.159715e+00 5.332725e-01 2.943765e+00 119 115 91
-3.404490e-01 1.475512e+00 1.653014e-01 133 121 96
-2.438656e-01 6.354705e-01 2.651464e+00 25 22 16
1.126833e-01 9.365261e-01 2.560687e+00 19 20 13
-1.235070e-01 1.582991e+00 2.933369e+00 27 22 18
1.447386e+00 1.685181e+00 2.678633e+00 29 19 18
-3.181059e+00 2.326727e+00 3.233967e+00 96 92 83
1.099631e+00 6.389109e+00 -4.981200e+00 147 128 117
-5.890435e-01 3.466933e+00 1.842975e+00 175 212 228
-3.054579e+00 4.669222e+00 3.416962e+00 157 203 208
1.961224e+00 5.095656e+00 3.103381e+00 76 62 37
-2.617722e+00 -1.317078e+00 3.372559e+00 135 121 94
-2.617722e+00 -1.317078e+00 3.372559e+00 135 121 94
-1.835399e+00 -1.047491e+00 3.047144e+00 57 39 33
-2.596190e+00 -1.093149e+00 3.301129e+00 44 38 28
4.143551e-01 -2.570913e-03 2.453973e+00 33 27 21
-4.793260e-01 3.227671e-01 2.626206e+00 157 136 109
1.876348e-01 4.648142e-01 2.622320e+00 26 17 11
3.269017e+00 5.109441e-01 2.482417e+00 205 227 207
-2.274490e+00 6.761273e+00 -6.195020e+00 7 7 41
-1.882074e+00 6.778637e+00 -5.977198e+00 202 219 242
-3.160017e+00 2.531435e+00 3.251415e+00 59 81 68
1.594235e+00 2.398444e+00 2.907124e+00 129 116 92
1.992235e+00 6.668645e-01 6.424789e+00 49 37 14
-4.030035e-02 2.523567e+00 2.998538e+00 51 34 19
-1.709298e+00 1.202423e+01 -9.432553e+00 44 65 88
-1.709298e+00 1.202423e+01 -9.432553e+00 44 65 88
7.902702e-01 4.451080e+00 3.135902e+00 46 48 39
-3.221080e+00 5.062607e+00 3.212033e+00 153 197 178
-1.310280e+00 5.761376e+00 3.344378e+00 78 80 56
-2.372640e+00 -1.066427e+00 3.243569e+00 126 110 96
-2.432579e+00 -8.511278e-01 3.240650e+00 107 98 91
-3.394521e+00 2.081459e-01 2.735820e+00 210 226 187
6.424868e-01 3.920878e-01 2.484060e+00 63 68 64
-3.336639e+00 5.739780e-01 2.737759e+00 93 105 130
-1.986610e+00 2.218522e+00 3.022399e+00 155 133 108
-1.107480e+00 5.216934e+00 -1.534371e+00 78 82 61
-1.789059e+00 1.070829e+01 -9.445379e+00 157 191 227
-8.569599e-01 9.562909e+00 -4.416915e+00 120 164 199
-8.569599e-01 9.562909e+00 -4.416915e+00 120 164 199
-3.139084e+00 5.334310e+00 3.263485e+00 61 92 92
-3.327754e+00 5.005566e-01 2.719172e+00 92 93 139
-6.397279e-01 2.082636e+00 2.959667e+00 95 77 55
-6.342142e-01 3.502011e+00 1.843332e+00 145 148 160
-1.772134e+00 1.251964e+01 -9.510165e+00 153 183 223
-1.740328e+00 1.269137e+01 -9.324460e+00 155 200 223
-1.726386e+00 1.277343e+01 -9.408421e+00 81 122 146
-1.726386e+00 1.277343e+01 -9.408421e+00 81 122 146
-5.930278e-01 1.310209e+00 3.048799e+00 137 137 129
1.437977e-01 4.329548e-01 2.844965e+00 50 57 59
2.052034e+00 -2.398380e+00 2.180438e+00 15 14 15
1.844668e-01 1.464286e-01 3.108636e+00 114 119 114
1.844668e-01 1.464286e-01 3.108636e+00 114 119 114
3.798649e-01 2.820583e-01 2.856973e+00 49 52 58
1.504753e+00 2.175992e+00 3.080016e+00 49 51 47
1.548497e+00 -8.307775e-01 2.563625e+00 113 110 95
-1.967601e-01 -8.554033e-01 3.085865e+00 162 160 147
1.571234e+00 -7.959178e-01 2.947758e+00 137 131 117
2.484522e-01 -1.961644e-01 3.074571e+00 46 51 53
3.841102e-01 -1.324671e-01 2.960135e+00 45 51 50
4.919919e-01 -1.714416e-02 2.805125e+00 47 50 55
4.330100e-01 3.961610e-01 2.945646e+00 50 55 58
-4.344231e-01 2.518181e+00 2.940566e+00 45 45 46
4.315327e-01 5.658385e-01 2.663911e+00 143 143 122
-1.658357e-01 5.021284e-01 2.928834e+00 157 159 146
1.171879e+00 2.088164e+00 3.221613e+00 150 152 142
2.672807e+00 -2.361897e+00 2.700382e+00 164 166 155
1.323982e+00 -6.606430e-01 2.983948e+00 60 57 51
3.709338e-01 6.546129e-01 2.870462e+00 145 147 139
3.709338e-01 6.546129e-01 2.870462e+00 145 147 139
2.139543e+00 1.622120e+00 2.967827e+00 114 120 114
2.138888e+00 1.845915e+00 2.953329e+00 122 121 117
2.138736e+00 1.888418e+00 2.963246e+00 120 122 116
-2.251148e+00 1.924329e+00 3.053890e+00 139 142 119
3.035923e+00 2.501730e+00 2.846357e+00 142 145 137
2.834792e+00 5.627092e+00 2.959258e+00 162 187 208
1.816140e+00 -8.860567e-01 2.518231e+00 65 64 57
2.554425e+00 -5.720730e-01 2.696602e+00 127 124 111
1.152334e+00 -5.150024e-01 2.736538e+00 45 42 37
3.746285e-01 1.609475e-01 2.779004e+00 39 37 35
2.166338e-01 2.974067e-01 2.849055e+00 32 32 31
2.239044e-01 3.481076e-01 2.851718e+00 146 152 139
2.239044e-01 3.481076e-01 2.851718e+00 146 152 139
7.167968e-02 3.404935e-01 2.895630e+00 161 160 148
2.611210e-01 3.896828e-01 2.880029e+00 146 148 142
2.191006e+00 1.935194e+00 2.937791e+00 23 28 31
2.191178e+00 1.979526e+00 2.965239e+00 25 27 26
1.523026e+00 2.153177e+00 3.092066e+00 24 26 24
-7.673570e-02 2.424345e+00 3.267037e+00 130 137 129
-2.853265e+00 -2.056410e+00 2.607853e+00 149 150 137
-1.630002e-01 6.640935e-01 2.683286e+00 29 28 18
-1.626265e-01 7.065563e-01 2.685274e+00 161 170 163
2.428075e-01 8.176308e-01 2.651027e+00 151 153 143
2.569684e-01 8.160090e-01 2.729179e+00 50 52 55
2.181033e+00 1.562633e+00 2.921309e+00 37 39 41
-2.002600e+00 1.729120e+00 3.049160e+00 142 148 153
-1.366138e+00 2.008057e+00 3.317437e+00 62 70 73
1.504765e+00 2.137390e+00 3.037474e+00 85 87 83
1.470780e+00 2.212257e+00 2.965373e+00 25 25 25
5.000430e-01 2.365613e+00 3.064219e+00 43 45 37
-1.830991e-01 2.327058e+00 3.246950e+00 153 156 150
2.419700e+00 2.402958e+00 3.133013e+00 97 98 90
1.457343e+00 2.470581e+00 3.041076e+00 120 121 106
2.175925e+00 2.732763e+00 3.086472e+00 51 52 51
2.236047e+00 3.073166e+00 2.855667e+00 38 47 48
1.426239e+00 3.271489e+00 2.970058e+00 26 30 31
6.488587e-01 4.749522e+00 3.006884e+00 47 74 132
6.488587e-01 4.749522e+00 3.006884e+00 47 74 132
2.528844e+00 6.658404e+00 2.623735e+00 65 94 134
-1.258415e+00 -2.642730e+00 2.249556e+00 50 53 43
-1.258415e+00 -2.642730e+00 2.249556e+00 50 53 43
4.614261e-02 -2.563478e+00 2.090717e+00 93 90 82
-4.547328e-01 -2.500743e+00 2.300988e+00 115 112 93
8.066644e-01 -2.495144e+00 2.224137e+00 41 38 34
-8.112970e-01 -2.409874e+00 2.582086e+00 109 110 92
1.584377e+00 -2.221951e+00 2.191705e+00 79 69 59
-9.208311e-01 -2.257084e+00 2.597142e+00 74 75 68
2.847030e+00 -2.013953e+00 2.272917e+00 80 79 76
-1.499305e-01 -1.351503e+00 3.037540e+00 157 157 146
-2.019866e+00 -1.022635e+00 2.929572e+00 56 59 52
1.381037e+00 -9.357571e-01 2.508643e+00 153 155 148
2.933828e-01 -3.148671e-01 2.920087e+00 123 120 105
3.436664e-01 1.983952e-02 2.974172e+00 29 31 19
6.609273e-01 2.153031e-01 2.635300e+00 37 43 45
3.773496e-01 2.366590e-01 2.825737e+00 37 41 42
3.164832e-01 2.016087e-01 2.949353e+00 39 44 46
-1.745901e+00 1.209908e+00 2.981992e+00 83 83 76
2.116555e+00 1.712026e+00 2.874039e+00 133 134 128
1.676791e+00 2.096620e+00 2.988794e+00 25 26 20
2.159533e+00 2.143658e+00 2.955976e+00 25 29 31
-1.469538e+00 2.128088e+00 3.208189e+00 68 75 68
2.153160e-01 2.258671e+00 3.304938e+00 50 54 56
3.139016e+00 2.560630e+00 2.758831e+00 101 122 137
1.844033e-01 2.419777e+00 3.104256e+00 73 72 60
3.234569e+00 2.692321e+00 2.638547e+00 89 121 152
-2.391437e-01 2.395531e+00 3.264855e+00 36 37 30
3.183386e+00 2.680203e+00 2.735546e+00 173 204 218
-1.247282e+00 3.748262e+00 3.172630e+00 68 77 69
-1.742951e+00 4.838536e+00 2.949228e+00 24 27 12
6.607848e-01 4.747146e+00 3.077129e+00 139 182 205
2.999821e+00 5.244691e+00 2.683253e+00 78 88 102
2.865804e+00 5.843145e+00 2.796239e+00 94 111 148
1.020742e+00 -2.420203e+00 2.404329e+00 138 141 127
1.256558e+00 -2.417515e+00 2.993861e+00 76 76 65
2.859244e+00 -1.958244e+00 2.330797e+00 172 168 166
2.790619e+00 -1.956820e+00 2.325077e+00 49 49 49
-1.722094e-01 -1.040860e+00 2.969916e+00 48 50 44
2.405045e+00 -9.633923e-01 2.651512e+00 40 40 31
-2.702421e+00 -9.956795e-01 2.965708e+00 194 195 190
2.559352e+00 -7.968182e-01 2.684272e+00 148 151 140
2.319639e+00 -6.551359e-01 2.655297e+00 78 80 69
1.046493e+00 9.521456e-02 3.158048e+00 120 115 100
-2.397206e-01 7.036542e-01 2.699300e+00 138 146 142
-1.966809e-01 7.105568e-01 2.703811e+00 40 48 51
1.599392e+00 9.843548e-01 2.962496e+00 90 88 73
1.626255e+00 2.179065e+00 3.034638e+00 34 37 32
-2.068066e+00 2.293730e+00 3.173900e+00 30 31 14
1.757991e+00 -1.434014e+00 1.067309e+01 49 52 44
1.628211e+00 -1.185628e+00 1.017865e+01 57 56 51
2.477169e+00 2.476423e+00 2.977654e+00 39 39 39
1.499762e+00 2.434839e+00 3.120763e+00 44 43 38
-1.111129e-01 2.470970e+00 3.117228e+00 71 73 58
-3.285446e-01 2.524992e+00 3.089758e+00 37 40 32
3.188347e+00 2.815898e+00 2.809974e+00 102 130 154
-1.190759e+00 3.625934e+00 3.219988e+00 70 75 77
-1.241091e+00 3.685263e+00 3.184898e+00 65 70 64
-1.987272e+00 3.997476e+00 3.087767e+00 136 146 154
-1.883521e+00 3.952884e+00 3.179195e+00 123 124 126
-1.277963e+00 4.536058e+00 3.190003e+00 64 68 68
-1.911911e+00 4.682181e+00 3.196993e+00 122 123 126
8.051864e-01 5.185084e+00 3.064817e+00 75 106 140
8.051864e-01 5.185084e+00 3.064817e+00 75 106 140
2.886394e+00 5.558332e+00 2.827997e+00 87 115 154
2.500660e+00 6.629278e+00 2.623982e+00 140 177 230
-2.412860e+00 -2.952872e+00 2.192434e+00 168 171 153
-1.296135e+00 -2.513131e+00 2.294445e+00 63 60 56
9.926988e-01 -2.298737e+00 2.476453e+00 115 118 109
-7.838788e-01 -2.031477e+00 2.657931e+00 170 170 169
4.285786e+00 -1.895173e+00 4.707247e+00 201 226 231
2.207026e+00 -9.755270e-01 2.688457e+00 59 59 56
3.623696e-03 -1.004787e+00 2.912711e+00 146 148 129
2.195717e+00 -9.650517e-01 2.714122e+00 157 156 144
1.903615e+00 -7.821611e-01 2.635169e+00 73 76 69
7.710173e-01 -7.008406e-01 3.088885e+00 133 131 119
4.564665e-01 -1.067672e-01 2.739063e+00 129 131 126
2.857541e+00 5.047948e-01 2.775050e+00 152 152 145
-2.385971e-01 6.091002e-01 2.688305e+00 32 41 40
2.336273e+00 1.576114e+00 2.859282e+00 187 192 198
1.462376e+00 1.617493e+00 2.955054e+00 48 51 45
1.457971e+00 1.691630e+00 3.003050e+00 48 49 45
2.204867e+00 2.272331e+00 2.989691e+00 120 123 111
1.745099e+00 2.246580e+00 3.082500e+00 71 71 68
2.421364e+00 2.737373e+00 3.026822e+00 98 106 101
3.177982e+00 2.911110e+00 2.871007e+00 158 190 223
3.150840e+00 2.954902e+00 2.870913e+00 153 189 230
2.721619e+00 2.892374e+00 3.045539e+00 126 128 117
-9.663739e-01 2.865601e+00 3.400882e+00 72 78 74
-9.663739e-01 2.865601e+00 3.400882e+00 72 78 74
1.390876e+00 4.626829e+00 2.991364e+00 116 115 110
3.015465e+00 4.827649e+00 2.838855e+00 150 185 226
2.998916e+00 4.843023e+00 2.834027e+00 42 51 81
-1.275127e+00 4.622795e+00 3.219771e+00 70 71 71
1.119559e+00 4.810988e+00 3.304355e+00 123 123 116
1.616859e+00 5.071645e+00 3.062115e+00 78 82 59
1.660541e+00 5.011560e+00 3.209432e+00 111 113 102
8.481468e-01 5.209538e+00 3.183190e+00 156 185 202
7.639217e-01 -5.828597e-01 3.032937e+00 21 13 11
1.750359e+00 -6.306253e-01 3.137669e+00 28 20 15
-2.204235e+00 7.422761e-01 2.907943e+00 122 126 129
1.743877e+00 1.751639e+00 2.995903e+00 114 117 116
2.076481e+00 1.433734e+00 3.054560e+00 107 116 115
2.211275e+00 1.978188e+00 2.914947e+00 9 13 16
-3.816163e-01 -6.827767e-01 3.187072e+00 26 17 17
-1.137188e-01 -6.889981e-01 3.185678e+00 99 99 92
-1.974510e-01 5.911076e-01 2.674067e+00 130 134 136
2.297800e+00 1.396527e+00 3.069804e+00 109 114 108
2.297800e+00 1.396527e+00 3.069804e+00 109 114 108
2.284573e+00 4.739033e+00 3.184767e+00 67 73 67
1.793713e-01 -6.806185e-01 3.138014e+00 97 94 87
1.837156e-01 -6.376034e-01 3.043941e+00 97 94 87
1.785877e+00 -6.721897e-01 3.157099e+00 20 15 10
1.705126e+00 -6.511069e-01 3.133416e+00 29 19 17
1.545219e+00 -6.550700e-01 3.165468e+00 18 13 10
2.211546e-01 7.710000e-01 2.742955e+00 114 111 106
2.018120e+00 1.483157e+00 3.047085e+00 9 13 16
-3.149116e-01 -7.676321e-01 3.133385e+00 100 100 94
8.025867e-02 -7.195313e-01 3.033870e+00 107 108 101
-1.792705e-01 -6.039673e-01 3.135292e+00 84 76 66
1.522807e+00 -3.536023e-01 3.160240e+00 119 119 112
-1.915362e-02 5.035425e-01 2.653108e+00 7 7 8
7.388088e-01 4.409641e-01 2.711291e+00 117 113 106
1.798177e+00 3.937540e-01 2.777460e+00 101 96 92
1.798177e+00 3.937540e-01 2.777460e+00 101 96 92
-4.497868e-02 7.681139e-01 2.764136e+00 135 142 137
4.542113e-01 1.273053e+00 3.003187e+00 138 141 140
2.377621e+00 1.388482e+00 3.059215e+00 130 136 137
1.523536e+00 1.480533e+00 3.128668e+00 98 106 108
3.408723e-01 -9.788398e-01 2.929927e+00 99 100 92
-4.558622e-01 -6.447036e-01 3.195749e+00 76 67 62
-2.897154e-01 -3.505864e-01 3.171558e+00 134 136 133
2.053705e+00 -3.983770e-01 3.124352e+00 98 99 100
2.053705e+00 -3.983770e-01 3.124352e+00 98 99 100
7.425337e-01 3.060188e-01 2.717891e+00 108 108 100
-1.373534e-01 6.773499e-01 2.719736e+00 132 134 138
6.912814e-01 8.159752e-01 2.798998e+00 113 115 108
2.426792e+00 6.330074e-01 2.969436e+00 123 122 117
3.174187e-01 1.084797e+00 2.829915e+00 99 89 86
4.565723e-01 1.110239e+00 2.789217e+00 64 53 49
1.581513e+00 2.271782e+00 3.091867e+00 140 143 141
2.541645e+00 2.412530e+00 3.330643e+00 106 106 106
2.240142e+00 8.551748e-01 3.003899e+00 131 126 120
1.642302e+00 9.905612e-01 2.996933e+00 62 59 57
2.035469e+00 1.760215e+00 2.927166e+00 12 9 15
1.651670e+00 2.110736e+00 2.967203e+00 73 74 68
1.500397e+00 2.243513e+00 2.965596e+00 47 47 47
1.895336e+00 2.447077e+00 3.165296e+00 112 108 105
2.630439e+00 2.468338e+00 3.290384e+00 94 96 91
1.721057e+00 -3.054054e-01 3.162931e+00 109 106 100
1.394665e+00 1.112425e-01 2.776280e+00 102 104 99
1.394766e+00 1.981158e-01 2.782781e+00 98 100 95
9.201836e-01 3.681127e-01 2.868613e+00 101 98 87
1.877350e+00 3.393847e-01 2.871430e+00 138 144 143
1.430580e+00 4.258515e-01 2.825657e+00 84 80 69
1.416354e+00 9.197139e-01 2.983109e+00 77 81 80
2.232118e-01 1.337823e+00 3.030677e+00 109 105 102
1.464347e+00 1.768586e+00 2.932405e+00 11 12 20
1.464123e+00 1.886614e+00 2.936646e+00 5 4 10
2.173478e+00 1.916717e+00 2.942461e+00 1 1 9
5.056487e-01 2.438379e+00 3.108446e+00 133 134 138
2.220688e+00 2.466959e+00 3.166061e+00 53 51 46
7.102549e-01 4.753960e+00 3.201979e+00 217 214 227
1.992123e+00 5.143260e+00 3.246256e+00 105 108 107
-3.031745e+00 2.220358e+00 3.171273e+00 104 102 103
-1.435943e+00 -9.765031e-01 3.033541e+00 134 133 127
7.144757e-02 8.722497e-01 2.723985e+00 59 64 79
7.143375e-01 3.101835e-01 2.668700e+00 127 128 126
-1.180619e+00 -1.990920e+00 3.415472e+00 115 114 110
5.021192e-01 4.065969e-01 2.671438e+00 61 62 74
1.768800e-01 9.673411e-01 2.949171e+00 47 48 52
-1.802912e+00 1.194336e+00 2.960714e+00 137 136 130
1.551310e+00 -7.079667e-01 3.123577e+00 133 130 118
2.364124e+00 2.146013e-01 2.814245e+00 126 125 121
2.391071e+00 3.630383e-01 2.839649e+00 131 127 124
-4.691093e-01 5.279514e-01 2.677650e+00 51 55 64
2.762870e+00 -2.057289e+00 3.018182e+00 66 68 68
-2.384856e+00 -1.056451e+00 3.100466e+00 146 150 153
1.867790e+00 3.563411e+00 3.045344e+00 102 103 105
2.161705e+00 -3.270768e-01 3.146645e+00 118 118 117
2.038610e+00 -3.211801e-01 3.134346e+00 129 128 124
1.254840e-01 1.287921e+00 2.964176e+00 120 119 117
-2.556458e-01 4.037518e-01 2.666596e+00 54 56 69
1.550694e+00 -1.519081e+00 2.976426e+00 130 126 126
-2.636227e+00 6.004677e+00 3.427485e+00 116 115 119
1.080525e+00 -1.958091e+00 3.065277e+00 135 131 129
2.745503e+00 -2.027192e+00 2.959732e+00 111 105 107
-1.381604e+00 -8.156287e-01 3.034263e+00 60 57 52
-2.428710e+00 5.734236e-01 2.867232e+00 76 72 69
8.420471e-02 9.277816e-01 3.004644e+00 79 76 71
2.546178e+00 1.098130e+00 3.015579e+00 56 55 51
1.969577e+00 5.124681e+00 3.143238e+00 72 72 74
2.119377e+00 -6.532591e-01 3.182880e+00 23 21 22
1.473706e+00 -1.033718e+00 2.978105e+00 99 100 102
2.261903e+00 -1.031506e+00 2.966959e+00 101 103 109
-2.263156e+00 2.351484e+00 3.077244e+00 22 24 29
-4.501960e-01 3.317793e-01 2.680064e+00 95 95 97
-4.501960e-01 3.317793e-01 2.680064e+00 95 95 97
-2.368407e+00 7.806071e-01 2.862888e+00 68 60 57
5.084997e-03 8.386721e-01 2.715595e+00 27 29 35
-2.722088e-01 9.239966e-01 2.785648e+00 88 77 67
-1.877839e+00 1.055118e+00 2.872595e+00 90 85 82
7.735146e-02 1.123764e+00 2.826318e+00 78 67 63
1.260061e+00 2.741804e+00 3.301026e+00 38 36 37
-4.207441e-01 3.379246e-01 2.682393e+00 88 88 89
-6.100767e-02 7.107262e-01 2.714553e+00 22 19 24
2.424013e+00 5.660426e-01 2.949439e+00 54 48 45
-1.918614e+00 8.004595e-01 2.814989e+00 40 40 40
-2.281433e+00 9.540840e-01 2.945401e+00 47 45 43
1.618690e-01 1.049138e+00 2.745997e+00 19 16 14
-4.925573e-02 1.120519e+00 2.867069e+00 37 31 28
-1.553892e+00 1.139450e+00 2.978646e+00 47 39 37
6.980887e-01 1.310809e+00 2.938499e+00 110 106 105
1.460354e+00 1.998213e+00 2.952223e+00 22 21 25
-2.100422e+00 2.373915e+00 3.087041e+00 95 95 99
1.463990e-01 2.423227e+00 3.101183e+00 102 100 101
-2.471078e-02 2.551659e+00 3.155791e+00 59 55 55
5.323776e-01 2.576096e+00 3.103585e+00 43 39 39
1.873121e+00 2.474981e+00 3.168499e+00 50 41 42
1.427571e+00 -3.441370e-01 3.139177e+00 40 36 35
4.383326e-01 4.374808e-01 2.657051e+00 31 34 39
1.925477e+00 7.598418e-01 2.888679e+00 94 93 91
-9.344473e-02 1.261988e+00 3.013353e+00 50 45 43
4.588691e-01 1.354904e+00 3.039658e+00 41 37 36
4.042489e-01 1.355417e+00 3.044387e+00 46 42 42
1.094016e+00 1.411501e+00 3.146203e+00 91 86 82
1.460906e+00 1.710781e+00 2.932492e+00 33 32 37
1.667192e+00 1.934251e+00 2.942507e+00 25 24 29
5.542708e-01 2.450815e+00 3.094813e+00 44 39 43
1.817687e-01 2.483480e+00 3.116633e+00 38 33 37
1.250086e-01 2.492695e+00 3.115233e+00 38 35 36
-7.411379e-01 -7.187081e-01 3.209264e+00 78 75 68
8.905047e-01 -6.688037e-01 3.161130e+00 22 20 19
3.002541e-01 8.048128e-01 2.734418e+00 30 33 40
1.473417e-01 1.021442e+00 2.729031e+00 23 22 23
1.432193e+00 1.146260e+00 2.999489e+00 53 45 42
1.795760e-01 1.231960e+00 3.038855e+00 103 98 95
5.557089e-01 2.369738e+00 3.087012e+00 25 24 28
1.664149e+00 2.325860e+00 3.108782e+00 91 86 83
1.563217e-01 2.524293e+00 3.135947e+00 98 93 90
1.160499e+00 1.423224e-02 3.181121e+00 57 52 48
5.967381e-01 1.312659e+00 3.008460e+00 101 96 93
1.465917e+00 1.971369e+00 2.955066e+00 57 57 60
1.465917e+00 1.971369e+00 2.955066e+00 57 57 60
1.324620e+00 1.972696e+00 2.967962e+00 59 54 51
8.751225e-01 2.337999e+00 3.084617e+00 52 46 46
2.395665e+00 2.656711e+00 3.224861e+00 35 34 36
2.770967e+00 2.645503e+00 3.398662e+00 88 87 92
2.100925e-01 -6.335600e-01 3.161398e+00 74 63 57
-5.170692e-01 4.760105e-01 2.710155e+00 80 81 81
-6.385060e-02 1.070387e+00 2.762521e+00 45 34 33
-5.759915e-02 2.330294e+00 3.083989e+00 89 89 91
1.794685e+00 2.256247e+00 3.106689e+00 65 57 55
5.327840e-01 2.451209e+00 3.113786e+00 95 95 97
3.598715e-01 2.516884e+00 3.129098e+00 104 96 94
3.083673e+00 2.444276e+00 3.117201e+00 91 95 111
1.262093e+00 2.692644e+00 3.371710e+00 73 71 73
2.763193e+00 2.621018e+00 3.387289e+00 72 71 76
-2.534909e+00 4.676667e+00 3.022277e+00 93 79 53
1.539225e+00 -1.520751e+00 2.948236e+00 128 124 106
1.494028e+00 -4.752769e-01 3.116325e+00 97 89 78
2.696789e+00 -4.335382e-01 3.010467e+00 116 109 91
6.880424e-01 -8.833154e-01 3.076084e+00 65 52 41
-2.440545e+00 -6.094800e-01 3.122606e+00 24 13 3
1.971149e+00 -6.009692e-01 3.101717e+00 20 15 11
1.657900e+00 -4.808540e-01 3.104798e+00 105 98 79
4.330409e+00 -1.549674e+00 3.110721e+00 47 39 31
4.174344e+00 -1.613135e+00 3.447059e+00 37 35 32
4.691613e+00 -1.398028e+00 2.930017e+00 59 54 53
2.893021e+00 -1.116533e+00 2.990621e+00 50 52 41
-8.260964e-01 2.319388e-01 3.163786e+00 147 127 105
4.928311e+00 -1.746004e+00 2.930957e+00 65 71 57
5.054591e+00 -1.515751e+00 2.878981e+00 55 51 43
4.984261e+00 -1.468050e+00 2.963245e+00 223 212 184
-1.211413e+00 -8.323233e-01 3.086455e+00 128 111 92
1.581327e+00 -3.735599e-01 3.074604e+00 36 34 34
3.233227e+00 -2.796604e+00 2.669042e+00 18 21 25
4.549812e-01 5.701552e-01 2.682367e+00 115 104 75
2.026045e-01 8.170347e-01 2.684589e+00 115 90 62
3.061697e+00 -2.802078e+00 2.714362e+00 29 28 28
3.147384e+00 -2.780793e+00 2.704681e+00 20 25 29
3.147384e+00 -2.780793e+00 2.704681e+00 20 25 29
1.965274e-01 -1.215025e+00 3.043791e+00 34 25 22
1.322277e+00 -1.009373e+00 3.023172e+00 19 17 10
1.523720e+00 -1.019780e+00 3.098305e+00 20 16 13
2.111301e+00 -1.005222e+00 3.059352e+00 16 12 10
-6.147588e-02 -8.665584e-01 3.094752e+00 32 28 26
1.212056e+00 -8.300120e-01 3.111234e+00 121 106 83
4.859781e-01 -6.403094e-01 3.107386e+00 84 68 44
-2.542050e+00 -5.590925e-01 3.168123e+00 56 37 31
1.181431e+00 -6.123219e-01 3.155270e+00 13 10 8
1.952310e-01 -2.502362e-01 3.129082e+00 122 105 83
1.657978e+00 9.241390e-01 2.892910e+00 149 115 87
1.121451e+00 2.142927e+00 3.242141e+00 66 54 46
1.419936e+00 4.751224e+00 2.944124e+00 99 83 57
3.098844e+00 -2.787448e+00 2.782536e+00 90 91 81
1.327766e+00 -2.466010e+00 2.738963e+00 40 29 24
4.481656e+00 -1.598907e+00 3.054725e+00 69 42 82
4.675626e+00 -1.366643e+00 3.039669e+00 226 215 198
2.654310e+00 -7.432140e-01 3.109510e+00 91 91 74
-2.032834e+00 -6.495336e-01 3.086350e+00 98 93 61
-2.187557e+00 -6.317859e-01 3.105156e+00 18 13 17
2.129162e+00 -4.538937e-01 3.200465e+00 39 30 31
1.731587e+00 -3.931311e-01 3.277646e+00 37 36 32
1.593033e+00 -3.531369e-01 3.173523e+00 41 31 30
-4.140905e-02 5.335671e-01 2.466548e+00 151 125 98
-4.241160e-01 1.173634e+00 2.970828e+00 146 127 99
-3.783849e-01 2.319733e+00 3.081877e+00 151 128 93
1.154364e+00 -1.985784e+00 2.987742e+00 58 57 53
2.291228e+00 -1.532215e+00 3.113164e+00 108 110 98
1.821538e+00 -1.047862e+00 3.218875e+00 99 83 68
1.607080e+00 -1.002608e+00 3.088275e+00 98 84 70
1.122985e-01 -7.546683e-01 3.071491e+00 28 26 13
1.662020e+00 -3.675571e-01 3.240789e+00 45 34 25
1.662020e+00 -3.675571e-01 3.240789e+00 45 34 25
1.563975e+00 -3.504530e-01 3.230169e+00 125 109 78
4.783685e-01 -2.225995e-01 3.152337e+00 12 11 6
4.484765e-01 -1.509024e-01 2.878492e+00 12 11 6
5.135980e-01 -2.203251e-01 3.171063e+00 101 93 83
4.441711e-01 2.895411e-01 2.593199e+00 29 14 8
-2.903475e-01 4.903588e-01 2.634997e+00 22 12 10
-1.803146e-01 6.782527e-01 2.656413e+00 27 17 5
1.798731e+00 5.587280e-01 2.889355e+00 143 125 106
-3.785418e-01 8.805747e-01 2.686500e+00 22 15 4
-1.621745e+00 -6.810317e-01 3.104757e+00 102 82 64
1.463101e+00 -2.861182e-01 3.201147e+00 131 106 81
1.484291e+00 -2.520000e-01 3.212664e+00 97 65 44
3.487843e-01 3.214139e-01 2.580601e+00 34 27 24
6.187318e-01 8.528375e-01 2.622008e+00 62 60 45
-1.588665e-01 1.064348e+00 2.695115e+00 125 95 68
1.876892e+00 1.099939e+00 2.959365e+00 121 97 70
1.942053e+00 1.114879e+00 2.976797e+00 72 51 37
1.581606e+00 1.137099e+00 2.959544e+00 67 54 23
1.394517e-03 1.371386e+00 3.051525e+00 48 28 16
-4.392294e-01 2.358869e+00 3.072411e+00 128 115 98
-4.012372e-01 2.506760e+00 3.111478e+00 44 28 12
7.370370e-01 -1.040625e+00 3.028455e+00 122 103 92
3.193120e-01 -2.526158e-01 3.163473e+00 35 32 17
2.079508e-01 4.228361e-01 2.590057e+00 147 127 109
2.079508e-01 4.228361e-01 2.590057e+00 147 127 109
-6.046634e-02 1.038130e+00 2.656524e+00 31 19 6
-3.488681e-01 1.154160e+00 2.969283e+00 153 118 91
-4.203083e-01 7.947240e-01 2.712031e+00 136 106 78
-2.699871e+00 -1.351742e+00 3.108883e+00 147 148 151
4.346067e-01 -9.692656e-01 3.159469e+00 126 118 105
1.373572e+00 -6.448119e-01 3.055057e+00 127 122 103
-1.676433e+00 -6.287883e-01 3.087850e+00 40 32 27
1.892951e-01 6.054686e-01 2.602348e+00 124 124 122
7.388684e-01 1.118859e+00 2.937488e+00 136 135 140
1.170834e+00 -2.204850e+00 3.026753e+00 79 68 66
2.787188e+00 -2.071021e+00 3.006812e+00 118 117 115
9.141134e-01 -1.027053e+00 3.193387e+00 22 20 25
8.528905e-01 -1.016319e+00 3.163123e+00 27 27 34
1.372419e+00 -9.742790e-01 3.389856e+00 118 114 100
6.835644e-01 1.319455e+00 2.912509e+00 139 138 134
1.157530e+00 -2.045135e+00 3.025535e+00 133 128 127
6.995989e-01 6.491579e-01 2.589254e+00 110 104 100
4.884440e-01 7.067379e-01 3.333462e+00 28 29 36
-1.469432e+00 5.166671e+00 3.231539e+00 72 72 75
8.238144e-01 9.889491e-01 2.864613e+00 88 84 83
7.866293e-01 1.032725e+00 2.862661e+00 84 79 76
7.069935e-01 1.115379e+00 2.874238e+00 92 86 87
2.298874e+00 -1.027446e+00 2.964829e+00 35 30 45
1.566254e+00 -2.640581e+00 2.924069e+00 43 43 43
2.516104e+00 -6.932113e-01 2.573710e+00 79 71 65
1.390622e+00 -9.555009e-01 3.015395e+00 153 150 140
2.689937e+00 -3.827596e-01 3.046473e+00 184 182 174
1.252505e+00 -7.168180e-01 3.117824e+00 101 96 93
5.933751e-01 -1.335397e+00 2.963468e+00 181 178 172
1.510991e+00 -7.599204e-01 3.050257e+00 98 94 93
2.826436e+00 -2.172358e+00 2.905505e+00 125 125 123
2.354732e+00 -1.013070e+00 2.983280e+00 111 112 105
1.242238e+00 -2.222478e+00 2.960864e+00 139 144 140
2.117592e+00 3.351097e+00 2.705469e+00 20 27 33
-1.543136e+00 4.647562e+00 2.542160e+00 17 20 25
-2.158015e+00 -7.006627e-01 2.948112e+00 62 63 46
-1.654700e-01 2.224549e+00 1.473166e+00 21 24 28
-2.400839e+00 3.683949e+00 2.984118e+00 139 148 133
-2.401795e+00 3.815415e+00 2.981810e+00 149 154 139
1.431718e+00 4.150762e+00 3.080666e+00 19 20 25
-2.153121e+00 6.141698e-01 2.567909e+00 42 43 38
2.332158e+00 9.550356e-01 3.058775e+00 141 144 130
-1.296324e+00 -9.476651e-01 2.915802e+00 139 139 128
-1.650450e-01 -3.547511e-01 3.172068e+00 154 155 140
-1.751078e+00 8.553581e-01 2.805057e+00 67 69 58
-1.615197e+00 9.632092e-01 2.841723e+00 60 60 53
-1.892908e-01 1.029937e+00 2.687607e+00 120 116 96
-1.892908e-01 1.029937e+00 2.687607e+00 120 116 96
-1.686132e+00 1.062746e+00 2.845586e+00 112 113 100
4.913390e-01 2.384456e+00 3.159257e+00 134 139 138
6.903254e-01 2.488271e+00 3.060490e+00 42 45 42
-2.748347e-02 2.508107e+00 3.101658e+00 148 152 145
-7.629512e-01 5.689767e+00 2.810826e+00 82 105 163
-2.850268e+00 -2.984665e+00 2.518851e+00 35 46 52
-3.674629e+00 -2.668838e+00 2.210890e+00 164 154 149
-3.555796e+00 -2.650225e+00 2.322069e+00 169 156 153
-2.735557e+00 -1.014518e+00 2.743835e+00 58 64 69
1.522295e+00 -1.046750e+00 3.024357e+00 136 140 128
1.415958e+00 -1.024298e+00 2.920416e+00 22 23 16
-2.647274e-02 -9.593180e-01 3.005238e+00 102 99 90
4.887431e-01 -3.464881e-01 3.096242e+00 86 83 70
-1.797516e+00 1.222391e+00 2.946687e+00 85 83 70
2.935732e+00 2.258365e+00 3.102449e+00 142 143 136
2.093872e+00 2.328024e+00 2.983428e+00 76 80 77
-4.680877e-01 2.392902e+00 3.152797e+00 136 138 126
-1.459590e+00 2.547759e+00 3.150254e+00 127 129 116
6.253163e-01 2.558749e+00 3.101156e+00 67 67 56
3.305162e-02 2.571454e+00 3.126510e+00 80 83 67
9.174173e-01 -2.081586e+00 2.816446e+00 68 65 54
-1.997381e+00 -8.105692e-01 3.021849e+00 131 127 106
-1.138746e-01 -3.680752e-01 3.129173e+00 154 154 148
1.332470e+00 4.248734e-01 3.103054e+00 94 89 71
2.536184e-01 1.314536e+00 2.937042e+00 80 80 68
1.669188e+00 1.896597e+00 2.802624e+00 55 56 52
2.104931e+00 1.732646e+00 3.168869e+00 143 146 136
-1.684405e+00 2.389621e+00 3.163527e+00 148 149 139
1.790888e+00 2.442160e+00 3.023061e+00 82 82 64
1.778934e-02 2.502481e+00 3.092467e+00 46 48 44
-2.203465e+00 3.009873e+00 3.006305e+00 54 60 58
1.176108e+00 4.953391e+00 3.125773e+00 123 128 114
-7.442620e-01 5.050729e+00 2.139567e+00 95 122 183
-3.231784e+00 5.479128e+00 3.041196e+00 102 139 160
-2.686362e+00 6.137164e+00 3.146814e+00 81 86 82
-4.520115e-01 4.285755e-01 2.671680e+00 15 24 33
-4.058662e-01 -1.065027e+00 3.022052e+00 110 114 117
7.473001e-01 -1.587410e+00 2.986789e+00 37 34 38
-1.931953e+00 -8.590014e-01 2.971687e+00 40 38 42
1.955074e+00 -4.355021e-01 3.099063e+00 30 33 40
-5.759302e-01 1.126183e+00 2.942795e+00 118 118 116
-2.382428e+00 4.961730e+00 3.072842e+00 87 97 97
-1.741788e+00 -7.919988e-01 2.948209e+00 43 44 46
-1.936154e+00 9.212005e-01 2.818328e+00 99 106 104
-8.497870e-01 1.277102e+00 3.218524e+00 147 153 158
2.040412e+00 3.641619e+00 2.893312e+00 39 54 63
-2.322650e+00 -6.019406e-01 3.090499e+00 68 69 61
-7.549718e-01 -3.119927e-01 3.144312e+00 115 117 112
1.884970e-02 7.786885e-01 2.676912e+00 8 5 3
2.244853e+00 5.159830e-01 2.790587e+00 86 86 76
-1.941844e+00 1.052463e+00 2.847734e+00 94 94 89
-1.275633e+00 1.384237e+00 2.987693e+00 65 66 63
-1.365120e+00 1.710040e+00 2.929405e+00 112 118 117
-1.437800e+00 1.703091e+00 2.949086e+00 131 138 141
-2.023035e+00 4.724862e+00 3.005760e+00 116 116 115
8.687338e-02 -1.588819e+00 2.958290e+00 71 73 71
-3.350030e-01 -1.431316e+00 2.786312e+00 32 32 30
-7.931592e-01 -8.223816e-01 3.068224e+00 98 102 101
-1.416821e+00 -5.633018e-01 3.014145e+00 91 88 82
8.206887e-02 -1.877775e+00 2.995307e+00 62 63 57
1.340636e-01 -1.591692e+00 2.989486e+00 17 15 7
-1.683183e+00 -1.076519e+00 3.003918e+00 28 31 46
-1.802841e+00 2.565924e+00 3.148099e+00 53 54 48
-1.427751e+00 5.774130e+00 3.464718e+00 60 79 104
-1.300325e+00 2.515777e+00 3.173536e+00 118 119 114
2.658341e+00 -1.042521e+00 3.038980e+00 123 128 133
1.966711e-01 -1.220685e+00 3.024329e+00 70 67 62
4.281641e-02 -9.791542e-01 2.951083e+00 55 54 59
6.237550e-01 -6.146276e-01 3.037411e+00 51 47 46
-1.295403e+00 -6.104643e-01 3.018447e+00 36 32 31
-2.256993e+00 -5.846114e-01 3.021437e+00 39 37 38
-1.435761e+00 -3.823150e-01 2.993877e+00 45 60 67
-1.400804e+00 -2.633865e-01 2.996153e+00 126 126 118
-1.890843e+00 -2.988738e-01 3.092166e+00 145 145 143
2.414669e+00 2.269997e+00 3.107370e+00 117 117 118
-1.356801e+00 -7.028985e-01 2.963836e+00 129 126 121
-1.437698e+00 -2.749036e-01 2.989316e+00 55 57 59
-1.437698e+00 -2.749036e-01 2.989316e+00 55 57 59
-9.808313e-01 2.818871e+00 3.325874e+00 88 87 92
-1.471360e+00 -6.681955e-01 2.979905e+00 60 58 59
-1.679862e+00 -6.537232e-01 2.957534e+00 61 59 63
-1.974698e+00 -5.740314e-01 2.984681e+00 123 119 116
-9.562309e-01 1.291117e-01 3.152539e+00 138 136 137
2.024299e+00 2.422508e+00 3.110689e+00 141 138 133
-1.466966e+00 2.405315e+00 3.123578e+00 149 148 144
2.589322e-01 2.470578e+00 3.121109e+00 90 90 92
2.394292e+00 4.988868e+00 3.131855e+00 89 88 93
-1.733399e+00 -1.517817e+00 3.033502e+00 62 58 51
-1.699615e-01 6.156658e-01 2.644980e+00 63 64 69
-1.828295e+00 8.676269e-01 2.810074e+00 64 63 61
2.139107e+00 2.422588e+00 3.109099e+00 78 74 74
-3.023889e+00 5.836768e+00 3.461290e+00 138 126 162
4.420282e-02 -2.485260e+00 2.902683e+00 117 118 112
-3.255725e-01 -2.278920e+00 2.912127e+00 49 45 41
5.123458e-01 -2.309521e+00 2.915920e+00 87 87 87
-1.834429e-04 -2.138233e+00 2.869668e+00 80 79 82
1.798528e+00 -1.390206e+00 3.377396e+00 193 176 152
-1.982730e+00 -1.208000e+00 2.994387e+00 187 174 155
2.821110e+00 -9.875383e-01 3.027043e+00 141 130 112
7.203520e-01 -1.642796e+00 2.906477e+00 149 132 104
-1.907085e+00 -1.455387e+00 2.951968e+00 147 129 105
-1.450057e+00 -6.226453e-01 2.996068e+00 155 141 129
-2.836210e-01 -1.452029e+00 2.786117e+00 159 139 114
7.675774e-01 -2.091196e+00 2.877485e+00 153 135 111
-2.493952e-01 -1.467494e+00 5.357057e+00 166 150 130
-7.020160e-01 -2.991171e-01 1.721710e+00 51 35 20
5.881631e-01 -1.358415e+00 6.289488e+00 137 114 98
1.299070e-01 -2.313002e+00 2.976776e+00 129 111 87
-9.322036e-01 -1.548788e+00 2.841254e+00 114 109 106
-1.803083e+00 1.934979e+00 2.946405e+00 105 104 102
-2.479287e+00 2.307062e+00 3.130959e+00 49 48 53
-7.472896e-01 -2.721170e-01 3.026722e+00 71 66 63
-5.780156e-01 5.355557e-01 2.654906e+00 101 100 98
-7.942284e-01 -2.180903e+00 2.934757e+00 106 105 103
-1.202284e+00 -8.001643e-01 2.915248e+00 37 35 32
1.706662e+00 -6.428579e-01 3.103278e+00 32 28 24
-2.997590e+00 8.993674e-01 2.898279e+00 93 93 95
1.840395e+00 4.410001e+00 2.929642e+00 82 82 82
-2.566926e+00 2.501408e+00 3.343180e+00 112 110 113
-6.459114e-01 -7.405122e-01 3.030871e+00 86 84 87
-4.509777e-01 5.708171e-01 2.698018e+00 25 26 31
-4.151879e-01 7.152114e-01 2.715122e+00 21 22 26
-8.686765e-01 -2.972230e-01 3.164011e+00 36 32 31
-5.866192e-01 -8.514507e-01 2.994850e+00 78 77 73
-2.444168e-01 5.747352e-01 2.652342e+00 16 16 17
3.648357e-01 6.783779e-01 2.659536e+00 20 14 15
-5.346376e-02 -1.046180e+00 3.012188e+00 90 89 89
8.943780e-01 -9.944839e-01 3.005706e+00 14 14 16
2.405532e+00 6.292959e-01 2.933600e+00 51 46 43
-1.179784e-01 1.131394e+00 2.825874e+00 43 35 32
-2.055441e+00 2.051103e+00 2.934822e+00 103 94 91
-7.258576e-01 2.637233e+00 3.344662e+00 79 74 71
3.366204e-01 -1.051630e+00 3.018107e+00 91 94 97
-2.597822e+00 -2.836138e-01 3.145232e+00 35 34 37
-2.997801e+00 8.826083e-01 2.930197e+00 66 66 73
-4.467865e-01 1.096002e+00 2.975540e+00 58 51 49
4.130174e-02 2.463568e+00 3.144221e+00 95 93 96
-1.345391e+00 1.523812e+00 3.043384e+00 68 64 63
-1.661147e+00 5.107492e+00 3.048779e+00 63 66 69
-2.676103e+00 5.802087e+00 3.269911e+00 61 64 39
-2.143632e+00 8.846093e-02 2.535995e+00 23 26 25
8.143873e-01 4.940089e+00 2.905657e+00 51 54 53
-2.077090e+00 1.257061e+00 2.957463e+00 148 121 94
-2.771465e+00 6.244888e+00 3.125388e+00 102 96 77
-1.340610e+00 2.320258e+00 3.244407e+00 126 99 77
6.856798e-01 -1.424715e+00 3.008684e+00 122 111 91
1.651676e+00 2.023018e+00 2.879134e+00 9 9 7
-4.065907e-01 2.442233e+00 3.078600e+00 12 8 5
-4.116012e-01 2.444883e+00 3.068830e+00 12 8 5
1.410071e+00 2.430581e+00 2.990793e+00 24 19 12
-1.444396e+00 -7.294608e-01 2.976815e+00 118 102 77
2.168401e+00 -7.844190e-01 3.160439e+00 109 97 83
-2.457190e+00 3.637612e-01 2.787370e+00 129 95 61
-1.782413e+00 4.355904e-01 2.791841e+00 127 110 81
-2.017728e+00 7.351103e-01 2.861502e+00 150 135 103
1.601427e+00 2.235330e+00 3.051545e+00 124 101 69
-2.419908e+00 3.283609e+00 2.892097e+00 115 94 68
-1.327551e+00 -1.072556e+00 3.059604e+00 95 89 80
1.406060e+00 -9.903057e-01 3.111319e+00 109 93 70
-8.525901e-01 4.801083e-01 3.139631e+00 61 52 43
-8.525901e-01 4.801083e-01 3.139631e+00 61 52 43
-2.442806e+00 1.215385e+00 2.936084e+00 147 113 76
-5.127133e-01 1.227711e+00 2.969621e+00 148 121 98
2.804378e+00 1.560741e+00 3.068511e+00 76 74 69
-6.113193e-01 2.377098e+00 3.079342e+00 151 128 92
-6.405246e-01 2.435226e+00 3.144839e+00 92 68 56
2.250107e+00 2.406778e+00 3.050010e+00 18 15 12
-1.360789e+00 -6.292128e-01 3.010349e+00 79 68 46
3.044221e-01 -6.676671e-01 3.173003e+00 88 71 56
-2.376216e+00 -1.470695e-01 2.582751e+00 57 45 27
-3.964341e-01 1.114208e+00 2.933286e+00 126 104 64
-5.269739e-01 1.156787e+00 2.956396e+00 49 40 26
2.615924e+00 2.711584e+00 3.229257e+00 27 27 22
-1.826687e+00 -9.393891e-01 2.641004e+00 27 20 9
2.027716e+00 -1.008083e+00 3.054112e+00 26 21 15
-1.857912e+00 -6.348760e-01 3.022145e+00 90 76 57
-1.961245e+00 -5.207169e-01 2.755964e+00 14 10 6
2.699320e+00 -2.915948e-01 3.073918e+00 81 62 52
-5.205663e-01 6.168607e-01 2.689908e+00 158 119 84
-9.248960e-01 2.334921e+00 3.230404e+00 69 49 30
1.636839e+00 2.382431e+00 3.051166e+00 145 120 103
-1.422280e+00 2.611980e+00 3.254039e+00 96 78 54
7.666786e-01 -1.016953e+00 3.105685e+00 103 97 77
-1.897836e+00 -5.460561e-01 2.772595e+00 20 17 10
-2.354651e+00 -1.940944e-01 2.593810e+00 146 121 91
2.105721e-01 5.852304e-01 2.668935e+00 133 121 96
-2.387625e+00 1.022921e+00 2.934310e+00 106 80 69
-1.976413e+00 1.036783e+00 2.876201e+00 82 50 27
-1.940299e+00 1.067798e+00 2.886100e+00 73 42 23
-2.024953e+00 1.077584e+00 2.923762e+00 85 43 27
-2.555477e+00 4.825006e+00 3.031454e+00 148 124 98
-1.140411e+00 5.937546e+00 3.152288e+00 147 187 195
3.041083e-01 -1.031302e+00 3.053028e+00 118 105 86
-1.650232e+00 -6.182217e-01 3.012587e+00 89 83 60
-4.454914e-01 2.000131e-01 2.616176e+00 60 31 26
-1.178525e+00 7.860952e-01 2.907677e+00 93 95 82
-2.003422e+00 9.854901e-01 2.870331e+00 90 59 38
-1.844698e+00 1.178127e+00 2.958850e+00 134 104 69
-2.313081e+00 1.275527e+00 2.952515e+00 78 53 31
-2.480111e+00 1.454010e+00 3.003472e+00 52 38 28
-2.152158e+00 5.254704e+00 3.190156e+00 39 29 15
2.705498e+00 2.416253e+00 3.152747e+00 138 126 105
-2.448608e+00 3.724999e+00 3.016078e+00 87 65 49
6.230780e-01 2.460153e+00 3.072232e+00 73 69 51
2.165925e+00 5.960470e+00 3.115602e+00 166 207 253
-8.312530e-01 2.545579e-01 3.124069e+00 140 140 141
-7.363134e-01 2.464186e+00 3.359765e+00 152 152 154
-6.857497e-01 -2.436290e+00 2.898571e+00 99 103 107
-1.508168e+00 1.337682e+00 2.989615e+00 146 146 144
-2.326014e+00 2.297654e+00 3.132951e+00 122 120 117
-1.994530e+00 -2.714912e-01 2.987932e+00 125 118 107
-1.673660e+00 2.360970e+00 3.102523e+00 59 55 53
1.890444e-01 2.408394e+00 3.189760e+00 123 123 121
2.015782e+00 -9.723325e-01 2.843370e+00 24 23 32
-4.756268e-01 -9.909184e-01 3.016281e+00 25 24 30
-1.978344e+00 -9.528487e-01 2.796485e+00 29 34 40
-2.847366e-01 2.438373e+00 3.116375e+00 124 125 130
-2.148723e-01 -1.024897e+00 3.001443e+00 54 55 59
4.852551e-01 -1.104170e+00 3.249146e+00 128 133 146
-6.401204e-01 -1.035537e+00 2.981990e+00 113 122 129
-8.331696e-01 5.097958e-01 3.183331e+00 174 174 172
-8.434180e-01 -8.111193e-02 3.100000e+00 174 174 170
-1.632158e+00 4.912662e+00 2.918520e+00 59 76 93
-1.137903e+00 1.104906e+00 3.082279e+00 138 137 133
1.408145e+00 4.816941e+00 3.012417e+00 149 151 148
1.847628e-01 2.429595e-02 3.090142e+00 176 177 172
-3.933154e-03 -9.332833e-01 3.081498e+00 153 146 140
6.033398e-01 -9.198929e-01 3.094263e+00 161 157 149
-3.794635e-01 -7.717634e-01 3.126543e+00 152 149 145
-4.558309e-01 5.944949e-01 2.665094e+00 76 85 93
-2.757393e-01 2.330265e+00 2.982587e+00 145 146 143
-4.036920e-01 2.315184e+00 3.062157e+00 144 144 146
-4.078270e-01 2.322006e+00 3.056515e+00 144 144 146
4.953834e-01 -1.063170e+00 3.081649e+00 166 167 169
8.670494e-01 -1.045124e+00 3.043712e+00 158 164 162
1.973704e-01 -9.932181e-01 3.081436e+00 148 142 136
1.490366e+00 -9.947570e-01 2.970705e+00 102 98 97
6.054566e-02 -8.414976e-02 3.146017e+00 176 171 165
-3.235942e-01 2.290368e+00 3.059885e+00 80 87 89
-6.568450e-01 -1.021721e+00 3.071293e+00 79 79 77
1.600315e-01 9.083589e-01 2.650099e+00 76 88 101
1.542447e+00 -9.713136e-01 3.053917e+00 154 151 142
2.048356e-01 6.018879e-01 2.632107e+00 159 164 168
1.261745e-01 6.467004e-01 2.679234e+00 75 84 93
7.123157e-01 4.758354e+00 3.289382e+00 114 140 172
-1.301049e+00 -1.021373e+00 3.123581e+00 101 102 97
8.854567e-01 -7.583164e-01 3.112540e+00 140 137 133
-5.773058e-01 -3.775623e-01 3.192512e+00 101 98 91
-6.828076e-01 1.452966e-01 2.933745e+00 107 106 101
1.569806e-01 6.237937e-01 2.671249e+00 158 164 166
9.592225e-02 6.286743e-01 2.682305e+00 152 157 159
3.487613e-01 7.756408e-01 2.716004e+00 152 156 157
-2.859027e-01 2.454514e+00 3.100437e+00 162 166 166
-1.797753e+00 5.024495e+00 2.898168e+00 60 75 88
1.508938e-01 -1.048183e+00 3.074645e+00 98 99 94
1.241588e-01 -1.010775e+00 3.073243e+00 88 87 82
-1.279229e+00 9.458657e-01 2.987239e+00 124 124 122
-5.890387e-01 9.190791e-01 2.958889e+00 131 128 122
2.949527e-01 1.063566e+00 2.675356e+00 74 76 71
1.987894e-01 1.107135e+00 2.699588e+00 82 80 71
-1.590199e+00 1.431273e+00 3.065740e+00 149 148 144
2.587519e+00 -1.181115e+00 3.229892e+00 70 62 51
1.581497e+00 -8.297720e-01 3.100912e+00 145 129 113
2.165354e+00 -7.719909e-01 3.139713e+00 150 137 123
1.523933e+00 -7.045193e-01 3.109261e+00 54 50 47
1.289498e+00 -6.512953e-01 3.144764e+00 126 113 93
2.423804e+00 4.900639e+00 3.267774e+00 123 131 124
1.952531e+00 -7.430540e-01 3.091119e+00 118 115 107
2.221620e+00 1.199288e+00 3.031001e+00 178 160 126
1.828856e+00 2.492193e+00 3.097654e+00 131 103 89
2.158232e+00 2.467770e+00 3.107087e+00 130 117 85
1.660331e+00 9.381857e-01 2.878243e+00 199 177 137
2.398524e+00 1.030958e+00 2.964362e+00 39 39 40
2.414459e+00 1.110149e+00 2.963946e+00 134 126 106
2.289303e+00 1.156650e+00 2.931991e+00 161 140 110
1.576873e+00 5.176603e+00 3.152295e+00 95 85 76
1.836059e+00 5.018300e+00 3.235671e+00 175 160 137
1.818316e-01 -9.469034e-02 2.622505e+00 17 21 25
2.348606e+00 4.119543e-01 2.802812e+00 95 84 73
2.029813e+00 7.101850e-01 2.830688e+00 42 48 49
2.689905e+00 3.999797e-01 3.223204e+00 68 72 80
2.064838e+00 8.778714e-01 2.833211e+00 16 11 14
2.276913e+00 8.128834e-01 2.941305e+00 71 63 55
8.217953e-01 9.463420e-01 2.903335e+00 132 125 109
2.220358e+00 8.800238e-01 2.922927e+00 64 55 46
-1.681035e-01 1.157128e+00 2.841713e+00 162 124 95
-1.681035e-01 1.157128e+00 2.841713e+00 162 124 95
2.457122e+00 1.170570e+00 2.973910e+00 39 48 43
2.457122e+00 1.170570e+00 2.973910e+00 39 48 43
2.293826e+00 1.206326e+00 2.958405e+00 68 61 52
2.407104e+00 1.211491e+00 3.010012e+00 131 124 106
2.407104e+00 1.211491e+00 3.010012e+00 131 124 106
2.672229e+00 1.507111e+00 3.186962e+00 102 100 110
2.672229e+00 1.507111e+00 3.186962e+00 102 100 110
1.908434e+00 4.889545e+00 3.180813e+00 182 167 141
1.846710e+00 4.876416e+00 3.226189e+00 31 28 25
1.731958e+00 5.022861e+00 3.155342e+00 150 146 130
1.524386e+00 -6.077717e-01 3.141335e+00 103 86 70
1.140571e+00 -3.518274e-01 3.150234e+00 81 68 62
1.075456e+00 -3.152764e-01 3.158935e+00 151 139 101
2.523154e+00 -3.728841e-01 3.179747e+00 14 19 18
1.150537e+00 -3.182009e-01 3.167358e+00 169 145 121
-3.843610e-01 1.516273e-01 2.642626e+00 183 166 129
2.311488e+00 4.570934e-01 2.804701e+00 83 84 68
-1.065727e-01 6.918966e-01 2.674024e+00 8 3 5
1.605563e+00 5.607013e-01 2.769208e+00 145 113 78
2.176290e+00 5.299671e-01 2.803533e+00 123 115 94
-6.576943e-02 7.466258e-01 2.738469e+00 180 162 134
2.178819e+00 5.606362e-01 2.815585e+00 34 28 19
2.274815e-01 4.432585e-01 3.084456e+00 9 6 13
1.463752e+00 8.003476e-01 2.967740e+00 194 171 136
4.929166e-01 1.098985e+00 2.774531e+00 54 45 33
2.359233e+00 8.119770e-01 2.966416e+00 39 46 33
-9.379422e-02 1.135262e+00 2.785804e+00 146 112 81
4.559035e-01 1.126239e+00 2.773155e+00 53 43 32
-6.815735e-04 1.142383e+00 2.801599e+00 129 94 67
-6.815735e-04 1.142383e+00 2.801599e+00 129 94 67
6.982870e-02 1.175048e+00 2.772932e+00 131 96 73
1.903631e+00 1.005849e+00 2.854893e+00 149 130 106
1.641288e+00 9.629927e-01 2.984712e+00 183 152 110
6.265823e-01 1.168651e+00 2.906231e+00 178 157 131
1.767473e+00 1.143209e+00 2.949382e+00 194 177 150
4.333947e-01 1.216631e+00 2.974104e+00 171 149 126
3.187580e-01 1.313901e+00 2.918683e+00 179 163 129
2.750351e-01 1.262501e+00 2.982126e+00 179 160 135
2.371435e+00 1.623066e+00 2.991391e+00 23 22 28
2.494092e+00 2.330371e+00 3.076959e+00 5 4 10
2.570157e+00 2.229514e+00 3.269834e+00 26 26 23
2.673251e+00 2.282844e+00 3.255593e+00 183 173 144
2.818905e+00 2.279038e+00 3.272713e+00 160 154 136
1.520409e+00 5.158098e+00 3.219386e+00 72 60 53
1.798339e+00 5.335692e+00 3.256675e+00 94 76 76
1.901170e+00 5.333409e+00 3.252921e+00 96 79 76
3.218927e+00 1.056343e+01 6.827104e-01 107 91 76
1.385693e+00 5.551630e+00 3.378538e+00 141 194 226
-4.042705e-01 -7.120500e-01 3.097302e+00 65 48 42
-1.171715e-01 -5.802856e-01 3.144442e+00 67 48 43
1.868628e+00 -6.001738e-01 3.171981e+00 41 41 39
1.117696e+00 -3.237146e-01 3.164305e+00 60 43 36
2.455544e+00 5.355803e-01 2.921152e+00 42 38 31
2.099012e+00 6.975476e-01 2.866733e+00 68 60 56
-3.857947e-02 1.026158e+00 2.691858e+00 8 10 13
1.850407e+00 8.333021e-01 2.822418e+00 59 57 52
9.302032e-01 8.331717e-01 2.890491e+00 39 28 34
-6.583959e-02 1.115385e+00 2.767767e+00 70 41 30
2.228942e+00 9.604095e-01 2.963298e+00 47 41 47
1.696293e+00 1.051284e+00 2.925916e+00 178 151 110
1.739144e+00 1.072736e+00 2.931327e+00 170 142 96
2.072174e+00 1.049069e+00 2.947482e+00 161 146 113
1.784642e+00 1.093730e+00 2.930725e+00 185 158 115
1.868613e+00 1.377291e+00 2.987933e+00 58 38 37
2.499186e+00 2.259729e+00 3.070407e+00 65 68 60
4.802370e-01 2.464796e+00 3.052747e+00 158 142 122
2.185093e+00 2.368714e+00 3.049651e+00 13 10 10
-4.253933e-02 2.546254e+00 3.091004e+00 200 175 148
2.745801e+00 2.517079e+00 3.318221e+00 125 114 99
3.134396e+00 2.744856e+00 3.141804e+00 146 207 210
1.637450e+00 4.787769e+00 2.987758e+00 1 1 3
2.406169e+00 5.219115e+00 3.244034e+00 29 33 37
2.002310e+00 5.326066e+00 3.250883e+00 89 81 71
3.136902e-01 2.404086e+00 3.042411e+00 198 179 155
-1.911511e+00 6.466239e+00 -1.456860e+00 252 254 253
-8.722385e-01 -5.843991e-01 2.994750e+00 52 49 42
-8.067120e-01 6.121041e-02 1.488136e+00 69 67 55
-1.230182e+00 6.727410e-01 3.009522e+00 142 137 118
2.492611e+00 2.169536e+00 3.030016e+00 53 53 45
-7.389668e-01 2.651255e+00 3.073911e+00 54 53 51
-1.005558e+00 2.532843e+00 3.483078e+00 58 57 55
-6.728018e-01 -8.599434e-01 3.141413e+00 67 64 55
2.638602e+00 1.415568e+00 3.157202e+00 134 134 125
-9.224289e-01 2.411562e+00 3.448567e+00 147 147 137
