ply
format ascii 1.0
element face 0
property list uchar int vertex_indices
element vertex 818
property float x
property float y
property float z
property uchar diffuse_red
property uchar diffuse_green
property uchar diffuse_blue
end_header
6.793920e-01 -4.352230e+00 2.980805e+00 151 155 139
1.488218e+00 -3.435469e+00 2.980892e+00 82 80 57
8.305509e-03 -2.356632e+00 3.018796e+00 79 83 70
1.060491e+00 -4.824131e+00 2.989106e+00 134 132 111
-2.572129e+00 -1.066273e+00 3.002468e+00 218 217 212
1.739866e-01 -4.442181e+00 2.979122e+00 48 46 56
7.882877e-01 -3.602305e+00 2.981262e+00 144 147 127
3.593409e-01 -4.306308e+00 2.978754e+00 95 92 75
-8.155532e-01 -1.842381e+00 3.024998e+00 83 71 54
-9.793597e-01 -3.100008e+00 2.983692e+00 149 141 117
-1.903860e-01 6.909311e-01 3.124591e+00 144 145 138
-6.173408e-01 -4.327559e+00 2.975274e+00 100 94 76
-9.272489e-02 -3.610875e+00 2.977806e+00 101 99 86
9.461172e-01 -3.398291e+00 2.985290e+00 69 59 50
-2.394245e-01 -2.866613e+00 2.998940e+00 102 94 78
-4.871700e-01 -2.358525e+00 3.016000e+00 128 130 108
2.535460e+00 -4.028822e+00 2.993370e+00 144 145 122
-3.629356e+00 -3.443377e+00 2.978800e+00 216 206 173
1.537507e-01 -3.481025e+00 2.981919e+00 75 74 57
1.240922e-01 -3.425629e+00 2.982823e+00 150 149 129
9.935986e-01 -3.412096e+00 2.984669e+00 132 127 101
-3.051738e+00 -2.043227e+00 2.972575e+00 238 226 207
-3.703023e+00 -3.439731e+00 2.979824e+00 245 240 208
4.731650e-02 -3.870943e+00 2.975225e+00 147 145 130
-1.298648e+00 -3.505566e+00 2.971202e+00 147 140 111
-9.926800e-01 -3.414942e+00 2.975125e+00 168 162 133
-9.682495e-01 -3.409860e+00 2.975578e+00 80 74 51
-3.443191e+00 -2.845143e+00 2.971749e+00 87 77 89
1.174880e+00 -5.037357e-01 3.012568e+00 92 87 67
-1.178347e+00 -3.914451e+00 2.971040e+00 100 93 76
-5.259358e-01 -3.711082e+00 2.973990e+00 111 105 87
7.690014e-01 -3.386917e+00 2.984850e+00 154 148 124
-2.967414e+00 -4.532001e+00 2.984724e+00 216 207 208
2.653470e+00 -2.860074e+00 2.985081e+00 142 136 115
-2.707613e+00 -4.664002e+00 2.984308e+00 63 56 43
1.827987e-01 -2.558832e+00 3.011875e+00 144 134 99
1.188766e+00 1.085727e+00 3.047831e+00 173 169 157
2.660980e+00 -2.688508e+00 2.984906e+00 156 153 136
1.715894e-01 -2.235551e+00 3.023889e+00 136 136 124
-5.490318e-01 -4.026646e+00 2.973082e+00 162 160 145
4.582839e-01 -3.817010e+00 2.977666e+00 155 153 138
1.346023e+00 -2.942469e+00 2.988466e+00 92 75 49
-3.507527e-01 -2.800834e+00 3.000068e+00 139 138 117
8.554417e-03 -2.564620e+00 3.011122e+00 130 126 105
-9.581571e-01 -1.998001e+00 3.016262e+00 105 94 64
6.724223e-01 1.505747e+00 3.041932e+00 89 88 76
2.494693e+00 2.273506e+00 3.028448e+00 56 58 45
6.543473e-01 3.267439e+00 2.959290e+00 36 42 49
2.559518e+00 -4.612706e+00 3.000341e+00 136 136 124
2.790492e+00 -3.918220e+00 2.995136e+00 133 132 112
9.996226e-02 -3.552788e+00 2.979846e+00 167 168 149
-2.836164e-01 -3.187807e+00 2.987423e+00 155 150 131
1.514312e+00 -3.153987e+00 2.983863e+00 139 138 117
-3.328829e+00 -2.287172e+00 2.970005e+00 210 203 193
2.441878e-01 -6.673667e-02 2.946901e+00 145 143 130
-3.116353e-01 1.495008e-01 3.168725e+00 103 99 80
-2.214107e-01 3.196111e-01 3.229613e+00 147 144 127
2.938043e+00 -4.667656e+00 3.005480e+00 132 135 122
2.340507e+00 -4.306263e+00 2.993757e+00 77 77 69
2.340507e+00 -4.306263e+00 2.993757e+00 77 77 69
8.187885e-01 -3.894286e+00 2.979623e+00 147 149 128
2.104957e+00 -3.825821e+00 2.985462e+00 156 149 123
1.076978e+00 -3.790840e+00 2.980886e+00 114 111 95
-1.055888e-02 -3.452259e+00 2.981699e+00 101 101 91
2.461644e+00 -3.386606e+00 2.985805e+00 139 136 119
7.985141e-02 -3.172028e+00 2.990146e+00 98 95 75
-9.793597e-01 -3.100008e+00 2.983692e+00 149 141 117
-6.733167e-01 -3.073651e+00 2.988378e+00 157 157 140
2.395440e-02 -2.892341e+00 2.999150e+00 96 94 73
-7.830397e-01 -2.520025e+00 3.006009e+00 69 64 45
-4.360761e-01 -2.393039e+00 3.014436e+00 61 69 61
2.229640e+00 -2.262980e+00 2.989166e+00 122 119 108
-8.562708e-01 -2.349674e+00 3.010760e+00 143 134 123
3.529922e-01 -2.212023e+00 3.023034e+00 150 149 131
-2.271008e-01 -1.931750e+00 3.033027e+00 145 142 123
-2.657071e+00 -1.185834e+00 2.997235e+00 218 215 207
-7.971886e-01 -1.068786e+00 3.036210e+00 152 146 124
1.220381e+00 -8.103471e-01 3.008904e+00 150 148 134
8.788705e-01 -3.765542e-01 3.006144e+00 153 151 131
-1.519363e-01 -2.654588e-01 3.066413e+00 95 90 70
2.181967e+00 -4.863242e+00 2.998465e+00 113 113 101
1.346826e+00 -4.840153e+00 2.991031e+00 127 125 112
1.024014e+00 -4.686422e+00 2.987402e+00 139 138 119
2.555042e+00 -4.546224e+00 2.999673e+00 30 28 18
6.919744e-02 -4.222329e+00 2.976204e+00 156 157 141
1.065355e-01 -4.172842e+00 2.976546e+00 102 101 81
-3.400942e-01 -4.130946e+00 2.974201e+00 166 166 143
-3.400942e-01 -4.130946e+00 2.974201e+00 166 166 143
1.427665e-01 -3.870728e+00 2.975479e+00 167 162 144
1.828378e-01 -3.830325e+00 2.976889e+00 102 103 86
-3.945732e-01 -3.745964e+00 2.974272e+00 159 158 138
-1.126593e+00 -3.787569e+00 2.971292e+00 58 55 38
-3.347319e+00 -3.965065e+00 2.981510e+00 73 65 77
1.279732e+00 -3.736634e+00 2.980719e+00 124 120 100
-8.755990e-01 -3.679370e+00 2.972404e+00 96 92 78
1.486319e+00 -3.559491e+00 2.980580e+00 132 126 104
1.201505e+00 -3.508390e+00 2.981705e+00 139 133 111
2.314958e+00 -3.423209e+00 2.984122e+00 66 59 51
-2.488282e+00 -3.361603e+00 2.967489e+00 166 154 123
-5.682099e-01 -3.163267e+00 2.985964e+00 154 156 141
-5.682099e-01 -3.163267e+00 2.985964e+00 154 156 141
2.303882e+00 -3.136342e+00 2.982648e+00 103 96 74
-8.671792e-01 -3.071577e+00 2.985486e+00 139 138 118
-4.881269e-01 -3.047039e+00 2.990714e+00 152 154 138
-5.700263e-01 -3.048692e+00 2.989837e+00 153 156 139
-6.183870e-01 -3.001963e+00 2.991282e+00 75 72 52
-9.991820e-01 -2.993271e+00 2.986554e+00 153 149 120
-8.859655e-01 -2.981226e+00 2.988664e+00 144 139 117
8.420969e-02 -2.955397e+00 2.997476e+00 135 136 119
1.659120e+00 -2.553117e+00 2.991390e+00 86 81 61
-3.516546e+00 -2.754139e+00 2.971975e+00 209 203 191
2.517571e-02 -2.422956e+00 3.017096e+00 85 87 70
-1.259016e+00 -2.408085e+00 2.999715e+00 72 61 48
-6.833014e-02 -2.372115e+00 3.016862e+00 158 159 146
-7.304549e-01 -2.355939e+00 3.012233e+00 142 136 115
-7.878048e-01 -2.327283e+00 3.013139e+00 85 77 60
1.295783e-01 -2.278643e+00 3.021077e+00 138 139 125
6.087922e-02 -2.282057e+00 3.020916e+00 145 139 116
-5.825726e-01 -2.258607e+00 3.016731e+00 152 153 145
6.623152e-03 -2.243006e+00 3.022706e+00 83 83 75
-1.083611e+00 -1.869108e+00 3.017692e+00 87 75 51
-2.551709e+00 -1.696810e+00 2.987053e+00 209 203 175
-2.654565e+00 -1.473421e+00 2.990515e+00 232 221 200
1.122705e+00 -7.295012e-01 3.009075e+00 163 160 141
3.674918e-01 -5.163326e-01 3.007254e+00 146 140 122
3.605000e-01 -4.529149e-01 3.003758e+00 78 76 63
6.694571e-01 -3.839202e-01 2.999807e+00 154 153 146
5.606951e-01 -3.594930e-01 2.994999e+00 151 146 128
-7.047764e-01 -4.374612e-01 3.053875e+00 78 71 61
6.431488e-02 -3.634797e-01 3.020952e+00 143 134 120
-3.124604e+00 -4.478102e+00 2.985326e+00 129 126 119
2.873893e+00 -4.380821e+00 3.002044e+00 54 49 43
5.451638e-01 -4.183580e+00 2.978979e+00 159 160 154
-2.739007e-01 -4.039127e+00 2.974236e+00 152 155 136
9.582368e-01 -4.100670e+00 2.981376e+00 149 152 135
-5.936590e-01 -3.945326e+00 2.972857e+00 116 111 84
-3.542661e-02 -3.892751e+00 2.975151e+00 155 157 135
-5.844695e-01 -3.838254e+00 2.972609e+00 154 153 129
-8.758575e-01 -3.679316e+00 2.972499e+00 95 92 79
1.546511e+00 -3.588374e+00 2.980870e+00 69 63 50
2.385482e+00 -3.561599e+00 2.986157e+00 54 48 41
-1.394182e-01 -3.422137e+00 2.981708e+00 150 148 127
2.383051e+00 -3.481849e+00 2.985334e+00 131 128 113
2.081184e+00 -3.443630e+00 2.982229e+00 96 85 66
8.954826e-01 -3.394107e+00 2.985371e+00 147 139 113
-2.107476e-01 -3.324464e+00 2.984001e+00 71 66 54
2.729512e+00 -3.447628e+00 2.989402e+00 139 138 118
9.578788e-01 -3.347930e+00 2.986287e+00 131 118 100
2.270629e+00 -3.355305e+00 2.982960e+00 137 134 116
9.685005e-01 -3.280585e+00 2.988098e+00 52 52 38
2.423197e+00 -3.290479e+00 2.984649e+00 146 147 129
3.097090e+00 -3.166846e+00 2.992809e+00 74 68 56
-8.195552e-01 -3.015202e+00 2.988462e+00 78 71 54
-7.193830e-01 -3.007224e+00 2.990156e+00 75 74 57
-5.148857e-01 -2.996073e+00 2.992389e+00 88 82 63
-1.089619e+00 -2.991383e+00 2.985211e+00 159 146 114
-6.769002e-01 -2.954534e+00 2.992109e+00 155 152 136
1.566096e+00 -2.934361e+00 2.987006e+00 131 133 122
-4.781636e-01 -2.943829e+00 2.994816e+00 153 147 128
-4.449057e-02 -2.918002e+00 2.997804e+00 139 135 115
1.616666e+00 -2.843144e+00 2.987929e+00 67 60 48
3.392971e-01 -2.871090e+00 3.001810e+00 148 152 137
9.837420e-02 -2.801934e+00 3.002042e+00 148 146 122
-4.383782e-01 -2.554185e+00 3.009943e+00 70 71 57
1.615653e+00 -2.432276e+00 2.994071e+00 82 77 59
2.295366e+00 -2.406160e+00 2.986472e+00 173 173 161
-8.158689e-01 -2.467406e+00 3.006748e+00 148 137 119
2.996255e-01 -2.335306e+00 3.019725e+00 146 145 127
1.240456e+00 -2.206128e+00 3.004890e+00 71 63 46
3.438543e-01 -2.311246e+00 3.022277e+00 55 52 44
-3.213560e+00 -2.268414e+00 2.970153e+00 95 84 80
-1.085045e+00 -2.176282e+00 3.009767e+00 85 71 57
9.215294e-01 -2.061010e+00 3.013850e+00 145 138 122
-1.048792e+00 -2.081329e+00 3.012839e+00 62 51 35
-1.048792e+00 -2.081329e+00 3.012839e+00 62 51 35
-1.109456e-01 -2.108153e+00 3.028796e+00 146 147 139
-1.016002e+00 -2.064412e+00 3.015121e+00 117 112 89
-1.016002e+00 -2.064412e+00 3.015121e+00 117 112 89
-4.106359e-01 -2.072418e+00 3.026179e+00 132 127 105
-1.305159e+00 -2.014243e+00 3.007464e+00 159 157 144
-1.257371e+00 -1.986260e+00 3.009567e+00 64 60 41
9.278370e-01 -1.725141e+00 3.017503e+00 146 140 120
1.059005e+00 -1.692814e+00 3.015780e+00 138 133 109
1.406868e+00 -1.564726e+00 3.008752e+00 64 57 41
1.552178e-01 -1.666631e+00 3.035613e+00 129 128 107
1.403649e+00 -1.505534e+00 3.009065e+00 121 113 94
9.415003e-01 -1.548081e+00 3.019423e+00 137 134 115
-2.801591e+00 -1.591866e+00 2.985246e+00 108 95 86
6.834660e-02 -1.585763e+00 3.040124e+00 75 63 46
-5.816624e-02 -1.520129e+00 3.041602e+00 128 123 104
-1.868176e-01 -1.511367e+00 3.044634e+00 62 56 43
2.074605e-01 -1.396533e+00 3.037590e+00 138 131 110
2.074605e-01 -1.396533e+00 3.037590e+00 138 131 110
1.438684e+00 -1.098984e+00 3.009181e+00 113 104 86
4.152655e-01 -1.140190e+00 3.031444e+00 68 63 47
-7.138795e-01 -1.166445e+00 3.038199e+00 109 107 94
-7.138795e-01 -1.166445e+00 3.038199e+00 109 107 94
1.188809e+00 -1.042100e+00 3.013111e+00 127 125 104
6.843964e-01 -1.043717e+00 3.018356e+00 137 134 119
-7.681170e-01 -8.129045e-01 3.042995e+00 163 162 146
1.848143e-01 -7.254715e-01 3.033751e+00 44 40 28
-5.918773e-01 -7.249980e-01 3.048420e+00 137 140 122
-5.918773e-01 -7.249980e-01 3.048420e+00 137 140 122
-2.155151e+00 -6.239818e-01 3.020702e+00 207 207 193
8.977460e-01 -5.526227e-01 3.005682e+00 71 65 51
-3.066240e-01 -6.371769e-01 3.053797e+00 145 143 130
-1.809122e-01 -6.246963e-01 3.054185e+00 152 146 131
-3.940301e-01 -6.228965e-01 3.054291e+00 138 136 123
1.664286e-01 -3.707701e-01 3.006421e+00 131 129 115
-3.406523e-01 -2.628112e-01 3.072179e+00 60 54 42
-3.406523e-01 -2.628112e-01 3.072179e+00 60 54 42
-2.748944e-01 5.718304e-01 3.140758e+00 82 69 60
-1.846052e+00 5.211389e+00 2.997718e+00 202 203 194
-3.137839e+00 6.186409e+00 3.034873e+00 117 118 112
2.826751e+00 7.974486e+00 3.104042e+00 85 87 92
9.273168e-01 -4.678267e+00 2.986660e+00 133 134 122
1.267940e-01 -4.527106e+00 2.980045e+00 50 40 38
-5.734724e-01 -4.345908e+00 2.975615e+00 103 100 82
-7.948716e-01 -4.351271e+00 2.975143e+00 97 91 65
2.046206e-01 -4.340779e+00 2.978246e+00 122 121 104
3.137545e-01 -4.152308e+00 2.977478e+00 85 86 70
1.648221e+00 -4.135579e+00 2.985124e+00 57 56 46
2.606489e-01 -4.043691e+00 2.976714e+00 91 91 69
1.746308e-01 -4.025746e+00 2.976055e+00 85 85 67
1.036080e-01 -4.022280e+00 2.975709e+00 152 152 126
3.008919e-01 -4.002870e+00 2.976738e+00 146 148 133
3.008919e-01 -4.002870e+00 2.976738e+00 146 148 133
1.913497e-01 -3.979847e+00 2.975825e+00 153 155 142
-2.030997e+00 -4.058833e+00 2.972187e+00 169 163 138
-2.995820e+00 -4.161569e+00 2.980157e+00 83 78 53
-2.074171e+00 -4.043521e+00 2.972327e+00 93 86 69
1.607154e+00 -4.024266e+00 2.983797e+00 62 62 40
8.825845e-01 -3.980391e+00 2.980018e+00 142 144 130
2.451830e+00 -4.044248e+00 2.992198e+00 162 157 138
1.433829e-02 -3.883405e+00 2.975297e+00 101 98 84
1.433829e-02 -3.883405e+00 2.975297e+00 101 98 84
2.210481e+00 -4.004953e+00 2.989134e+00 98 95 83
1.893476e+00 -3.885625e+00 2.984458e+00 83 81 64
2.424881e+00 -3.877967e+00 2.989964e+00 64 62 49
-3.390325e+00 -4.010543e+00 2.982554e+00 215 214 184
7.338586e-01 -3.751803e+00 2.979915e+00 89 91 75
-3.404691e+00 -3.967272e+00 2.982142e+00 87 81 83
-1.073744e-01 -3.669494e+00 2.976580e+00 154 157 139
-4.923849e-02 -3.633717e+00 2.977335e+00 155 154 134
-2.198274e-01 -3.559164e+00 2.977790e+00 163 163 152
1.728300e+00 -3.590634e+00 2.981048e+00 124 122 107
1.240606e+00 -3.530312e+00 2.981212e+00 144 143 125
-5.378505e-02 -3.409892e+00 2.982203e+00 148 147 125
8.042546e-01 -3.393092e+00 2.984920e+00 105 95 71
2.343699e+00 -3.359260e+00 2.984003e+00 125 121 102
-1.954379e-01 -3.270777e+00 2.985094e+00 153 152 134
2.285629e+00 -3.302088e+00 2.982988e+00 36 32 28
1.104159e-01 -3.185997e+00 2.989778e+00 82 81 61
-2.442075e+00 -3.235603e+00 2.966954e+00 231 226 195
-1.341921e+00 -3.062709e+00 2.979314e+00 84 73 50
-2.718247e+00 -3.117097e+00 2.967571e+00 231 226 208
1.455523e-02 -3.018711e+00 2.994828e+00 140 137 120
-1.125556e+00 -3.033060e+00 2.983814e+00 98 89 56
-1.125556e+00 -3.033060e+00 2.983814e+00 98 89 56
-3.320702e-01 -3.005750e+00 2.993704e+00 154 151 134
5.414104e-01 -3.001829e+00 2.996453e+00 141 138 113
5.414104e-01 -3.001829e+00 2.996453e+00 141 138 113
-3.382574e-01 -2.964500e+00 2.994779e+00 48 46 30
-1.141936e+00 -2.949585e+00 2.985743e+00 95 86 60
-1.141936e+00 -2.949585e+00 2.985743e+00 95 86 60
-5.327520e-01 -2.928362e+00 2.994736e+00 79 81 69
-4.416682e-01 -2.918325e+00 2.995705e+00 72 69 50
-6.960780e-01 -2.871907e+00 2.994829e+00 108 108 98
5.136001e-02 -2.818027e+00 3.000915e+00 148 145 136
1.822332e+00 -2.749549e+00 2.985716e+00 124 122 106
5.421598e-02 -2.756217e+00 3.005104e+00 80 78 59
-9.919383e-01 -2.700451e+00 2.996058e+00 95 83 63
-9.919383e-01 -2.700451e+00 2.996058e+00 95 83 63
1.970291e-02 -2.611619e+00 3.010222e+00 119 114 86
-5.371161e-01 -2.567389e+00 3.007360e+00 87 74 41
-5.371161e-01 -2.567389e+00 3.007360e+00 87 74 41
-1.225716e+00 -2.448620e+00 2.998662e+00 126 115 85
3.235491e-01 -2.379982e+00 3.017520e+00 139 138 122
2.201572e+00 -2.270563e+00 2.989108e+00 153 154 137
-1.173728e+00 -2.300564e+00 3.004761e+00 126 119 93
-3.277040e+00 -2.361394e+00 2.969963e+00 128 115 113
-3.277040e+00 -2.361394e+00 2.969963e+00 128 115 113
2.782883e-03 -2.288821e+00 3.020932e+00 146 142 115
-5.046149e-01 -2.287456e+00 3.016872e+00 129 131 120
-6.522221e-01 -2.273387e+00 3.015966e+00 139 127 110
-1.177665e+00 -2.222998e+00 3.006617e+00 69 62 42
-6.836803e-01 -2.222620e+00 3.017745e+00 94 90 71
5.884439e-02 -2.204335e+00 3.023894e+00 144 139 120
5.628136e-01 -2.104516e+00 3.020994e+00 122 115 96
8.551738e-01 -2.068092e+00 3.015606e+00 154 157 147
9.343936e-02 -2.124053e+00 3.028563e+00 56 57 47
-5.683564e-01 -2.115687e+00 3.023456e+00 137 131 105
1.481556e+00 -1.978038e+00 3.004194e+00 164 164 152
-6.053376e-01 -2.090655e+00 3.023890e+00 80 69 50
-6.053376e-01 -2.090655e+00 3.023890e+00 80 69 50
-3.337371e-02 -2.066428e+00 3.028703e+00 147 136 112
-2.951379e+00 -1.933596e+00 2.975731e+00 115 103 104
-4.593959e-01 -1.911823e+00 3.032806e+00 70 75 61
1.025059e+00 -1.725076e+00 3.015954e+00 76 68 55
1.521433e+00 -1.659578e+00 3.005631e+00 142 143 129
-2.794354e+00 -1.674480e+00 2.982541e+00 216 207 182
-5.368402e-01 -1.699902e+00 3.034577e+00 131 117 91
-3.945088e-01 -1.535341e+00 3.039847e+00 139 136 119
9.675341e-01 -1.395624e+00 3.016206e+00 78 69 56
-2.856500e+00 -1.477235e+00 2.986680e+00 212 210 195
1.586562e+00 -1.220765e+00 3.008002e+00 66 61 46
5.427358e-01 -1.291025e+00 3.027691e+00 52 50 38
-3.863491e-01 -1.315667e+00 3.043271e+00 137 139 114
-9.112838e-02 -1.299834e+00 3.046478e+00 125 121 92
-9.112838e-02 -1.299834e+00 3.046478e+00 125 121 92
9.944640e-01 -9.984514e-01 3.012211e+00 150 151 140
-1.005318e+00 -9.823907e-01 3.033825e+00 139 138 117
9.620681e-01 -8.769048e-01 3.013246e+00 100 98 85
4.865943e-01 -8.448067e-01 3.021967e+00 93 93 75
-9.446096e-01 -8.816890e-01 3.037343e+00 92 85 67
1.580353e-01 -6.977277e-01 3.033092e+00 119 115 103
-4.844915e-01 -7.227497e-01 3.049575e+00 96 80 64
-1.397938e-02 -6.993174e-01 3.043896e+00 98 85 68
-5.944463e-01 -6.780430e-01 3.049684e+00 78 72 56
-2.113048e+00 -5.815078e-01 3.022506e+00 211 210 202
4.788878e-01 -5.123638e-01 3.006301e+00 89 83 71
7.836386e-01 -4.614866e-01 3.002922e+00 114 108 91
3.150480e-01 -4.132441e-01 2.999790e+00 75 74 57
3.331361e-01 -3.853579e-01 2.998721e+00 125 121 100
-1.381268e+00 -4.538122e-02 3.048649e+00 100 89 68
-1.483242e+00 2.073507e-03 3.047410e+00 164 163 158
1.789270e+00 2.444206e+00 3.033142e+00 131 128 116
-5.437023e-01 4.276332e+00 2.969265e+00 49 47 60
-6.298317e-01 4.832964e+00 2.984301e+00 75 68 44
-2.640198e+00 -4.517556e+00 2.981900e+00 238 236 216
-5.520377e-01 -4.148743e+00 2.973760e+00 174 175 158
-8.629980e-01 -4.156974e+00 2.973166e+00 88 79 53
-2.957124e+00 -4.326203e+00 2.982040e+00 223 215 195
-3.002789e+00 -4.332290e+00 2.982551e+00 215 210 199
3.601154e-01 -4.019036e+00 2.976963e+00 143 145 131
2.584714e+00 -4.164284e+00 2.995661e+00 141 139 131
1.244985e+00 -4.054893e+00 2.981551e+00 149 144 114
8.847827e-02 -3.979216e+00 2.975728e+00 52 53 32
8.282985e-01 -4.002757e+00 2.979851e+00 147 149 135
-1.542352e-01 -3.928886e+00 2.974321e+00 105 94 70
8.240554e-02 -3.874909e+00 2.975252e+00 108 104 95
1.045836e+00 -3.948592e+00 2.980681e+00 147 147 137
-3.449173e-01 -3.798758e+00 2.974265e+00 107 104 88
1.161429e+00 -3.838492e+00 2.980108e+00 83 75 57
-2.579330e-01 -3.743521e+00 2.974740e+00 115 113 97
2.348482e+00 -3.861572e+00 2.988516e+00 58 55 35
5.030625e-01 -3.747354e+00 2.978637e+00 153 154 132
1.760449e+00 -3.795031e+00 2.982336e+00 141 141 120
2.181127e+00 -3.832415e+00 2.986689e+00 60 52 37
1.486053e+00 -3.729680e+00 2.980607e+00 137 132 110
3.572679e-02 -3.672862e+00 2.977174e+00 113 112 93
-1.491885e+00 -3.733144e+00 2.969784e+00 159 160 140
2.101188e+00 -3.723388e+00 2.984442e+00 162 160 131
-2.249979e-01 -3.599856e+00 2.977327e+00 106 100 92
2.334801e+00 -3.654131e+00 2.986431e+00 142 145 126
2.765250e+00 -3.699121e+00 2.992620e+00 166 168 155
1.764316e+00 -3.488941e+00 2.980887e+00 81 67 54
2.269366e+00 -3.427638e+00 2.983533e+00 61 56 41
-1.707487e-01 -3.340740e+00 2.983391e+00 157 154 134
7.711382e-02 -3.336616e+00 2.985045e+00 150 152 136
2.781132e+00 -3.445475e+00 2.990263e+00 37 37 25
-4.165029e-01 -3.279209e+00 2.983634e+00 85 83 67
-3.181119e+00 -3.461775e+00 2.973926e+00 131 119 120
-1.332032e+00 -3.276146e+00 2.974278e+00 155 151 121
-1.332032e+00 -3.276146e+00 2.974278e+00 155 151 121
2.231064e+00 -3.277182e+00 2.982269e+00 143 140 130
2.231064e+00 -3.277182e+00 2.982269e+00 143 140 130
2.315670e+00 -3.274236e+00 2.983193e+00 150 147 127
-1.802533e+00 -3.201554e+00 2.968900e+00 170 165 145
-7.538169e-01 -3.152035e+00 2.984272e+00 154 157 137
-4.326726e-01 -3.146636e+00 2.987982e+00 153 147 124
-1.296608e-01 -3.106961e+00 2.991241e+00 60 58 44
-1.493671e-01 -3.076611e+00 2.992222e+00 151 144 120
-1.228471e+00 -3.019038e+00 2.982027e+00 158 152 131
-1.228471e+00 -3.019038e+00 2.982027e+00 158 152 131
-1.737582e+00 -2.987293e+00 2.972641e+00 139 131 109
1.139296e-01 -2.880421e+00 3.000163e+00 154 154 135
1.506596e+00 -2.819344e+00 2.988345e+00 139 126 109
-1.101071e+00 -2.861638e+00 2.988897e+00 149 144 124
2.981056e+00 -2.849033e+00 2.988957e+00 64 62 50
2.981056e+00 -2.849033e+00 2.988957e+00 64 62 50
1.445108e+00 -2.702540e+00 2.991755e+00 150 142 123
1.445108e+00 -2.702540e+00 2.991755e+00 150 142 123
1.449604e+00 -2.661120e+00 2.992512e+00 64 54 37
1.393492e+00 -2.641230e+00 2.993856e+00 53 50 30
1.994225e+00 -2.486947e+00 2.987823e+00 169 166 152
-3.316565e+00 -2.574033e+00 2.969874e+00 222 216 198
-3.316565e+00 -2.574033e+00 2.969874e+00 222 216 198
-3.287429e+00 -2.510336e+00 2.969721e+00 242 234 218
-1.210657e+00 -2.303933e+00 3.002701e+00 57 48 29
3.860208e-01 -2.275963e+00 3.021487e+00 137 135 126
-1.125257e+00 -2.252749e+00 3.007160e+00 125 114 87
1.276655e+00 -2.167687e+00 3.005354e+00 145 134 113
9.395667e-02 -2.247857e+00 3.022105e+00 110 102 83
-1.075247e+00 -2.242370e+00 3.008528e+00 142 136 120
2.093712e+00 -2.127559e+00 2.992513e+00 54 48 30
-5.674150e-01 -2.210952e+00 3.018820e+00 88 82 56
-3.164624e+00 -2.219232e+00 2.970636e+00 116 104 91
-1.099719e+00 -2.159278e+00 3.009449e+00 64 56 37
1.124941e+00 -2.018884e+00 3.009633e+00 150 141 124
1.860582e-01 -2.121575e+00 3.028711e+00 70 68 51
-5.321893e-01 -2.111167e+00 3.023790e+00 90 85 68
7.843351e-01 -1.965973e+00 3.018110e+00 134 122 96
-1.013836e+00 -2.002255e+00 3.015519e+00 60 54 29
2.072783e+00 -1.892394e+00 2.996557e+00 172 171 158
-3.086418e+00 -1.964595e+00 2.973519e+00 102 92 91
-3.086418e+00 -1.964595e+00 2.973519e+00 102 92 91
9.865479e-01 -1.711751e+00 3.015567e+00 147 140 125
-1.072505e+00 -1.756539e+00 3.019207e+00 70 58 36
-1.072505e+00 -1.756539e+00 3.019207e+00 70 58 36
-6.813949e-01 -1.694801e+00 3.030590e+00 62 54 41
4.627822e-01 -1.617507e+00 3.029407e+00 144 146 134
1.356054e+00 -1.501494e+00 3.009541e+00 76 67 49
-2.360514e+00 -1.536613e+00 2.995801e+00 77 71 57
-7.814858e-01 -1.537082e+00 3.030725e+00 132 120 94
-1.569769e-01 -1.544217e+00 3.044212e+00 124 115 87
1.649867e+00 -1.165601e+00 3.009376e+00 153 149 129
6.121636e-02 -1.000065e+00 3.042168e+00 150 149 129
1.472159e-01 -9.772567e-01 3.041396e+00 89 81 62
-1.013361e+00 -9.212939e-01 3.035256e+00 108 105 86
-8.188218e-03 -7.370764e-01 3.043921e+00 136 133 114
-6.543535e-01 -7.431690e-01 3.046216e+00 158 158 145
4.584852e-01 -6.089129e-01 3.009335e+00 145 132 116
-3.730030e-01 -2.112294e-01 3.077470e+00 127 119 102
2.365229e+00 4.933828e-01 3.033127e+00 149 153 134
-3.829382e-01 7.085803e-01 3.111002e+00 148 152 138
-2.637949e+00 6.348300e-01 3.014738e+00 97 96 83
-1.451854e+00 6.751399e-01 3.052912e+00 72 66 60
1.739396e+00 9.446557e-01 3.040924e+00 173 170 158
-7.682153e-02 1.290835e+00 3.054459e+00 47 38 27
6.141702e-01 3.217177e+00 2.959456e+00 47 50 77
2.764541e+00 5.317816e+00 3.041004e+00 200 207 199
-1.002188e+00 4.409811e+00 2.973082e+00 156 155 132
1.401120e+00 5.355588e+00 3.014705e+00 122 122 120
-6.103523e-01 4.905304e+00 2.986370e+00 149 153 129
1.580254e+00 -4.803370e+00 2.992391e+00 142 144 127
-3.424017e+00 -4.747273e+00 2.990590e+00 193 186 169
-5.386914e-01 -4.419899e+00 2.976336e+00 56 56 65
5.233896e-01 -4.224261e+00 2.978841e+00 112 110 96
5.972345e-01 -4.230549e+00 2.979519e+00 154 155 140
2.316895e-01 -4.153012e+00 2.977135e+00 153 156 138
9.203953e-01 -4.138299e+00 2.981234e+00 91 88 72
-3.372452e+00 -4.305909e+00 2.985858e+00 113 108 114
2.091036e+00 -4.122484e+00 2.988743e+00 150 142 127
8.180464e-01 -4.054347e+00 2.979986e+00 58 59 47
-4.550913e-02 -3.997585e+00 2.975106e+00 146 148 126
-3.404980e+00 -4.247208e+00 2.985492e+00 160 150 123
2.293488e-01 -3.989268e+00 2.976503e+00 95 96 83
4.458825e-02 -3.954596e+00 2.975563e+00 91 89 64
-2.618617e+00 -4.094770e+00 2.976068e+00 123 113 113
2.726857e+00 -4.043075e+00 2.995952e+00 59 56 40
9.685690e-01 -3.928379e+00 2.980474e+00 77 78 64
-2.653589e+00 -3.968514e+00 2.974688e+00 111 99 82
2.437932e+00 -3.912083e+00 2.990557e+00 129 129 103
2.895979e+00 -3.953775e+00 2.997677e+00 64 62 50
2.387581e+00 -3.871902e+00 2.989555e+00 145 140 130
-6.420706e-02 -3.715867e+00 2.976257e+00 167 170 143
-1.773600e+00 -3.779066e+00 2.969086e+00 120 114 91
1.381950e+00 -3.777914e+00 2.981312e+00 99 93 74
-4.458534e-01 -3.688826e+00 2.974582e+00 171 170 152
-5.458356e-01 -3.686372e+00 2.974105e+00 152 153 128
-5.560516e-01 -3.657636e+00 2.974203e+00 88 85 69
2.037671e+00 -3.712431e+00 2.983620e+00 145 139 129
1.818401e+00 -3.649950e+00 2.981923e+00 75 76 59
1.472253e+00 -3.607386e+00 2.980988e+00 51 48 41
1.735596e+00 -3.504525e+00 2.980697e+00 128 123 115
3.164605e-02 -3.461614e+00 2.981702e+00 146 149 129
-1.357257e+00 -3.483948e+00 2.970741e+00 144 141 116
7.118371e-01 -3.457578e+00 2.983780e+00 107 105 85
1.701326e+00 -3.426908e+00 2.980801e+00 89 89 64
1.719756e+00 -3.364576e+00 2.980968e+00 35 33 12
-1.334382e+00 -3.244321e+00 2.974804e+00 105 103 82
5.947520e-01 -3.200776e+00 2.989785e+00 139 132 113
-7.222002e-01 -3.177992e+00 2.983972e+00 161 158 138
-1.220869e+00 -3.177182e+00 2.977679e+00 145 138 119
-4.009406e-01 -3.154158e+00 2.988094e+00 69 62 49
-4.009406e-01 -3.154158e+00 2.988094e+00 69 62 49
-1.105346e+00 -3.165046e+00 2.979637e+00 149 142 114
-1.081816e+00 -3.153416e+00 2.980011e+00 106 92 76
3.112421e+00 -3.309381e+00 2.994429e+00 77 74 55
-3.628856e+00 -3.376951e+00 2.978290e+00 230 218 201
-3.662719e+00 -3.377746e+00 2.978731e+00 94 83 106
-3.720024e+00 -3.377579e+00 2.979501e+00 106 100 80
1.125075e+00 -3.099014e+00 2.988513e+00 144 143 121
-3.570118e+00 -3.281240e+00 2.976565e+00 240 230 205
4.006415e-01 -3.029474e+00 2.995472e+00 101 99 84
1.883083e-01 -3.013582e+00 2.995316e+00 93 92 71
8.322494e-01 -3.036627e+00 2.995044e+00 72 67 48
-1.548183e-02 -2.996296e+00 2.995201e+00 93 89 70
1.365565e-01 -2.904958e+00 2.999511e+00 99 95 83
-3.622061e+00 -3.100559e+00 2.975656e+00 107 98 87
4.994700e-01 -2.892685e+00 3.000223e+00 151 145 122
2.205942e-01 -2.881075e+00 3.000212e+00 153 150 131
2.205942e-01 -2.881075e+00 3.000212e+00 153 150 131
2.755100e-01 -2.878606e+00 3.000233e+00 149 151 130
-8.660205e-01 -2.888677e+00 2.991809e+00 98 95 78
-7.889851e-01 -2.800843e+00 2.996589e+00 100 96 76
-3.679766e+00 -2.918093e+00 2.974877e+00 109 98 93
2.394892e+00 -2.622343e+00 2.983755e+00 151 149 138
2.394892e+00 -2.622343e+00 2.983755e+00 151 149 138
-1.213969e+00 -2.553661e+00 2.996608e+00 141 130 102
1.319671e+00 -2.416472e+00 2.999218e+00 145 144 123
-8.556605e-01 -2.486781e+00 3.005175e+00 80 69 47
-3.299085e+00 -2.540715e+00 2.969636e+00 79 69 74
-3.299085e+00 -2.540715e+00 2.969636e+00 79 69 74
-7.624164e-01 -2.423743e+00 3.009361e+00 146 140 124
-1.163935e+00 -2.400876e+00 3.001971e+00 90 83 59
-2.433671e+00 -2.351840e+00 2.974996e+00 108 94 90
1.355828e+00 -2.186503e+00 3.004335e+00 106 104 84
-1.097959e+00 -2.238390e+00 3.007723e+00 66 53 35
2.181680e+00 -2.158717e+00 2.991680e+00 81 75 57
1.233984e+00 -2.157276e+00 3.005628e+00 150 149 128
-2.673998e+00 -2.222739e+00 2.974128e+00 78 77 72
-1.040821e+00 -2.198869e+00 3.009799e+00 137 129 106
1.065199e+00 -1.935410e+00 3.011591e+00 132 131 112
-1.072396e+00 -1.914579e+00 3.016350e+00 139 132 104
2.384892e+00 -1.810834e+00 2.996312e+00 60 50 39
-6.665931e-01 -1.885301e+00 3.027774e+00 134 127 91
2.324410e+00 -1.706106e+00 2.998258e+00 71 62 45
1.482833e+00 -1.613184e+00 3.006610e+00 153 151 137
-2.790840e+00 -1.718313e+00 2.982077e+00 127 111 88
-2.917224e+00 -1.680229e+00 2.980583e+00 187 180 151
-5.151554e-01 -1.694962e+00 3.035281e+00 124 115 84
-2.896567e+00 -1.654623e+00 2.981776e+00 117 109 99
2.143356e+00 -1.501680e+00 3.003207e+00 94 85 66
2.143356e+00 -1.501680e+00 3.003207e+00 94 85 66
-2.666228e+00 -1.527502e+00 2.989572e+00 126 117 99
-2.818393e+00 -1.498721e+00 2.987008e+00 104 97 89
2.558647e-01 -1.404274e+00 3.036341e+00 57 51 33
-1.024037e+00 -1.394091e+00 3.026887e+00 55 47 36
-1.024559e+00 -1.368411e+00 3.027063e+00 148 137 121
1.250731e+00 -1.235564e+00 3.011163e+00 85 82 65
1.254652e+00 -1.196348e+00 3.011661e+00 141 140 135
-8.719286e-01 -1.248107e+00 3.032162e+00 167 161 138
1.084178e+00 -1.129644e+00 3.012137e+00 124 121 106
3.817082e-01 -1.130876e+00 3.031659e+00 127 119 93
1.652629e-01 -1.096977e+00 3.037938e+00 133 125 106
9.496627e-01 -9.864603e-01 3.012423e+00 169 164 150
1.914863e-01 -1.079426e+00 3.038131e+00 61 52 39
1.051339e+00 -9.831102e-01 3.013135e+00 133 131 118
9.711118e-01 -9.121140e-01 3.013183e+00 142 142 132
-1.085445e+00 -9.411304e-01 3.033885e+00 151 150 124
-2.901877e+00 -9.345050e-01 2.994784e+00 190 186 183
8.607619e-02 -9.456933e-01 3.045071e+00 79 69 57
1.664759e+00 -8.339269e-01 3.012288e+00 143 134 122
1.112930e+00 -6.846079e-01 3.009951e+00 66 63 51
8.349342e-01 -5.493899e-01 3.004983e+00 154 153 136
-2.073109e+00 -4.824703e-01 3.024610e+00 176 174 169
3.092147e-01 -1.567733e-01 2.968181e+00 154 155 143
-2.654533e+00 -7.189189e-02 3.012221e+00 167 159 156
-4.046549e-01 8.546683e-03 3.104952e+00 165 158 142
-4.046549e-01 8.546683e-03 3.104952e+00 165 158 142
-3.272310e-01 5.697624e-02 3.127975e+00 151 153 131
-3.857081e+00 1.214012e-01 2.982046e+00 228 227 225
-1.172559e+00 1.896683e-01 3.061599e+00 154 155 145
-1.172559e+00 1.896683e-01 3.061599e+00 154 155 145
-4.830681e-01 3.790111e-01 3.114912e+00 140 134 112
-1.418434e+00 6.900607e-01 3.054664e+00 156 153 137
-5.268619e-01 7.907909e-01 3.100011e+00 101 101 93
1.617198e+00 1.147682e+00 3.041652e+00 108 106 87
4.274516e+00 1.428115e+00 3.024559e+00 165 163 151
4.588059e-01 2.345937e+00 3.037760e+00 138 133 111
-2.611535e+00 -5.025544e+00 2.987247e+00 203 200 162
1.308423e+00 -4.804321e+00 2.990347e+00 83 83 75
-1.246037e+00 -4.629314e+00 2.978516e+00 32 26 29
-2.455080e+00 -4.607547e+00 2.981758e+00 72 67 47
-2.336728e+00 -4.554093e+00 2.980273e+00 82 71 70
-1.987364e+00 -4.522125e+00 2.978197e+00 112 109 95
-2.342486e+00 -4.526699e+00 2.980064e+00 216 212 204
-2.747632e+00 -4.526519e+00 2.982807e+00 214 212 198
2.818733e-01 -4.313455e+00 2.978324e+00 155 158 141
-3.403705e+00 -4.505045e+00 2.988399e+00 191 186 192
-2.656664e+00 -4.420998e+00 2.980704e+00 134 129 116
1.208023e+00 -4.177123e+00 2.982442e+00 136 130 114
1.857356e+00 -4.156598e+00 2.987061e+00 119 112 102
3.389403e-01 -4.042787e+00 2.977240e+00 83 86 72
3.389403e-01 -4.042787e+00 2.977240e+00 83 86 72
-1.229290e+00 -4.026641e+00 2.971610e+00 161 160 155
-6.992238e-01 -3.980933e+00 2.972427e+00 101 94 81
-1.243226e+00 -4.014789e+00 2.971383e+00 69 60 61
6.588575e-02 -3.969071e+00 2.975450e+00 131 128 109
-6.995034e-01 -3.953441e+00 2.972268e+00 142 142 128
-7.248961e-01 -3.941194e+00 2.972287e+00 104 104 94
-7.248961e-01 -3.941194e+00 2.972287e+00 104 104 94
-1.245247e+00 -3.970696e+00 2.971139e+00 94 96 85
2.501136e+00 -4.077514e+00 2.993310e+00 157 153 140
1.633407e+00 -3.997042e+00 2.983497e+00 132 130 101
2.843836e+00 -4.081997e+00 2.998280e+00 59 59 41
2.894151e+00 -3.985615e+00 2.998039e+00 143 141 131
2.894151e+00 -3.985615e+00 2.998039e+00 143 141 131
5.430620e-01 -3.802767e+00 2.978200e+00 108 105 87
2.765190e+00 -3.958252e+00 2.995494e+00 93 91 77
2.820311e+00 -3.963303e+00 2.996512e+00 164 166 154
1.772613e+00 -3.820793e+00 2.982748e+00 153 150 135
1.772613e+00 -3.820793e+00 2.982748e+00 153 150 135
1.844036e+00 -3.820603e+00 2.983281e+00 149 149 129
2.921601e+00 -3.933972e+00 2.997870e+00 154 152 138
2.399470e+00 -3.841092e+00 2.989077e+00 84 79 76
-1.467540e+00 -3.744186e+00 2.969754e+00 103 104 89
1.376763e+00 -3.722633e+00 2.981008e+00 87 85 72
2.092154e+00 -3.691695e+00 2.983989e+00 70 62 42
1.455697e+00 -3.649496e+00 2.980822e+00 56 52 35
1.726428e+00 -3.646762e+00 2.981207e+00 123 115 105
-2.052854e+00 -3.601893e+00 2.967875e+00 92 87 59
2.729893e+00 -3.641877e+00 2.991429e+00 145 146 133
2.624022e+00 -3.623285e+00 2.989578e+00 131 134 118
8.416875e-01 -3.523952e+00 2.982677e+00 75 70 49
1.875964e-01 -3.478586e+00 2.981804e+00 157 161 147
-4.016262e-01 -3.443701e+00 2.979298e+00 162 159 143
8.130137e-02 -3.450760e+00 2.982545e+00 66 65 51
-1.070514e+00 -3.459318e+00 2.973709e+00 106 101 75
6.831479e-01 -3.452411e+00 2.983401e+00 161 156 135
3.245970e+00 -3.606913e+00 2.999839e+00 138 135 119
-3.176668e+00 -3.568682e+00 2.975050e+00 235 229 230
8.787668e-01 -3.368153e+00 2.985948e+00 150 141 110
2.273778e+00 -3.396655e+00 2.983482e+00 128 123 110
-1.691614e-01 -3.304076e+00 2.984650e+00 97 95 77
1.973468e+00 -3.285822e+00 2.981333e+00 60 55 33
-2.842404e-02 -3.239943e+00 2.987196e+00 87 84 63
2.018954e+00 -3.273718e+00 2.981561e+00 88 85 56
3.178551e-01 -3.224815e+00 2.989036e+00 104 99 80
3.135987e+00 -3.383747e+00 2.995617e+00 73 69 57
-8.850139e-01 -3.186247e+00 2.981973e+00 120 108 79
-3.629927e+00 -3.424747e+00 2.978685e+00 217 209 172
-4.049458e-01 -3.103810e+00 2.989349e+00 146 145 127
-4.328531e-01 -3.101317e+00 2.988938e+00 104 100 82
-3.864523e-01 -3.098709e+00 2.989561e+00 113 111 98
-5.297482e-01 -3.061133e+00 2.990314e+00 108 105 90
-6.213926e-01 -3.034837e+00 2.989629e+00 146 147 123
-8.745099e-01 -3.032208e+00 2.986981e+00 141 139 115
6.910463e-01 -3.028063e+00 2.995583e+00 100 92 71
-3.172771e+00 -3.153620e+00 2.971049e+00 137 131 131
1.129944e-01 -2.964402e+00 2.996693e+00 135 133 118
1.845219e+00 -2.927730e+00 2.983448e+00 91 83 59
-3.099167e+00 -3.075687e+00 2.969955e+00 222 215 195
2.157082e+00 -2.930687e+00 2.982012e+00 112 100 81
-8.687497e-01 -2.913260e+00 2.991402e+00 158 155 140
-5.183606e-01 -2.900759e+00 2.995606e+00 154 155 142
-5.462980e-01 -2.899899e+00 2.995213e+00 169 171 158
-7.984275e-01 -2.890179e+00 2.993021e+00 105 105 91
-3.598530e+00 -3.061994e+00 2.975035e+00 219 218 198
-1.028517e+00 -2.862520e+00 2.990125e+00 166 152 123
-1.028517e+00 -2.862520e+00 2.990125e+00 166 152 123
-4.013491e-01 -2.828635e+00 2.998356e+00 158 156 143
2.805890e-02 -2.803523e+00 3.001591e+00 110 113 94
-1.016083e+00 -2.811774e+00 2.992220e+00 145 139 114
-1.544174e-01 -2.700255e+00 3.004953e+00 90 89 72
1.289570e+00 -2.659453e+00 2.995781e+00 63 57 43
-1.164337e-01 -2.668776e+00 3.005924e+00 100 92 62
1.462504e+00 -2.575787e+00 2.994102e+00 155 151 139
1.451434e+00 -2.560352e+00 2.994808e+00 96 93 75
2.001102e+00 -2.460463e+00 2.988406e+00 99 97 76
-3.271012e+00 -2.578592e+00 2.969434e+00 231 220 201
-3.271012e+00 -2.578592e+00 2.969434e+00 231 220 201
-2.561765e-01 -2.452576e+00 3.012697e+00 112 107 93
-8.984043e-02 -2.296490e+00 3.020054e+00 144 138 123
-1.082792e-01 -2.254302e+00 3.021686e+00 82 82 70
7.902219e-01 -2.195197e+00 3.015065e+00 131 125 109
-1.193674e+00 -2.190649e+00 3.006289e+00 153 146 120
5.447212e-01 -2.146283e+00 3.021834e+00 43 37 19
1.811157e+00 -2.028175e+00 2.997840e+00 91 91 79
-9.238682e-01 -2.136290e+00 3.015717e+00 137 128 92
-1.288649e+00 -2.051780e+00 3.007135e+00 112 108 97
-2.263193e-01 -1.984768e+00 3.030614e+00 95 86 69
-2.263193e-01 -1.984768e+00 3.030614e+00 95 86 69
1.624030e+00 -1.818526e+00 3.003120e+00 143 139 120
1.509907e+00 -1.597594e+00 3.006591e+00 162 153 145
-2.869833e+00 -1.703892e+00 2.981183e+00 237 221 202
-2.934354e+00 -1.705153e+00 2.980163e+00 114 103 98
1.508148e+00 -1.578330e+00 3.006956e+00 100 97 85
-2.690621e+00 -1.486865e+00 2.989659e+00 207 204 195
-1.516967e-01 -1.518822e+00 3.044288e+00 53 44 27
-5.758209e-01 -1.481494e+00 3.036638e+00 127 116 96
1.256299e+00 -1.287578e+00 3.010198e+00 163 158 139
-9.981645e-01 -1.397196e+00 3.026882e+00 151 142 114
-9.949575e-01 -1.371435e+00 3.027662e+00 105 91 66
-3.593398e+00 -1.382870e+00 2.976630e+00 173 172 178
-3.771840e-01 -1.378055e+00 3.043371e+00 138 129 102
-2.610471e+00 -1.314145e+00 2.995716e+00 103 92 79
1.232978e+00 -1.171099e+00 3.012275e+00 138 140 130
1.444701e+00 -1.032636e+00 3.010282e+00 174 170 159
-5.862258e-01 -1.089703e+00 3.041480e+00 74 63 38
9.452222e-01 -9.625040e-01 3.012612e+00 103 96 83
1.399990e+00 -9.542112e-01 3.012788e+00 161 164 151
-1.752433e+00 -9.315362e-01 3.021524e+00 162 150 134
1.759493e+00 -8.200229e-01 3.012878e+00 99 93 80
1.780710e-01 -7.588770e-01 3.033129e+00 148 144 128
1.058217e+00 -6.595103e-01 3.008869e+00 99 98 79
-2.734758e+00 -5.151702e-01 3.005888e+00 171 164 155
-2.511791e+00 -3.971274e-01 3.013844e+00 154 151 145
-2.893529e-01 -3.081293e-01 3.068011e+00 63 52 32
6.209117e-01 -6.829348e-02 2.998566e+00 138 132 113
2.098800e+00 5.371794e-01 3.036116e+00 168 169 153
-2.552549e-01 7.740159e-01 3.114755e+00 85 84 74
-3.984050e-01 7.923179e-01 3.109313e+00 154 155 143
-3.984050e-01 7.923179e-01 3.109313e+00 154 155 143
-2.878030e+00 1.568769e+00 2.996657e+00 180 178 157
4.540936e+00 2.298897e+00 3.034677e+00 103 98 78
6.368003e-01 3.434620e+00 2.961847e+00 50 65 88
-2.380577e+00 -4.495365e+00 2.979849e+00 130 130 123
-7.235797e-01 -4.325727e+00 2.974860e+00 118 112 96
-3.331219e+00 -4.506701e+00 2.987756e+00 179 181 179
1.334140e+00 -4.305231e+00 2.984758e+00 126 127 115
-2.936558e+00 -4.303408e+00 2.981575e+00 153 143 133
2.936410e+00 -4.232933e+00 3.001282e+00 99 101 100
1.855292e+00 -4.126509e+00 2.986733e+00 109 106 90
5.685111e-01 -3.996263e+00 2.978100e+00 126 123 103
1.499646e-01 -3.958244e+00 2.975563e+00 146 147 129
-2.222922e+00 -3.968464e+00 2.971952e+00 158 156 136
1.788334e+00 -3.809367e+00 2.982603e+00 100 97 77
-9.397381e-01 -3.706049e+00 2.971698e+00 163 165 147
1.523071e+00 -3.744867e+00 2.980903e+00 60 58 44
2.361905e+00 -3.644715e+00 2.986493e+00 103 104 89
-4.789942e-02 -3.488646e+00 2.980304e+00 153 155 134
2.649851e+00 -3.625131e+00 2.989997e+00 69 68 48
6.813817e-01 -3.477176e+00 2.983152e+00 100 95 80
-1.091050e-01 -3.418639e+00 2.982057e+00 117 117 96
2.631053e+00 -3.415546e+00 2.987603e+00 136 135 113
1.093712e-01 -3.208779e+00 2.989609e+00 86 86 62
-3.584853e+00 -3.309988e+00 2.977054e+00 127 113 103
2.161077e+00 -3.031291e+00 2.981578e+00 84 81 65
-3.601823e-01 -2.977101e+00 2.993984e+00 127 120 101
5.510551e-01 -2.833543e+00 3.001928e+00 84 81 64
1.363999e-01 -2.810925e+00 3.002562e+00 162 156 144
2.099239e+00 -2.705989e+00 2.984239e+00 85 79 68
1.266054e+00 -2.680478e+00 2.995819e+00 61 54 38
-8.845380e-02 -2.698645e+00 3.005186e+00 150 144 122
1.411673e+00 -1.989933e+00 3.004699e+00 86 74 52
2.314675e+00 -1.750080e+00 2.997639e+00 83 71 56
-2.136854e+00 -1.087066e+00 3.011492e+00 158 148 124
-8.173101e-02 -3.802294e+00 3.046840e+00 137 137 131
-1.348106e+00 -4.704709e+00 2.952552e+00 26 21 27
-3.170277e-01 -4.380492e+00 2.988772e+00 149 150 156
-1.203751e+00 -4.417379e+00 2.952292e+00 49 38 41
-8.630886e-01 -4.206865e+00 2.980849e+00 147 149 144
5.791774e-01 -3.970367e+00 3.046047e+00 106 106 96
-3.235672e-03 -3.760600e+00 3.054678e+00 149 145 150
-1.849264e-01 -5.403168e+00 3.041587e+00 138 128 128
-1.339696e+00 -4.152708e+00 2.971629e+00 137 138 132
-1.150866e+00 -4.093570e+00 2.979718e+00 114 109 107
-1.646327e-01 -6.261906e+00 3.168466e+00 128 128 133
3.530098e-01 -4.296857e+00 3.008441e+00 58 53 50
-5.682648e-01 -4.162782e+00 2.997209e+00 75 70 64
1.649495e-01 -4.073170e+00 3.027599e+00 146 142 138
-1.704954e-01 -6.188887e+00 3.149752e+00 25 21 26
7.503806e-01 -4.077906e+00 3.035609e+00 149 149 143
7.503806e-01 -4.077906e+00 3.035609e+00 149 149 143
-9.910830e-01 -4.209004e+00 2.979872e+00 62 50 48
-7.861503e-01 -4.162414e+00 2.987215e+00 119 123 116
-3.979415e-01 -4.046307e+00 3.009877e+00 134 129 125
-1.200240e+00 -3.990896e+00 2.990362e+00 64 52 44
-1.616840e+00 -3.235857e+00 2.936915e+00 119 113 106
-1.135191e-01 -2.905094e+00 3.032454e+00 68 64 57
9.680425e-01 -2.613272e+00 3.008226e+00 64 60 54
1.035483e+00 -3.797952e+00 2.978671e+00 91 89 84
-1.286787e+00 -3.649543e+00 2.936739e+00 64 56 55
-8.322916e-01 -3.013453e+00 2.993736e+00 55 45 47
-8.632293e-02 -2.892224e+00 3.029785e+00 63 53 44
-1.335904e+00 -3.705096e+00 2.932414e+00 126 125 123
-4.842087e-01 -2.942268e+00 3.020732e+00 118 113 110
-1.133606e+00 -3.029911e+00 2.966784e+00 63 53 43
1.041925e+00 -2.726514e+00 3.008477e+00 70 63 57
-1.480778e+00 -3.012107e+00 2.950948e+00 34 28 31
-7.959428e-01 -4.227832e+00 2.973325e+00 88 85 77
3.935724e-01 -4.325293e+00 2.936164e+00 136 137 129
3.595732e-01 -4.302277e+00 2.950184e+00 61 56 56
-5.432110e-01 -4.347535e+00 2.953547e+00 145 151 150
1.179955e-02 -4.261742e+00 2.958007e+00 155 158 159
5.566129e-01 -6.203190e+00 2.579105e+00 65 60 64
-9.265644e-01 -4.246708e+00 2.967053e+00 128 124 116
-1.371365e+00 -4.250848e+00 2.965450e+00 89 81 76
-1.371365e+00 -4.250848e+00 2.965450e+00 89 81 76
5.767334e-01 -5.952631e+00 2.564019e+00 66 60 62
9.982333e-01 -4.300755e+00 2.876450e+00 131 130 126
6.782374e-01 -4.324955e+00 2.903676e+00 88 84 87
2.293208e-01 -4.272125e+00 2.952590e+00 151 152 145
-1.380380e+00 -4.237474e+00 2.969209e+00 137 131 128
-2.982079e-01 -3.885847e+00 2.990701e+00 122 117 115
-3.062269e-01 -3.865634e+00 2.992640e+00 81 73 69
1.400103e-01 -3.463140e+00 2.986792e+00 89 84 81
-1.521974e-02 -3.809301e+00 2.982174e+00 160 157 149
-5.954567e-01 -4.039356e+00 2.984554e+00 170 164 152
-8.872617e-01 -3.060846e+00 2.975008e+00 113 110 110
-6.243090e-01 -3.005860e+00 2.989211e+00 50 42 43
-1.015083e+00 -2.995184e+00 2.979087e+00 116 112 102
-3.509799e-01 -2.883504e+00 3.000107e+00 68 65 61
-3.458321e-01 -2.830760e+00 3.002350e+00 126 126 128
-2.728236e-01 -2.847787e+00 2.996917e+00 70 71 68
-8.923136e-01 -3.443174e+00 2.972499e+00 74 67 60
3.620659e-01 -3.101747e+00 2.988530e+00 133 129 122
-1.308073e+00 -3.253821e+00 2.967797e+00 73 62 58
-1.928122e-01 -2.867460e+00 2.993423e+00 120 118 107
-8.568882e-01 -2.863105e+00 2.978119e+00 77 69 66
2.059724e+00 -3.767826e+00 4.830215e+00 82 83 85
-7.629030e-02 -3.793183e+00 5.052785e+00 130 130 135
-1.330602e+00 -3.145075e+00 2.965652e+00 156 149 121
2.123295e+00 -3.686646e+00 4.843974e+00 72 77 77
-6.784450e-01 -3.094921e+00 2.989965e+00 163 156 140
1.695877e+00 -3.892489e+00 4.852162e+00 75 75 75
-4.829671e-01 -3.077305e+00 2.993358e+00 159 150 142
1.822883e+00 -3.821704e+00 4.854283e+00 126 125 133
-9.417825e-01 -3.038375e+00 2.983269e+00 101 94 75
-1.013606e+00 -2.997993e+00 2.980050e+00 143 137 115
-2.877544e-01 -2.914949e+00 3.002841e+00 149 142 124
4.170159e-02 -7.876729e-02 2.800640e+00 0 255 0
4.189707e-02 -7.871856e-02 2.750640e+00 255 255 0
-1.158598e-01 -2.759613e+00 -2.738157e+00 255 0 0
-1.145624e-01 -2.784361e+00 -2.781583e+00 255 255 0
-2.548702e-01 1.631763e+00 -5.284196e+00 0 255 0
-2.572086e-01 1.656014e+00 -5.327858e+00 255 255 0
-1.694556e+00 -1.089202e+01 1.177570e+01 255 0 0
-1.687935e+00 -1.086521e+01 1.173402e+01 255 255 0
-6.826419e-01 2.625906e+00 1.343096e+01 0 255 0
-6.843315e-01 2.601462e+00 1.338738e+01 255 255 0
9.123179e-01 -6.566139e+00 4.240097e+00 255 0 0
9.112419e-01 -6.560087e+00 4.190476e+00 255 255 0
-6.368783e-01 6.117280e+00 8.366198e+00 0 255 0
-6.364121e-01 6.102054e+00 8.318575e+00 255 255 0
