ply
format ascii 1.0
element face 0
property list uchar int vertex_indices
element vertex 945
property float x
property float y
property float z
property uchar diffuse_red
property uchar diffuse_green
property uchar diffuse_blue
end_header
-3.126069e-01 1.706876e-02 3.210412e+00 194 187 181
2.703090e+00 1.943788e-01 2.920045e+00 134 130 124
9.026304e-01 3.829953e-01 3.139098e+00 106 91 72
9.570820e-01 4.369970e-01 3.080892e+00 163 157 144
9.570820e-01 4.369970e-01 3.080892e+00 163 157 144
1.645928e+00 4.731882e-01 3.161439e+00 82 66 49
-8.936733e-01 5.704815e-01 2.826370e+00 209 203 196
2.003279e+00 6.422098e-01 3.102723e+00 211 206 194
1.656114e-01 6.902820e-01 3.271980e+00 194 184 176
1.656114e-01 6.902820e-01 3.271980e+00 194 184 176
-2.500819e+00 6.324426e-01 2.990303e+00 103 91 76
-1.722827e+00 6.826261e-01 3.040031e+00 107 102 99
2.151130e+00 7.173937e-01 3.071343e+00 103 95 79
1.453248e+00 7.582171e-01 3.070623e+00 184 172 156
1.972115e+00 7.898341e-01 3.105658e+00 182 176 162
2.900084e+00 7.681464e-01 2.919003e+00 71 69 53
1.524855e+00 8.081445e-01 3.080821e+00 104 92 78
1.688892e+00 8.586598e-01 3.091751e+00 191 181 171
1.491577e+00 8.830194e-01 3.059911e+00 182 178 169
2.084480e+00 9.109190e-01 3.107888e+00 137 122 103
1.554052e+00 9.188545e-01 3.058830e+00 105 92 81
1.594216e+00 9.211929e-01 3.062858e+00 186 175 151
1.449653e+00 9.533830e-01 3.073066e+00 137 131 119
9.429571e-02 1.018456e+00 3.302604e+00 163 150 138
1.766532e+00 1.038921e+00 3.060600e+00 181 165 143
2.063779e+00 1.045438e+00 3.041016e+00 173 156 141
1.663842e-01 1.137799e+00 3.274833e+00 86 71 55
2.590344e+00 1.074156e+00 3.024205e+00 154 139 134
-6.061985e-01 1.082915e+00 3.045233e+00 125 121 110
1.955460e+00 1.066659e+00 3.001384e+00 182 172 154
2.382971e+00 1.108416e+00 3.043137e+00 107 93 79
1.616458e+00 1.142526e+00 3.067410e+00 107 96 77
-1.779342e+00 1.229922e+00 2.998662e+00 76 72 60
6.841990e-02 1.349698e+00 3.007137e+00 170 157 148
-5.679484e-02 1.449851e+00 3.005822e+00 171 164 153
2.484839e+00 1.456788e+00 3.030960e+00 113 106 102
-1.202843e+00 1.441998e+00 2.979731e+00 131 119 107
2.517971e+00 1.578750e+00 3.051206e+00 97 86 93
2.517971e+00 1.578750e+00 3.051206e+00 97 86 93
1.151578e+00 1.654842e+00 2.887410e+00 155 148 138
1.785450e+00 1.777545e+00 3.113624e+00 156 148 135
3.041131e+00 2.190289e+00 3.047284e+00 75 65 63
2.313645e+00 2.303197e+00 3.019503e+00 73 62 55
2.840200e+00 2.330598e+00 2.935036e+00 205 203 191
1.536822e+00 2.531990e+00 3.046231e+00 56 43 32
-1.920481e+00 2.485881e+00 2.924520e+00 192 182 168
2.106100e+00 2.559426e+00 3.000197e+00 94 79 62
-5.079125e-03 2.579591e+00 2.999490e+00 52 38 31
1.495417e+00 2.581476e+00 2.993029e+00 98 83 67
8.789058e-01 2.611020e+00 2.984273e+00 67 55 40
-2.092711e+00 2.704088e+00 2.864984e+00 82 75 60
-2.515271e+00 3.282822e+00 2.839536e+00 186 184 179
8.144968e-01 3.615660e+00 3.141541e+00 91 82 72
2.709583e+00 4.419888e+00 3.020972e+00 189 187 181
1.878049e+00 4.691634e+00 3.102279e+00 169 158 150
-1.680632e+00 4.135583e+00 2.380811e+00 107 105 99
8.250248e-01 5.004554e+00 3.075509e+00 179 176 169
1.806734e+00 5.089455e+00 3.070602e+00 184 179 175
-2.355420e+00 5.820757e+00 3.201268e+00 176 175 170
-2.360627e+00 -3.145682e+00 2.991445e+00 180 169 163
1.513489e+00 -2.998387e+00 2.959926e+00 148 134 122
1.435689e+00 -2.990040e+00 2.954380e+00 157 143 124
-2.249452e+00 -2.990576e+00 2.970990e+00 98 84 71
2.418782e+00 -2.850321e+00 2.971529e+00 154 148 127
1.465664e+00 -2.805913e+00 2.952407e+00 131 119 107
1.440183e+00 -2.804074e+00 2.952295e+00 106 93 74
8.747624e-01 -2.740196e+00 2.953683e+00 95 82 65
1.967998e+00 -2.649582e+00 2.970620e+00 70 55 35
2.651247e+00 -2.626271e+00 2.967059e+00 85 67 57
1.474949e+00 -2.598005e+00 2.951516e+00 176 164 151
-1.890257e+00 -2.622408e+00 2.954872e+00 90 75 59
-1.890257e+00 -2.622408e+00 2.954872e+00 90 75 59
2.655752e+00 -2.574448e+00 2.962189e+00 159 146 129
2.655752e+00 -2.574448e+00 2.962189e+00 159 146 129
2.645703e+00 -2.549590e+00 2.962103e+00 97 82 62
2.200234e+00 -2.543402e+00 2.979744e+00 153 139 126
1.028786e-01 -2.550518e+00 2.995184e+00 99 83 67
2.763688e+00 -2.515030e+00 2.957454e+00 184 175 172
1.745979e+00 -2.509311e+00 2.981544e+00 106 89 73
-2.740792e-02 -2.509250e+00 2.999755e+00 102 85 65
4.620472e-01 -2.501940e+00 3.001189e+00 108 93 74
1.676622e+00 -2.455081e+00 2.984546e+00 140 123 104
3.840022e-01 -2.471925e+00 3.007772e+00 104 92 71
1.794617e+00 -2.453659e+00 2.982648e+00 145 130 110
2.204274e+00 -2.448786e+00 2.981427e+00 140 125 106
1.785460e+00 -2.434322e+00 2.983144e+00 83 67 52
1.752833e+00 -2.434921e+00 2.985433e+00 88 73 57
1.653731e+00 -2.435045e+00 2.984973e+00 83 65 51
1.174903e+00 -2.401823e+00 2.930479e+00 90 78 62
1.174903e+00 -2.401823e+00 2.930479e+00 90 78 62
1.894151e+00 -2.405619e+00 2.980849e+00 166 149 132
7.146208e-01 -2.407937e+00 2.978183e+00 97 83 59
2.007940e+00 -2.386242e+00 2.987955e+00 118 103 80
-1.879223e+00 -2.420633e+00 2.961174e+00 63 46 30
1.186282e+00 -2.354725e+00 2.936005e+00 123 111 95
1.205016e+00 -2.351308e+00 2.930893e+00 191 179 165
-1.769981e+00 -2.389434e+00 2.964708e+00 87 71 54
2.566924e+00 -2.326625e+00 2.931906e+00 112 97 75
1.043941e+00 -2.291781e+00 2.941699e+00 92 76 60
8.757941e-01 -2.295575e+00 2.960379e+00 112 93 70
1.893156e-01 -2.292602e+00 3.010857e+00 71 53 39
1.878699e+00 -2.271907e+00 2.992312e+00 102 85 63
-8.982603e-01 -2.274505e+00 2.934005e+00 78 67 65
2.938916e+00 -2.243588e+00 2.958228e+00 181 167 160
6.395640e-01 -2.259294e+00 2.997447e+00 134 120 96
-1.856741e+00 -2.280604e+00 2.962603e+00 126 110 95
-1.696711e+00 -2.276146e+00 2.966013e+00 129 110 95
2.837759e+00 -2.182719e+00 2.947582e+00 86 74 55
-2.039705e+00 -2.236574e+00 2.959025e+00 76 58 50
1.783005e+00 -2.196898e+00 2.989806e+00 117 99 76
1.783005e+00 -2.196898e+00 2.989806e+00 117 99 76
1.351314e+00 -2.184204e+00 2.931986e+00 100 89 73
9.137098e-01 -2.169586e+00 2.954981e+00 153 137 115
1.787058e+00 -2.149494e+00 2.991992e+00 103 85 61
2.957139e+00 -2.093786e+00 2.943312e+00 194 192 177
2.942513e+00 -2.079743e+00 2.944328e+00 110 103 90
2.891629e+00 -2.073889e+00 2.941248e+00 175 165 158
2.754783e+00 -2.060543e+00 2.937374e+00 195 189 177
-2.336253e+00 -2.089069e+00 2.960196e+00 165 153 137
4.982940e-01 -2.065511e+00 3.014869e+00 93 76 52
-2.148596e-02 -2.010451e+00 3.028773e+00 127 109 88
2.593962e+00 -1.934464e+00 2.943288e+00 129 115 96
6.177469e-01 -1.866418e+00 2.985099e+00 140 124 109
-1.490859e+00 -1.836909e+00 2.964656e+00 151 137 128
4.787830e-03 -1.806418e+00 3.033508e+00 63 41 26
8.868975e-01 -1.780643e+00 2.942668e+00 194 187 169
5.124744e-01 -1.764897e+00 2.988121e+00 72 55 34
2.835684e-01 -1.744466e+00 2.959479e+00 127 106 86
2.405225e+00 -1.659583e+00 2.932209e+00 121 108 89
-1.653322e+00 -1.697981e+00 2.966921e+00 76 57 46
-1.047322e-02 -1.650302e+00 3.004786e+00 64 47 31
1.855052e+00 -1.586144e+00 2.956966e+00 140 124 104
-2.566524e-01 -1.598932e+00 2.953135e+00 174 161 145
-2.566524e-01 -1.598932e+00 2.953135e+00 174 161 145
-1.650134e-02 -1.578031e+00 2.989126e+00 139 125 109
-2.139232e+00 -1.582318e+00 2.950797e+00 192 179 162
-1.550154e+00 -1.543202e+00 2.952297e+00 153 138 119
1.045553e-01 -1.510680e+00 2.983647e+00 126 107 93
4.396983e-01 -1.490180e+00 2.952797e+00 149 133 117
5.402224e-01 -1.427632e+00 2.931349e+00 99 80 68
4.603008e-01 -1.373910e+00 2.932407e+00 93 80 68
2.751802e-01 -1.358148e+00 2.945600e+00 111 94 78
-1.640626e+00 -1.238922e+00 2.947086e+00 194 184 175
2.663100e+00 -1.201474e+00 2.930661e+00 123 105 93
1.545897e+00 -1.082943e+00 2.956325e+00 221 212 213
2.375970e+00 -1.071951e+00 2.930984e+00 202 193 181
1.998114e+00 -1.072308e+00 2.931252e+00 195 186 177
2.833779e+00 -1.060160e+00 2.925867e+00 86 76 74
1.802996e+00 -1.068185e+00 2.933036e+00 71 57 44
1.978118e+00 -1.064335e+00 2.936731e+00 105 95 83
2.708300e+00 -1.053537e+00 2.922784e+00 198 199 182
5.802541e-01 -1.063116e+00 2.946583e+00 71 57 48
2.483792e+00 -1.046884e+00 2.927209e+00 111 101 80
1.594056e+00 -1.035877e+00 2.925399e+00 164 151 134
1.443587e+00 -1.030496e+00 2.954586e+00 173 156 147
-1.980921e+00 -1.054043e+00 2.948059e+00 70 60 49
-2.026240e+00 -1.054393e+00 2.953318e+00 63 52 46
2.410779e+00 -1.021461e+00 2.921843e+00 103 94 79
1.180459e+00 -1.029065e+00 2.908306e+00 167 151 135
1.204160e+00 -9.739688e-01 2.906160e+00 185 173 157
2.446263e+00 -8.688348e-01 2.917846e+00 215 204 202
1.800559e+00 -8.661996e-01 2.918343e+00 104 94 84
6.058812e-01 -8.733174e-01 2.906708e+00 109 97 88
1.646569e+00 -8.612335e-01 2.934457e+00 177 164 155
2.627322e+00 -8.479947e-01 2.927656e+00 185 172 156
2.627322e+00 -8.479947e-01 2.927656e+00 185 172 156
6.184613e-01 -8.589129e-01 2.906987e+00 205 197 187
1.815865e+00 -8.396968e-01 2.916888e+00 209 200 191
2.609546e+00 -8.329462e-01 2.924193e+00 124 116 102
2.354902e+00 -8.341253e-01 2.934829e+00 82 71 53
2.029863e+00 -8.363781e-01 2.923246e+00 204 191 182
2.379551e+00 -8.087580e-01 2.917883e+00 107 97 86
2.398692e+00 -8.040445e-01 2.918627e+00 119 111 95
1.581138e+00 -8.093421e-01 2.923769e+00 128 114 101
1.581138e+00 -8.093421e-01 2.923769e+00 128 114 101
-1.730964e+00 -7.990970e-01 2.940213e+00 133 127 113
1.614498e+00 -7.726127e-01 2.916225e+00 141 131 116
-8.751503e-01 -7.674706e-01 2.887917e+00 106 96 87
-2.124555e+00 -7.628558e-01 2.955821e+00 157 149 140
-5.883216e-02 -6.957051e-01 2.911953e+00 100 83 73
-1.586403e+00 -6.990266e-01 2.936713e+00 166 150 139
6.129340e-02 -5.574687e-01 2.880289e+00 88 71 55
-6.234959e-01 -5.559192e-01 2.896775e+00 93 70 56
-2.042524e+00 -5.379183e-01 2.935571e+00 94 77 61
1.095943e+00 -4.712629e-01 2.877251e+00 236 230 219
2.904381e+00 -3.222819e-01 2.921349e+00 111 99 88
-8.163147e-01 -3.157797e-01 2.875077e+00 129 113 97
2.495549e+00 -1.577936e-01 3.046541e+00 192 181 164
2.510806e+00 -1.436088e-01 3.044763e+00 140 126 113
2.495384e+00 -1.275365e-01 3.044934e+00 178 165 149
2.495384e+00 -1.275365e-01 3.044934e+00 178 165 149
2.496174e+00 -9.637962e-02 3.049210e+00 187 174 159
5.734016e-01 -5.451855e-02 3.219925e+00 40 31 27
2.512132e+00 -1.360697e-02 3.049395e+00 129 112 94
1.828890e+00 6.911894e-02 3.120628e+00 167 158 141
2.496714e+00 9.136171e-02 3.051184e+00 169 156 139
2.404398e+00 1.329532e-01 3.085502e+00 160 149 131
3.250138e+00 2.629346e-01 3.054890e+00 242 250 245
1.909212e+00 3.091259e-01 3.072403e+00 221 215 199
2.793306e+00 4.088306e-01 2.918938e+00 110 106 95
-2.920497e+00 4.328413e-01 2.958333e+00 132 129 120
-8.775896e-01 4.042484e-01 2.824830e+00 121 112 106
4.374168e-02 4.934874e-01 3.255287e+00 127 118 109
1.993233e+00 4.752844e-01 3.077781e+00 214 204 195
1.473547e-01 5.121333e-01 3.263423e+00 34 20 10
-8.738186e-01 4.494784e-01 2.818586e+00 178 168 161
9.848176e-01 6.807909e-01 3.081377e+00 112 99 89
9.653578e-01 7.384918e-01 3.080996e+00 101 91 79
3.154333e-01 8.220847e-01 3.291503e+00 173 162 152
1.792765e+00 7.845494e-01 3.121635e+00 180 171 158
-1.703147e+00 7.949231e-01 3.084048e+00 198 190 179
1.306982e+00 8.166085e-01 2.874622e+00 217 216 208
1.747826e+00 9.195782e-01 3.094203e+00 97 85 71
-1.008281e+00 8.491783e-01 2.770515e+00 75 69 63
1.933151e+00 9.511289e-01 3.117859e+00 166 156 141
-6.475962e-01 9.421515e-01 3.036025e+00 108 98 86
-2.412039e+00 9.271630e-01 2.983916e+00 98 91 81
-2.022393e+00 9.776780e-01 3.049159e+00 171 162 147
2.120497e+00 9.919321e-01 3.050153e+00 113 103 78
-1.324288e+00 1.009618e+00 3.021465e+00 191 184 174
-6.177159e-01 1.058267e+00 3.034047e+00 186 176 166
1.568529e+00 1.084172e+00 3.064478e+00 186 178 168
-1.571729e+00 1.064231e+00 2.977204e+00 107 94 78
2.415508e+00 1.107361e+00 3.027878e+00 123 111 94
-6.648685e-01 1.096410e+00 2.997974e+00 199 193 181
-2.082044e+00 1.126974e+00 3.012694e+00 111 102 86
9.254389e-01 1.172068e+00 3.078239e+00 163 157 145
-7.525354e-02 1.208262e+00 3.179534e+00 138 122 107
-1.944612e+00 1.174518e+00 3.006950e+00 107 98 80
3.066060e+00 1.208388e+00 3.036619e+00 195 183 170
3.006390e+00 1.227462e+00 3.037023e+00 131 119 103
-2.431127e+00 1.226438e+00 2.999968e+00 123 109 99
2.322696e+00 1.291811e+00 3.025250e+00 175 157 143
1.803054e+00 1.315088e+00 3.049689e+00 166 153 137
1.768990e+00 1.318012e+00 3.052929e+00 171 162 144
3.081714e+00 1.310643e+00 3.022863e+00 197 195 180
3.081714e+00 1.310643e+00 3.022863e+00 197 195 180
3.011584e+00 1.315514e+00 3.028146e+00 176 170 156
3.048488e+00 1.320836e+00 3.026750e+00 153 141 123
-2.228301e+00 1.327613e+00 2.999096e+00 211 201 192
-2.228301e+00 1.327613e+00 2.999096e+00 211 201 192
7.464733e-01 1.366448e+00 3.082650e+00 155 143 127
-2.230219e+00 1.345210e+00 2.989147e+00 161 154 138
-6.793452e-01 1.361993e+00 3.010031e+00 151 142 132
-4.774932e-01 1.388309e+00 3.023826e+00 160 150 140
-5.123797e-01 1.430382e+00 3.028470e+00 146 134 122
-1.225961e+00 1.432004e+00 2.989537e+00 102 89 73
2.477622e+00 1.475868e+00 3.022036e+00 210 201 199
1.909844e+00 1.498079e+00 3.055120e+00 233 226 220
1.909844e+00 1.498079e+00 3.055120e+00 233 226 220
-7.617797e-01 1.386193e+00 2.745474e+00 98 84 71
-9.010654e-01 1.383547e+00 2.733506e+00 108 91 74
2.576810e+00 1.515839e+00 3.024439e+00 177 176 155
1.435975e+00 1.544032e+00 3.077636e+00 138 129 114
3.105802e+00 1.535524e+00 3.043706e+00 177 179 167
-2.784872e+00 1.536608e+00 2.933497e+00 101 89 73
-2.784872e+00 1.536608e+00 2.933497e+00 101 89 73
-2.855188e+00 1.546780e+00 2.938211e+00 146 137 120
-7.010759e-02 1.608245e+00 3.036181e+00 198 197 195
-1.296112e+00 1.603518e+00 2.988918e+00 211 208 199
-1.683073e+00 1.612540e+00 2.979855e+00 217 214 202
-2.472709e+00 1.630866e+00 2.967565e+00 212 206 195
2.307551e+00 1.766035e+00 3.100337e+00 194 190 181
1.450628e+00 1.791692e+00 3.146378e+00 147 140 121
1.149056e+00 1.819238e+00 2.871396e+00 154 148 135
2.855633e+00 1.885939e+00 2.948890e+00 151 147 136
2.855633e+00 1.885939e+00 2.948890e+00 151 147 136
2.344534e+00 1.955063e+00 3.097780e+00 167 161 145
3.074640e+00 1.933006e+00 3.044035e+00 127 117 107
2.327865e+00 1.965019e+00 3.098884e+00 86 79 69
-1.379109e+00 2.119299e+00 3.123780e+00 170 156 145
8.341723e-01 2.303405e+00 3.084864e+00 100 87 78
2.451540e+00 2.289839e+00 3.048199e+00 76 72 60
-6.246745e-01 2.309532e+00 2.890374e+00 197 189 180
1.067529e+00 2.305593e+00 2.788865e+00 95 93 83
8.741449e-01 2.441355e+00 3.050331e+00 160 151 140
-1.393156e+00 2.403199e+00 2.937533e+00 162 158 148
2.008573e+00 2.462616e+00 3.029643e+00 79 72 51
-1.895053e+00 2.459183e+00 2.925911e+00 107 96 86
-1.333448e+00 2.455229e+00 2.906620e+00 184 177 167
-2.271940e+00 2.527320e+00 2.924200e+00 187 181 176
7.691361e-01 2.619279e+00 3.051158e+00 159 146 133
-1.949778e+00 2.601201e+00 2.896997e+00 193 186 176
-1.750662e+00 2.656999e+00 2.878499e+00 171 160 144
-1.750662e+00 2.656999e+00 2.878499e+00 171 160 144
1.260018e+00 2.677652e+00 2.746975e+00 214 210 202
3.206761e+00 2.813862e+00 2.999978e+00 245 245 245
2.617013e+00 2.850864e+00 2.900613e+00 105 101 95
2.617013e+00 2.850864e+00 2.900613e+00 105 101 95
-2.253482e+00 2.967874e+00 2.882426e+00 75 68 62
2.712929e+00 4.381230e+00 3.021811e+00 182 179 174
2.736135e+00 4.537368e+00 3.022861e+00 131 125 118
2.441183e+00 4.597506e+00 3.059609e+00 164 157 143
2.285650e+00 4.651170e+00 3.082262e+00 149 150 139
2.217091e+00 4.760046e+00 3.086608e+00 117 115 97
1.354941e+00 4.892158e+00 3.100696e+00 93 89 77
-1.730188e+00 3.920535e+00 2.090649e+00 129 109 105
1.797538e+00 4.887677e+00 3.066238e+00 167 167 154
1.469854e+00 4.957418e+00 3.128447e+00 109 100 91
1.188692e+00 5.123526e+00 3.063217e+00 191 193 180
2.375862e+00 5.263356e+00 3.071310e+00 165 164 154
-1.416968e+00 5.291071e+00 3.011684e+00 189 185 174
1.303947e+00 5.351905e+00 3.066153e+00 164 159 154
-1.413535e+00 5.544029e+00 3.196025e+00 99 100 94
-2.244960e+00 5.703416e+00 3.139852e+00 179 177 173
-2.128574e+00 6.161278e+00 3.396079e+00 161 160 154
-1.203231e+00 6.627846e+00 3.711487e+00 163 153 154
-1.203231e+00 6.627846e+00 3.711487e+00 163 153 154
1.538508e+00 -3.031964e+00 2.965714e+00 68 53 34
2.601312e+00 -2.989892e+00 2.981662e+00 174 165 158
1.522579e+00 -2.978911e+00 2.962693e+00 110 97 81
6.166354e-01 -2.978768e+00 2.971188e+00 129 112 101
8.321549e-01 -2.942293e+00 2.958893e+00 143 131 119
-1.423635e+00 -2.714892e+00 2.958303e+00 123 103 91
2.541362e+00 -2.674216e+00 2.968265e+00 67 52 36
-1.564677e+00 -2.671893e+00 2.960251e+00 151 138 121
1.514639e-01 -2.617395e+00 2.986346e+00 128 110 103
1.514639e-01 -2.617395e+00 2.986346e+00 128 110 103
5.760728e-02 -2.552128e+00 2.995424e+00 103 90 71
3.763131e-01 -2.526794e+00 2.999402e+00 123 110 93
8.943227e-01 -2.478750e+00 2.956374e+00 104 89 69
2.458141e-01 -2.485922e+00 2.996785e+00 150 134 111
8.440134e-02 -2.487801e+00 2.998559e+00 109 96 77
-1.628999e+00 -2.495058e+00 2.957232e+00 93 80 61
1.054134e+00 -2.420231e+00 2.941680e+00 101 86 71
-6.916328e-02 -2.431944e+00 3.003682e+00 152 137 114
1.408277e+00 -2.402894e+00 2.951473e+00 114 97 81
8.566354e-01 -2.395334e+00 2.962597e+00 97 80 63
1.286083e+00 -2.326989e+00 2.924268e+00 181 168 159
2.634870e+00 -2.320408e+00 2.952070e+00 165 150 130
7.339883e-01 -2.306147e+00 2.976967e+00 125 109 84
8.075733e-01 -2.300506e+00 2.970091e+00 116 96 74
7.293824e-01 -2.283787e+00 2.982239e+00 111 96 75
1.918759e+00 -2.271076e+00 2.988093e+00 110 93 68
1.641859e+00 -2.246217e+00 2.995734e+00 103 86 66
5.565054e-02 -2.262506e+00 3.014073e+00 115 102 83
2.561346e+00 -2.218806e+00 2.952277e+00 113 96 78
7.671634e-01 -2.221015e+00 2.976111e+00 131 113 92
2.886514e+00 -2.168141e+00 2.945487e+00 162 154 143
1.469413e+00 -2.174446e+00 2.953744e+00 159 142 126
1.443076e+00 -2.174877e+00 2.957940e+00 160 143 125
1.453212e+00 -2.148874e+00 2.952733e+00 160 143 126
2.032386e+00 -2.107591e+00 2.994165e+00 109 93 69
5.010223e-01 -2.086397e+00 3.016463e+00 132 115 99
9.691368e-01 -1.980210e+00 2.941016e+00 130 118 96
6.911714e-01 -1.981996e+00 2.981006e+00 153 138 118
1.830711e+00 -1.965549e+00 3.002806e+00 105 87 64
3.086394e-02 -1.961740e+00 3.035366e+00 93 78 57
9.153425e-02 -1.944386e+00 3.044546e+00 144 128 113
-1.211805e-01 -1.938743e+00 3.023279e+00 82 57 38
1.913128e+00 -1.915330e+00 3.003115e+00 96 81 60
1.894572e-01 -1.917384e+00 3.040866e+00 94 75 56
1.882026e+00 -1.859441e+00 3.011586e+00 95 78 60
1.705537e+00 -1.846390e+00 2.980638e+00 82 64 46
8.984576e-01 -1.805431e+00 2.939499e+00 192 183 170
3.944379e-01 -1.812759e+00 3.015436e+00 129 110 95
2.671104e-01 -1.804837e+00 3.027617e+00 122 103 86
1.642804e+00 -1.734172e+00 2.949307e+00 83 67 51
5.088820e-01 -1.745151e+00 2.985101e+00 124 105 90
2.978451e-01 -1.657531e+00 2.998018e+00 116 98 83
6.772035e-01 -1.539916e+00 2.938928e+00 126 111 95
-1.111307e-01 -1.489231e+00 2.951015e+00 150 133 117
-1.105337e-01 -1.488726e+00 2.948865e+00 150 133 117
2.551083e+00 -1.451075e+00 2.940420e+00 204 193 182
-2.004231e+00 -1.398479e+00 2.951521e+00 204 189 170
-2.103721e+00 -1.365986e+00 2.954064e+00 157 149 135
-2.076810e+00 -1.348636e+00 2.956313e+00 203 192 174
-2.100805e+00 -1.348989e+00 2.954116e+00 199 188 171
-1.996175e+00 -1.344328e+00 2.952672e+00 197 180 161
2.457676e+00 -1.145945e+00 2.920574e+00 164 157 151
2.355264e+00 -1.079636e+00 2.926378e+00 131 120 117
2.874267e+00 -1.052160e+00 2.924734e+00 87 79 69
-6.680640e-01 -1.039061e+00 2.927099e+00 147 130 117
-8.666967e-01 -1.028208e+00 2.919399e+00 173 157 144
9.913941e-01 -1.010962e+00 2.953745e+00 115 105 94
-4.856849e-01 -1.018533e+00 2.930571e+00 188 175 158
2.839053e+00 -9.177041e-01 2.913135e+00 139 126 119
2.852155e+00 -9.088124e-01 2.911981e+00 190 183 172
1.783700e+00 -9.045972e-01 2.918791e+00 121 112 95
2.788283e+00 -8.848264e-01 2.922310e+00 143 137 115
-4.331683e-01 -8.910498e-01 2.916084e+00 166 153 137
-1.105910e+00 -8.895175e-01 2.932454e+00 138 123 106
2.871167e+00 -8.508444e-01 2.916449e+00 202 190 181
1.588126e+00 -8.519108e-01 2.917189e+00 200 191 179
2.593877e+00 -8.436364e-01 2.926786e+00 174 162 146
1.224565e+00 -8.380671e-01 2.890695e+00 199 189 179
1.828979e+00 -8.307167e-01 2.914096e+00 199 191 181
5.843064e-01 -8.320559e-01 2.954992e+00 119 105 94
1.823044e+00 -8.182788e-01 2.918694e+00 119 110 100
2.591388e+00 -8.135849e-01 2.927970e+00 185 175 162
1.203757e+00 -8.118757e-01 2.893059e+00 183 173 162
-1.398187e-03 -8.149736e-01 2.901580e+00 95 82 70
-1.739455e+00 -8.156755e-01 2.943507e+00 180 173 161
3.932046e-01 -8.036427e-01 2.894816e+00 128 119 105
1.364208e-01 -8.055659e-01 2.913174e+00 100 88 77
1.393187e+00 -7.789509e-01 2.914126e+00 119 109 92
2.623383e+00 -7.320514e-01 2.931726e+00 111 92 84
-1.727704e+00 -7.432531e-01 2.941137e+00 135 127 116
2.205582e-01 -7.141579e-01 2.911648e+00 144 127 118
3.012386e+00 -6.736524e-01 2.916847e+00 126 119 107
-1.233668e-01 -5.749721e-01 2.887177e+00 140 120 98
-5.405275e-01 -5.729719e-01 2.892009e+00 144 126 106
7.963271e-01 -5.624285e-01 2.883969e+00 102 86 70
7.963271e-01 -5.624285e-01 2.883969e+00 102 86 70
-3.011549e-02 -5.540717e-01 2.875137e+00 101 83 69
8.014653e-01 -5.002335e-01 2.885582e+00 188 186 181
1.139062e+00 -3.024535e-01 2.883861e+00 111 92 83
1.828950e+00 -3.081687e-02 3.116106e+00 168 157 140
2.802742e+00 -1.110153e-02 2.923264e+00 125 123 111
3.282061e+00 9.255556e-04 3.017826e+00 119 117 102
1.845856e+00 8.921877e-02 3.125510e+00 123 109 96
2.495865e+00 1.536507e-01 3.050210e+00 156 143 127
2.562979e+00 1.755416e-01 3.027634e+00 116 109 92
1.910693e+00 2.317335e-01 3.075700e+00 177 172 154
1.910693e+00 2.317335e-01 3.075700e+00 177 172 154
-9.242112e-04 3.359393e-01 3.237276e+00 167 160 146
1.014030e+00 3.985899e-01 3.083932e+00 149 138 120
2.162438e+00 5.718170e-01 3.067067e+00 142 136 124
-1.350991e+00 5.779431e-01 3.091097e+00 99 82 64
1.626745e+00 5.873577e-01 3.089413e+00 217 213 204
-1.799430e+00 5.754776e-01 3.055131e+00 203 196 188
1.737610e+00 5.957339e-01 3.105961e+00 205 201 190
-1.953323e+00 5.902926e-01 3.055548e+00 149 145 135
1.992751e+00 6.377278e-01 3.101435e+00 209 206 192
-2.871978e+00 6.424495e-01 2.941988e+00 123 124 119
-2.004852e+00 6.428061e-01 3.032469e+00 157 150 142
-2.045173e+00 6.534628e-01 3.031283e+00 207 199 191
-2.049403e+00 6.731095e-01 3.033502e+00 138 130 122
1.061683e+00 6.775130e-01 2.885974e+00 206 200 189
-2.371434e+00 7.028699e-01 3.014160e+00 118 110 100
1.943257e+00 7.507234e-01 3.104301e+00 98 90 76
2.656660e+00 8.070303e-01 2.936261e+00 154 153 141
1.521396e+00 9.514866e-01 3.063388e+00 155 148 136
-2.668891e+00 9.516089e-01 2.919730e+00 111 109 105
2.466216e+00 9.710328e-01 3.028961e+00 189 184 165
3.081165e+00 1.008596e+00 3.038400e+00 133 130 118
3.069481e+00 9.931055e-01 3.005615e+00 133 130 118
2.492270e+00 1.025969e+00 3.031169e+00 124 117 108
2.370813e+00 1.038837e+00 3.032538e+00 188 180 170
1.411852e+00 1.061013e+00 3.067479e+00 167 153 145
2.356336e+00 1.070831e+00 3.038320e+00 204 191 182
2.783964e+00 1.084794e+00 2.948950e+00 138 134 125
2.783964e+00 1.084794e+00 2.948950e+00 138 134 125
9.184698e-01 1.133464e+00 3.083178e+00 115 102 92
2.515584e+00 1.148645e+00 3.013156e+00 104 99 82
8.617618e-01 1.187734e+00 3.098971e+00 111 105 94
2.328701e+00 1.189749e+00 3.035070e+00 93 91 78
1.401341e+00 1.339742e+00 3.067524e+00 170 154 138
-1.774987e+00 1.339381e+00 3.014534e+00 149 133 120
5.458060e-01 1.357360e+00 3.045204e+00 163 151 137
3.095738e+00 1.383138e+00 3.024274e+00 212 208 199
3.042783e+00 1.467140e+00 3.051056e+00 110 101 94
-6.916531e-01 1.840790e+00 3.060723e+00 85 80 69
-6.590013e-01 1.988474e+00 3.027168e+00 131 126 121
2.200392e+00 2.059412e+00 3.109659e+00 141 131 121
2.232955e+00 2.152643e+00 3.119517e+00 81 76 62
3.036643e+00 2.206941e+00 3.036740e+00 153 150 140
1.247200e+00 2.158198e+00 2.853353e+00 116 102 93
1.262481e+00 2.184987e+00 2.826789e+00 99 90 79
2.850109e+00 2.244273e+00 2.923082e+00 176 177 163
1.922732e+00 2.304432e+00 3.046360e+00 185 180 166
1.170225e+00 2.223272e+00 2.816991e+00 180 174 162
1.837836e+00 2.363042e+00 3.046729e+00 179 175 166
1.824792e+00 2.360761e+00 3.045286e+00 108 100 90
7.431145e-01 2.351495e+00 3.011080e+00 106 106 87
1.821559e+00 2.387652e+00 3.046414e+00 152 139 126
-2.203138e+00 2.394655e+00 2.933190e+00 174 172 162
-1.446694e+00 2.375221e+00 2.882772e+00 176 171 160
1.520385e+00 2.464614e+00 3.025460e+00 164 157 138
-1.502942e+00 2.416331e+00 2.912999e+00 156 144 132
2.224976e+00 2.500895e+00 3.055865e+00 172 163 152
-1.345383e+00 2.436891e+00 2.924797e+00 126 115 98
-1.324877e+00 2.431360e+00 2.897571e+00 117 108 95
1.994389e+00 2.505647e+00 3.033697e+00 83 78 58
-2.817663e+00 2.524198e+00 2.952652e+00 175 164 155
1.247363e+00 2.440968e+00 2.824885e+00 136 131 119
2.346307e+00 2.539514e+00 3.001941e+00 137 118 110
-5.977689e-01 2.482588e+00 2.893043e+00 145 139 127
-2.252310e+00 2.521197e+00 2.930799e+00 142 130 121
2.011759e+00 2.557593e+00 2.998879e+00 112 96 83
-1.864223e+00 2.512006e+00 2.900041e+00 113 107 101
2.787347e-01 2.582674e+00 2.999329e+00 196 189 181
-2.948973e+00 2.618412e+00 2.952263e+00 206 204 193
-2.019178e+00 2.586076e+00 2.891881e+00 91 86 71
-2.450557e+00 2.635289e+00 2.923172e+00 130 128 113
-1.693488e+00 2.644073e+00 2.862898e+00 164 150 141
-2.818752e+00 2.758283e+00 2.954421e+00 185 179 166
-2.309509e+00 2.709902e+00 2.920865e+00 163 150 137
-2.819464e+00 2.779560e+00 2.959632e+00 140 133 122
2.927715e+00 2.808202e+00 2.919050e+00 82 84 77
2.927715e+00 2.808202e+00 2.919050e+00 82 84 77
2.605109e+00 2.861050e+00 2.890887e+00 185 179 171
1.015299e+00 2.754657e+00 2.702587e+00 66 62 59
1.015299e+00 2.754657e+00 2.702587e+00 66 62 59
1.548344e+00 3.503111e+00 3.419030e+00 14 22 24
1.925432e+00 3.664409e+00 3.128924e+00 186 184 175
9.868066e-01 3.748905e+00 3.162146e+00 133 125 116
1.420404e+00 4.696186e+00 3.169267e+00 131 120 112
9.929265e-01 4.753763e+00 3.087057e+00 150 135 128
9.632549e-01 4.771948e+00 3.104768e+00 163 144 141
1.815357e+00 4.842025e+00 3.069471e+00 155 148 138
1.780284e+00 4.848740e+00 3.072613e+00 136 127 118
-2.107650e+00 4.174270e+00 2.270655e+00 121 126 128
2.551031e+00 4.936727e+00 3.034727e+00 167 149 147
1.580934e+00 5.009314e+00 3.088484e+00 129 119 105
1.762058e+00 5.078348e+00 3.064139e+00 143 134 127
1.762058e+00 5.078348e+00 3.064139e+00 143 134 127
1.124737e+00 5.147981e+00 3.067662e+00 189 179 170
-1.913468e+00 4.873448e+00 2.759216e+00 133 124 117
-1.589965e+00 5.931293e+00 3.391748e+00 142 138 137
-1.887847e+00 6.095035e+00 3.383242e+00 86 77 74
-2.343422e+00 6.077946e+00 3.322645e+00 80 80 75
-2.398148e+00 6.083982e+00 3.324521e+00 83 77 74
-2.366745e+00 6.174611e+00 3.389891e+00 166 162 158
-2.614230e+00 6.048288e+00 3.272980e+00 91 79 77
-2.457145e+00 6.097454e+00 3.314622e+00 142 133 124
-2.735866e+00 6.079207e+00 3.286698e+00 76 63 60
-2.795518e+00 6.081503e+00 3.269886e+00 145 136 127
-1.288197e-01 -9.816738e-01 3.066553e+00 148 143 128
1.721901e-01 -6.398387e-01 3.122607e+00 48 44 37
3.440000e-01 -1.200268e+00 3.083592e+00 90 87 81
-4.432798e-01 2.747505e-01 2.642765e+00 46 52 55
-8.709052e-03 6.623156e-01 2.914478e+00 48 50 52
-4.013137e-02 7.525966e-01 2.670119e+00 48 50 52
-2.233842e-01 5.952179e-01 2.654677e+00 157 159 146
1.800761e+00 5.601592e-01 2.891126e+00 179 179 169
1.954239e-01 -1.298137e+00 3.169229e+00 72 70 58
1.487900e+00 -6.040221e-01 2.782398e+00 131 127 116
-2.813340e-01 5.182295e-01 2.620028e+00 160 164 150
3.483255e-01 7.106789e-01 2.705290e+00 145 147 139
-2.383875e+00 1.135405e+00 2.960944e+00 88 88 80
-2.914030e-01 -2.200042e+00 2.768027e+00 116 105 84
-2.407389e+00 -9.019128e-01 3.037749e+00 65 69 70
1.268693e+00 -7.526544e-01 3.087444e+00 48 46 33
-1.501593e+00 -6.797435e-01 3.073344e+00 123 125 101
2.255375e-01 -6.521004e-01 3.077856e+00 44 44 39
-2.216163e-01 3.667504e-01 2.624920e+00 165 168 150
2.652043e-01 4.995851e-01 2.620364e+00 33 38 37
-4.713890e-02 5.046067e-01 2.626765e+00 35 36 41
-5.132136e-01 5.071332e-01 2.663909e+00 153 152 139
-5.188180e-01 5.210047e-01 2.632147e+00 153 152 139
-5.709512e-02 5.827938e-01 2.509241e+00 39 42 47
1.468932e+00 1.156734e+00 2.921660e+00 107 101 85
-2.430360e+00 1.208063e+00 2.987995e+00 107 106 98
-2.362673e+00 1.318551e+00 3.015462e+00 153 163 152
-2.083849e-01 2.492232e+00 3.109164e+00 144 146 142
-7.957965e-01 -2.232127e+00 3.054945e+00 73 73 61
-3.074583e-01 -2.169227e+00 2.784545e+00 75 67 49
-2.487771e-01 -2.020263e+00 2.811493e+00 70 62 45
-2.215846e+00 -1.038176e+00 3.082187e+00 148 145 130
6.538564e-01 -1.046252e+00 3.029429e+00 57 55 36
-4.680804e-01 -1.042177e+00 3.080796e+00 152 148 139
-3.343149e-01 -7.649174e-01 3.066535e+00 149 146 127
4.799902e-01 -7.650026e-01 3.074889e+00 146 143 129
-3.892408e-01 -6.513062e-01 3.074710e+00 46 45 41
-1.271749e+00 -6.652951e-01 3.189312e+00 39 39 31
5.604573e-01 2.606720e-02 2.638654e+00 136 135 130
6.269230e-01 1.028295e-01 2.586291e+00 35 37 41
-4.247986e-01 1.613444e-01 2.594330e+00 168 167 147
-1.212042e-01 2.091123e-01 3.240494e+00 40 40 24
4.889093e-01 4.172147e-01 2.636060e+00 41 43 36
7.448060e-01 4.548211e-01 2.609531e+00 123 123 105
2.413294e-01 5.111212e-01 2.664645e+00 154 157 153
2.407615e-01 5.149582e-01 2.662457e+00 154 157 153
4.928288e-01 5.460762e-01 2.658260e+00 39 37 32
1.779881e-01 8.607166e-01 2.683848e+00 46 49 51
-2.095711e+00 1.100711e+00 2.926851e+00 83 82 62
-1.650335e+00 1.143568e+00 2.972732e+00 138 139 128
4.571862e-02 2.489891e+00 3.091067e+00 140 144 130
-2.161431e+00 2.496836e+00 3.161340e+00 93 95 90
1.708133e-01 2.514737e+00 3.103810e+00 135 140 134
1.871425e-01 2.632294e+00 3.110516e+00 61 62 50
-1.098641e+00 -1.079539e+00 3.014339e+00 70 71 60
9.045397e-01 -7.958133e-01 3.005523e+00 40 36 30
2.050823e-01 -6.652877e-01 2.994519e+00 53 50 39
7.053651e-01 -6.303869e-01 2.968943e+00 45 38 30
6.320177e-01 1.925450e-01 2.614683e+00 125 126 123
-5.284487e-01 3.424938e-01 2.622836e+00 46 46 37
-4.601826e-01 3.531522e-01 2.642037e+00 150 154 145
-4.956755e-01 3.802733e-01 2.628739e+00 51 54 45
4.817699e-01 3.849363e-01 2.647747e+00 142 144 136
9.296928e-03 4.429655e-01 2.628997e+00 164 163 152
-2.086980e-01 4.484828e-01 2.648325e+00 57 58 49
4.103714e-01 6.014269e-01 2.632532e+00 29 30 34
7.243486e-01 7.042584e-01 2.668886e+00 107 104 92
-1.074985e-01 7.110908e-01 2.673621e+00 146 148 137
1.896923e-01 7.841637e-01 2.677098e+00 149 143 132
-4.550930e-01 1.158913e+00 1.914218e+00 43 39 33
-2.184912e-02 1.083296e+00 2.700791e+00 35 34 24
2.117167e+00 1.057077e+00 2.928845e+00 130 131 117
-1.378168e+00 1.254268e+00 2.988327e+00 70 72 56
4.248880e-01 1.287960e+00 2.954132e+00 86 86 78
1.585059e+00 2.331355e+00 3.068023e+00 61 58 48
1.186582e-01 2.416459e+00 3.089896e+00 149 151 148
3.887586e-01 2.475409e+00 3.088481e+00 141 141 140
4.917522e-01 2.609473e+00 3.116809e+00 72 70 57
4.959060e-01 5.038418e+00 1.314932e+00 39 66 124
-4.968290e-01 -8.147273e-01 3.068045e+00 105 102 96
9.342543e-01 -6.853478e-01 3.090662e+00 50 50 41
-4.396883e-01 2.178673e-01 2.646583e+00 40 43 31
6.426300e-02 5.714668e-01 2.644157e+00 33 28 12
-1.887137e-01 6.084960e-01 2.665112e+00 39 42 29
5.134858e-01 9.234107e-01 2.686602e+00 41 41 34
-2.341093e+00 1.298630e+00 2.992179e+00 92 94 89
2.471035e+00 1.655551e+00 2.986696e+00 40 46 44
1.493537e+00 1.882053e+00 2.905495e+00 41 39 40
9.165847e-01 -7.409180e-01 3.060062e+00 102 103 94
2.870963e-02 4.701197e-01 2.647405e+00 124 124 117
1.069358e-02 5.261606e-01 2.642148e+00 124 123 103
-1.249740e+00 8.615691e-01 2.959654e+00 81 84 75
2.478469e+00 1.039760e+00 2.929509e+00 82 84 76
-1.174072e+00 1.096610e+00 2.973842e+00 76 79 72
2.348605e+00 1.200441e+00 2.955357e+00 83 79 67
2.318136e+00 1.217890e+00 2.951052e+00 82 79 70
2.789606e+00 2.475328e+00 3.248836e+00 145 147 146
1.143031e+00 1.733723e+00 3.311383e+00 136 143 143
-9.188975e-01 -7.146753e-02 3.084617e+00 120 126 127
-1.893078e+00 1.117199e+00 2.867584e+00 87 86 81
1.528917e+00 2.134210e+00 3.052018e+00 34 34 35
1.172423e+00 2.932108e+00 3.596275e+00 97 102 105
-2.212677e-01 5.165417e-02 2.745435e+00 124 126 131
-5.173891e-01 -2.361148e-02 2.921927e+00 114 118 119
1.171011e+00 5.360344e-01 3.193702e+00 138 142 145
-6.699065e-01 1.384335e+00 2.970391e+00 76 73 73
1.172820e+00 1.257014e+00 2.958222e+00 149 157 164
-9.104273e-01 2.057536e+00 3.299478e+00 142 144 146
5.799551e-01 -5.950943e-01 2.993085e+00 23 18 12
1.075228e+00 -3.554605e-01 3.133765e+00 72 72 70
9.734527e-01 1.337976e+00 3.070206e+00 46 43 41
1.057909e+00 1.439133e+00 3.104119e+00 76 71 69
1.417042e+00 -5.721686e-01 2.957607e+00 31 23 16
-7.899838e-01 -3.229805e-01 3.125727e+00 74 78 77
-9.153457e-01 1.518069e+00 3.117583e+00 46 44 45
-9.199314e-01 1.541766e+00 3.092755e+00 46 44 45
5.839955e-01 -7.686663e-01 3.004301e+00 124 124 122
7.733687e-01 -8.088634e-01 3.091473e+00 122 128 126
-7.241090e-01 -4.724221e-01 3.081251e+00 125 135 136
1.113987e+00 -1.474821e-01 3.043278e+00 152 160 162
-9.840072e-01 3.916857e-01 3.150299e+00 135 142 148
-9.884359e-01 5.505713e-01 3.128683e+00 144 155 161
1.363647e+00 1.342038e+00 3.055213e+00 68 69 62
1.598377e+00 1.444962e+00 3.079924e+00 121 125 124
-1.030000e+00 2.562584e+00 3.327581e+00 130 131 132
-5.557123e-01 -1.072312e+00 2.994027e+00 104 114 119
-7.918393e-01 1.290303e-01 3.046283e+00 137 143 147
1.491550e+00 1.249094e+00 2.995543e+00 114 110 99
8.107485e-01 1.365622e+00 3.060551e+00 95 92 88
1.434777e+00 1.463624e+00 3.051062e+00 112 119 119
-6.249172e-01 2.436666e+00 3.090460e+00 132 133 137
-4.423477e-01 2.526724e+00 3.050939e+00 38 34 41
-8.650914e-02 2.475815e+00 3.081544e+00 46 39 47
-2.738352e-01 -7.687231e-01 3.004345e+00 114 115 110
1.379505e-01 -7.498534e-01 3.005416e+00 101 102 97
-2.172114e-01 4.025551e-01 2.658885e+00 136 138 133
1.542260e+00 1.129395e+00 2.976117e+00 128 127 122
1.555048e+00 1.292209e+00 2.943096e+00 135 130 123
-3.629776e-01 2.318327e+00 2.948121e+00 252 252 252
-1.781107e-01 2.307776e+00 2.947026e+00 255 255 255
-1.275696e+00 2.397998e+00 3.111315e+00 126 127 122
1.289033e+00 2.813371e+00 3.348556e+00 86 87 89
5.686360e-01 -6.669528e-01 3.032844e+00 113 114 106
1.147018e-01 -6.172293e-01 2.993034e+00 20 16 10
1.147018e-01 -6.172293e-01 2.993034e+00 20 16 10
4.776485e-01 -6.720512e-01 3.095570e+00 100 95 90
-7.898621e-01 -3.338572e-01 3.058643e+00 58 58 56
3.705517e-01 2.201035e-01 2.657035e+00 139 137 132
-1.184307e+00 1.266344e+00 2.996400e+00 53 49 45
1.388845e+00 1.454263e+00 3.042394e+00 88 91 95
1.693215e+00 1.441579e+00 3.049900e+00 89 103 106
-4.337307e-01 2.225399e+00 2.983676e+00 96 93 111
2.458412e-01 2.244415e+00 2.928218e+00 156 159 168
2.089933e+00 1.997045e+00 2.968943e+00 8 9 13
7.797177e-01 2.151966e+00 3.028210e+00 136 136 136
1.262208e+00 2.202199e+00 3.221117e+00 77 77 74
-9.038443e-01 2.403937e+00 3.334513e+00 145 145 147
1.093610e+00 2.328252e+00 3.304960e+00 130 130 129
7.641449e-01 2.681435e+00 3.213885e+00 105 111 113
1.475629e+00 2.584087e+00 3.248199e+00 31 35 32
1.919580e+00 2.634024e+00 3.240627e+00 106 109 108
2.149804e+00 2.605746e+00 3.256665e+00 103 107 106
1.465981e+00 4.026893e+00 2.882385e+00 2 7 19
6.962279e-01 4.814356e+00 3.195237e+00 251 251 250
1.432749e-01 -1.043035e+00 3.006545e+00 103 101 97
6.496463e-01 -1.065137e+00 3.085481e+00 39 40 30
1.425767e-01 -9.367803e-01 3.022199e+00 119 120 115
2.136892e-01 -9.081324e-01 2.987915e+00 91 90 87
6.507152e-01 -9.026404e-01 2.949112e+00 44 36 33
-7.726475e-01 -7.481828e-01 3.050440e+00 96 94 88
2.662601e-01 -7.547172e-01 3.034145e+00 107 105 100
-2.431166e-02 -7.039742e-01 3.124724e+00 81 84 78
1.080524e+00 -3.517919e-01 3.045685e+00 41 42 37
1.635467e+00 -3.552535e-01 3.122482e+00 116 119 112
3.716238e-01 1.799326e-01 2.632186e+00 5 3 4
-7.588817e-01 1.446933e-01 3.083075e+00 128 133 128
-7.996825e-01 2.236336e-01 3.090180e+00 122 131 134
-2.997185e-01 4.679880e-01 2.646073e+00 9 9 12
2.429922e-01 4.980280e-01 2.680992e+00 130 133 136
1.105678e+00 1.656230e-01 3.118937e+00 123 128 131
-2.258232e-01 6.949277e-01 2.654017e+00 129 138 140
2.036956e+00 4.748457e-01 2.790688e+00 64 53 52
1.963198e+00 7.280398e-01 2.877687e+00 57 58 53
-2.098077e+00 1.102552e+00 2.925066e+00 50 48 44
8.922245e-01 1.280046e+00 2.988732e+00 60 56 50
8.931730e-01 1.290613e+00 2.973253e+00 60 56 50
2.110022e+00 1.514945e+00 3.032852e+00 132 142 143
-7.950319e-01 2.182515e+00 3.281887e+00 143 147 148
1.673218e+00 2.207854e+00 3.001130e+00 8 7 6
-9.743646e-01 2.386226e+00 3.283538e+00 77 80 82
1.939807e+00 2.388622e+00 3.134331e+00 12 12 17
-6.784834e-01 2.782146e+00 3.196820e+00 84 88 92
-9.720268e-01 2.800590e+00 3.395151e+00 108 114 114
7.143849e-01 4.718090e+00 3.051659e+00 252 255 250
8.225502e-01 -8.733210e-01 3.058725e+00 107 107 103
9.112901e-01 -7.723342e-01 3.058526e+00 32 28 25
9.137788e-01 -7.676544e-01 3.041224e+00 32 28 25
-6.789790e-01 -3.702472e-01 3.109999e+00 42 41 44
8.522496e-01 -3.425593e-01 3.104569e+00 119 121 118
-3.307494e-01 6.013934e-02 2.602284e+00 122 120 121
1.080501e+00 -3.106545e-01 3.099661e+00 31 30 28
1.181520e+00 -3.562651e-01 3.180185e+00 117 113 108
-1.064480e-01 1.332619e-01 2.641996e+00 32 33 37
6.325214e-01 7.048397e-02 2.645825e+00 13 19 21
-3.960245e-01 1.696406e-01 2.623398e+00 7 9 15
6.661905e-01 1.436835e-01 2.649168e+00 119 120 118
4.024654e-01 2.563554e-01 2.656971e+00 138 141 139
-5.164322e-01 3.868721e-01 2.631147e+00 115 121 125
4.961645e-01 5.290769e-01 2.677122e+00 7 6 11
-6.790977e-01 5.851100e-01 2.846813e+00 61 61 61
-6.790977e-01 5.851100e-01 2.846813e+00 61 61 61
7.271707e-01 1.347471e+00 1.458148e+00 8 6 3
-4.998395e-01 7.186355e-01 2.662289e+00 103 104 104
1.545918e-01 8.309108e-01 2.702783e+00 140 142 144
1.014464e-01 6.499617e-01 2.995343e+00 138 135 134
6.459583e-01 7.835030e-01 2.743283e+00 116 110 99
-3.238669e-01 9.183804e-01 2.732965e+00 114 102 94
5.913155e-01 8.911129e-01 2.683270e+00 108 94 82
-2.773791e-01 9.959792e-01 2.702465e+00 5 4 2
4.945701e-01 9.844964e-01 2.674210e+00 10 5 9
-1.266574e+00 1.012437e+00 2.946214e+00 95 95 93
3.525584e-01 1.046812e+00 2.718841e+00 8 5 7
-1.469687e+00 1.588645e+00 2.984207e+00 131 139 144
2.468340e-02 2.430627e+00 3.086897e+00 54 49 55
1.509175e-01 2.429840e+00 3.079252e+00 47 42 48
2.202427e-01 2.484160e+00 3.064902e+00 48 42 47
-1.044668e+00 2.380078e+00 3.362057e+00 138 143 147
-1.065423e+00 2.380364e+00 3.396753e+00 72 76 77
-1.349599e+00 2.873578e+00 3.218097e+00 25 36 45
9.894579e-01 -6.879425e-01 3.096349e+00 87 86 82
1.403165e-01 -2.359867e-01 3.073277e+00 124 126 125
4.619606e-02 2.016413e-01 2.640434e+00 118 122 127
-1.332712e-01 2.851566e-01 2.648361e+00 19 27 37
1.788635e+00 4.821175e-01 2.816743e+00 39 36 29
-6.579780e-01 6.839587e-01 2.866936e+00 60 62 64
1.640041e+00 5.264053e-01 2.865307e+00 36 35 26
5.293870e-01 8.506859e-01 2.685979e+00 11 6 8
-6.008700e-01 8.292493e-01 2.890103e+00 50 49 47
1.373951e+00 6.660817e-01 2.951384e+00 60 59 57
9.153055e-01 8.433553e-01 2.946449e+00 49 48 44
8.852634e-01 8.909971e-01 2.956567e+00 57 56 54
3.410510e-01 1.133135e+00 2.703717e+00 51 46 40
2.552348e-01 1.098883e+00 2.801161e+00 48 43 39
2.552348e-01 1.098883e+00 2.801161e+00 48 43 39
1.434757e+00 1.065150e+00 2.950280e+00 55 56 50
1.727967e+00 1.035320e+00 2.987759e+00 57 56 53
1.957631e+00 1.060678e+00 3.017570e+00 123 122 114
-1.086962e+00 1.406493e+00 3.097790e+00 35 29 36
-1.272188e-01 1.409254e+00 3.033054e+00 63 60 58
-7.223316e-01 1.470756e+00 3.237443e+00 25 29 35
-1.758972e-01 2.456135e+00 2.926457e+00 38 38 49
8.283992e-01 2.246264e+00 3.053118e+00 64 63 61
-1.307998e-01 2.511416e+00 3.135180e+00 58 58 65
1.111894e+00 2.235322e+00 3.274525e+00 126 126 121
1.301198e+00 2.249268e+00 3.317495e+00 60 59 57
-4.586730e-01 2.815843e+00 3.178211e+00 80 96 109
1.872517e+00 2.511098e+00 3.195008e+00 48 47 42
2.134196e+00 2.496235e+00 3.199889e+00 50 46 42
2.134196e+00 2.496235e+00 3.199889e+00 50 46 42
-9.907130e-02 2.842733e+00 3.192307e+00 82 84 99
-1.211775e-02 -2.913184e-01 3.111744e+00 132 134 139
-1.211775e-02 -2.913184e-01 3.111744e+00 132 134 139
5.399126e-01 5.124822e-02 2.622644e+00 127 128 130
-7.707535e-01 1.979829e-01 3.162197e+00 115 125 127
1.496938e-01 1.999111e-01 3.029550e+00 117 119 123
-1.142332e+00 4.499223e-01 2.839410e+00 40 39 35
1.575015e-01 1.954251e-01 3.100242e+00 96 98 106
3.047157e-01 3.594940e-02 3.426938e+00 118 126 133
5.045644e-02 5.351461e-01 2.702922e+00 108 100 94
-1.192424e+00 7.770790e-01 2.935988e+00 60 61 59
9.717653e-01 7.666267e-01 2.876278e+00 66 62 60
1.493875e+00 8.432859e-01 2.975225e+00 54 54 54
1.568098e+00 8.490009e-01 2.960190e+00 70 66 59
1.618431e+00 8.939588e-01 2.966095e+00 65 61 51
1.935532e+00 1.008045e+00 2.974996e+00 100 99 91
1.876232e-01 1.335497e+00 2.970849e+00 63 58 60
1.264489e+00 1.376209e+00 3.221280e+00 116 115 110
-1.988426e-01 2.398669e+00 2.934677e+00 29 34 55
-2.023927e-01 2.446184e+00 2.921294e+00 250 249 253
-2.023927e-01 2.446184e+00 2.921294e+00 250 249 253
5.926133e-02 2.375988e+00 3.095422e+00 64 63 68
-5.145598e-01 2.495346e+00 3.084907e+00 113 112 118
1.970139e+00 2.268397e+00 3.136449e+00 33 34 33
1.583338e+00 2.350500e+00 3.137445e+00 97 97 101
-8.244723e-01 2.906123e+00 3.418511e+00 46 52 56
1.197222e+00 4.528758e-01 3.100352e+00 112 113 117
-6.435401e-03 -1.077094e+00 3.004772e+00 141 141 141
1.124527e-01 -1.039127e+00 3.027847e+00 41 41 44
3.173301e-01 -1.031649e+00 2.993357e+00 43 42 47
8.333838e-01 -7.090109e-01 3.067819e+00 53 51 52
5.591787e-01 -2.048830e+00 2.793837e+00 74 70 67
-1.825167e-01 -1.934597e+00 2.946641e+00 64 60 57
-2.256109e-01 -1.490803e+00 3.016957e+00 62 61 57
-8.312871e-03 -1.109241e+00 3.133881e+00 137 137 137
-7.139323e-01 -1.034832e+00 3.005467e+00 26 28 27
-1.014379e+00 -1.025693e+00 3.010628e+00 42 41 46
9.457553e-01 -7.686863e-01 3.039745e+00 124 123 128
6.840700e-01 -7.621240e-01 3.066261e+00 129 125 122
8.894401e-01 -2.063219e+00 2.930321e+00 62 61 57
9.161729e-01 -1.899953e+00 2.984398e+00 76 72 71
-3.000742e-01 -1.039486e+00 3.009542e+00 43 44 39
-4.862642e-01 2.731660e-01 2.597269e+00 52 55 60
-2.466730e-01 4.042336e-01 2.650680e+00 145 146 150
-7.724315e-01 -3.008356e-01 3.139055e+00 63 61 66
-8.564548e-01 -2.149266e+00 2.890281e+00 101 85 70
7.208109e-02 -1.087636e+00 3.029669e+00 187 177 168
-2.334643e-01 -6.627972e-01 3.004271e+00 156 139 131
-8.361296e-03 -1.064349e+00 2.985351e+00 178 167 156
-9.566110e-01 -7.641785e-01 3.008180e+00 96 79 62
1.045669e+00 1.350274e+00 3.215061e+00 55 52 47
9.447853e-01 3.640073e-01 2.940265e+00 59 55 50
9.466162e-01 3.920024e-01 2.888107e+00 59 55 50
1.423419e+00 1.388117e+00 3.159401e+00 108 106 105
1.610780e-01 5.570470e-01 2.544447e+00 28 27 30
-1.442429e-01 6.250232e-01 2.710270e+00 28 29 33
-1.442429e-01 6.250232e-01 2.710270e+00 28 29 33
1.214569e-01 7.319633e-01 2.775263e+00 26 28 31
-4.683335e-01 -5.867037e-01 2.942343e+00 24 23 21
4.482164e-01 5.613060e-01 2.668267e+00 117 112 107
3.663070e-01 7.841460e-01 2.707971e+00 33 34 38
1.156421e+00 2.165331e+00 3.265744e+00 72 68 66
-4.218592e-02 -6.487182e-01 2.972674e+00 78 75 72
1.460133e+00 2.061258e+00 2.968335e+00 93 92 90
7.160589e-01 3.242375e-01 2.608521e+00 101 98 94
3.265765e-01 7.580318e-01 2.694154e+00 103 103 105
-6.531988e-01 1.183139e+00 2.964365e+00 54 53 50
1.342804e+00 2.255147e+00 3.064191e+00 39 38 36
1.453354e+00 1.169861e+00 2.846802e+00 106 104 86
-1.136773e+00 1.101452e+00 3.153204e+00 114 119 106
2.729630e+00 1.291044e+00 2.888431e+00 169 171 170
-8.137546e-01 2.283586e+00 3.291140e+00 120 122 118
1.350823e+00 5.147418e+00 2.728553e+00 152 153 137
1.752633e-01 -2.735042e+00 2.739961e+00 109 109 100
4.468938e-01 -1.314064e+00 3.086688e+00 145 143 130
2.553802e+00 1.701135e+00 2.767282e+00 44 48 53
-1.113560e+00 2.287015e+00 3.227142e+00 57 59 58
7.927753e-01 2.449852e+00 3.084565e+00 125 132 124
-2.617527e+00 -2.337236e+00 2.963841e+00 186 187 172
-2.605466e+00 -2.085511e+00 2.921771e+00 186 184 171
5.008411e+00 -8.450064e-01 -6.132007e-01 105 107 108
2.836339e+00 -7.287372e-01 2.796932e+00 160 157 147
2.928239e+00 -6.465107e-01 2.740894e+00 69 66 54
-2.441016e+00 1.362065e+00 2.966732e+00 145 154 143
8.945608e-02 1.463321e+00 2.901609e+00 78 76 64
1.991576e+00 1.543555e+00 2.851475e+00 122 124 122
1.802500e+00 1.530457e+00 2.906198e+00 133 137 133
1.650102e+00 1.535761e+00 2.906217e+00 114 117 112
-2.399600e+00 1.988314e+00 3.001314e+00 145 146 130
2.195357e+00 2.312446e+00 2.794973e+00 18 20 19
-1.002074e+00 2.522490e+00 3.366800e+00 148 148 138
2.865873e+00 -2.207164e+00 2.675692e+00 165 165 154
-2.923849e+00 -1.265155e+00 3.013510e+00 120 121 116
1.796142e+00 -1.027944e+00 3.069389e+00 115 116 102
9.616422e-01 -7.749577e-01 2.953425e+00 132 134 124
-1.716163e+00 -7.735757e-01 3.006076e+00 133 134 122
2.202889e+00 -7.405956e-01 2.824758e+00 149 150 139
-2.490049e+00 4.112074e-01 2.880525e+00 158 157 135
-1.980887e-01 5.231283e-01 2.617154e+00 54 58 59
1.997211e+00 5.995171e-01 2.656037e+00 157 161 151
2.484990e-01 7.569827e-01 2.643736e+00 46 53 58
1.075316e-01 7.833052e-01 2.678014e+00 46 49 54
1.361138e+00 2.365533e+00 2.881690e+00 74 75 67
-1.938772e+00 2.392635e+00 3.101705e+00 62 62 60
-2.327503e+00 2.395989e+00 3.102930e+00 42 44 41
2.582867e+00 2.497024e+00 3.071266e+00 70 71 63
-8.933563e-01 2.514227e+00 3.271470e+00 112 112 100
1.628488e+00 -2.601612e+00 2.341456e+00 119 115 92
2.821757e+00 -2.297005e+00 2.703919e+00 78 78 69
1.218392e+00 -2.225369e+00 2.760931e+00 182 179 164
2.743620e+00 -2.084056e+00 2.723846e+00 158 160 147
1.037548e+00 -1.310984e+00 2.980163e+00 98 96 83
2.506733e+00 -1.052299e+00 2.817468e+00 178 179 174
1.206051e+00 -9.839450e-01 3.007527e+00 113 110 94
2.219424e+00 -9.211529e-01 2.902473e+00 162 160 148
2.410960e+00 -7.480099e-01 2.855449e+00 187 187 172
-3.784262e-01 -7.372459e-01 3.090569e+00 64 60 51
1.899849e+00 -6.343879e-01 2.922112e+00 136 131 113
1.758603e-02 8.209427e-01 2.690225e+00 147 145 128
1.550174e+00 1.333857e+00 2.839314e+00 159 154 135
-1.531532e+00 1.770808e+00 2.958618e+00 17 22 27
-2.268597e+00 2.259430e+00 3.136597e+00 30 32 35
-8.736516e-01 2.208718e+00 3.245945e+00 149 150 143
-2.753750e+00 2.256686e+00 3.373113e+00 95 97 90
-1.846305e+00 2.582155e+00 3.119456e+00 33 31 35
1.388773e+00 4.242751e+00 2.893675e+00 136 139 122
2.226142e+00 4.806392e+00 2.979632e+00 23 24 29
-1.824393e+00 5.432688e+00 3.312933e+00 148 155 148
-4.371859e+00 -2.866028e+00 1.876430e+00 23 28 32
1.453410e+00 -2.737152e+00 2.679401e+00 162 157 136
1.289838e+00 -2.438721e+00 2.802151e+00 102 95 89
1.078845e+00 -1.365082e+00 2.968731e+00 169 169 157
1.726201e-01 -1.262240e+00 2.988391e+00 72 70 58
1.036111e+00 -1.237518e+00 3.007426e+00 79 78 69
5.653889e-01 -1.112720e+00 3.010504e+00 121 123 120
1.580534e+00 -9.755788e-01 2.960607e+00 126 127 111
-1.368846e+00 -8.483614e-01 3.016144e+00 39 38 35
-2.017042e-01 -7.902680e-01 3.075780e+00 138 137 124
2.101424e+00 -6.347375e-01 2.894769e+00 127 127 110
-8.771598e-01 2.986718e-01 3.145320e+00 158 159 154
-8.771598e-01 2.986718e-01 3.145320e+00 158 159 154
4.890188e-01 5.015087e-01 2.622803e+00 134 133 125
-1.256775e+00 1.293078e+00 2.978098e+00 137 138 131
4.470693e-01 1.348118e+00 2.914180e+00 147 151 142
2.296350e+00 1.647354e+00 2.765017e+00 139 149 140
-4.174295e-02 2.288258e+00 1.321345e+00 26 27 28
1.455711e+00 2.319711e+00 2.950977e+00 158 160 146
-2.631028e+00 2.249174e+00 3.366465e+00 83 89 81
-6.840189e-01 2.392638e+00 3.108793e+00 105 100 85
2.074516e+00 2.442655e+00 3.040229e+00 51 51 49
1.998167e+00 1.814053e-01 7.770677e+00 51 51 49
-2.829810e+00 2.407497e+00 3.320393e+00 79 81 72
1.694588e+00 4.772030e+00 2.987717e+00 88 91 80
2.464314e+00 4.769124e+00 3.189800e+00 71 70 67
-1.103874e+00 -2.751973e+00 2.989955e+00 49 50 44
2.763765e+00 -2.515134e+00 2.792387e+00 75 72 85
1.184871e+00 -2.188380e+00 2.924698e+00 86 84 81
-7.676714e-01 -2.204270e+00 3.415614e+00 60 55 62
1.264908e+00 -2.056959e+00 2.895453e+00 91 91 97
7.754686e-01 -1.682281e+00 2.869979e+00 87 79 77
-2.019056e+00 -1.580415e+00 2.805867e+00 125 129 115
-2.245993e+00 -1.063061e+00 3.083613e+00 51 51 35
-2.056234e+00 -1.046106e+00 3.035917e+00 30 30 29
2.031654e-01 -9.188600e-01 3.018024e+00 147 145 124
2.268455e+00 -7.471824e-01 2.849616e+00 58 55 48
-1.670164e+00 -7.175998e-01 3.073222e+00 57 57 45
-4.413164e-01 -6.965105e-01 3.083168e+00 126 122 106
8.842572e-01 -1.500820e+00 6.340780e+00 147 145 125
