ply
format ascii 1.0
element face 0
property list uchar int vertex_indices
element vertex 941
property float x
property float y
property float z
property uchar diffuse_red
property uchar diffuse_green
property uchar diffuse_blue
end_header
-2.428309e+00 8.760997e-01 2.948034e+00 98 89 80
-2.306792e+00 9.726423e-01 2.951818e+00 186 178 163
-2.242076e+00 1.028081e+00 2.954269e+00 189 179 167
2.094871e+00 1.958244e+00 3.136722e+00 32 23 27
2.094871e+00 1.958244e+00 3.136722e+00 32 23 27
3.007522e+00 4.650829e+00 3.098757e+00 117 113 105
3.156759e+00 7.061385e-01 3.046174e+00 172 175 168
3.059186e+00 4.764260e+00 3.038425e+00 246 253 254
3.185778e+00 2.764248e+00 3.008474e+00 240 252 248
3.239835e+00 3.426672e-01 3.059679e+00 244 250 247
1.689600e+00 -1.655819e+00 2.943185e+00 123 104 87
4.481440e-01 -2.023294e+00 2.969401e+00 79 56 43
1.911655e+00 -1.070402e+00 2.936406e+00 191 184 178
6.020962e-01 -2.708481e+00 2.982679e+00 139 128 109
1.060161e+00 -1.983036e+00 2.933432e+00 152 140 126
7.025291e-01 -2.745480e+00 2.969157e+00 94 76 61
-1.425850e+00 -2.629968e+00 2.955230e+00 149 135 116
1.349446e-01 -1.287492e+00 2.941580e+00 145 128 108
6.128314e-01 -2.369733e+00 2.995630e+00 142 130 108
1.193371e+00 -2.265356e+00 2.930004e+00 90 75 61
-1.162802e+00 -1.973283e+00 2.930109e+00 190 178 166
-1.356295e+00 -1.893197e+00 2.936457e+00 85 67 48
1.972942e-01 -2.897967e+00 2.965817e+00 99 85 73
1.743515e+00 -2.283476e+00 2.993272e+00 158 141 119
1.936926e+00 -2.051292e+00 2.997024e+00 107 92 72
1.725732e+00 -2.012649e+00 2.916953e+00 103 86 68
-1.177309e+00 -1.994525e+00 2.944929e+00 118 100 86
6.739396e-01 -2.519190e+00 2.981036e+00 113 102 82
7.353302e-01 -2.378400e+00 2.974518e+00 154 142 120
5.400918e-01 -2.150132e+00 3.006428e+00 96 78 57
1.558142e+00 4.643184e+00 3.132467e+00 24 19 26
-2.173616e+00 1.278653e+00 2.980054e+00 195 185 175
8.138925e-01 5.292606e-01 3.185830e+00 155 138 122
9.641586e-01 4.056280e-01 3.073541e+00 128 115 99
2.988767e+00 4.743355e+00 3.103183e+00 97 88 86
6.801692e-01 -1.466274e+00 2.951386e+00 186 182 173
-4.743505e-02 -9.253835e-01 2.953783e+00 176 159 145
9.733248e-01 -7.576041e-01 2.959818e+00 177 171 160
1.079654e+00 2.122846e+00 2.875592e+00 181 173 162
2.647420e+00 4.804485e+00 3.097802e+00 108 104 96
7.714094e-01 1.507903e+00 3.017772e+00 158 151 143
2.367975e+00 1.580829e+00 3.024137e+00 51 46 42
2.658073e+00 1.471566e+00 2.897023e+00 162 155 147
1.652357e+00 4.595967e+00 3.163450e+00 24 22 27
6.005421e-01 -1.481631e+00 2.946667e+00 100 82 65
1.786491e+00 -9.371012e-01 2.938261e+00 181 173 154
4.199079e-01 -6.221779e-01 2.900096e+00 48 29 24
1.018353e+00 -6.137080e-01 2.964115e+00 41 24 15
1.254707e+00 -6.135109e-01 2.969287e+00 43 28 20
1.506053e+00 -6.376777e-01 2.934825e+00 168 156 140
2.379592e+00 9.625037e-01 3.008903e+00 184 175 160
2.453515e+00 1.077464e+00 3.016321e+00 172 163 146
-1.616555e+00 -1.607334e+00 2.928702e+00 161 151 139
7.913437e-01 -1.685982e+00 2.935761e+00 112 95 75
-2.594749e-02 -1.048455e+00 2.951042e+00 198 187 181
1.146680e+00 -1.039103e+00 2.953305e+00 88 70 60
1.876940e+00 -1.015780e+00 2.961264e+00 105 89 75
-8.095904e-01 -7.859797e-01 2.925803e+00 72 53 41
1.372908e+00 -9.186940e-01 2.932973e+00 162 149 130
1.669494e+00 -8.233269e-01 2.960388e+00 105 87 75
1.452778e+00 -6.155306e-01 3.013937e+00 51 31 21
1.605107e+00 -6.113797e-01 2.943265e+00 49 29 22
-7.900508e-01 -3.007798e-01 2.932567e+00 109 91 81
1.807546e+00 7.105439e-01 3.033578e+00 181 170 150
2.432498e+00 1.005453e+00 3.012135e+00 107 91 75
2.556259e+00 1.120244e+00 3.023273e+00 169 155 146
1.618047e+00 2.490514e+00 3.055713e+00 38 31 20
2.330716e+00 2.681640e+00 3.043253e+00 68 62 46
2.789599e+00 2.818600e+00 3.056015e+00 206 198 191
2.610933e+00 4.827938e+00 3.101973e+00 63 55 52
-1.399015e+00 -1.845457e+00 2.952775e+00 88 69 52
-1.438691e+00 -1.797838e+00 2.928883e+00 98 77 61
-1.554630e+00 -1.693773e+00 2.927723e+00 86 68 54
-1.615123e+00 -1.206390e+00 2.920929e+00 127 117 108
-1.551174e+00 -1.184031e+00 2.916758e+00 160 155 144
1.861296e-01 -1.285171e+00 2.940998e+00 141 125 109
2.146523e-01 -1.054665e+00 2.947215e+00 53 34 27
1.120961e+00 -8.084057e-01 2.958221e+00 72 54 41
8.805913e-02 -7.143884e-01 2.958538e+00 81 59 48
8.805913e-02 -7.143884e-01 2.958538e+00 81 59 48
1.880709e+00 -8.725564e-01 2.956894e+00 83 70 54
8.743984e-01 -7.240360e-01 3.000916e+00 171 161 149
1.085125e+00 -7.295863e-01 2.961702e+00 164 151 134
1.709331e+00 -7.405777e-01 2.968065e+00 172 158 144
1.906376e+00 -7.494065e-01 2.925061e+00 183 170 154
2.115367e+00 -7.440085e-01 2.951025e+00 184 168 153
1.415276e+00 -6.340612e-01 2.965562e+00 189 175 162
2.019093e+00 -6.043930e-01 2.948434e+00 50 30 19
6.305575e-01 -3.189004e-01 2.973347e+00 106 88 76
1.877482e+00 1.864830e-01 3.025990e+00 101 89 71
-1.694576e+00 9.086202e-01 3.063214e+00 161 153 142
2.103014e+00 5.650565e-01 2.994167e+00 201 194 182
2.528887e+00 6.365881e-01 3.006321e+00 180 178 161
1.764402e+00 8.473735e-01 3.126122e+00 89 79 64
1.625039e+00 1.555096e+00 3.016547e+00 198 190 191
2.166539e+00 1.973650e+00 3.025107e+00 134 125 116
-1.852955e+00 2.482327e+00 2.937473e+00 191 184 178
2.272648e+00 2.108475e+00 3.040967e+00 188 181 171
1.344479e-01 2.593662e+00 2.967809e+00 146 136 127
2.676691e+00 2.312732e+00 3.035108e+00 142 140 127
-1.388336e+00 -1.898867e+00 2.945289e+00 135 121 105
3.621975e-01 -1.792507e+00 2.929381e+00 64 46 30
5.005670e-01 -1.555144e+00 2.945022e+00 88 71 50
3.261757e-01 -1.486195e+00 2.938915e+00 125 108 90
3.946594e-02 -1.380398e+00 2.941013e+00 151 136 115
2.466814e-01 -1.358357e+00 2.940549e+00 154 142 126
1.434958e+00 -1.069344e+00 2.952993e+00 165 154 148
1.406168e+00 -1.051197e+00 2.955592e+00 63 49 40
1.613392e+00 -1.043531e+00 2.957759e+00 76 62 48
1.775700e+00 -8.532330e-01 2.964419e+00 201 195 182
1.215619e-01 -7.180738e-01 2.966476e+00 163 150 137
1.856973e+00 -7.858413e-01 2.947833e+00 207 198 192
1.640730e+00 -7.382767e-01 2.967237e+00 180 168 156
1.063329e+00 -3.051864e-01 2.897783e+00 165 154 147
1.787258e+00 -6.754765e-03 3.142794e+00 175 166 152
1.787717e+00 1.397658e-01 3.150330e+00 162 151 133
-7.866350e-02 7.615256e-01 3.271960e+00 17 7 2
-2.417195e+00 8.405583e-01 2.950075e+00 186 176 166
2.542886e+00 3.711675e-01 2.982639e+00 176 167 149
-2.547718e+00 1.170783e+00 2.961431e+00 111 105 101
2.132928e+00 7.529580e-01 2.997158e+00 106 97 83
-1.654721e+00 1.146870e+00 2.970647e+00 189 178 167
2.063139e+00 7.834474e-01 2.993626e+00 67 58 45
1.958452e+00 9.612103e-01 3.121827e+00 78 62 49
1.668961e+00 9.678207e-01 3.004301e+00 185 170 146
-1.770439e+00 1.384528e+00 2.980265e+00 192 179 171
2.474480e+00 1.506293e+00 3.025570e+00 48 39 45
-1.408469e+00 2.153210e+00 3.101508e+00 162 157 143
-1.452468e+00 2.441918e+00 2.902266e+00 175 170 158
1.539477e+00 2.501546e+00 3.057830e+00 172 165 150
1.815129e+00 2.528839e+00 3.060834e+00 157 150 138
2.158388e+00 2.511424e+00 3.058221e+00 160 149 130
2.719134e+00 2.408085e+00 3.040835e+00 199 197 184
2.858412e+00 2.578614e+00 2.925539e+00 67 60 50
-1.847587e+00 5.066102e+00 2.864834e+00 175 175 167
-1.491364e+00 -1.851121e+00 2.953447e+00 98 81 66
4.510001e-01 -1.909433e+00 2.928089e+00 128 111 95
4.872054e-01 -1.744967e+00 2.931269e+00 72 53 39
3.215975e-01 -1.422371e+00 2.940906e+00 79 58 41
7.478950e-02 -1.362980e+00 2.938342e+00 165 148 138
3.357676e-01 -8.535445e-01 2.958451e+00 186 174 161
1.026029e+00 -8.684402e-01 2.920709e+00 163 152 150
8.355020e-02 -7.548052e-01 2.956530e+00 41 25 11
8.355020e-02 -7.548052e-01 2.956530e+00 41 25 11
1.850372e+00 -8.421554e-01 2.924222e+00 183 169 162
2.402877e-01 -7.069454e-01 2.886954e+00 73 53 41
3.501558e-01 -6.879730e-01 2.961921e+00 94 78 61
-4.241862e-01 -5.448646e-01 2.872019e+00 96 77 62
1.787975e+00 3.537361e-02 3.145326e+00 166 152 135
-2.482289e+00 7.127911e-01 2.942956e+00 189 184 174
2.300624e+00 3.325159e-01 2.981383e+00 102 85 58
-1.804876e+00 8.980387e-01 3.071555e+00 108 97 90
2.030697e+00 5.126687e-01 2.992436e+00 197 187 177
-1.284889e+00 8.629961e-01 2.965345e+00 190 181 170
2.514809e+00 4.895459e-01 2.986278e+00 184 173 158
2.511470e+00 4.949971e-01 2.996320e+00 184 173 158
-1.326404e+00 9.079644e-01 2.966519e+00 187 177 165
-2.244722e+00 1.028597e+00 2.958889e+00 189 179 167
2.496968e+00 5.480103e-01 2.990125e+00 177 166 152
-1.704192e+00 1.040764e+00 3.041517e+00 141 127 114
-1.491793e+00 1.051682e+00 2.970487e+00 171 160 144
2.438366e+00 6.734057e-01 2.993861e+00 181 168 152
-1.352316e+00 1.102084e+00 2.974673e+00 186 182 170
2.397163e+00 7.397098e-01 3.005996e+00 183 174 157
-1.632481e+00 1.199143e+00 2.978664e+00 195 191 179
1.778715e+00 9.357576e-01 3.113729e+00 148 135 119
-2.306121e+00 1.316636e+00 2.968273e+00 196 189 179
7.630133e-01 1.026696e+00 3.004204e+00 95 84 74
1.626658e+00 9.394951e-01 3.002333e+00 185 171 145
1.405886e+00 9.972289e-01 3.077679e+00 139 128 116
1.620766e+00 9.690053e-01 3.004890e+00 99 90 75
2.258766e+00 9.355545e-01 3.010554e+00 106 98 82
7.096495e-01 1.156868e+00 3.063628e+00 197 188 179
2.598859e+00 1.114475e+00 3.015172e+00 50 42 30
2.510648e+00 1.183592e+00 3.020037e+00 181 179 164
1.720356e+00 1.903821e+00 3.156190e+00 167 161 147
2.102915e+00 2.063446e+00 3.126574e+00 17 10 0
-1.367491e+00 2.606202e+00 2.752515e+00 83 73 58
-1.271605e+00 2.599803e+00 2.747940e+00 86 75 62
2.229390e+00 2.371425e+00 3.049413e+00 63 56 40
-4.966414e-01 2.598755e+00 2.843101e+00 89 77 61
8.333147e-01 2.567862e+00 3.049141e+00 161 150 141
2.206121e+00 2.469103e+00 3.050797e+00 180 173 158
2.355717e+00 4.993165e+00 3.103655e+00 168 166 156
1.491124e+00 5.155352e+00 3.106923e+00 179 175 168
6.895459e-01 -1.974213e+00 2.960585e+00 153 138 118
6.002788e-01 -1.866035e+00 2.955282e+00 89 72 53
-1.733354e+00 -1.650315e+00 2.956682e+00 162 151 141
-1.734129e+00 -1.631852e+00 2.956446e+00 85 72 63
5.317223e-01 -1.754083e+00 2.937750e+00 125 110 92
5.403129e-01 -1.688699e+00 2.947570e+00 98 81 65
1.823831e-01 -1.429955e+00 2.939406e+00 129 110 95
2.098770e-01 -1.428107e+00 2.933733e+00 128 109 95
6.099918e-02 -1.166671e+00 2.946841e+00 157 142 130
-1.027129e-01 -1.060586e+00 2.944940e+00 107 99 92
1.476072e+00 -1.106139e+00 2.927542e+00 183 180 172
-2.118788e+00 -8.281757e-01 2.940900e+00 136 126 116
1.845465e+00 -1.075269e+00 2.934387e+00 197 185 178
1.757991e+00 -1.057546e+00 2.957285e+00 74 64 57
1.845099e+00 -1.054635e+00 2.959620e+00 78 64 56
-7.030091e-01 -7.971239e-01 2.906531e+00 91 79 70
6.027170e-01 -8.537117e-01 2.959024e+00 109 97 88
1.189232e+00 -7.749472e-01 2.959990e+00 124 110 101
2.041593e+00 -8.174451e-01 2.932848e+00 104 93 84
1.869230e+00 3.882953e-02 3.098739e+00 195 186 170
1.823712e+00 7.584500e-02 3.120031e+00 167 158 141
1.869434e+00 1.350757e-01 3.103154e+00 195 183 168
2.367984e+00 1.039713e-01 2.977650e+00 160 149 131
9.953875e-01 3.679914e-01 3.093242e+00 111 95 79
1.438681e+00 9.239011e-01 2.991582e+00 137 131 119
9.146610e-01 1.112547e+00 3.080521e+00 172 161 155
1.470051e+00 1.084547e+00 3.079277e+00 167 157 145
1.901503e+00 1.049201e+00 3.008012e+00 120 103 84
2.299827e+00 1.023668e+00 3.007307e+00 138 128 118
2.391525e+00 1.570895e+00 3.026840e+00 91 87 86
-2.165721e+00 2.494848e+00 2.908348e+00 191 184 173
2.436500e+00 2.113063e+00 3.040868e+00 180 169 158
2.436500e+00 2.113063e+00 3.040868e+00 180 169 158
-1.312066e+00 2.577255e+00 2.852604e+00 176 172 163
1.633708e+00 2.384885e+00 3.050779e+00 187 178 166
2.974643e-01 2.616021e+00 2.953795e+00 87 78 66
-7.535040e-01 2.339751e+00 2.274537e+00 83 70 62
2.724271e+00 2.571915e+00 2.917037e+00 81 71 61
2.214810e-01 4.059351e-01 3.241388e+00 190 182 176
1.036767e+00 -1.293042e+00 2.940466e+00 142 126 110
2.827979e+00 -8.840225e-01 2.947689e+00 173 164 156
2.605218e+00 -2.750903e+00 3.003087e+00 164 156 138
2.580947e+00 -2.601370e+00 2.992653e+00 153 146 136
1.311822e+00 -2.445808e+00 2.932954e+00 114 97 80
5.661908e-01 -1.457611e+00 2.945651e+00 101 79 64
5.262159e-01 -1.425960e+00 2.948315e+00 95 72 58
2.351978e+00 -8.191064e-01 2.961416e+00 82 70 53
8.692591e-01 -2.741465e+00 2.946580e+00 91 72 60
8.687769e-01 -2.741393e+00 2.944786e+00 91 72 60
1.204115e+00 -2.174212e+00 2.925082e+00 96 83 67
2.349274e+00 -1.718203e+00 2.983705e+00 147 131 115
2.350111e+00 -1.718213e+00 2.985288e+00 147 131 115
2.084577e+00 -7.691231e-01 2.964767e+00 81 62 49
2.282804e+00 -7.698699e-01 2.967988e+00 66 53 40
2.471465e+00 -2.948656e+00 2.966262e+00 53 38 22
5.823961e-01 -2.377508e+00 2.994116e+00 81 64 44
2.900043e+00 -2.176997e+00 2.960603e+00 100 90 82
1.140794e+00 -9.174031e-01 2.934621e+00 163 153 136
2.776482e+00 -1.102508e-01 2.903215e+00 212 207 202
2.169689e+00 -1.184159e-01 3.013260e+00 67 66 74
1.740456e+00 -2.665779e+00 2.971619e+00 18 12 12
1.146855e+00 1.189414e+00 2.897862e+00 212 209 205
2.144694e+00 1.739223e+00 3.038666e+00 157 150 142
2.724830e+00 2.000103e+00 2.934538e+00 185 177 170
2.734567e+00 5.855126e-01 2.926356e+00 198 195 189
9.903685e-01 2.239465e+00 2.930279e+00 111 98 82
-1.371757e+00 -1.861821e+00 2.940242e+00 106 89 69
2.659224e+00 -1.170696e+00 2.930140e+00 85 67 53
2.211075e+00 -6.062341e-01 2.924289e+00 70 51 34
7.748412e-01 -5.886069e-01 2.933005e+00 54 34 25
3.755188e-01 -5.872929e-01 2.898098e+00 64 44 32
2.449399e+00 8.517019e-01 3.025812e+00 193 189 180
-1.374435e+00 9.266438e-01 3.062835e+00 130 118 103
1.602082e+00 1.485837e+00 3.023524e+00 165 164 152
-1.946167e+00 1.618255e+00 2.971856e+00 216 214 205
2.523474e+00 4.619554e+00 3.083122e+00 166 163 156
-2.247467e+00 -2.744236e+00 2.939825e+00 94 71 55
1.963558e+00 -2.556194e+00 2.979769e+00 171 157 140
2.778048e+00 -1.972383e+00 2.938548e+00 195 190 184
2.699041e+00 4.545818e-01 2.954329e+00 206 203 198
2.006909e+00 1.683888e+00 3.105717e+00 176 170 156
8.930764e-01 2.277165e+00 3.050097e+00 153 144 134
1.757898e+00 4.182410e+00 3.211914e+00 165 158 150
-1.842201e+00 -2.188778e+00 2.953012e+00 144 127 117
-1.430196e+00 -1.069036e+00 2.932544e+00 185 177 171
-2.163069e+00 -9.526027e-01 2.920945e+00 167 152 139
-6.654397e-01 -8.356711e-01 2.919723e+00 174 167 156
-2.415269e+00 2.991396e-01 3.004177e+00 127 114 100
8.993933e-01 9.835295e-01 3.072805e+00 183 173 160
3.074681e+00 2.087367e+00 3.038872e+00 69 63 53
2.679580e+00 2.111424e+00 2.952195e+00 178 170 159
2.616565e+00 2.151627e+00 3.024607e+00 117 100 83
3.000798e+00 3.346250e+00 3.033533e+00 250 254 253
-2.576583e+00 4.731886e+00 2.834552e+00 154 143 138
2.265094e+00 4.928301e+00 3.048250e+00 97 92 81
-1.501699e+00 -2.668015e+00 2.937032e+00 135 118 103
2.929196e-01 -2.586170e+00 3.001742e+00 22 11 15
1.962712e+00 -2.554499e+00 2.967395e+00 166 150 134
2.766713e+00 -2.478459e+00 2.958823e+00 190 186 180
-1.713786e+00 -2.202020e+00 2.962805e+00 145 132 116
-2.489722e+00 -2.136622e+00 2.931795e+00 170 159 140
1.095159e+00 -1.349291e+00 2.911547e+00 199 192 182
2.010781e+00 -1.090166e+00 2.928120e+00 146 141 137
1.606417e+00 -1.086365e+00 2.940006e+00 139 135 127
1.606417e+00 -1.086365e+00 2.940006e+00 139 135 127
1.711260e+00 -1.065288e+00 2.957395e+00 189 185 175
8.823300e-01 -1.059009e+00 2.936592e+00 192 186 181
2.451364e+00 -6.987011e-01 2.931220e+00 63 50 42
-1.230363e+00 -6.236685e-01 2.932957e+00 168 155 142
2.700686e+00 -5.490509e-01 2.960833e+00 90 72 60
1.960602e+00 -5.456381e-01 2.943218e+00 128 110 97
1.134808e+00 -3.621504e-01 2.889124e+00 179 165 149
3.258190e+00 2.430098e-02 3.009641e+00 89 85 76
3.125694e+00 4.497937e-01 3.033726e+00 183 181 169
1.544594e+00 5.886312e-01 3.081716e+00 187 180 164
-2.167631e+00 1.794735e+00 3.038147e+00 30 17 18
7.749360e-01 2.148425e+00 3.025339e+00 180 172 162
1.758215e+00 5.249686e+00 3.099922e+00 185 175 173
-1.411131e+00 5.608013e+00 3.089565e+00 177 171 165
6.694030e-01 -2.886463e+00 2.973154e+00 129 113 97
2.581287e+00 -2.858504e+00 2.965958e+00 157 148 130
2.503095e+00 -2.857994e+00 2.964791e+00 155 140 122
2.503095e+00 -2.857994e+00 2.964791e+00 155 140 122
7.387081e-01 -2.808620e+00 2.941992e+00 132 117 93
2.580338e+00 -2.787214e+00 2.961061e+00 163 155 142
2.580338e+00 -2.787214e+00 2.961061e+00 163 155 142
2.509008e+00 -2.788690e+00 2.973756e+00 151 137 120
2.431535e+00 -2.786459e+00 2.963026e+00 151 142 127
8.174308e-01 -2.777900e+00 2.958518e+00 147 132 111
2.501693e+00 -2.739709e+00 2.965964e+00 153 140 120
2.473607e+00 -2.636242e+00 2.959087e+00 57 39 32
1.336512e+00 -2.491549e+00 2.941411e+00 185 180 173
1.336512e+00 -2.491549e+00 2.941411e+00 185 180 173
-1.661481e+00 -2.384853e+00 2.976099e+00 92 74 60
8.650259e-01 -2.341284e+00 2.959310e+00 116 99 85
8.470094e-01 -1.769011e+00 2.941945e+00 113 94 71
-1.582572e+00 -1.729968e+00 2.948904e+00 130 118 104
-6.660007e-01 -1.243639e+00 2.930298e+00 183 175 159
1.050761e+00 -1.211637e+00 2.922174e+00 106 90 80
-2.726544e+00 -1.225772e+00 2.948816e+00 188 182 173
2.521265e+00 -1.149597e+00 2.933271e+00 96 82 73
5.723816e-01 -1.094238e+00 2.924456e+00 153 146 141
2.468451e+00 -1.030642e+00 2.953898e+00 102 86 74
2.361740e+00 -6.935085e-01 2.941198e+00 80 66 52
-1.371505e+00 -7.229745e-01 2.952068e+00 172 162 147
2.455380e+00 -6.387255e-01 2.963169e+00 56 39 29
2.256382e+00 -6.373460e-01 2.956236e+00 45 31 22
8.810065e-01 -6.248708e-01 2.961365e+00 170 158 142
2.200325e+00 -6.204282e-01 2.921238e+00 52 33 28
-1.224795e+00 -6.284214e-01 2.910693e+00 171 157 144
9.760035e-01 -6.064505e-01 2.921048e+00 40 23 18
3.018883e+00 -5.485002e-01 2.908008e+00 112 98 84
2.365810e-01 -5.228708e-01 2.912835e+00 118 107 98
2.696336e+00 -4.212197e-01 2.923682e+00 136 125 107
2.091670e+00 -3.431969e-01 2.957686e+00 75 66 61
2.214810e-01 4.059351e-01 3.241388e+00 190 182 176
2.214810e-01 4.059351e-01 3.241388e+00 190 182 176
8.659803e-01 8.649757e-01 3.083627e+00 168 158 146
-4.970280e-01 1.089145e+00 3.061709e+00 158 149 134
-2.397652e+00 1.149524e+00 2.983052e+00 81 72 63
-1.261900e+00 1.295726e+00 2.983711e+00 182 178 166
7.822198e-01 1.592495e+00 3.077438e+00 180 176 167
2.479042e+00 1.604386e+00 3.030536e+00 62 55 60
2.091093e+00 1.845033e+00 3.123465e+00 29 24 25
1.678929e+00 1.876857e+00 3.154228e+00 56 48 40
1.678929e+00 1.876857e+00 3.154228e+00 56 48 40
2.092013e+00 1.895417e+00 3.124154e+00 35 28 30
2.145366e+00 2.323467e+00 3.047879e+00 188 182 170
2.851429e+00 2.356724e+00 3.038292e+00 80 71 60
2.935937e+00 2.421806e+00 3.040812e+00 188 180 176
1.610124e+00 2.561715e+00 3.026941e+00 148 138 126
1.643642e+00 3.498147e+00 3.385024e+00 69 73 84
1.913402e+00 4.645424e+00 3.082257e+00 90 84 69
-2.025075e+00 5.518315e+00 3.193965e+00 66 60 57
6.227060e-01 -3.015426e+00 2.971673e+00 142 132 109
2.432920e+00 -2.972676e+00 2.966135e+00 136 127 111
2.439106e+00 -2.975158e+00 2.982241e+00 136 127 111
2.435348e+00 -2.911119e+00 2.973730e+00 142 128 109
-2.489497e+00 -2.897062e+00 2.942641e+00 84 68 58
1.423778e+00 -2.790877e+00 2.955507e+00 121 104 86
2.358854e+00 -2.766018e+00 2.965970e+00 153 141 126
1.445972e+00 -2.742898e+00 2.962155e+00 169 152 132
7.428295e-01 -2.753438e+00 2.964841e+00 151 138 123
7.421034e-01 -2.752543e+00 2.965347e+00 151 138 123
1.015577e+00 -2.643931e+00 2.951811e+00 93 75 56
-1.840515e+00 -2.605389e+00 2.952306e+00 73 56 46
1.653388e+00 -2.548606e+00 2.982176e+00 149 134 119
1.336963e+00 -2.532971e+00 2.934778e+00 90 78 68
1.115542e+00 -2.531736e+00 2.935444e+00 92 79 73
7.298739e-01 -2.503243e+00 2.980908e+00 102 86 60
2.840264e+00 -2.459428e+00 2.957255e+00 115 102 85
-2.402385e+00 -2.468186e+00 2.948178e+00 158 145 128
1.605617e+00 -2.391581e+00 2.988979e+00 146 132 119
-1.991724e+00 -2.313525e+00 2.964057e+00 111 92 78
1.696274e+00 -2.064136e+00 3.004190e+00 145 129 108
1.100204e+00 -2.007882e+00 2.920054e+00 212 208 196
-1.264701e+00 -2.023643e+00 2.944355e+00 100 77 57
5.252423e-01 -1.981016e+00 3.002200e+00 85 60 46
-2.309012e+00 -1.908408e+00 2.961665e+00 113 95 81
-1.608014e+00 -1.650955e+00 2.927178e+00 85 68 58
8.866990e-02 -1.519555e+00 2.979959e+00 126 109 93
-2.646606e-01 -1.392786e+00 2.915006e+00 158 142 127
-1.732784e-02 -1.354967e+00 2.946731e+00 145 130 110
2.716441e+00 -1.179448e+00 2.916551e+00 150 145 125
1.476464e+00 -1.157692e+00 2.922331e+00 114 99 83
-1.017002e+00 -1.168830e+00 2.891073e+00 164 154 144
2.724219e+00 -1.131070e+00 2.927749e+00 106 100 96
1.656494e+00 -1.043104e+00 2.938146e+00 91 77 67
2.804408e+00 -1.023279e+00 2.938922e+00 183 179 167
2.071290e+00 -1.032476e+00 2.954362e+00 100 86 75
1.538803e+00 -1.021756e+00 2.941085e+00 55 39 33
2.810759e+00 -9.582396e-01 2.947182e+00 187 183 171
2.418572e+00 -9.570321e-01 2.933556e+00 183 170 161
2.271527e+00 -9.249890e-01 2.948826e+00 84 71 62
6.491197e-01 -8.894652e-01 2.956547e+00 95 78 62
-8.385867e-01 -8.744982e-01 2.904760e+00 157 149 135
-1.486946e+00 -8.522809e-01 2.918021e+00 160 152 133
2.692638e+00 -8.307726e-01 2.964162e+00 73 61 52
2.277990e+00 -8.285326e-01 2.958896e+00 88 70 60
2.510259e+00 -7.553135e-01 2.955253e+00 170 157 144
2.510259e+00 -7.553135e-01 2.955253e+00 170 157 144
2.726022e+00 -7.330684e-01 2.949739e+00 187 176 166
2.726022e+00 -7.330684e-01 2.949739e+00 187 176 166
1.508817e+00 -7.398092e-01 2.966138e+00 169 153 139
1.835584e+00 -7.225954e-01 2.944234e+00 172 159 156
2.615068e+00 -6.603824e-01 2.939573e+00 174 163 145
2.410108e+00 -6.557548e-01 2.951642e+00 159 149 135
2.852548e+00 -6.395095e-01 2.953927e+00 169 152 139
2.663479e+00 -6.367224e-01 2.961663e+00 46 32 19
1.967862e+00 -6.284541e-01 2.949363e+00 56 36 26
1.801180e+00 -6.113081e-01 2.917448e+00 51 31 22
2.563770e+00 -5.945767e-01 2.919770e+00 140 120 96
8.194989e-02 -5.869525e-01 2.891606e+00 152 134 111
-1.956484e-01 -5.751171e-01 2.880137e+00 134 112 91
-2.857303e-01 -5.723100e-01 2.878005e+00 135 110 90
-5.880136e-01 -2.996937e-01 2.930634e+00 195 186 179
-2.101072e+00 -2.582232e-01 2.942059e+00 189 180 165
1.106476e+00 -2.396279e-01 2.878275e+00 199 195 186
-2.839832e+00 -2.122068e-01 2.945629e+00 92 79 70
-2.901767e+00 -2.093303e-01 2.944310e+00 97 88 80
2.697290e+00 1.791347e-01 2.975088e+00 202 200 188
-1.877843e+00 5.410198e-01 3.036031e+00 205 198 188
6.867374e-01 6.703112e-01 3.265412e+00 23 14 5
-1.933743e+00 6.266533e-01 3.023753e+00 200 193 188
2.076711e+00 7.095124e-01 3.026154e+00 76 66 49
9.592710e-02 8.044989e-01 3.280109e+00 23 15 8
6.812067e-01 8.314049e-01 3.222839e+00 151 139 127
2.068137e+00 7.957013e-01 3.022319e+00 67 58 45
1.736443e+00 8.440263e-01 3.026706e+00 147 138 123
-2.095509e+00 9.804100e-01 2.967394e+00 184 177 164
1.463160e+00 1.144532e+00 3.082852e+00 107 91 73
-3.985283e-01 1.241872e+00 3.035027e+00 183 178 174
-1.314091e+00 1.321025e+00 2.995875e+00 187 179 168
-1.331820e+00 1.416792e+00 2.991441e+00 117 103 92
1.468682e+00 1.967624e+00 3.150051e+00 198 188 186
2.245116e+00 2.462945e+00 3.049212e+00 38 24 23
-1.452468e+00 2.441918e+00 2.902266e+00 175 170 158
-3.003136e-01 2.618366e+00 2.833069e+00 153 142 137
1.065739e+00 2.562289e+00 2.710826e+00 126 116 108
1.065739e+00 2.562289e+00 2.710826e+00 126 116 108
2.589245e+00 2.679690e+00 2.868329e+00 198 200 191
2.599500e+00 2.816810e+00 2.904407e+00 193 184 175
-1.865864e+00 3.383248e+00 2.893914e+00 187 187 181
1.448341e+00 4.674877e+00 3.191513e+00 26 22 28
1.871656e+00 4.796606e+00 3.063415e+00 82 74 67
-1.876260e+00 5.916318e+00 3.309192e+00 177 172 163
2.583235e+00 -3.006532e+00 2.970217e+00 66 54 45
6.353479e-01 -2.948338e+00 2.966231e+00 66 49 34
1.966799e+00 -2.914856e+00 2.965303e+00 144 127 112
8.598946e-01 -2.919258e+00 2.955268e+00 52 36 26
-2.169136e+00 -2.883256e+00 2.952141e+00 107 92 77
1.453989e+00 -2.826665e+00 2.964752e+00 182 172 150
5.361617e-01 -2.774258e+00 2.981431e+00 94 77 57
-1.801926e+00 -2.759780e+00 2.963284e+00 78 56 45
2.399759e+00 -2.702327e+00 2.969755e+00 62 44 27
2.424894e+00 -2.672061e+00 2.979616e+00 143 133 111
7.829203e-01 -2.661937e+00 2.975137e+00 51 33 20
2.426813e+00 -2.642216e+00 2.980001e+00 48 31 17
2.568863e+00 -2.633556e+00 2.962012e+00 40 23 15
2.684830e+00 -2.562318e+00 2.960665e+00 83 65 53
3.006484e+00 -2.523731e+00 2.962560e+00 90 82 73
2.944503e+00 -2.527021e+00 2.972969e+00 94 84 76
1.256631e+00 -2.528203e+00 2.931187e+00 96 84 78
1.187525e+00 -2.527117e+00 2.930628e+00 93 82 77
2.692184e+00 -2.501656e+00 2.955750e+00 83 70 60
-2.019616e+00 -2.489213e+00 2.954131e+00 69 49 37
2.311569e+00 -2.417418e+00 2.983336e+00 86 70 51
-1.146673e+00 -2.434439e+00 2.943969e+00 154 143 125
-2.361860e+00 -2.441315e+00 2.939715e+00 75 58 41
-1.495777e+00 -2.354950e+00 2.959699e+00 147 134 124
7.130060e-01 -2.324557e+00 2.983402e+00 96 75 55
2.844559e+00 -2.293719e+00 2.953169e+00 95 82 70
-1.336810e+00 -2.300118e+00 2.944597e+00 71 53 39
6.718720e-01 -2.271808e+00 2.987550e+00 151 136 111
1.018998e+00 -2.181387e+00 2.936956e+00 94 77 59
2.857978e+00 -2.159292e+00 2.958232e+00 78 71 53
2.876636e+00 -2.121971e+00 2.948084e+00 199 193 181
2.875739e+00 -2.091832e+00 2.950933e+00 57 42 42
2.801642e+00 -2.038398e+00 2.943214e+00 96 87 86
1.001393e+00 -2.010214e+00 2.940559e+00 182 173 154
1.863799e+00 -2.010487e+00 3.005334e+00 86 69 47
1.900563e+00 -1.999687e+00 3.002188e+00 146 133 114
2.736046e+00 -1.949005e+00 2.941289e+00 205 204 191
1.089618e+00 -1.956641e+00 2.925534e+00 210 204 190
2.508412e+00 -1.750917e+00 2.939132e+00 193 185 168
2.125158e+00 -1.511281e+00 2.939413e+00 90 73 56
2.106765e-01 -1.512275e+00 2.982186e+00 120 103 86
9.309484e-01 -1.411805e+00 2.935415e+00 160 145 130
-1.762243e-01 -1.377869e+00 2.913914e+00 215 203 193
-1.926910e+00 -1.339747e+00 2.921796e+00 191 178 160
1.184485e-01 -1.201562e+00 2.917030e+00 161 153 145
2.605474e+00 -1.155335e+00 2.935213e+00 88 74 61
1.754740e+00 -1.156190e+00 2.927111e+00 105 91 81
2.542826e-01 -1.156881e+00 2.908875e+00 113 97 89
2.185913e+00 -1.070602e+00 2.937171e+00 187 180 174
2.401481e+00 -1.049975e+00 2.936664e+00 88 73 67
-6.846470e-01 -1.060089e+00 2.923881e+00 209 199 193
2.534181e+00 -1.029042e+00 2.943909e+00 60 41 36
2.275657e+00 -1.030024e+00 2.948571e+00 90 78 64
2.563390e+00 -8.725420e-01 2.933528e+00 218 211 194
1.882513e+00 -8.724815e-01 2.960634e+00 83 70 54
2.507136e+00 -8.605166e-01 2.935394e+00 183 169 158
2.662480e+00 -7.896103e-01 2.949609e+00 211 201 201
2.022172e+00 -7.991340e-01 2.939949e+00 142 131 121
2.022172e+00 -7.991340e-01 2.939949e+00 142 131 121
1.673374e+00 -7.639682e-01 2.953177e+00 77 60 47
2.309944e+00 -7.436021e-01 2.949540e+00 180 164 149
8.476689e-01 -7.588107e-01 2.946954e+00 74 54 45
-2.340775e+00 -6.940296e-01 2.928996e+00 161 159 151
2.155653e+00 -6.312257e-01 2.934865e+00 54 34 24
1.288292e+00 -5.967346e-01 2.875698e+00 151 130 107
5.311644e-01 -5.741589e-01 2.921306e+00 148 131 111
-2.436794e+00 -5.517969e-01 2.931028e+00 129 116 107
2.452672e+00 -3.532126e-01 2.933912e+00 105 92 78
1.177527e+00 -3.304748e-01 2.883999e+00 129 112 99
1.848791e+00 -3.108340e-01 2.923520e+00 193 181 166
1.372015e+00 -2.885538e-01 2.980776e+00 196 187 171
1.262405e+00 -2.988890e-01 2.880472e+00 179 163 148
1.106738e+00 -2.974713e-01 2.876866e+00 175 161 146
1.186239e+00 -2.939339e-01 2.878604e+00 178 163 150
2.719318e+00 -2.615251e-01 2.919113e+00 206 207 199
-8.075795e-01 -2.723356e-01 2.872211e+00 179 166 150
-2.938259e+00 -2.311151e-01 2.943806e+00 189 182 170
6.374928e-01 5.972612e-02 3.220322e+00 191 180 168
2.782742e+00 9.751760e-02 2.919358e+00 191 180 171
6.141812e-01 1.226733e-01 3.225841e+00 194 184 182
6.141812e-01 1.226733e-01 3.225841e+00 194 184 182
6.749070e-01 1.332802e-01 3.227081e+00 181 171 162
2.563383e+00 3.170822e-01 3.029790e+00 173 164 150
-5.421164e-01 3.748890e-01 3.225461e+00 45 36 34
2.014250e+00 4.083792e-01 3.104018e+00 96 75 63
2.266995e+00 4.574767e-01 3.096960e+00 128 115 98
2.795953e+00 4.689449e-01 2.915148e+00 104 101 92
1.974388e-01 5.405137e-01 3.257409e+00 216 207 202
-1.462255e+00 5.950437e-01 3.101519e+00 137 124 108
1.990539e+00 6.171612e-01 3.103885e+00 104 96 83
-5.171204e-01 6.757555e-01 3.247947e+00 172 161 154
2.175153e+00 7.261299e-01 3.067762e+00 196 191 172
8.694861e-01 7.355050e-01 3.109858e+00 104 90 78
1.500024e+00 9.593708e-01 3.078977e+00 150 141 130
-2.285575e+00 1.008439e+00 2.973842e+00 181 173 160
4.403869e-01 1.095616e+00 3.199453e+00 91 74 51
2.467842e+00 1.046163e+00 3.022822e+00 186 182 173
-2.019665e+00 1.046703e+00 3.037187e+00 145 133 120
2.598020e+00 1.040434e+00 3.010900e+00 49 39 25
-2.474695e+00 1.036791e+00 2.971612e+00 140 131 122
-1.403202e+00 1.056205e+00 2.993342e+00 195 189 179
-1.664023e+00 1.081538e+00 3.039029e+00 159 147 135
-1.540672e+00 1.092134e+00 3.003773e+00 175 165 152
-6.049145e-02 1.179152e+00 3.202317e+00 89 70 50
2.429264e+00 1.162035e+00 3.013208e+00 82 73 62
5.853587e-01 1.205664e+00 3.057435e+00 94 86 73
2.794202e+00 1.373914e+00 2.942778e+00 83 75 60
2.794202e+00 1.373914e+00 2.942778e+00 83 75 60
-1.730291e+00 1.480195e+00 2.954176e+00 94 88 72
2.877109e+00 1.563052e+00 2.934626e+00 141 139 127
1.164611e+00 1.563181e+00 2.859354e+00 199 193 179
-9.909034e-01 1.562260e+00 2.685533e+00 153 150 138
2.197692e+00 1.913180e+00 3.123540e+00 153 145 146
2.059286e+00 1.921753e+00 3.132704e+00 158 146 154
-2.128910e+00 1.967848e+00 3.026794e+00 201 190 181
2.215630e+00 2.121594e+00 3.111081e+00 19 10 8
-8.039269e-01 2.142793e+00 2.547431e+00 174 163 157
1.909932e+00 2.462446e+00 3.031289e+00 35 25 23
6.015951e-01 2.565678e+00 3.036594e+00 53 48 40
-1.924087e+00 2.539583e+00 2.945228e+00 115 102 87
2.858412e+00 2.578614e+00 2.925539e+00 67 60 50
1.008079e+00 2.578792e+00 2.729700e+00 130 116 104
-1.816664e+00 4.590859e+00 2.672814e+00 170 162 154
2.319502e+00 5.096367e+00 3.051234e+00 105 106 98
2.512528e+00 -3.009011e+00 2.987143e+00 60 42 31
2.438455e+00 -3.007770e+00 2.986100e+00 60 42 32
8.218069e-01 -2.985804e+00 2.960226e+00 60 40 22
9.627693e-01 -2.929380e+00 2.953482e+00 148 138 114
8.030629e-01 -2.837999e+00 2.969741e+00 138 123 102
1.456461e+00 -2.776802e+00 2.951548e+00 195 186 171
8.528485e-01 -2.778157e+00 2.951740e+00 69 50 34
1.416599e+00 -2.718860e+00 2.958734e+00 88 73 51
2.541558e+00 -2.710440e+00 2.978388e+00 52 36 23
2.616610e+00 -2.700861e+00 2.970362e+00 87 70 52
2.491585e+00 -2.672908e+00 2.969403e+00 154 143 120
1.373003e+00 -2.578707e+00 2.937820e+00 92 77 67
-1.611505e+00 -2.615000e+00 2.956319e+00 58 42 30
1.995292e+00 -2.548697e+00 2.974975e+00 147 127 119
4.470898e-01 -2.563042e+00 2.995862e+00 43 28 21
2.847567e+00 -2.523711e+00 2.968078e+00 87 76 70
2.965466e+00 -2.488917e+00 2.972967e+00 115 110 98
2.436390e-01 -2.502086e+00 2.996510e+00 116 101 82
1.283989e+00 -2.466529e+00 2.933798e+00 170 156 143
1.962454e-01 -2.464968e+00 2.997745e+00 101 85 66
-1.579796e+00 -2.479455e+00 2.954181e+00 69 50 35
1.768618e+00 -2.446960e+00 2.986810e+00 152 137 118
-1.404161e+00 -2.466118e+00 2.961093e+00 154 142 125
2.636920e+00 -2.420156e+00 2.959691e+00 88 74 54
8.229474e-01 -2.338257e+00 2.960620e+00 154 139 119
-1.712925e+00 -2.357350e+00 2.958335e+00 145 132 118
-2.471019e+00 -2.353552e+00 2.864630e+00 96 80 65
6.614343e-01 -2.227204e+00 2.991311e+00 134 119 96
7.275566e-01 -2.214741e+00 2.978746e+00 142 126 102
1.090686e+00 -2.185300e+00 2.922976e+00 92 79 63
1.090686e+00 -2.185300e+00 2.922976e+00 92 79 63
1.229729e+00 -2.177099e+00 2.924905e+00 90 78 66
1.229729e+00 -2.177099e+00 2.924905e+00 90 78 66
2.918790e+00 -2.149572e+00 2.948392e+00 157 139 134
-1.303657e+00 -2.111115e+00 2.957319e+00 74 55 41
8.871056e-01 -2.074990e+00 2.952865e+00 166 150 134
2.983105e+00 -2.052804e+00 2.949659e+00 191 187 173
1.123370e+00 -2.060651e+00 2.919424e+00 190 183 176
2.061511e+00 -2.057706e+00 2.998970e+00 99 84 61
-2.172889e-02 -2.059251e+00 3.019084e+00 136 120 99
2.861298e-01 -1.990732e+00 3.029206e+00 84 71 55
-2.191900e+00 -1.793096e+00 2.935382e+00 93 75 63
-1.570972e+00 -1.654253e+00 2.947208e+00 157 143 132
4.598287e-01 -1.592815e+00 2.967842e+00 140 124 106
2.020751e+00 -1.392828e+00 2.932968e+00 104 91 78
3.457974e-01 -1.408134e+00 2.948254e+00 155 139 124
1.983652e+00 -1.386197e+00 2.933613e+00 192 181 172
-1.531911e+00 -1.231162e+00 2.941577e+00 191 183 172
-5.844768e-01 -1.094785e+00 2.913027e+00 180 174 168
2.884358e+00 -1.064092e+00 2.935326e+00 230 223 214
2.803506e+00 -1.058660e+00 2.933181e+00 233 231 219
2.775871e+00 -1.061668e+00 2.929534e+00 83 78 67
5.527273e-01 -1.071109e+00 2.923012e+00 194 180 165
2.019451e+00 -1.058067e+00 2.935175e+00 98 92 81
1.940626e+00 -1.048617e+00 2.958666e+00 202 192 184
7.751554e-01 -1.051234e+00 2.926372e+00 95 82 73
2.425986e+00 -1.028253e+00 2.928415e+00 171 156 143
2.423019e+00 -1.001398e+00 2.917723e+00 167 154 146
-9.114678e-01 -1.008188e+00 2.903326e+00 166 149 139
1.848916e+00 -9.716243e-01 2.934708e+00 174 161 150
2.172753e+00 -9.669444e-01 2.935688e+00 151 140 122
2.600025e+00 -8.940709e-01 2.933562e+00 126 114 98
2.221034e+00 -8.099537e-01 2.927851e+00 190 180 170
1.988420e+00 -7.844995e-01 2.927818e+00 196 188 176
1.595201e+00 -7.784075e-01 2.933081e+00 182 170 156
1.830384e+00 -7.590176e-01 2.919702e+00 126 113 102
-4.729940e-01 -7.652261e-01 2.913059e+00 122 107 91
2.356601e+00 -7.342824e-01 2.941125e+00 164 156 143
2.612789e+00 -6.993136e-01 2.921409e+00 164 148 132
1.335266e+00 -6.338491e-01 2.896273e+00 184 170 157
2.924897e+00 -6.038514e-01 2.916918e+00 138 120 96
2.924897e+00 -6.038514e-01 2.916918e+00 138 120 96
1.722283e+00 -6.114683e-01 2.912796e+00 160 141 123
3.268660e+00 -6.107994e-01 3.013031e+00 177 181 172
1.868257e+00 -5.691057e-01 2.927908e+00 96 78 54
1.942690e+00 -5.657831e-01 2.925279e+00 97 76 59
1.662978e+00 -5.702731e-01 2.916112e+00 107 90 72
-1.089039e+00 -5.781698e-01 2.912419e+00 112 93 74
-5.578800e-01 -5.455773e-01 2.876127e+00 100 81 65
2.693684e+00 -3.247338e-01 2.931418e+00 85 73 60
2.668105e+00 -3.194749e-01 2.930823e+00 161 149 138
-7.415610e-01 -3.007448e-01 2.905745e+00 178 165 153
1.808577e+00 1.554510e-02 3.133982e+00 136 123 107
-3.135165e-01 2.463109e-02 3.204040e+00 194 187 181
2.696500e+00 2.006719e-01 2.922362e+00 134 130 124
8.994669e-01 3.892426e-01 3.135755e+00 106 91 72
9.540116e-01 4.431824e-01 3.077961e+00 163 157 144
9.540116e-01 4.431824e-01 3.077961e+00 163 157 144
1.640870e+00 4.788363e-01 3.159761e+00 82 66 49
-8.923749e-01 5.777314e-01 2.820431e+00 209 203 196
1.997450e+00 6.472870e-01 3.102044e+00 211 206 194
1.637479e-01 6.956614e-01 3.265553e+00 194 184 176
1.637479e-01 6.956614e-01 3.265553e+00 194 184 176
-2.496377e+00 6.399858e-01 2.979845e+00 103 91 76
-1.720190e+00 6.896785e-01 3.031323e+00 107 102 99
2.144986e+00 7.222185e-01 3.071101e+00 103 95 79
1.448978e+00 7.632868e-01 3.068673e+00 184 172 156
1.966276e+00 7.944585e-01 3.104724e+00 182 176 162
2.892372e+00 7.726474e-01 2.921206e+00 71 69 53
1.520340e+00 8.130020e-01 3.078933e+00 104 92 78
1.683872e+00 8.632489e-01 3.090147e+00 191 181 171
1.487210e+00 8.877013e-01 3.057970e+00 182 178 169
2.078224e+00 9.150693e-01 3.107053e+00 137 122 103
1.549513e+00 9.233934e-01 3.057013e+00 105 92 81
1.589552e+00 9.256948e-01 3.061117e+00 186 175 151
1.445313e+00 9.578244e-01 3.070853e+00 137 131 119
9.262150e-02 1.022712e+00 3.295380e+00 163 150 138
1.761351e+00 1.042943e+00 3.059160e+00 181 165 143
2.057828e+00 1.049307e+00 3.040390e+00 173 156 141
1.646394e-01 1.141661e+00 3.267788e+00 86 71 55
2.582784e+00 1.077588e+00 3.024785e+00 154 139 134
-6.055370e-01 1.088080e+00 3.038181e+00 125 121 110
1.950575e+00 1.071260e+00 3.002349e+00 182 172 154
2.375966e+00 1.111832e+00 3.043122e+00 107 93 79
1.611614e+00 1.146253e+00 3.065426e+00 107 96 77
-1.776184e+00 1.235876e+00 2.990359e+00 76 72 60
6.250348e-02 1.369537e+00 3.039243e+00 170 157 148
-5.710504e-02 1.453468e+00 2.999573e+00 171 164 153
2.477239e+00 1.458821e+00 3.030802e+00 113 106 102
-1.200651e+00 1.446970e+00 2.972417e+00 131 119 107
2.510021e+00 1.580182e+00 3.050816e+00 97 86 93
2.510021e+00 1.580182e+00 3.050816e+00 97 86 93
1.148564e+00 1.657397e+00 2.884600e+00 155 148 138
1.779530e+00 1.778502e+00 3.110890e+00 156 148 135
3.030384e+00 2.188318e+00 3.047148e+00 75 65 63
2.305859e+00 2.301493e+00 3.017795e+00 73 62 55
2.830773e+00 2.328575e+00 2.935111e+00 205 203 191
1.527373e+00 2.521549e+00 3.030575e+00 56 43 32
-1.916702e+00 2.490099e+00 2.919143e+00 192 182 168
2.098934e+00 2.556593e+00 2.997700e+00 94 79 62
-5.096066e-03 2.578639e+00 2.992539e+00 52 38 31
1.490504e+00 2.579060e+00 2.989054e+00 98 83 67
8.761275e-01 2.608910e+00 2.978762e+00 67 55 40
-2.088553e+00 2.708415e+00 2.860282e+00 82 75 60
-2.509303e+00 3.285239e+00 2.833841e+00 186 184 179
8.111720e-01 3.605802e+00 3.132072e+00 91 82 72
2.697422e+00 4.403849e+00 3.017586e+00 189 187 181
1.868770e+00 4.668946e+00 3.090704e+00 169 158 150
-1.677079e+00 4.141865e+00 2.385010e+00 107 105 99
8.214482e-01 4.980350e+00 3.061290e+00 179 176 169
1.798051e+00 5.067024e+00 3.062299e+00 184 179 175
-2.349915e+00 5.817199e+00 3.202399e+00 176 175 170
-2.359489e+00 -3.132519e+00 2.981738e+00 180 169 163
1.509981e+00 -2.986799e+00 2.960615e+00 148 134 122
1.432312e+00 -2.978470e+00 2.954887e+00 157 143 124
-2.248248e+00 -2.977593e+00 2.961391e+00 98 84 71
2.413815e+00 -2.838831e+00 2.974547e+00 154 148 127
1.462256e+00 -2.794528e+00 2.952927e+00 131 119 107
1.436812e+00 -2.792690e+00 2.952750e+00 106 93 74
8.721412e-01 -2.728834e+00 2.952680e+00 95 82 65
1.963730e+00 -2.638322e+00 2.972259e+00 70 55 35
2.645806e+00 -2.615002e+00 2.970552e+00 85 67 57
1.471539e+00 -2.586842e+00 2.952016e+00 176 164 151
-1.889260e+00 -2.609990e+00 2.946025e+00 90 75 59
-1.889260e+00 -2.609990e+00 2.946025e+00 90 75 59
2.650307e+00 -2.563243e+00 2.965671e+00 159 146 129
2.650307e+00 -2.563243e+00 2.965671e+00 159 146 129
2.640266e+00 -2.538413e+00 2.965533e+00 97 82 62
2.195504e+00 -2.532236e+00 2.981870e+00 153 139 126
1.011019e-01 -2.539120e+00 2.991938e+00 99 83 67
2.758044e+00 -2.503893e+00 2.961223e+00 184 175 172
1.742013e+00 -2.498203e+00 2.982527e+00 106 89 73
-2.902738e-02 -2.497848e+00 2.996133e+00 102 85 65
4.598160e-01 -2.490685e+00 2.998882e+00 108 93 74
1.672754e+00 -2.444033e+00 2.985337e+00 140 123 104
3.818539e-01 -2.460675e+00 3.005228e+00 104 92 71
1.790564e+00 -2.442614e+00 2.983731e+00 145 130 110
2.199510e+00 -2.437731e+00 2.983507e+00 140 125 106
1.781419e+00 -2.423299e+00 2.984197e+00 83 67 52
1.748835e+00 -2.423896e+00 2.986397e+00 88 73 57
1.649898e+00 -2.424021e+00 2.985703e+00 83 65 51
1.172022e+00 -2.390894e+00 2.930346e+00 90 78 62
1.172022e+00 -2.390894e+00 2.930346e+00 90 78 62
1.889936e+00 -2.394632e+00 2.982167e+00 166 149 132
7.121631e-01 -2.396874e+00 2.976660e+00 97 83 59
2.003489e+00 -2.375265e+00 2.989500e+00 118 103 80
-1.878128e+00 -2.408431e+00 2.952279e+00 63 46 30
1.183368e+00 -2.343842e+00 2.935871e+00 123 111 95
1.202097e+00 -2.340437e+00 2.930831e+00 191 179 165
-1.769053e+00 -2.377331e+00 2.956122e+00 87 71 54
2.562443e+00 -2.315674e+00 2.937035e+00 112 97 75
1.041205e+00 -2.280946e+00 2.941194e+00 92 76 60
8.732091e-01 -2.284689e+00 2.959364e+00 112 93 70
1.874392e-01 -2.281501e+00 3.007806e+00 71 53 39
1.874449e+00 -2.261072e+00 2.993504e+00 102 85 63
-8.985740e-01 -2.263079e+00 2.928282e+00 78 67 65
2.932777e+00 -2.232768e+00 2.962244e+00 181 167 160
6.371600e-01 -2.248363e+00 2.995650e+00 134 120 96
-1.855611e+00 -2.268575e+00 2.953761e+00 126 110 95
-1.695852e+00 -2.264219e+00 2.957646e+00 129 110 95
2.831864e+00 -2.171999e+00 2.951330e+00 86 74 55
-2.038227e+00 -2.224485e+00 2.949638e+00 76 58 50
1.778933e+00 -2.186163e+00 2.990783e+00 117 99 76
1.778933e+00 -2.186163e+00 2.990783e+00 117 99 76
1.348197e+00 -2.173532e+00 2.932269e+00 100 89 73
9.111122e-01 -2.158856e+00 2.954098e+00 153 137 115
1.782967e+00 -2.138817e+00 2.992960e+00 103 85 61
2.950974e+00 -2.083182e+00 2.947345e+00 194 192 177
2.936366e+00 -2.069158e+00 2.948304e+00 110 103 90
2.885608e+00 -2.063319e+00 2.945102e+00 175 165 158
2.749073e+00 -2.050003e+00 2.940885e+00 195 189 177
-2.334152e+00 -2.076973e+00 2.949936e+00 165 153 137
4.960495e-01 -2.054757e+00 3.012642e+00 93 76 52
-2.307963e-02 -1.999597e+00 3.025099e+00 127 109 88
2.588520e+00 -1.924104e+00 2.946309e+00 129 115 96
6.154782e-01 -1.855956e+00 2.983345e+00 140 124 109
-1.490168e+00 -1.825638e+00 2.957030e+00 151 137 128
3.193871e-03 -1.795818e+00 3.029898e+00 63 41 26
8.844316e-01 -1.770370e+00 2.941797e+00 194 187 169
5.103521e-01 -1.754528e+00 2.986085e+00 72 55 34
2.817252e-01 -1.733565e+00 2.959644e+00 127 106 86
2.400183e+00 -1.649626e+00 2.934776e+00 121 108 89
-1.652294e+00 -1.686793e+00 2.958798e+00 76 57 46
-1.193106e-02 -1.639904e+00 3.001287e+00 64 47 31
1.850984e+00 -1.576248e+00 2.958207e+00 140 124 104
-2.576415e-01 -1.588530e+00 2.949231e+00 174 161 145
-2.576415e-01 -1.588530e+00 2.949231e+00 174 161 145
-1.789069e-02 -1.567726e+00 2.985687e+00 139 125 109
-2.137226e+00 -1.571014e+00 2.941249e+00 192 179 162
-1.549229e+00 -1.532274e+00 2.944613e+00 153 138 119
1.030373e-01 -1.500501e+00 2.980551e+00 126 107 93
4.378365e-01 -1.480139e+00 2.950729e+00 149 133 117
5.383091e-01 -1.417700e+00 2.929633e+00 99 80 68
4.582915e-01 -1.363971e+00 2.931304e+00 93 80 68
2.735837e-01 -1.348221e+00 2.943116e+00 111 94 78
-1.639391e+00 -1.228346e+00 2.939192e+00 194 184 175
2.657329e+00 -1.192256e+00 2.933629e+00 123 105 93
1.542592e+00 -1.073448e+00 2.958123e+00 221 212 213
2.370845e+00 -1.062907e+00 2.933318e+00 202 193 181
1.993820e+00 -1.063190e+00 2.932808e+00 195 186 177
2.827540e+00 -1.051212e+00 2.929161e+00 86 76 74
1.799084e+00 -1.059034e+00 2.934165e+00 71 57 44
1.973836e+00 -1.055227e+00 2.938211e+00 105 95 83
2.702402e+00 -1.044580e+00 2.925832e+00 198 199 182
5.778902e-01 -1.053346e+00 2.946489e+00 71 57 48
2.478424e+00 -1.037901e+00 2.929773e+00 111 101 80
1.590566e+00 -1.026727e+00 2.926100e+00 164 151 134
1.440389e+00 -1.021049e+00 2.956053e+00 173 156 147
-1.978936e+00 -1.043560e+00 2.939119e+00 70 60 49
-2.024166e+00 -1.043890e+00 2.944209e+00 63 52 46
2.405607e+00 -1.012506e+00 2.924279e+00 103 94 79
1.177742e+00 -1.019819e+00 2.908141e+00 167 151 135
1.201412e+00 -9.648069e-01 2.906038e+00 185 173 157
2.440974e+00 -8.601495e-01 2.920314e+00 215 204 202
1.796686e+00 -8.573594e-01 2.919466e+00 104 94 84
6.040406e-01 -8.641293e-01 2.905054e+00 109 97 88
1.642917e+00 -8.523689e-01 2.935154e+00 177 164 155
2.621514e+00 -8.393948e-01 2.930422e+00 185 172 156
2.621514e+00 -8.393948e-01 2.930422e+00 185 172 156
6.166034e-01 -8.497497e-01 2.905355e+00 205 197 187
1.811963e+00 -8.309028e-01 2.918040e+00 209 200 191
2.603798e+00 -8.243679e-01 2.926937e+00 124 116 102
2.349727e+00 -8.254885e-01 2.937001e+00 82 71 53
2.025487e+00 -8.276482e-01 2.924819e+00 204 191 182
2.374400e+00 -8.001632e-01 2.920190e+00 107 97 86
2.393489e+00 -7.954634e-01 2.920967e+00 119 111 95
1.577649e+00 -8.005381e-01 2.924349e+00 128 114 101
1.577649e+00 -8.005381e-01 2.924349e+00 128 114 101
-1.729311e+00 -7.891000e-01 2.932115e+00 133 127 113
1.610975e+00 -7.638731e-01 2.916903e+00 141 131 116
-8.748263e-01 -7.578686e-01 2.882469e+00 106 96 87
-2.122096e+00 -7.527505e-01 2.946435e+00 157 149 140
-5.969946e-02 -6.865546e-01 2.908449e+00 100 83 73
-1.584952e+00 -6.892421e-01 2.929052e+00 166 150 139
6.038383e-02 -5.485550e-01 2.877144e+00 88 71 55
-6.234490e-01 -5.467464e-01 2.891822e+00 93 70 56
-2.040085e+00 -5.281891e-01 2.926588e+00 94 77 61
1.093466e+00 -4.628386e-01 2.876698e+00 236 230 219
2.897550e+00 -3.148362e-01 2.924423e+00 111 99 88
-8.158032e-01 -3.068921e-01 2.869613e+00 129 113 97
2.489079e+00 -1.507122e-01 3.047947e+00 192 181 164
2.504294e+00 -1.365658e-01 3.046200e+00 140 126 113
2.488906e+00 -1.205260e-01 3.046327e+00 178 165 149
2.488906e+00 -1.205260e-01 3.046327e+00 178 165 149
2.489652e+00 -8.945067e-02 3.050557e+00 187 174 159
5.706473e-01 -4.715195e-02 3.215786e+00 40 31 27
2.505513e+00 -6.891655e-03 3.050707e+00 129 112 94
1.823712e+00 7.584500e-02 3.120031e+00 167 158 141
2.490065e+00 9.781429e-02 3.052374e+00 169 156 139
2.397807e+00 1.392904e-01 3.086266e+00 160 149 131
3.240846e+00 2.684710e-01 3.057331e+00 242 250 245
1.903957e+00 3.152707e-01 3.072043e+00 221 215 199
2.786273e+00 4.144906e-01 2.921261e+00 110 106 95
-2.915114e+00 4.409763e-01 2.946722e+00 132 129 120
-8.764284e-01 4.118587e-01 2.819025e+00 121 112 106
4.214935e-02 4.995531e-01 3.248929e+00 127 118 109
1.987646e+00 4.809147e-01 3.077411e+00 214 204 195
1.455073e-01 5.180820e-01 3.257242e+00 34 20 10
-8.726212e-01 4.569994e-01 2.812791e+00 178 168 161
9.816573e-01 6.862643e-01 3.078211e+00 112 99 89
9.622381e-01 7.437986e-01 3.077706e+00 101 91 79
3.131759e-01 8.269270e-01 3.285142e+00 173 162 152
1.787357e+00 7.892538e-01 3.120188e+00 180 171 158
-1.700503e+00 8.016010e-01 3.075129e+00 198 190 179
1.303873e+00 8.220052e-01 2.873331e+00 217 216 208
1.742603e+00 9.239301e-01 3.092656e+00 97 85 71
-1.006507e+00 8.560045e-01 2.764589e+00 75 69 63
1.927270e+00 9.552110e-01 3.116567e+00 166 156 141
-6.469148e-01 9.477873e-01 3.029067e+00 108 98 86
-2.407610e+00 9.340681e-01 2.973946e+00 98 91 81
-2.018886e+00 9.841769e-01 3.039831e+00 171 162 147
2.114367e+00 9.959259e-01 3.049665e+00 113 103 78
-1.322196e+00 1.015677e+00 3.013623e+00 191 184 174
-6.170215e-01 1.063544e+00 3.027063e+00 186 176 166
1.563856e+00 1.088132e+00 3.062456e+00 186 178 168
-1.569043e+00 1.070395e+00 2.969117e+00 107 94 78
2.408479e+00 1.110796e+00 3.028029e+00 123 111 94
-6.634870e-01 1.101599e+00 2.990695e+00 199 193 181
-2.078294e+00 1.133272e+00 3.003581e+00 111 102 86
9.223788e-01 1.175969e+00 3.074288e+00 163 157 145
-7.608401e-02 1.212263e+00 3.172465e+00 138 122 107
-1.941138e+00 1.180664e+00 2.998219e+00 107 98 80
3.056556e+00 1.210875e+00 3.037890e+00 195 183 170
2.997088e+00 1.229924e+00 3.038150e+00 131 119 103
-2.426423e+00 1.232627e+00 2.990060e+00 123 109 99
2.315825e+00 1.294640e+00 3.024991e+00 175 157 143
1.797664e+00 1.318126e+00 3.048058e+00 166 153 137
1.763684e+00 1.321049e+00 3.051188e+00 171 162 144
3.072113e+00 1.312754e+00 3.024146e+00 197 195 180
3.072113e+00 1.312754e+00 3.024146e+00 197 195 180
3.002217e+00 1.317653e+00 3.029247e+00 176 170 156
3.038979e+00 1.322923e+00 3.027924e+00 153 141 123
-2.224066e+00 1.333552e+00 2.989881e+00 211 201 192
-2.224066e+00 1.333552e+00 2.989881e+00 211 201 192
7.438509e-01 1.369707e+00 3.077934e+00 155 143 127
-2.225964e+00 1.351139e+00 2.980003e+00 161 154 138
-6.782885e-01 1.366481e+00 3.002955e+00 151 142 132
-4.768906e-01 1.392462e+00 3.016881e+00 160 150 140
-5.116863e-01 1.434421e+00 3.021432e+00 146 134 122
-1.223744e+00 1.436996e+00 2.982135e+00 102 89 73
2.470026e+00 1.477433e+00 3.021207e+00 210 201 199
1.903990e+00 1.500324e+00 3.053476e+00 233 226 220
1.903990e+00 1.500324e+00 3.053476e+00 233 226 220
-7.600333e-01 1.391510e+00 2.739893e+00 98 84 71
-8.990643e-01 1.389086e+00 2.727901e+00 108 91 74
2.568858e+00 1.517566e+00 3.024433e+00 177 176 155
1.431422e+00 1.546308e+00 3.074589e+00 138 129 114
3.095697e+00 1.536612e+00 3.044617e+00 177 179 167
-2.778977e+00 1.542310e+00 2.923237e+00 101 89 73
-2.778977e+00 1.542310e+00 2.923237e+00 101 89 73
-2.849053e+00 1.552418e+00 2.927670e+00 146 137 120
-7.040512e-02 1.611214e+00 3.029587e+00 198 197 195
-1.293668e+00 1.608174e+00 2.981599e+00 211 208 199
-1.679885e+00 1.617634e+00 2.972226e+00 217 214 202
-2.467631e+00 1.636252e+00 2.958173e+00 212 206 195
2.299914e+00 1.766671e+00 3.098898e+00 194 190 181
1.445627e+00 1.792689e+00 3.142561e+00 147 140 121
1.146066e+00 1.821181e+00 2.868463e+00 154 148 135
2.846646e+00 1.886040e+00 2.949513e+00 151 147 136
2.846646e+00 1.886040e+00 2.949513e+00 151 147 136
2.336588e+00 1.954792e+00 3.096150e+00 167 161 145
3.064132e+00 1.932304e+00 3.044357e+00 127 117 107
2.319966e+00 1.964712e+00 3.097195e+00 86 79 69
-1.376452e+00 2.122365e+00 3.116249e+00 170 156 145
8.312230e-01 2.302575e+00 3.079111e+00 100 87 78
2.442816e+00 2.286940e+00 3.045092e+00 76 72 60
-6.230310e-01 2.311544e+00 2.884468e+00 197 189 180
1.064955e+00 2.305683e+00 2.785532e+00 95 93 83
8.711717e-01 2.439921e+00 3.044686e+00 160 151 140
-1.390348e+00 2.406856e+00 2.932421e+00 162 158 148
2.001728e+00 2.460298e+00 3.026888e+00 79 72 51
-1.891326e+00 2.463410e+00 2.920492e+00 107 96 86
-1.330728e+00 2.458914e+00 2.901978e+00 184 177 167
-2.267183e+00 2.531306e+00 2.917663e+00 187 181 176
7.665540e-01 2.615871e+00 3.043308e+00 159 146 133
-1.945976e+00 2.605515e+00 2.892219e+00 193 186 176
