ply
format ascii 1.0
element face 0
property list uchar int vertex_indices
element vertex 951
property float x
property float y
property float z
property uchar diffuse_red
property uchar diffuse_green
property uchar diffuse_blue
end_header
-2.041624e+00 2.784170e+00 3.252733e+00 27 35 47
-1.904395e+00 2.816798e+00 3.218718e+00 30 35 46
1.560215e+00 2.526702e+00 3.127747e+00 60 57 56
-2.232587e+00 3.016268e+00 3.150335e+00 22 35 43
2.956006e+00 2.642888e+00 3.125632e+00 70 77 89
2.438955e+00 2.649686e+00 3.193299e+00 19 22 26
-1.995480e+00 3.787938e+00 2.966016e+00 116 120 123
-1.997583e+00 4.049719e+00 2.995671e+00 110 115 118
2.966731e+00 3.513349e+00 3.042912e+00 253 253 253
-1.398886e+00 4.799057e+00 3.095192e+00 80 84 87
-3.234942e+00 5.274893e+00 3.113919e+00 113 148 149
-2.590248e+00 5.002250e+00 3.284365e+00 28 38 47
2.291439e+00 4.614837e+00 3.010678e+00 40 45 41
2.886566e+00 4.598113e+00 3.103917e+00 37 40 47
1.829596e+00 4.651847e+00 3.217069e+00 55 55 57
-1.815443e+00 5.494283e+00 3.321936e+00 46 53 59
1.500895e+00 5.226144e+00 3.269285e+00 44 50 48
2.092381e+00 5.142941e+00 3.278268e+00 42 49 45
2.106075e+00 5.235364e+00 3.216611e+00 42 49 45
2.191772e+00 5.133355e+00 3.283365e+00 38 42 45
2.191772e+00 5.133355e+00 3.283365e+00 38 42 45
2.207765e+00 5.291120e+00 3.307041e+00 44 46 41
2.207765e+00 5.291120e+00 3.307041e+00 44 46 41
1.924307e+00 -1.398548e+00 3.170512e+00 34 35 41
-2.267844e+00 -1.106228e+00 3.082077e+00 26 33 51
-2.279193e+00 -1.065915e+00 3.033728e+00 91 98 103
-1.480220e+00 -1.092929e+00 3.039948e+00 11 15 27
-1.484574e+00 -1.046342e+00 3.029879e+00 18 21 27
-6.026262e-01 -1.051657e+00 3.020640e+00 110 121 116
1.314323e-01 -1.119573e+00 3.092511e+00 33 39 42
-5.644627e-02 -1.041176e+00 2.999010e+00 113 117 120
5.514006e-01 -1.051245e+00 3.012446e+00 101 106 104
2.169756e-01 -1.023843e+00 3.035452e+00 81 77 74
2.193072e-01 -1.023650e+00 3.037710e+00 81 77 74
-1.767511e+00 -8.178280e-01 3.031557e+00 17 16 21
2.530295e-01 -7.628460e-01 3.053521e+00 30 24 21
-1.681592e+00 -5.569108e-01 3.027266e+00 86 82 73
1.245246e+00 -7.022750e-01 3.174528e+00 101 95 85
-1.532144e+00 -3.378182e-01 3.056623e+00 29 28 33
-9.655566e-01 -3.077111e-01 3.082471e+00 115 116 111
-9.655566e-01 -3.077111e-01 3.082471e+00 115 116 111
-2.515762e+00 3.947865e-01 2.888799e+00 30 34 43
-2.452643e+00 5.170036e-01 2.852494e+00 51 54 63
-2.159694e+00 6.806705e-01 2.763751e+00 51 50 46
2.398217e+00 3.402051e-01 2.826454e+00 39 36 29
2.395606e+00 3.368494e-01 2.834372e+00 39 36 29
-1.955639e+00 8.870379e-01 2.819674e+00 32 32 36
-1.824690e+00 8.928111e-01 2.821037e+00 103 112 113
-2.070363e+00 1.055168e+00 2.902787e+00 56 57 52
-1.598790e+00 1.086663e+00 2.882306e+00 117 115 110
2.401555e+00 6.974116e-01 2.954872e+00 120 119 114
-1.968247e+00 1.137807e+00 2.956462e+00 118 117 113
-2.008422e+00 1.132844e+00 2.976510e+00 49 54 51
-1.704295e+00 1.200354e+00 2.979684e+00 43 43 45
2.245975e+00 8.788599e-01 3.017922e+00 61 61 56
-2.153893e+00 1.446470e+00 3.028879e+00 50 50 50
-1.728104e+00 1.446243e+00 3.024894e+00 51 54 54
-6.505061e-01 1.441967e+00 2.987633e+00 45 44 45
-2.314091e+00 2.376144e+00 3.058785e+00 19 30 29
-2.522135e+00 2.449198e+00 3.027729e+00 78 86 88
-2.777052e+00 2.361006e+00 3.233515e+00 115 118 123
-2.030886e+00 2.637855e+00 3.181061e+00 56 56 56
2.183654e+00 2.327945e+00 3.058136e+00 28 29 23
2.500746e+00 2.235639e+00 3.151050e+00 99 100 98
2.031401e+00 2.428638e+00 3.062870e+00 39 41 36
1.624658e+00 2.503045e+00 3.153881e+00 54 55 49
2.594539e+00 2.420897e+00 3.360382e+00 35 40 40
-2.395814e+00 4.100422e+00 2.985359e+00 85 93 96
2.911992e+00 3.826440e+00 3.139658e+00 79 100 98
-1.868006e+00 4.788985e+00 3.195633e+00 112 113 115
2.260181e+00 4.531294e+00 3.007535e+00 122 127 127
2.006760e+00 4.694018e+00 2.970488e+00 70 70 75
-2.393414e+00 5.469175e+00 3.251534e+00 115 118 124
-2.061076e+00 5.354202e+00 3.326572e+00 121 129 131
2.487342e+00 4.854290e+00 3.229353e+00 15 23 25
-1.923125e+00 5.502867e+00 3.328047e+00 48 56 61
1.681709e+00 5.065341e+00 3.246852e+00 128 132 135
2.291705e+00 5.142389e+00 3.266060e+00 43 48 49
-1.799905e+00 -1.584467e+00 2.901509e+00 33 38 42
-1.755698e+00 -1.565219e+00 2.893892e+00 26 25 31
2.506468e-01 -1.633505e+00 2.810753e+00 67 67 60
8.158031e-01 -1.699267e+00 3.072218e+00 34 34 37
8.297873e-01 -1.687284e+00 3.058839e+00 114 118 117
4.312409e-01 -1.607938e+00 2.942806e+00 92 90 78
3.119866e-01 -1.580914e+00 2.862987e+00 27 22 20
2.990735e-01 -1.525009e+00 2.916190e+00 80 76 68
-1.720339e+00 -1.280548e+00 3.026463e+00 37 36 42
-1.720339e+00 -1.280548e+00 3.026463e+00 37 36 42
-1.728577e+00 -1.221511e+00 3.034437e+00 108 118 109
-2.082963e+00 -1.095471e+00 3.055548e+00 29 35 47
-2.199429e+00 -1.069104e+00 3.065545e+00 102 107 107
-2.088479e+00 -1.063621e+00 3.049987e+00 29 36 42
-1.413618e+00 -1.058604e+00 3.011084e+00 113 115 110
-1.169907e+00 -1.045123e+00 3.030063e+00 109 115 115
-7.995029e-01 -1.054414e+00 3.083088e+00 104 112 114
-5.314650e-01 -1.048013e+00 3.081082e+00 117 127 129
-9.613189e-01 -1.012756e+00 3.074359e+00 40 40 38
-2.519908e-01 -1.038913e+00 3.049544e+00 10 9 8
3.190482e-01 -1.031978e+00 3.005665e+00 13 15 11
1.001001e+00 -1.070039e+00 3.085503e+00 91 92 96
1.697131e+00 -1.102705e+00 3.114634e+00 24 25 28
1.995226e+00 -1.089805e+00 3.093381e+00 40 46 52
-1.995650e+00 -7.974602e-01 3.081608e+00 44 49 60
1.926161e+00 -1.066428e+00 3.105168e+00 119 122 124
-1.896645e+00 -7.089376e-01 3.045652e+00 69 69 67
4.307668e-01 -8.140791e-01 3.052982e+00 29 27 25
-2.234174e+00 -5.852448e-01 3.109380e+00 70 72 67
-1.258446e+00 -6.382047e-01 3.084053e+00 91 92 83
9.574341e-01 -6.518363e-01 3.118984e+00 7 4 2
1.737246e+00 -6.690318e-01 3.162195e+00 72 72 67
-1.052170e+00 -2.511493e-01 2.761312e+00 63 67 70
-2.313576e+00 -2.910410e-01 3.099451e+00 77 76 73
1.683775e+00 -5.828037e-01 3.171441e+00 99 99 97
-1.698416e+00 3.573758e-01 2.782513e+00 49 51 50
-1.722471e+00 4.521431e-01 2.755312e+00 48 46 40
4.641410e-02 4.475011e-01 2.659441e+00 14 15 19
-7.689391e-01 2.772620e-01 3.130509e+00 74 81 83
1.748974e+00 3.728884e-01 2.759506e+00 94 87 77
1.959288e+00 3.806179e-01 2.851636e+00 36 34 27
2.178159e+00 5.402153e-01 2.840610e+00 47 44 34
2.058203e+00 6.312899e-01 2.876661e+00 82 86 87
-1.936147e+00 1.094800e+00 2.948309e+00 61 56 53
-2.502580e+00 1.159695e+00 2.971588e+00 96 98 102
-1.803776e+00 1.131392e+00 2.958141e+00 51 48 47
-1.637819e+00 1.124037e+00 2.956726e+00 64 60 57
-2.036956e+00 1.151777e+00 2.979599e+00 137 141 144
-1.828328e+00 1.211083e+00 2.966350e+00 51 53 49
2.174116e+00 8.778684e-01 3.008613e+00 77 68 59
-2.470381e+00 1.489648e+00 3.011616e+00 75 77 79
-1.923773e+00 1.430296e+00 3.043373e+00 52 54 50
-1.765561e+00 1.470257e+00 3.022638e+00 113 114 112
2.561095e+00 1.040361e+00 3.010381e+00 120 127 124
2.205136e+00 1.516574e+00 2.988803e+00 121 127 126
2.510563e+00 1.495704e+00 3.001190e+00 35 44 43
2.041084e+00 1.685832e+00 2.880054e+00 16 14 22
-2.352972e+00 2.264251e+00 3.017678e+00 42 49 50
2.035867e+00 1.932163e+00 2.928767e+00 10 9 16
-2.113983e+00 2.363334e+00 3.066494e+00 13 17 18
-1.648061e+00 2.405665e+00 3.130788e+00 122 128 123
-8.683487e-01 2.173280e+00 3.302138e+00 108 105 107
-1.636896e+00 2.486712e+00 3.137136e+00 82 83 80
-2.179150e+00 2.591756e+00 3.099567e+00 86 88 83
2.884850e+00 2.656305e+00 3.383157e+00 249 253 254
2.663137e+00 2.686355e+00 3.385944e+00 22 32 34
2.606790e+00 2.662485e+00 3.414750e+00 31 43 41
-2.523373e+00 4.884577e+00 3.135753e+00 46 51 55
-3.207148e+00 5.048961e+00 3.238664e+00 221 240 242
1.602561e+00 4.866107e+00 3.016072e+00 68 69 65
2.910941e+00 4.427225e+00 3.176159e+00 90 104 102
-2.140496e+00 5.484234e+00 3.289479e+00 103 116 117
1.113900e+00 4.701855e+00 3.474781e+00 59 65 63
2.004704e+00 5.046973e+00 3.247251e+00 112 117 120
-1.519097e+00 5.606755e+00 3.332015e+00 99 101 105
-2.299621e+00 5.801040e+00 3.316372e+00 87 92 97
2.431069e+00 5.211351e+00 3.318476e+00 48 52 54
3.094626e+00 3.096172e+00 3.738743e+00 253 254 255
-1.797767e+00 1.967838e+00 2.967063e+00 156 157 159
-2.961646e+00 7.498577e-01 3.080227e+00 144 148 151
-3.101640e+00 2.753558e+00 3.065930e+00 119 115 112
2.929623e+00 5.172334e+00 2.811582e+00 121 121 121
2.709089e+00 -9.988864e-02 3.110662e+00 152 156 159
-6.027748e-01 1.354448e+00 3.025311e+00 118 117 113
-2.138457e+00 1.834937e+00 3.021578e+00 128 129 133
2.124644e+00 3.234007e+00 2.877328e+00 42 46 55
6.788621e-01 4.670961e+00 1.921511e+00 128 126 131
-2.553503e+00 5.869299e-01 3.302773e+00 154 159 162
1.312400e+00 5.620681e+00 3.454502e+00 255 255 255
-1.593928e+00 1.280906e+00 2.965507e+00 153 155 154
-1.593928e+00 1.280906e+00 2.965507e+00 153 155 154
-1.967312e+00 2.105812e+00 3.011932e+00 140 140 140
2.661033e+00 -4.678656e-01 3.144453e+00 143 144 148
-2.637654e+00 1.382846e+00 3.295826e+00 99 95 92
1.898508e+00 -4.691388e-01 3.075278e+00 155 159 163
-2.474858e+00 3.520808e-01 3.331233e+00 146 153 156
1.567545e+00 1.474291e+00 3.008589e+00 135 140 143
-2.471127e+00 1.182443e+00 3.408989e+00 154 158 159
3.147536e+00 2.357568e+00 3.019660e+00 246 255 253
-2.079477e+00 2.274439e+00 3.039435e+00 32 31 36
-1.666814e+00 3.453436e+00 2.845170e+00 28 27 33
-1.668428e+00 4.122745e+00 2.904092e+00 32 32 42
-1.859456e+00 5.300699e+00 3.313063e+00 155 159 160
-2.698024e+00 -2.185669e+00 3.103770e+00 64 64 66
-2.230903e+00 -9.554846e-01 3.040730e+00 118 118 118
2.887288e+00 -5.834889e-01 3.162118e+00 104 100 96
-2.451717e+00 4.877639e-02 3.296455e+00 150 153 158
3.704887e-01 6.321805e-01 2.658350e+00 64 66 78
1.168742e+00 4.379812e-01 3.125742e+00 112 113 117
-3.430935e-01 8.296503e-01 2.749950e+00 55 61 73
2.346735e+00 1.225509e+00 2.987428e+00 154 154 147
-1.514963e+00 1.615149e+00 2.964925e+00 135 138 143
-1.953461e+00 2.424876e+00 3.176663e+00 46 45 41
-1.502963e+00 2.540357e+00 3.146000e+00 135 134 129
-2.272408e+00 5.235121e+00 3.314249e+00 157 156 154
9.735836e-01 -2.617216e+00 2.884519e+00 114 114 114
1.370218e+00 -2.570827e+00 3.028952e+00 61 62 56
-1.633539e-01 -2.492940e+00 2.851058e+00 103 105 100
2.713243e+00 -2.096058e+00 3.069181e+00 89 89 89
-1.335919e+00 -1.052703e+00 3.011000e+00 126 131 137
-1.728399e+00 -1.055724e+00 3.037274e+00 133 136 148
1.566708e+00 -7.522977e-01 3.074410e+00 129 125 124
-2.402420e+00 -5.673959e-01 2.665170e+00 62 62 64
-2.454411e+00 -7.325285e-01 3.209523e+00 47 47 49
-2.535291e+00 -7.545630e-01 3.287645e+00 53 53 51
-2.485123e+00 -6.811529e-01 3.291607e+00 131 131 131
-2.638553e+00 -6.950799e-01 3.357313e+00 39 37 38
-2.256507e+00 1.177269e+00 3.018421e+00 146 146 144
2.500996e+00 1.482052e+00 2.930946e+00 121 122 124
1.977824e+00 2.189747e+00 3.085211e+00 87 87 85
-1.304804e+00 2.348283e+00 3.081437e+00 55 54 52
-2.049109e+00 2.331280e+00 3.115110e+00 41 39 42
-1.772125e+00 -2.813949e+00 2.697057e+00 15 15 17
8.920327e-01 -2.591679e+00 2.837561e+00 110 111 115
-6.469763e-01 -2.537842e+00 3.135253e+00 120 121 126
-2.319987e+00 -6.035043e-01 2.618653e+00 128 132 134
1.015260e+00 -7.334241e-01 3.100782e+00 44 43 41
1.613767e+00 -7.091574e-01 3.083781e+00 57 53 50
1.804935e+00 -6.965548e-01 3.095069e+00 48 47 43
6.271597e-01 -6.934859e-01 3.078816e+00 70 69 67
-1.677425e+00 -6.788653e-01 3.069560e+00 69 68 66
-2.168962e+00 -5.580006e-01 2.706387e+00 50 50 48
-1.143849e+00 -6.422476e-01 3.052932e+00 153 149 146
-1.713032e+00 -6.751907e-01 3.160730e+00 139 135 136
-2.435720e+00 -3.009528e-01 3.123469e+00 80 78 81
3.234075e+00 8.482071e-02 2.860498e+00 92 93 98
3.094611e+00 1.429372e+00 2.958852e+00 254 255 253
-2.680710e+00 1.373809e+00 3.231974e+00 93 91 92
1.754475e+00 2.231999e+00 3.024776e+00 131 132 129
-1.676516e+00 2.374801e+00 3.071745e+00 62 61 59
-1.891039e+00 2.423100e+00 3.129914e+00 153 154 149
-1.404323e+00 2.512037e+00 3.111078e+00 42 40 45
-1.774332e+00 2.508594e+00 3.135264e+00 44 40 44
2.703802e+00 5.444898e+00 3.194157e+00 133 131 132
-1.506560e+00 5.195662e+00 3.301097e+00 166 162 163
2.424335e+00 -2.890424e+00 2.780918e+00 42 43 45
-2.056329e+00 -2.794956e+00 2.633010e+00 84 84 84
-1.357952e+00 -2.738919e+00 2.686115e+00 106 106 106
-1.144100e+00 -2.732409e+00 2.891162e+00 100 104 105
2.443705e+00 -2.649875e+00 2.843061e+00 106 107 104
-2.637936e+00 -2.545213e+00 3.285400e+00 63 67 70
-2.608073e+00 -2.489627e+00 2.899901e+00 117 127 128
-1.571144e+00 -2.421217e+00 2.686489e+00 109 115 115
-5.547053e-01 -2.386333e+00 2.912875e+00 83 83 81
-7.529535e-01 -1.038285e+00 3.081074e+00 68 68 70
-2.370124e+00 -1.013809e+00 3.042402e+00 27 25 36
1.825738e+00 -1.008722e+00 3.055338e+00 76 76 75
-7.803467e-01 -1.003292e+00 3.083125e+00 120 119 117
4.334040e-02 -9.346031e-01 3.046511e+00 54 53 56
-1.481773e+00 -6.664943e-01 3.052129e+00 45 44 42
5.683669e-01 -6.672356e-01 3.105845e+00 144 143 141
-1.640738e+00 -6.421261e-01 3.056400e+00 122 121 118
-2.027193e+00 -6.542994e-01 3.098245e+00 133 132 130
-1.435801e+00 -5.997861e-01 3.061546e+00 41 36 33
-2.703231e+00 -6.001799e-01 3.216479e+00 115 115 115
3.106787e+00 5.439331e-02 2.910474e+00 81 77 76
-2.329522e+00 1.257428e+00 3.027839e+00 149 150 152
4.778011e-01 2.424766e+00 3.075698e+00 144 144 146
2.564632e+00 2.478030e+00 3.241000e+00 146 147 143
2.804365e+00 2.614477e+00 3.284424e+00 129 132 139
1.325606e+00 2.598737e+00 3.297028e+00 85 83 84
7.526787e-01 5.350691e+00 1.558419e+00 137 135 148
1.924059e+00 4.911109e+00 3.152183e+00 149 151 150
2.821270e+00 5.491936e+00 3.215900e+00 255 255 255
7.569794e-01 -2.919395e+00 2.787323e+00 104 105 108
-1.151913e+00 -2.848711e+00 2.842663e+00 108 109 104
2.347438e+00 -2.716521e+00 2.782988e+00 36 37 39
-2.235477e+00 -2.604620e+00 2.891869e+00 90 106 103
-1.183509e+00 -2.592109e+00 2.960455e+00 98 99 99
-1.183509e+00 -2.592109e+00 2.960455e+00 98 99 99
2.417654e+00 -2.617240e+00 2.820645e+00 54 53 58
-6.972423e-01 -2.316916e+00 2.896524e+00 76 76 84
-3.200306e-01 -2.286432e+00 2.937788e+00 61 58 53
-1.237369e+00 -2.253329e+00 3.147368e+00 51 47 44
-2.648608e+00 -2.137573e+00 3.177317e+00 37 39 40
1.226315e+00 -1.099818e+00 3.125004e+00 58 57 62
1.683889e+00 -1.023061e+00 3.086304e+00 28 28 30
-2.217072e+00 -8.748052e-01 2.548615e+00 46 46 47
-1.202651e+00 -9.034877e-01 3.017748e+00 127 123 112
-3.397333e+00 -6.049354e-01 2.559090e+00 138 143 149
-1.133992e+00 -6.763174e-01 2.777080e+00 29 29 30
-1.585544e+00 -7.455497e-01 3.089027e+00 117 117 116
-1.191094e+00 -6.203867e-01 3.056264e+00 35 33 34
-3.707549e-01 1.163528e-01 2.646851e+00 52 55 73
-3.369862e+00 2.330107e-01 2.746723e+00 92 93 97
-3.302928e+00 1.617327e-01 2.906215e+00 92 93 97
-3.359791e+00 5.624462e-01 2.678004e+00 134 131 159
-3.361864e+00 5.642988e-01 2.669879e+00 134 131 159
6.928184e-01 7.047698e-01 2.676877e+00 57 56 64
-1.074417e-01 8.105614e-01 2.718603e+00 51 56 68
-1.187996e+00 7.508414e-01 2.868133e+00 106 105 104
-1.584639e+00 1.089249e+00 2.946401e+00 94 91 84
-3.842118e-01 2.339228e+00 1.942286e+00 254 254 254
-8.859157e-01 1.484412e+00 3.239704e+00 148 152 156
-2.048573e+00 2.322832e+00 3.041190e+00 25 24 28
1.974211e+00 2.378203e+00 3.121771e+00 146 145 140
1.456105e-01 2.439112e+00 3.081617e+00 143 142 147
6.332152e-01 2.519316e+00 3.054169e+00 152 150 152
2.250328e-01 2.536458e+00 3.056214e+00 153 152 153
-8.611236e-01 2.564773e+00 3.421446e+00 132 128 124
-2.166285e+00 2.729250e+00 3.272407e+00 124 126 124
-2.043083e+00 2.806825e+00 3.226933e+00 39 38 56
-2.118239e+00 2.810143e+00 3.227517e+00 46 43 62
-1.857442e+00 4.746761e+00 3.222225e+00 154 152 153
1.686940e+00 5.041464e+00 3.125052e+00 150 149 147
8.063663e-01 -2.895538e+00 2.912489e+00 46 48 47
-1.123247e+00 -2.782233e+00 2.879695e+00 44 46 45
-9.031986e-01 -2.493080e+00 2.850489e+00 72 73 77
-9.031986e-01 -2.493080e+00 2.850489e+00 72 73 77
1.145273e+00 -2.066464e+00 2.994820e+00 49 49 50
2.163057e+00 -1.036754e+00 3.050434e+00 79 75 76
2.168261e+00 -1.030079e+00 3.032197e+00 79 75 76
-2.177922e+00 -9.004811e-01 2.589944e+00 122 122 122
-2.655190e+00 -1.049890e+00 3.140520e+00 58 57 62
2.462165e+00 -7.728603e-01 3.079115e+00 32 32 32
-1.722576e+00 -5.794162e-01 2.713001e+00 61 59 63
-2.368413e+00 -6.485375e-01 3.142302e+00 35 35 35
2.845036e+00 -3.375094e-01 3.146420e+00 144 146 145
-2.308782e-01 4.111815e-01 2.640367e+00 145 146 150
3.196099e+00 3.975414e-01 2.802710e+00 107 108 128
1.987420e+00 4.402187e-01 2.832111e+00 75 69 58
-2.105527e+00 6.345126e-01 2.670837e+00 130 128 116
-2.144484e+00 6.162082e-01 2.708088e+00 127 125 113
1.863656e+00 7.755315e-01 2.861106e+00 136 135 131
1.847397e-01 8.454691e-01 2.698104e+00 66 66 80
-2.351832e+00 7.638302e-01 2.896648e+00 98 97 95
-4.948067e-01 9.584218e-01 2.898749e+00 80 76 73
-2.087586e-01 1.254943e+00 2.979227e+00 100 99 104
5.690763e-01 1.382615e+00 2.997095e+00 91 89 90
2.618726e+00 1.353465e+00 3.129811e+00 74 71 66
3.073912e+00 1.538000e+00 2.953460e+00 244 255 254
-1.354294e+00 1.470144e+00 3.046331e+00 69 69 67
-3.702472e-02 3.394685e+00 8.195442e-01 253 253 251
2.836380e+00 2.220971e+00 3.186818e+00 130 131 128
2.144502e+00 2.366528e+00 3.035405e+00 129 130 125
2.364536e+00 2.461025e+00 3.054753e+00 139 135 132
-7.178533e-02 2.483506e+00 3.126196e+00 92 92 94
-7.553701e-02 2.529567e+00 3.069655e+00 92 92 94
-2.101789e+00 2.451424e+00 3.185793e+00 152 152 148
-1.861996e+00 4.702951e+00 3.219923e+00 159 159 159
-1.244615e+00 -2.885412e+00 2.834834e+00 55 57 57
-1.772987e+00 -2.596937e+00 2.811320e+00 79 81 79
-9.208047e-01 -2.475065e+00 2.879046e+00 125 128 133
-9.523037e-01 -2.453620e+00 2.947635e+00 113 113 111
1.593362e+00 -1.071633e+00 3.094840e+00 141 146 143
1.593362e+00 -1.071633e+00 3.094840e+00 141 146 143
1.186802e+00 -1.063613e+00 3.104076e+00 134 135 141
-2.377734e+00 -1.050231e+00 3.057434e+00 18 21 27
2.714080e+00 -1.059447e+00 3.150232e+00 82 82 83
2.727281e+00 -1.047574e+00 3.116867e+00 82 82 83
3.241201e+00 4.750641e-02 2.886240e+00 250 254 255
-3.385025e+00 4.918850e-01 2.668303e+00 254 254 255
-3.395997e+00 5.541381e-01 2.642005e+00 252 252 251
1.019905e-01 8.339087e-01 2.273747e+00 52 55 68
-5.015885e-01 6.577014e-01 2.699754e+00 40 37 46
2.446218e+00 6.842490e-01 2.934043e+00 99 100 94
1.841307e+00 8.027880e-01 2.853399e+00 83 83 81
2.293427e+00 8.816894e-01 2.962582e+00 93 93 88
8.396542e-01 9.751605e-01 2.898871e+00 98 98 96
8.045041e-01 1.016613e+00 2.903508e+00 91 91 89
-2.096709e+00 1.066506e+00 3.000858e+00 84 84 82
7.976868e-01 1.147806e+00 2.939002e+00 85 85 83
-1.155816e+00 1.115170e+00 2.948657e+00 83 82 80
-1.562009e-01 1.305055e+00 2.929606e+00 97 97 97
3.106169e+00 1.391374e+00 2.967372e+00 253 255 253
4.599597e-01 1.420770e+00 2.948935e+00 93 92 91
3.774806e-01 1.402496e+00 3.020878e+00 141 141 139
1.093614e+00 1.412024e+00 3.146874e+00 141 138 133
-1.178723e+00 1.456160e+00 3.028538e+00 125 124 120
-2.578993e+00 1.350752e+00 3.389586e+00 126 125 118
2.210303e+00 2.361705e+00 3.051792e+00 165 166 158
2.192145e+00 2.393013e+00 3.054006e+00 161 160 156
2.173866e-01 2.477150e+00 3.076885e+00 95 95 97
1.556443e-01 2.538810e+00 3.047715e+00 138 136 139
-3.655623e-01 2.512614e+00 3.083919e+00 93 93 95
-4.150738e-01 2.532780e+00 3.083375e+00 81 81 83
-3.275480e-01 2.511198e+00 3.115710e+00 73 72 78
3.158081e+00 2.670065e+00 3.094800e+00 116 112 153
3.162768e+00 2.793815e+00 3.042599e+00 241 254 253
2.208588e+00 2.729747e+00 3.119003e+00 160 160 156
-1.474461e+00 2.806166e+00 3.224661e+00 148 149 144
-2.081793e+00 2.820197e+00 3.227059e+00 156 158 148
2.356496e+00 4.745156e+00 3.080866e+00 95 95 95
1.525290e+00 5.221421e+00 3.151623e+00 144 144 142
-1.446730e+00 5.257433e+00 3.359466e+00 108 103 109
-4.204721e-01 -2.180772e+00 2.825882e+00 123 120 115
-3.866112e-01 -2.044942e+00 2.835846e+00 132 134 131
5.829520e-01 -1.070502e+00 3.066906e+00 138 137 142
2.291299e+00 -1.062094e+00 3.100677e+00 139 139 141
2.545069e+00 -1.055867e+00 3.102800e+00 52 52 54
6.537809e-01 -1.040915e+00 3.062596e+00 142 146 149
-2.694684e+00 -8.450800e-01 3.161760e+00 75 76 80
-1.986892e+00 -7.864417e-01 3.075722e+00 81 83 81
1.982618e+00 -3.108310e-01 3.100261e+00 148 148 140
3.210701e+00 3.586686e-02 2.909252e+00 106 108 131
3.197178e+00 3.150891e-01 2.834196e+00 248 253 255
-3.358900e+00 5.882134e-01 2.681448e+00 157 155 176
2.467049e+00 6.282600e-01 2.944760e+00 90 88 89
-2.618413e+00 4.238905e-01 3.286936e+00 85 89 92
-1.173821e+00 8.297451e-01 2.915390e+00 87 87 86
-1.972126e-01 1.073714e+00 2.741452e+00 96 91 86
1.463202e+00 1.098883e+00 2.917895e+00 90 86 84
-1.795097e+00 1.141969e+00 2.881607e+00 70 63 56
-2.266829e+00 1.092659e+00 2.976210e+00 71 72 76
-1.753370e+00 1.127844e+00 2.937691e+00 142 138 129
-1.873895e+00 1.128667e+00 2.939537e+00 83 79 68
-2.353047e+00 1.228778e+00 2.992728e+00 90 90 92
1.423826e-01 1.295769e+00 2.975704e+00 156 156 154
2.501506e+00 1.349723e+00 3.023225e+00 144 143 141
5.468888e-01 1.410426e+00 3.000302e+00 140 138 139
3.061258e+00 1.498166e+00 2.961545e+00 138 140 160
-6.001597e-01 1.448482e+00 3.012589e+00 116 115 111
-2.498193e+00 1.832281e+00 2.979638e+00 42 43 48
-2.498193e+00 1.832281e+00 2.979638e+00 42 43 48
-2.498193e+00 1.832281e+00 2.979638e+00 42 43 48
-2.646430e+00 1.721429e+00 3.338324e+00 67 68 73
2.241553e+00 2.200249e+00 3.043088e+00 154 154 150
7.592022e-01 2.240853e+00 3.031158e+00 152 152 150
1.469688e+00 2.322098e+00 3.056922e+00 142 142 140
1.579377e+00 2.330091e+00 3.070786e+00 65 65 64
3.096310e+00 2.472227e+00 3.008722e+00 62 61 70
-2.483498e+00 2.250852e+00 3.170151e+00 136 135 127
2.016150e+00 2.434948e+00 3.086389e+00 156 155 150
1.848036e+00 2.464512e+00 3.057492e+00 156 154 157
-7.579498e-01 2.211881e+00 3.328428e+00 162 161 156
-9.711190e-01 2.209138e+00 3.350017e+00 157 156 151
-6.386613e-01 2.422388e+00 3.114712e+00 66 66 68
2.261822e+00 2.524980e+00 3.076662e+00 149 147 137
-2.576969e+00 2.174568e+00 3.428394e+00 97 95 96
-2.576969e+00 2.174568e+00 3.428394e+00 97 95 96
-2.487640e+00 2.159432e+00 3.456194e+00 171 170 168
-2.728579e+00 2.153766e+00 3.473805e+00 153 152 150
6.654616e-01 2.565435e+00 3.056700e+00 139 138 136
5.751458e-01 2.561281e+00 3.067328e+00 146 145 141
-9.846748e-02 2.550511e+00 3.083312e+00 159 159 161
2.208232e+00 2.750225e+00 3.124918e+00 68 67 66
2.129631e+00 2.730220e+00 3.142503e+00 60 60 60
1.574169e+00 2.763850e+00 3.119000e+00 133 134 129
1.519285e+00 2.803016e+00 3.120340e+00 128 129 122
-2.352547e+00 2.765996e+00 3.331253e+00 64 67 75
-7.420964e-01 2.772492e+00 3.435923e+00 130 130 133
-9.671317e-01 2.774334e+00 3.453814e+00 137 138 134
-2.410508e+00 3.376770e+00 3.058820e+00 84 87 93
2.208729e+00 4.674406e+00 3.003815e+00 32 31 47
1.721339e+00 4.923497e+00 3.104790e+00 70 68 71
1.662279e+00 4.971985e+00 3.120637e+00 85 83 87
2.130197e+00 5.025325e+00 3.112432e+00 80 76 73
-1.702095e+00 5.051100e+00 3.198659e+00 133 131 133
1.759665e+00 5.244571e+00 3.163575e+00 143 143 142
-1.607510e+00 5.163834e+00 3.257572e+00 153 152 150
-1.483383e+00 5.171900e+00 3.269148e+00 101 97 99
-2.752337e+00 5.064319e+00 3.531822e+00 57 56 65
1.016884e+00 5.751064e+00 3.240168e+00 251 251 249
9.181546e-02 -1.139019e+00 3.104871e+00 150 151 154
2.087819e+00 -1.096000e+00 3.101829e+00 68 78 80
-2.260926e+00 -1.060232e+00 3.076886e+00 145 150 158
-4.335595e-01 -1.046495e+00 3.023856e+00 146 147 149
-1.947411e+00 -1.050601e+00 3.086965e+00 140 144 154
2.284919e+00 -1.034372e+00 3.111351e+00 145 145 147
2.731321e+00 -8.682237e-01 3.188858e+00 100 100 100
1.428257e+00 -6.701087e-01 3.123760e+00 151 151 147
1.549846e-01 -4.250066e-01 3.064764e+00 105 103 109
-1.739894e+00 7.532016e-02 3.102608e+00 161 162 164
3.192844e+00 3.339059e-01 2.829951e+00 135 138 157
-1.758217e+00 3.497463e-01 2.822272e+00 139 140 134
4.384761e-02 4.975365e-01 2.693835e+00 137 141 138
1.015539e+00 4.335995e-01 2.881157e+00 101 102 104
1.209893e-02 5.393175e-01 2.695120e+00 170 169 175
-3.368885e+00 6.028474e-01 2.616770e+00 250 251 255
9.993953e-01 5.757279e-01 2.888263e+00 106 104 105
4.495008e-01 6.892258e-01 2.679372e+00 61 64 73
3.826194e-01 7.588453e-01 2.673359e+00 57 64 71
-8.355852e-01 5.061356e-01 3.190416e+00 102 103 108
2.476254e+00 6.876528e-01 2.952363e+00 101 101 101
1.576812e+00 7.300649e-01 2.879747e+00 101 101 99
-2.577378e+00 4.736362e-01 3.295269e+00 104 111 120
2.727813e+00 7.012504e-01 3.118171e+00 105 107 106
-2.050747e+00 9.971229e-01 2.925977e+00 81 80 79
1.926086e+00 1.121961e+00 2.965179e+00 112 111 106
1.439099e+00 1.170407e+00 2.938060e+00 141 138 136
2.999856e-01 1.237596e+00 2.904324e+00 85 81 82
-2.470598e+00 1.178384e+00 3.013313e+00 78 82 83
-1.219553e+00 1.237204e+00 2.951933e+00 86 85 80
-1.944365e+00 1.662025e+00 3.017977e+00 105 106 110
1.705008e+00 1.997768e+00 2.905495e+00 90 91 93
2.990723e+00 2.228123e+00 2.979306e+00 122 122 124
2.206359e+00 2.198053e+00 3.017189e+00 142 142 141
8.114927e-01 2.203031e+00 2.988687e+00 89 89 89
1.482077e+00 2.334746e+00 3.060729e+00 81 83 82
2.006155e+00 2.450354e+00 3.058176e+00 156 155 153
1.819135e+00 2.461708e+00 3.049359e+00 147 146 142
2.631118e+00 2.386578e+00 3.213722e+00 122 124 122
7.813884e-03 2.453755e+00 3.047400e+00 147 147 149
-9.991445e-01 2.218945e+00 3.340065e+00 156 155 151
1.900209e+00 2.506628e+00 3.063888e+00 117 114 109
1.548520e+00 2.501024e+00 3.065813e+00 146 142 139
-2.704710e+00 2.157288e+00 3.423425e+00 88 88 88
5.345257e-01 2.531542e+00 3.045316e+00 79 78 80
-1.332909e-01 2.508398e+00 3.093912e+00 162 161 165
1.363536e-01 2.551610e+00 3.067374e+00 151 149 152
2.411058e+00 2.722095e+00 3.143216e+00 65 65 67
3.134956e+00 2.850257e+00 3.087508e+00 243 253 255
-2.753889e+00 2.446146e+00 3.505139e+00 79 79 79
1.636655e+00 4.674389e+00 3.008942e+00 119 120 123
1.398561e+00 4.705006e+00 2.976654e+00 135 135 135
2.153845e+00 5.031642e+00 3.118698e+00 141 140 135
-1.391794e+00 5.177778e+00 3.271008e+00 122 117 121
-2.714553e+00 4.941846e+00 3.501375e+00 139 139 139
-2.148215e+00 5.441308e+00 3.335008e+00 91 90 95
-2.621409e+00 -1.040865e+00 3.167756e+00 149 152 159
2.768128e+00 -8.688009e-01 3.160409e+00 86 86 86
-1.549830e-01 -8.123235e-01 3.058016e+00 111 110 105
1.896329e+00 -7.365121e-01 3.075769e+00 127 127 125
1.440100e+00 -6.862016e-01 3.105185e+00 135 130 127
1.965682e+00 -4.892724e-01 3.116926e+00 99 103 107
3.193067e+00 2.999611e-01 2.826109e+00 161 164 178
5.332554e-01 4.817163e-01 2.669191e+00 61 64 73
1.012984e-01 6.026818e-01 2.662707e+00 100 105 98
3.058173e+00 6.621921e-01 2.923462e+00 100 101 103
4.629963e-01 8.917312e-01 3.524243e+00 106 106 106
1.669835e+00 2.121136e+00 2.915607e+00 105 105 106
3.043375e+00 2.117929e+00 2.995733e+00 120 120 125
2.237982e+00 2.150433e+00 3.043354e+00 105 104 102
1.755870e+00 2.190416e+00 3.034831e+00 114 115 109
1.907079e+00 2.184662e+00 3.049997e+00 104 104 104
2.318093e+00 2.302411e+00 3.038671e+00 96 97 91
1.997104e+00 2.318400e+00 3.029437e+00 97 98 93
1.006349e+00 2.194397e+00 3.213816e+00 131 131 131
1.006349e+00 2.194397e+00 3.213816e+00 131 131 131
2.300379e+00 2.348554e+00 3.054017e+00 128 127 122
-9.598371e-01 2.187938e+00 3.353900e+00 96 95 91
3.331668e-01 2.472303e+00 3.092635e+00 135 135 134
4.667603e-01 2.536260e+00 3.083010e+00 118 117 115
2.087651e-01 2.552900e+00 3.063798e+00 152 150 152
3.974224e-01 2.573368e+00 3.059178e+00 151 147 147
-3.954141e-01 2.584471e+00 3.082594e+00 112 112 112
-3.954141e-01 2.584471e+00 3.082594e+00 112 112 112
1.579737e+00 2.727184e+00 3.112813e+00 125 125 124
2.574491e+00 -1.152034e+00 3.100789e+00 87 74 63
-2.328539e+00 -1.104885e+00 2.933064e+00 103 89 82
-2.180920e+00 -1.222498e+00 2.983501e+00 203 184 169
2.628223e+00 -6.393540e-01 3.129848e+00 173 156 136
-1.410383e+00 -2.570077e+00 2.211528e+00 75 61 47
2.910745e+00 -2.385500e+00 2.956095e+00 197 189 170
2.013634e+00 -6.991718e-01 3.046017e+00 59 46 31
2.845209e-01 -6.379058e-01 3.085917e+00 164 147 130
2.873424e+00 -1.292107e+00 3.079686e+00 220 206 190
1.064678e+00 -9.758972e-01 3.067130e+00 173 167 152
2.202597e+00 -8.181244e-01 3.076563e+00 84 72 57
1.573349e+00 -6.438483e-01 3.011172e+00 158 149 135
-2.164226e+00 -2.666833e+00 2.318584e+00 131 116 100
1.177734e+00 -2.446119e+00 2.816233e+00 107 89 75
6.189713e-01 -1.417059e+00 3.032757e+00 197 183 170
2.618579e+00 -1.167405e+00 2.980459e+00 98 80 68
2.243741e+00 -9.403090e-01 2.883076e+00 165 151 134
8.652240e-01 -9.677254e-01 3.022651e+00 158 149 132
2.112498e+00 -7.807001e-01 2.636914e+00 173 168 146
-3.899426e-01 -1.038220e+00 2.978913e+00 179 165 154
-2.624748e+00 -6.113210e-02 3.113608e+00 129 127 128
-2.605175e+00 -3.182354e-01 3.127411e+00 67 66 64
1.138699e+00 4.507904e+00 3.338887e+00 117 117 117
-7.189597e-01 5.543382e+00 3.104637e+00 253 255 254
-1.562674e+00 5.190009e+00 3.167410e+00 56 56 56
-2.802194e+00 -6.786761e-01 3.069120e+00 35 35 33
-2.324247e+00 2.434528e+00 3.190237e+00 31 32 34
2.041949e+00 3.874797e+00 2.887703e+00 14 15 16
2.816784e-01 -1.046691e+00 3.039227e+00 115 115 113
-2.530563e+00 -6.937479e-01 3.046249e+00 28 28 28
-3.151162e+00 1.640347e+00 2.964201e+00 136 137 142
1.967925e+00 3.048682e+00 3.078700e+00 15 16 17
-2.057649e+00 4.333428e+00 3.013294e+00 20 20 22
-2.402215e+00 4.329780e+00 3.061622e+00 96 97 100
1.414469e+00 4.401195e+00 3.157475e+00 24 24 26
-2.876072e+00 5.934028e+00 3.079932e+00 109 109 109
1.852938e+00 5.732930e+00 3.168050e+00 77 82 88
2.454237e+00 -1.216748e+00 3.023720e+00 117 113 109
-1.568110e+00 -9.418616e-01 2.789523e+00 33 30 25
2.537672e+00 -6.597064e-01 3.072460e+00 95 91 87
-1.481612e+00 -6.070588e-01 2.948302e+00 83 80 76
2.842830e+00 -3.007780e-01 3.077803e+00 78 76 75
-3.315717e+00 5.061216e-01 2.669516e+00 234 238 243
-3.325528e+00 5.980474e-01 2.660005e+00 228 240 248
-1.968104e+00 1.201256e+00 2.974643e+00 127 126 122
3.149172e+00 2.509867e+00 3.019828e+00 201 209 228
-1.788672e+00 2.530224e+00 3.092541e+00 27 26 24
-3.311215e+00 2.859982e+00 3.001751e+00 75 82 89
-6.826872e-01 2.696431e+00 3.472675e+00 108 106 105
5.797732e-01 4.596469e+00 1.660317e+00 228 222 229
-1.953632e+00 3.550333e+00 3.059655e+00 103 101 100
2.187568e+00 4.670330e+00 3.023861e+00 23 28 31
-1.424478e+00 4.848324e+00 3.115749e+00 26 26 27
1.076608e+00 5.164678e+00 3.450643e+00 92 92 94
6.203023e-01 -1.413625e+00 3.013409e+00 116 110 107
2.459758e+00 -1.005624e+00 3.046884e+00 47 43 38
-1.755557e+00 -9.592819e-01 2.982276e+00 87 85 84
-3.551851e-01 -7.496402e-01 3.010027e+00 39 35 33
1.661983e+00 -7.331798e-01 3.032419e+00 81 77 73
-2.916882e+00 -6.091372e-01 2.968621e+00 55 55 55
-1.895554e+00 -3.035006e-01 3.083937e+00 99 95 90
3.151545e+00 7.234485e-01 2.835839e+00 178 184 199
-3.268943e+00 9.223240e-01 2.786629e+00 124 135 140
-3.248290e+00 8.912541e-01 2.835983e+00 124 135 140
2.728710e-01 1.056077e+00 2.743802e+00 90 86 83
-2.214852e+00 1.236702e+00 2.996886e+00 81 75 75
2.448682e+00 1.541754e+00 2.938965e+00 38 36 39
-2.258274e+00 1.916949e+00 3.027174e+00 98 99 101
-2.048207e+00 2.025459e+00 2.956214e+00 114 111 110
3.077946e+00 2.228002e+00 3.095342e+00 201 207 225
-3.203623e+00 2.387461e+00 3.071210e+00 107 108 113
3.079070e+00 2.332399e+00 3.087615e+00 210 218 232
1.507406e+00 2.439884e+00 3.041349e+00 87 86 82
1.222374e+00 2.498853e+00 3.376105e+00 75 74 72
-6.779341e-01 2.619771e+00 3.464047e+00 109 108 110
2.247823e+00 3.107460e+00 2.977834e+00 102 102 102
-2.286233e+00 5.631878e+00 3.239968e+00 58 56 59
-1.557790e+00 5.592330e+00 3.318776e+00 59 58 61
2.592150e+00 6.429662e+00 2.914607e+00 221 231 247
-2.880161e+00 5.710398e+00 3.391919e+00 60 52 51
-2.118576e+00 -2.126830e-01 3.086095e+00 92 91 89
8.677837e-01 -1.035603e+00 3.008094e+00 89 91 90
-5.902782e-01 -6.083288e-01 3.043839e+00 26 23 24
1.885165e-02 -6.138428e-01 3.054910e+00 20 19 17
-1.398290e+00 -6.196705e-01 3.053702e+00 23 18 18
-3.381773e+00 2.833353e-01 2.766660e+00 213 237 254
-2.354101e+00 -9.918710e-01 3.005034e+00 78 77 79
8.647797e-01 -9.715954e-01 3.033597e+00 73 71 68
-4.037384e-01 2.040054e-01 2.633196e+00 98 96 97
-6.834124e-01 1.479628e-01 3.121647e+00 32 28 29
-3.372437e+00 5.315192e-01 2.633389e+00 96 95 107
1.207547e-01 8.144428e-01 2.706739e+00 20 15 12
2.431626e-01 1.127546e+00 2.799241e+00 77 65 61
-2.018107e+00 1.090607e+00 2.976885e+00 96 91 88
3.154120e+00 2.225732e+00 2.991490e+00 181 204 235
2.147356e+00 2.273523e+00 3.026567e+00 39 36 37
-2.295736e+00 -1.053722e+00 2.999280e+00 79 85 86
-1.453211e+00 -1.030903e+00 2.953561e+00 33 28 25
2.413424e+00 -1.115960e+00 3.013580e+00 44 38 38
7.665076e-01 -1.032770e+00 3.023629e+00 47 39 37
1.157052e+00 -1.035172e+00 3.036098e+00 88 91 97
-3.744756e-01 2.177781e-01 2.641308e+00 91 89 91
-4.433219e-01 3.232954e-01 2.645078e+00 16 14 17
-3.343020e+00 5.234166e-01 2.612704e+00 211 230 243
1.451624e+00 2.109804e+00 2.962142e+00 27 25 30
-1.361278e+00 2.782605e+00 3.235432e+00 42 44 56
-2.660882e+00 -1.074558e+00 3.126961e+00 86 91 100
-2.660882e+00 -1.074558e+00 3.126961e+00 86 91 100
-7.973896e-01 -1.017457e+00 2.990860e+00 23 24 28
-3.429336e-01 -1.019404e+00 2.993122e+00 78 81 85
1.758293e+00 -1.025901e+00 2.990124e+00 28 25 25
-2.571917e+00 -6.746687e-01 3.199512e+00 87 85 86
2.317921e+00 1.055346e+00 2.920086e+00 48 44 44
1.354378e-01 1.329294e+00 2.993741e+00 88 84 83
1.874401e+00 2.262114e+00 3.088013e+00 46 41 41
1.998302e+00 2.458463e+00 3.066142e+00 43 39 38
1.821333e+00 2.425452e+00 3.124051e+00 43 41 39
-2.341246e+00 4.901495e+00 3.101108e+00 10 15 26
2.730147e+00 -2.849047e-01 3.085064e+00 52 51 54
1.424539e+00 2.273364e+00 3.051850e+00 48 46 49
-4.279185e-01 2.489075e+00 3.132835e+00 85 85 87
-3.283856e+00 2.942343e+00 3.142642e+00 82 96 118
-1.937113e+00 2.855828e+00 3.236440e+00 97 93 92
-3.265213e+00 3.018809e+00 3.178411e+00 168 192 219
-2.438820e+00 4.330172e+00 3.135287e+00 54 54 56
3.111209e-01 -1.231321e-01 3.038717e+00 61 60 58
1.575475e+00 7.414767e-01 2.864312e+00 64 56 53
-2.423272e+00 1.015917e+00 2.946998e+00 60 58 61
1.393451e+00 9.195232e-01 2.916197e+00 59 53 53
2.322907e+00 1.530168e+00 2.949798e+00 37 41 51
-2.117569e+00 2.289397e+00 3.089790e+00 80 80 84
-3.268641e+00 2.852654e+00 3.159466e+00 166 192 222
-1.000295e+00 2.777936e+00 3.430892e+00 44 44 44
-3.185766e+00 2.434801e+00 3.325424e+00 193 229 250
1.972014e+00 -2.480183e+00 2.660260e+00 48 44 35
3.256205e+00 -4.109070e-01 2.555243e+00 112 109 91
-9.198049e-01 3.762695e-01 3.181322e+00 137 130 96
1.069144e+00 4.821629e-01 3.060820e+00 151 132 116
1.642147e+00 1.650519e+00 2.801483e+00 21 21 19
-1.618182e+00 5.252004e+00 3.234665e+00 139 118 92
-2.715161e+00 5.142476e-02 3.328570e+00 150 136 109
1.071190e+00 3.596339e-01 3.102663e+00 139 124 101
-2.228035e+00 1.153918e+00 3.086936e+00 144 122 92
-2.376781e+00 1.010199e+00 2.841251e+00 164 145 120
-2.376781e+00 1.010199e+00 2.841251e+00 164 145 120
-1.357748e+00 6.694487e+00 -5.067353e+00 90 59 41
-2.900063e+00 2.759933e+00 3.482637e+00 55 53 45
-3.209565e+00 4.808157e+00 3.101048e+00 169 214 219
1.431755e+00 -2.728179e+00 2.744744e+00 95 90 72
1.124523e+00 -2.392746e+00 2.952777e+00 29 26 19
2.124916e+00 2.771233e-01 -5.678516e-01 93 88 69
-2.832583e+00 8.969017e-02 3.192881e+00 30 30 36
3.995318e-01 2.633331e-01 2.605389e+00 19 12 8
1.414175e+00 1.634142e+00 2.797319e+00 146 129 103
1.836585e+00 2.434216e+00 2.850207e+00 54 38 24
-1.366073e+00 4.509083e+00 3.019845e+00 72 82 81
-3.127868e+00 4.846039e+00 3.369911e+00 153 211 227
7.071171e-01 5.190806e+00 3.051308e+00 151 198 228
2.790891e+00 -2.023719e+00 2.936061e+00 17 19 16
-1.482520e+00 -7.491154e-01 3.090452e+00 32 24 14
-4.919819e-01 5.176865e-01 2.655224e+00 153 129 97
-3.159402e+00 5.325140e-01 2.943619e+00 119 115 91
-3.405173e-01 1.475660e+00 1.652202e-01 133 121 96
-2.440737e-01 6.354170e-01 2.650649e+00 25 22 16
1.125158e-01 9.363619e-01 2.560659e+00 19 20 13
-1.237728e-01 1.582661e+00 2.933396e+00 27 22 18
1.446971e+00 1.685227e+00 2.678632e+00 29 19 18
-3.181077e+00 2.325791e+00 3.233766e+00 96 92 83
1.098269e+00 6.389689e+00 -4.981907e+00 147 128 117
-5.895467e-01 3.466580e+00 1.842762e+00 175 212 228
-3.054993e+00 4.668043e+00 3.416690e+00 157 203 208
1.960068e+00 5.095851e+00 3.103003e+00 76 62 37
-2.617237e+00 -1.317799e+00 3.372612e+00 135 121 94
-2.617237e+00 -1.317799e+00 3.372612e+00 135 121 94
-1.835061e+00 -1.048012e+00 3.047098e+00 57 39 33
-2.595751e+00 -1.093847e+00 3.301133e+00 44 38 28
4.143398e-01 -2.642030e-03 2.453968e+00 33 27 21
-4.791610e-01 3.222215e-01 2.626419e+00 157 136 109
1.876269e-01 4.647003e-01 2.621578e+00 26 17 11
3.268774e+00 5.114943e-01 2.482079e+00 205 227 207
-2.274669e+00 6.761116e+00 -6.195462e+00 7 7 41
-1.882423e+00 6.778520e+00 -5.977655e+00 202 219 242
-3.160073e+00 2.530484e+00 3.251207e+00 59 81 68
1.593667e+00 2.398494e+00 2.907088e+00 129 116 92
1.992110e+00 6.663512e-01 6.425748e+00 49 37 14
-4.077402e-02 2.523266e+00 2.998470e+00 51 34 19
-1.710635e+00 1.202317e+01 -9.433639e+00 44 65 88
-1.710635e+00 1.202317e+01 -9.433639e+00 44 65 88
7.893366e-01 4.450905e+00 3.135705e+00 46 48 39
-3.221400e+00 5.061635e+00 3.211471e+00 153 197 178
-1.311216e+00 5.760566e+00 3.344047e+00 78 80 56
-2.372240e+00 -1.067077e+00 3.243554e+00 126 110 96
-2.432208e+00 -8.517899e-01 3.240620e+00 107 98 91
-3.394046e+00 2.071492e-01 2.735773e+00 210 226 187
6.423812e-01 3.920367e-01 2.484071e+00 63 68 64
-3.336262e+00 5.732334e-01 2.737582e+00 93 105 130
-1.986812e+00 2.217878e+00 3.022201e+00 155 133 108
-1.107993e+00 5.216623e+00 -1.534778e+00 78 82 61
-1.790092e+00 1.070761e+01 -9.446192e+00 157 191 227
-8.583116e-01 9.562110e+00 -4.417916e+00 120 164 199
-8.583116e-01 9.562110e+00 -4.417916e+00 120 164 199
-3.139558e+00 5.333037e+00 3.263145e+00 61 92 92
-3.327359e+00 4.998194e-01 2.719006e+00 92 93 139
-6.400625e-01 2.082248e+00 2.959571e+00 95 77 55
-6.347161e-01 3.501645e+00 1.843117e+00 145 148 160
-1.773541e+00 1.251844e+01 -9.511349e+00 153 183 223
-1.741791e+00 1.269010e+01 -9.325704e+00 155 200 223
-1.727870e+00 1.277216e+01 -9.409676e+00 81 122 146
-1.727870e+00 1.277216e+01 -9.409676e+00 81 122 146
-5.927322e-01 1.309948e+00 3.048667e+00 137 137 129
1.438022e-01 4.326395e-01 2.844994e+00 50 57 59
2.052612e+00 -2.398359e+00 2.180924e+00 15 14 15
1.845164e-01 1.460862e-01 3.108691e+00 114 119 114
1.845164e-01 1.460862e-01 3.108691e+00 114 119 114
3.798846e-01 2.817832e-01 2.857056e+00 49 52 58
1.504221e+00 2.175924e+00 3.079925e+00 49 51 47
1.548789e+00 -8.307972e-01 2.563992e+00 113 110 95
-1.962196e-01 -8.561337e-01 3.086634e+00 162 160 147
1.571430e+00 -7.958576e-01 2.947651e+00 137 131 117
2.485874e-01 -1.965033e-01 3.074721e+00 46 51 53
3.842284e-01 -1.327682e-01 2.960314e+00 45 51 50
4.920776e-01 -1.739228e-02 2.805275e+00 47 50 55
4.329908e-01 3.958878e-01 2.945702e+00 50 55 58
-4.348368e-01 2.517678e+00 2.940331e+00 45 45 46
4.318189e-01 5.642733e-01 2.666920e+00 143 143 122
-1.658171e-01 5.017285e-01 2.928862e+00 157 159 146
1.171199e+00 2.088204e+00 3.221289e+00 150 152 142
2.673286e+00 -2.361820e+00 2.700875e+00 164 166 155
1.324139e+00 -6.607453e-01 2.984206e+00 60 57 51
3.708663e-01 6.543288e-01 2.870505e+00 145 147 139
3.708663e-01 6.543288e-01 2.870505e+00 145 147 139
2.139094e+00 1.622190e+00 2.967858e+00 114 120 114
2.138384e+00 1.845985e+00 2.953332e+00 122 121 117
2.138221e+00 1.888491e+00 2.963235e+00 120 122 116
-2.251185e+00 1.923467e+00 3.053519e+00 139 142 119
3.035152e+00 2.501952e+00 2.846377e+00 142 145 137
2.833182e+00 5.626910e+00 2.958901e+00 162 187 208
1.816403e+00 -8.860634e-01 2.518743e+00 65 64 57
2.554681e+00 -5.719248e-01 2.696981e+00 127 124 111
1.152536e+00 -5.150543e-01 2.736763e+00 45 42 37
3.746858e-01 1.606756e-01 2.779132e+00 39 37 35
2.166660e-01 2.971002e-01 2.849125e+00 32 32 31
2.239253e-01 3.477981e-01 2.851793e+00 146 152 139
2.239253e-01 3.477981e-01 2.851793e+00 146 152 139
7.171543e-02 3.401454e-01 2.895700e+00 161 160 148
2.611264e-01 3.893766e-01 2.880099e+00 146 148 142
2.190474e+00 1.935272e+00 2.937792e+00 23 28 31
2.190636e+00 1.979608e+00 2.965221e+00 25 27 26
1.522498e+00 2.153109e+00 3.091985e+00 24 26 24
-7.719602e-02 2.423911e+00 3.266830e+00 130 137 129
-2.852150e+00 -2.056996e+00 2.607795e+00 149 150 137
-1.636223e-01 6.632734e-01 2.684816e+00 29 28 18
-1.627993e-01 7.070826e-01 2.684200e+00 161 170 163
2.427011e-01 8.178898e-01 2.649611e+00 151 153 143
2.563494e-01 8.140729e-01 2.732127e+00 50 52 55
2.180593e+00 1.562722e+00 2.921336e+00 37 39 41
-2.002630e+00 1.728309e+00 3.048862e+00 142 148 153
-1.366362e+00 2.007346e+00 3.317173e+00 62 70 73
1.504243e+00 2.137321e+00 3.037397e+00 85 87 83
1.470244e+00 2.212180e+00 2.965293e+00 25 25 25
5.010646e-01 2.361393e+00 3.069352e+00 43 45 37
-1.835260e-01 2.326605e+00 3.246744e+00 153 156 150
2.418181e+00 2.404788e+00 3.129918e+00 97 98 90
1.457720e+00 2.440498e+00 3.107003e+00 120 121 106
2.176165e+00 2.734448e+00 3.086283e+00 51 52 51
2.235222e+00 3.073201e+00 2.855573e+00 38 47 48
1.425450e+00 3.271352e+00 2.969869e+00 26 30 31
6.478082e-01 4.749071e+00 3.006470e+00 47 74 132
6.478082e-01 4.749071e+00 3.006470e+00 47 74 132
2.526988e+00 6.657949e+00 2.623207e+00 65 94 134
-1.257369e+00 -2.642939e+00 2.249908e+00 50 53 43
-1.257369e+00 -2.642939e+00 2.249908e+00 50 53 43
4.696527e-02 -2.563463e+00 2.091306e+00 93 90 82
-4.538627e-01 -2.500878e+00 2.301466e+00 115 112 93
8.073392e-01 -2.495047e+00 2.224787e+00 41 38 34
-8.104158e-01 -2.410160e+00 2.582511e+00 109 110 92
1.584932e+00 -2.222014e+00 2.192291e+00 79 69 59
-9.199649e-01 -2.257416e+00 2.597575e+00 74 75 68
2.847273e+00 -2.013510e+00 2.273678e+00 80 79 76
-1.494541e-01 -1.352126e+00 3.038158e+00 157 157 146
-2.019206e+00 -1.023314e+00 2.929635e+00 56 59 52
1.381349e+00 -9.357978e-01 2.508979e+00 153 155 148
2.934851e-01 -3.150013e-01 2.920042e+00 123 120 105
3.437490e-01 1.953142e-02 2.974314e+00 29 31 19
6.602552e-01 2.153428e-01 2.634650e+00 37 43 45
3.773843e-01 2.363832e-01 2.825842e+00 37 41 42
3.165276e-01 2.012957e-01 2.949477e+00 39 44 46
-1.741444e+00 1.198806e+00 2.999934e+00 83 83 76
2.116083e+00 1.712096e+00 2.874065e+00 133 134 128
1.676265e+00 2.096589e+00 2.988738e+00 25 26 20
2.158952e+00 2.143722e+00 2.955956e+00 25 29 31
-1.469759e+00 2.127359e+00 3.207902e+00 68 75 68
2.148618e-01 2.258307e+00 3.304762e+00 50 54 56
3.138210e+00 2.560875e+00 2.758849e+00 101 122 137
1.838891e-01 2.418893e+00 3.105371e+00 73 72 60
3.233706e+00 2.692578e+00 2.638572e+00 89 121 152
-2.395802e-01 2.395060e+00 3.264644e+00 36 37 30
3.182540e+00 2.680449e+00 2.735561e+00 173 204 218
-1.247871e+00 3.747492e+00 3.172155e+00 68 77 69
-1.743832e+00 4.838093e+00 2.947918e+00 24 27 12
6.597301e-01 4.746699e+00 3.076712e+00 139 182 205
2.998284e+00 5.244608e+00 2.682971e+00 78 88 102
2.864121e+00 5.842923e+00 2.795862e+00 94 111 148
1.021363e+00 -2.420133e+00 2.404995e+00 138 141 127
1.256967e+00 -2.417674e+00 2.994304e+00 76 76 65
2.859478e+00 -1.957822e+00 2.331554e+00 172 168 166
2.790865e+00 -1.956412e+00 2.325822e+00 49 49 49
-1.718105e-01 -1.041252e+00 2.970191e+00 48 50 44
2.405163e+00 -9.632048e-01 2.651934e+00 40 40 31
-2.701664e+00 -9.964551e-01 2.965621e+00 194 195 190
2.559639e+00 -7.966959e-01 2.684726e+00 148 151 140
2.319908e+00 -6.550374e-01 2.655714e+00 78 80 69
1.046643e+00 9.537559e-02 3.156424e+00 120 115 100
-2.402585e-01 7.031266e-01 2.700273e+00 138 146 142
-1.972751e-01 7.096918e-01 2.705433e+00 40 48 51
1.599201e+00 9.862617e-01 2.959817e+00 90 88 73
1.625713e+00 2.179020e+00 3.034566e+00 34 37 32
-2.068227e+00 2.292873e+00 3.173516e+00 30 31 14
1.758037e+00 -1.435525e+00 1.067632e+01 49 52 44
1.628212e+00 -1.187019e+00 1.018157e+01 57 56 51
2.476475e+00 2.476543e+00 2.977611e+00 39 39 39
1.499168e+00 2.434760e+00 3.120649e+00 44 43 38
-1.117600e-01 2.471580e+00 3.114886e+00 71 73 58
-3.283290e-01 2.522698e+00 3.091652e+00 37 40 32
3.187470e+00 2.816135e+00 2.809970e+00 102 130 154
-1.191335e+00 3.625183e+00 3.219540e+00 70 75 77
-1.241668e+00 3.684498e+00 3.184434e+00 65 70 64
-1.987778e+00 3.996517e+00 3.087166e+00 136 146 154
-1.884050e+00 3.951953e+00 3.178609e+00 123 124 126
-1.278707e+00 4.535204e+00 3.189411e+00 64 68 68
-1.912577e+00 4.681162e+00 3.196295e+00 122 123 126
8.040100e-01 5.184606e+00 3.064356e+00 75 106 140
8.040100e-01 5.184606e+00 3.064356e+00 75 106 140
2.884791e+00 5.558171e+00 2.827660e+00 87 115 154
2.498818e+00 6.628825e+00 2.623458e+00 140 177 230
-2.411533e+00 -2.953138e+00 2.192494e+00 168 171 153
-1.295113e+00 -2.513384e+00 2.294813e+00 63 60 56
9.932942e-01 -2.298709e+00 2.477086e+00 115 118 109
-7.831052e-01 -2.031830e+00 2.658330e+00 170 170 169
4.285841e+00 -1.895051e+00 4.708242e+00 201 226 231
2.207171e+00 -9.753953e-01 2.688893e+00 59 59 56
3.997712e-03 -1.005135e+00 2.912991e+00 146 148 129
2.195862e+00 -9.649291e-01 2.714558e+00 157 156 144
1.903895e+00 -7.821425e-01 2.635616e+00 73 76 69
7.710256e-01 -7.008371e-01 3.085744e+00 133 131 119
4.565812e-01 -1.070113e-01 2.739228e+00 129 131 126
2.857284e+00 5.050325e-01 2.775285e+00 152 152 145
-2.391938e-01 6.082169e-01 2.689957e+00 32 41 40
2.335814e+00 1.576234e+00 2.859331e+00 187 192 198
1.461983e+00 1.617426e+00 2.955039e+00 48 51 45
1.457560e+00 1.691560e+00 3.003020e+00 48 49 45
2.204251e+00 2.272404e+00 2.989648e+00 120 123 111
1.744530e+00 2.246559e+00 3.082421e+00 71 71 68
2.420611e+00 2.737469e+00 3.026748e+00 98 106 101
3.177084e+00 2.911336e+00 2.870991e+00 158 190 223
3.149935e+00 2.955123e+00 2.870883e+00 153 189 230
2.720794e+00 2.892518e+00 3.045471e+00 126 128 117
-9.668430e-01 2.864944e+00 3.400549e+00 72 78 74
-9.668430e-01 2.864944e+00 3.400549e+00 72 78 74
1.389758e+00 4.626553e+00 2.991020e+00 116 115 110
3.014052e+00 4.827638e+00 2.838620e+00 150 185 226
2.997502e+00 4.843006e+00 2.833790e+00 42 51 81
-1.275891e+00 4.621928e+00 3.219170e+00 70 71 71
1.118424e+00 4.810638e+00 3.303957e+00 123 123 116
1.615598e+00 5.071351e+00 3.061732e+00 78 82 59
1.658000e+00 5.013969e+00 3.204106e+00 111 113 102
8.469544e-01 5.209068e+00 3.182725e+00 156 185 202
7.639435e-01 -5.828206e-01 3.032365e+00 21 13 11
1.751052e+00 -6.312925e-01 3.135691e+00 28 20 15
-2.205934e+00 7.439468e-01 2.908834e+00 122 126 129
1.742743e+00 1.751482e+00 2.995353e+00 114 117 116
2.075397e+00 1.433569e+00 3.053762e+00 107 116 115
2.209425e+00 1.978163e+00 2.913866e+00 9 13 16
-3.826306e-01 -6.836932e-01 3.186671e+00 26 17 17
-1.145640e-01 -6.898632e-01 3.184774e+00 99 99 92
-1.987387e-01 5.973715e-01 2.664692e+00 130 134 136
2.296551e+00 1.396392e+00 3.068814e+00 109 114 108
2.296551e+00 1.396392e+00 3.068814e+00 109 114 108
2.280864e+00 4.738937e+00 3.180552e+00 67 73 67
1.787760e-01 -6.814046e-01 3.136710e+00 97 94 87
1.837382e-01 -6.376895e-01 3.043549e+00 97 94 87
1.786646e+00 -6.728832e-01 3.155049e+00 20 15 10
1.705826e+00 -6.517561e-01 3.131362e+00 29 19 17
1.545933e+00 -6.557602e-01 3.163390e+00 18 13 10
2.203581e-01 7.708208e-01 2.743378e+00 114 111 106
2.017037e+00 1.482988e+00 3.046336e+00 9 13 16
-3.159121e-01 -7.685673e-01 3.132810e+00 100 100 94
8.029390e-02 -7.196471e-01 3.033521e+00 107 108 101
-1.800248e-01 -6.049512e-01 3.134878e+00 84 76 66
1.523331e+00 -3.541582e-01 3.158591e+00 119 119 112
-1.928981e-02 5.041757e-01 2.652039e+00 7 7 8
7.381204e-01 4.407344e-01 2.711128e+00 117 113 106
1.797514e+00 3.935264e-01 2.776723e+00 101 96 92
1.797514e+00 3.935264e-01 2.776723e+00 101 96 92
-4.532076e-02 7.653754e-01 2.768214e+00 135 142 137
4.540051e-01 1.274532e+00 3.001873e+00 138 141 140
2.376273e+00 1.388373e+00 3.058152e+00 130 136 137
1.522892e+00 1.480328e+00 3.128293e+00 98 106 108
3.409736e-01 -9.789730e-01 2.929732e+00 99 100 92
-4.568929e-01 -6.456244e-01 3.195546e+00 76 67 62
-2.905920e-01 -3.512950e-01 3.171404e+00 134 136 133
2.054161e+00 -3.989270e-01 3.122708e+00 98 99 100
2.054161e+00 -3.989270e-01 3.122708e+00 98 99 100
7.416548e-01 3.051904e-01 2.718129e+00 108 108 100
-1.382007e-01 6.771671e-01 2.720443e+00 132 134 138
6.905986e-01 8.157813e-01 2.799064e+00 113 115 108
2.425830e+00 6.328557e-01 2.968370e+00 123 122 117
3.168909e-01 1.082397e+00 2.833178e+00 99 89 86
4.558066e-01 1.110054e+00 2.789604e+00 64 53 49
1.580280e+00 2.271591e+00 3.091286e+00 140 143 141
2.539651e+00 2.412555e+00 3.328727e+00 106 106 106
2.240158e+00 8.574149e-01 2.999838e+00 131 126 120
1.641722e+00 9.903286e-01 2.996428e+00 62 59 57
2.033983e+00 1.760109e+00 2.926377e+00 12 9 15
1.650327e+00 2.110576e+00 2.966656e+00 73 74 68
