ply
format ascii 1.0
element face 0
property list uchar int vertex_indices
element vertex 942
property float x
property float y
property float z
property uchar diffuse_red
property uchar diffuse_green
property uchar diffuse_blue
end_header
-1.787245e+00 4.382430e-01 3.091003e+00 144 137 127
2.208603e+00 1.147755e+00 3.097760e+00 194 186 173
1.751284e+00 1.140444e+00 3.065802e+00 184 177 161
-1.303889e+00 -2.408322e+00 3.010569e+00 73 56 45
2.274213e+00 -1.618648e+00 2.899367e+00 185 175 165
1.934229e+00 3.912225e-01 3.099536e+00 201 194 183
2.307391e+00 -9.958699e-01 2.874108e+00 166 150 135
-1.106228e-02 -7.096653e-01 2.913504e+00 49 31 24
2.679475e+00 -4.024696e-01 2.879351e+00 123 108 91
-1.323393e+00 6.039159e-01 3.097894e+00 186 176 165
9.227488e-01 -2.378021e+00 2.925283e+00 87 69 56
2.466258e+00 -1.852015e+00 2.904133e+00 195 190 184
-1.112589e+00 -1.228011e+00 2.938210e+00 108 97 84
1.565759e+00 -1.204681e+00 2.899051e+00 112 96 82
1.451163e+00 -1.208807e+00 2.905777e+00 116 99 83
7.976590e-01 -1.211429e+00 2.908746e+00 105 92 79
-7.735884e-01 -9.999530e-01 2.901636e+00 179 167 153
2.608959e+00 -8.060784e-01 2.855329e+00 195 187 174
-1.891783e+00 5.183406e-01 3.174822e+00 203 196 190
1.885445e+00 2.205609e+00 3.159636e+00 186 178 168
-2.399428e+00 2.407795e+00 2.866466e+00 30 27 22
1.069291e+00 2.508577e+00 2.797515e+00 188 184 172
-1.258220e+00 -2.440253e+00 3.008388e+00 126 110 94
1.601360e+00 -2.306929e+00 2.973064e+00 126 112 93
2.549584e+00 -2.061909e+00 2.958871e+00 185 183 171
2.549584e+00 -2.061909e+00 2.958871e+00 185 183 171
2.632290e+00 -2.015387e+00 2.959283e+00 77 66 48
-2.078675e+00 -1.036601e+00 2.950818e+00 159 147 132
2.387545e+00 -1.006914e+00 2.873122e+00 140 125 109
1.508605e+00 -1.010220e+00 2.915398e+00 166 154 138
1.826258e-01 -1.009826e+00 2.960601e+00 182 170 154
-1.517714e+00 -1.005765e+00 2.925057e+00 162 147 136
1.699529e+00 -9.853089e-01 2.903637e+00 155 143 130
2.419822e+00 -8.282037e-01 2.870309e+00 183 172 160
2.065035e+00 -8.239059e-01 2.895811e+00 182 172 162
-1.284227e+00 3.214382e-01 3.302175e+00 159 143 130
1.981909e+00 8.378583e-01 3.138721e+00 169 158 145
2.413614e+00 1.201975e+00 3.027397e+00 189 179 157
1.614308e+00 1.735053e+00 3.246693e+00 48 42 43
2.202896e+00 2.396020e+00 3.058814e+00 119 114 104
-1.277738e+00 2.295359e+00 2.858138e+00 177 168 161
-1.277738e+00 2.295359e+00 2.858138e+00 177 168 161
-2.449446e+00 2.226675e+00 2.834382e+00 57 45 41
-2.033741e+00 2.413727e+00 2.872938e+00 38 33 27
-2.033741e+00 2.413727e+00 2.872938e+00 38 33 27
2.496311e+00 4.925422e+00 3.042669e+00 154 148 135
2.309218e+00 5.535773e+00 2.943106e+00 106 96 86
-2.068555e+00 6.029105e+00 2.939342e+00 185 182 175
-1.756277e+00 -2.528580e+00 3.089847e+00 128 113 88
7.156562e-01 -1.298947e+00 2.932583e+00 192 185 176
4.201523e-02 -1.307901e+00 2.929641e+00 181 175 161
-2.165412e+00 -1.136081e+00 2.957816e+00 184 181 172
-1.615925e+00 -1.136855e+00 2.940798e+00 201 196 188
6.637465e-01 -1.133714e+00 2.930074e+00 192 189 184
4.747209e-01 -1.141532e+00 2.916867e+00 188 186 181
-1.013501e-01 -1.139022e+00 2.934865e+00 181 177 170
1.034664e+00 -1.126405e+00 2.889316e+00 189 184 180
2.481514e+00 -1.088978e+00 2.857026e+00 190 187 182
2.438864e+00 -1.050304e+00 2.871843e+00 74 57 49
3.263607e-01 -8.003729e-01 2.912533e+00 89 69 57
2.577657e+00 -7.335806e-01 2.861569e+00 74 57 44
-2.017131e+00 -7.389401e-01 2.912871e+00 164 156 143
1.046611e+00 -7.372572e-01 2.873399e+00 180 167 149
1.929070e+00 2.602803e-01 3.118959e+00 198 191 181
2.217309e+00 5.002558e-01 3.118583e+00 97 79 63
-1.423604e-01 7.589333e-01 3.521754e+00 181 176 169
-1.456865e+00 6.483813e-01 3.180937e+00 193 186 175
2.302465e+00 9.656318e-01 3.056910e+00 200 192 178
-1.322002e+00 1.062177e+00 3.129847e+00 98 85 70
1.596318e+00 1.168643e+00 3.159638e+00 180 171 154
-1.646400e+00 2.168859e+00 3.267237e+00 26 18 18
1.689603e+00 2.333219e+00 3.077019e+00 155 145 136
2.451172e+00 2.351258e+00 3.069472e+00 90 77 71
-1.330691e+00 2.356549e+00 2.692729e+00 163 156 146
1.878931e+00 5.600189e+00 3.041744e+00 99 92 84
-1.460832e+00 5.631553e+00 3.061747e+00 167 162 157
-1.460832e+00 5.631553e+00 3.061747e+00 167 162 157
-1.915027e+00 -2.758716e+00 3.206775e+00 162 145 129
-1.908021e+00 -2.707652e+00 3.186993e+00 151 139 121
-1.831521e+00 -2.620978e+00 3.146769e+00 171 162 145
8.193980e-01 -2.577536e+00 2.973995e+00 153 136 119
-1.447115e+00 -2.458380e+00 3.027044e+00 67 45 34
1.465784e+00 -2.404634e+00 2.981318e+00 21 10 16
8.850610e-01 -2.345553e+00 2.927791e+00 156 143 135
-1.323760e+00 -2.337077e+00 3.003869e+00 160 148 132
1.537283e+00 -2.322954e+00 2.967004e+00 153 135 119
9.981033e-01 -2.306278e+00 2.915311e+00 204 197 186
-1.879188e+00 -2.265003e+00 3.028270e+00 100 79 60
4.006109e-02 -1.352503e+00 2.938288e+00 106 83 70
2.296538e+00 -1.248991e+00 2.878937e+00 185 177 166
-2.167435e+00 -1.099305e+00 2.891850e+00 39 26 22
4.560695e-02 -1.094950e+00 2.937112e+00 64 44 35
-7.436655e-01 -1.090634e+00 2.911552e+00 166 152 136
8.148900e-01 -7.852671e-01 2.931593e+00 62 46 34
1.398396e+00 -7.735947e-01 2.939537e+00 54 36 30
2.318130e-01 -7.791349e-01 2.959459e+00 66 46 35
2.384183e+00 -7.574205e-01 2.870969e+00 84 70 55
8.476813e-02 -7.471216e-01 2.899864e+00 189 173 158
-1.250264e+00 -7.310185e-01 2.961539e+00 44 25 18
-1.474824e+00 -7.128392e-01 2.927111e+00 158 140 128
-1.474824e+00 -7.128392e-01 2.927111e+00 158 140 128
5.702718e-01 -7.084452e-01 2.927084e+00 53 34 28
1.868962e+00 3.601978e-01 3.179310e+00 109 94 75
1.734335e+00 8.963594e-01 3.156712e+00 183 175 160
-6.089182e-01 9.117574e-01 3.157641e+00 164 155 139
-5.697010e-01 9.746537e-01 3.163009e+00 168 156 144
-5.775498e-01 1.140589e+00 3.111342e+00 95 85 68
-5.074513e-01 1.288783e+00 3.131746e+00 109 91 80
-1.269339e+00 1.219975e+00 3.063441e+00 182 178 166
1.546405e-01 1.310125e+00 3.128748e+00 145 134 125
8.487375e-02 1.315141e+00 3.136385e+00 136 128 117
-1.472416e+00 1.867844e+00 3.297345e+00 31 22 23
-1.449029e+00 2.201695e+00 3.183121e+00 163 153 141
3.201753e+00 2.324718e+00 2.966729e+00 248 253 255
7.825459e-01 2.524367e+00 3.068037e+00 166 165 154
8.733398e-01 2.556621e+00 3.087706e+00 176 169 159
-2.280476e+00 2.287917e+00 2.787269e+00 178 168 159
1.211573e+00 2.452135e+00 2.790682e+00 120 108 90
1.716040e+00 2.656129e+00 3.001842e+00 142 133 116
1.285669e-01 2.659125e+00 2.958690e+00 146 136 127
8.015449e-02 2.654840e+00 2.953865e+00 115 106 97
2.436186e+00 5.136778e+00 3.050663e+00 120 118 106
1.286053e+00 -2.676819e+00 2.975965e+00 165 153 139
2.234300e+00 -2.675032e+00 3.089772e+00 149 136 118
7.524468e-01 -2.620521e+00 2.973453e+00 136 123 107
2.147810e+00 -2.584221e+00 3.043257e+00 137 124 108
2.147810e+00 -2.584221e+00 3.043257e+00 137 124 108
2.151223e+00 -2.478789e+00 3.014435e+00 157 149 134
6.339150e-01 -2.471840e+00 2.974143e+00 146 137 120
-1.417906e+00 -2.433666e+00 3.020854e+00 152 138 121
1.258310e+00 -2.420033e+00 2.938538e+00 64 45 31
1.293763e+00 -2.420190e+00 2.942731e+00 48 31 20
-1.680844e+00 -2.402616e+00 3.038447e+00 69 50 35
2.018321e+00 -2.403946e+00 2.999443e+00 142 128 100
-1.454314e+00 -2.358818e+00 3.017061e+00 80 57 45
7.397601e-01 -2.364544e+00 2.948797e+00 148 131 112
8.031687e-01 -2.348079e+00 2.936810e+00 128 117 103
-1.924709e+00 -2.285772e+00 3.057499e+00 161 150 132
-1.806603e+00 -2.268317e+00 3.025712e+00 73 51 37
1.105672e+00 -2.031818e+00 2.894155e+00 225 219 210
1.109422e+00 -2.000702e+00 2.891260e+00 69 48 46
1.109422e+00 -2.000702e+00 2.891260e+00 69 48 46
1.058654e+00 -1.958999e+00 2.892761e+00 121 110 107
8.762506e-01 -1.889303e+00 2.917627e+00 107 89 67
8.606740e-01 -1.854734e+00 2.922991e+00 115 97 75
-1.560759e+00 -1.542488e+00 2.955647e+00 83 64 50
3.741611e-01 -1.335545e+00 2.927573e+00 200 192 184
8.240766e-02 -1.331023e+00 2.949475e+00 95 75 61
-1.509059e+00 -1.305690e+00 2.941222e+00 197 188 175
9.802078e-01 -1.210997e+00 2.900415e+00 85 65 55
-1.654378e+00 -1.088620e+00 2.949850e+00 51 31 24
8.135725e-01 -1.086461e+00 2.928370e+00 93 76 60
2.524981e+00 -1.037107e+00 2.868761e+00 92 77 64
2.026519e+00 -1.040498e+00 2.890531e+00 157 145 132
2.415794e+00 -9.942398e-01 2.867273e+00 164 148 134
-1.433281e+00 -8.430747e-01 2.950179e+00 30 15 8
2.296337e+00 -8.256537e-01 2.892299e+00 82 67 55
-1.976335e-01 -7.697268e-01 2.914760e+00 162 147 135
9.421799e-01 -7.527832e-01 2.910476e+00 170 154 143
5.660431e-01 -7.542383e-01 2.924578e+00 190 177 160
-1.191728e+00 -7.512191e-01 2.932772e+00 176 163 147
-2.066924e+00 -7.271571e-01 2.924515e+00 42 24 20
1.942985e+00 -7.167459e-01 2.898560e+00 45 28 18
8.119204e-01 -7.250336e-01 2.917581e+00 44 22 9
2.729379e+00 -6.996487e-01 2.845341e+00 169 154 139
9.493082e-01 -7.082057e-01 2.914987e+00 40 23 18
2.317445e+00 1.305939e-01 3.118956e+00 139 131 120
-5.044881e-01 2.918765e-01 3.473642e+00 198 189 184
2.440033e+00 1.972733e-01 3.033783e+00 179 173 159
2.240712e-03 4.372249e-01 3.495080e+00 195 187 177
2.240712e-03 4.372249e-01 3.495080e+00 195 187 177
-9.285595e-03 5.145309e-01 3.514261e+00 197 191 179
-9.285595e-03 5.145309e-01 3.514261e+00 197 191 179
-9.285595e-03 5.145309e-01 3.514261e+00 197 191 179
1.522625e-01 4.726156e-01 3.153599e+00 53 47 56
1.227281e-01 6.392093e-01 3.481199e+00 54 44 52
2.144531e+00 7.219110e-01 3.113226e+00 178 169 153
1.931854e+00 7.089903e-01 3.173052e+00 86 76 61
2.384977e+00 8.348015e-01 3.035549e+00 194 188 175
-2.011970e+00 9.018574e-01 3.165838e+00 155 143 129
-6.416118e-02 1.184401e+00 3.557584e+00 147 132 116
-2.260698e+00 8.926255e-01 3.041151e+00 189 184 180
-1.961283e+00 1.000406e+00 3.207672e+00 147 139 126
-1.588129e+00 9.946505e-01 3.120785e+00 107 89 75
-1.588129e+00 9.946505e-01 3.120785e+00 107 89 75
-4.350886e-01 1.104713e+00 3.143525e+00 163 152 142
7.780333e-01 1.147018e+00 3.172365e+00 189 185 181
-5.153102e-01 1.137529e+00 3.123992e+00 180 173 167
5.061028e-01 1.233281e+00 3.155804e+00 156 148 137
8.822410e-01 1.268457e+00 3.189113e+00 102 91 81
4.472718e-01 1.253613e+00 3.148237e+00 146 136 126
-6.449169e-01 1.246726e+00 3.134921e+00 77 64 56
-6.317137e-01 1.315004e+00 3.086180e+00 173 164 154
-1.806759e+00 1.287876e+00 3.067825e+00 189 181 173
2.488693e+00 1.557471e+00 3.048681e+00 192 185 178
-2.217662e+00 2.133688e+00 2.930531e+00 191 187 180
-7.803007e-01 1.798112e+00 2.356947e+00 184 171 163
2.089692e+00 2.481068e+00 3.038048e+00 73 68 58
1.151378e+00 2.482112e+00 2.818761e+00 110 100 83
-2.073017e+00 2.344542e+00 2.715685e+00 180 173 163
-1.420520e+00 4.541162e+00 2.708412e+00 171 166 161
3.318560e+00 5.215717e+00 2.927794e+00 151 156 157
2.162567e+00 -2.679437e+00 3.078081e+00 136 127 111
2.090211e+00 -2.556744e+00 3.032212e+00 156 144 133
-1.841842e+00 -2.476847e+00 3.081038e+00 144 131 116
-1.466324e+00 -2.427581e+00 3.008865e+00 154 137 118
4.682468e-01 -2.426950e+00 3.009144e+00 29 15 7
2.537566e+00 -2.279793e+00 3.006403e+00 200 195 184
1.165688e+00 -2.009978e+00 2.888776e+00 80 63 52
1.052078e+00 -2.012563e+00 2.889828e+00 66 52 44
2.615369e+00 -1.971255e+00 2.949207e+00 68 56 48
-7.412040e-01 -2.025840e+00 2.920738e+00 180 176 171
1.144577e+00 -1.990481e+00 2.888071e+00 209 202 194
2.512867e+00 -1.948413e+00 2.928351e+00 202 196 187
8.446134e-01 -1.819370e+00 2.919032e+00 102 83 68
5.849019e-01 -1.414259e+00 2.927894e+00 209 205 195
3.742723e-02 -1.158414e+00 2.939059e+00 77 67 59
-2.251393e+00 -1.109633e+00 2.952478e+00 81 70 60
-7.183244e-01 -1.123235e+00 2.917754e+00 84 66 54
9.669728e-01 -1.094510e+00 2.925964e+00 152 140 133
6.352456e-01 -1.093155e+00 2.937650e+00 101 83 65
1.614871e-01 -9.544461e-01 2.931784e+00 171 156 139
-6.200931e-01 -8.781551e-01 2.912233e+00 221 209 204
4.737066e-01 -8.304478e-01 2.920159e+00 183 169 156
2.607618e+00 -4.286363e-01 2.856442e+00 122 107 91
-1.893528e+00 -4.198592e-01 2.932204e+00 189 180 165
-3.936338e-01 3.170424e-02 3.449153e+00 58 49 56
-1.407610e-01 -1.676813e-01 2.459863e+00 27 17 13
5.184437e-01 3.732900e-01 3.462749e+00 44 30 38
4.943245e-01 4.089178e-01 3.472593e+00 180 174 162
5.611300e-01 4.162328e-01 3.467640e+00 25 21 17
4.916638e-01 4.556715e-01 3.483793e+00 30 17 6
4.916638e-01 4.556715e-01 3.483793e+00 30 17 6
-2.746040e-01 5.124196e-01 3.509476e+00 219 215 205
2.341236e-01 3.407773e-01 3.051964e+00 215 207 204
1.182271e+00 3.637940e-01 2.847946e+00 107 100 92
5.172893e-01 6.618977e-01 3.496153e+00 38 29 33
4.426476e-01 6.616964e-01 3.509894e+00 26 15 7
2.134904e+00 5.578204e-01 3.109121e+00 201 194 182
7.427955e-01 7.250708e-01 3.487776e+00 23 14 5
4.282338e-01 7.447092e-01 3.504276e+00 43 36 40
2.078664e+00 6.316625e-01 3.132500e+00 93 85 68
-2.358927e+00 5.992056e-01 3.042176e+00 192 182 172
7.483466e-02 8.901421e-01 3.534553e+00 194 188 174
-2.276520e+00 7.226903e-01 3.059662e+00 102 92 75
2.082610e+00 9.065968e-01 3.162567e+00 61 47 32
1.868319e+00 9.233138e-01 3.190820e+00 77 63 45
2.068983e+00 9.394566e-01 3.155477e+00 145 137 119
-1.574616e-01 1.189668e+00 3.583860e+00 17 6 1
-1.975210e+00 9.665418e-01 3.210992e+00 69 56 43
-1.975210e+00 9.665418e-01 3.210992e+00 69 56 43
-2.321325e+00 8.794781e-01 3.041973e+00 144 134 125
8.869832e-01 1.031614e+00 3.196813e+00 186 175 160
-1.583828e+00 1.093898e+00 3.087900e+00 205 198 188
2.309382e+00 1.176044e+00 3.042190e+00 207 200 189
-1.829772e+00 1.156565e+00 3.043259e+00 204 198 188
-1.322184e+00 1.225827e+00 3.108649e+00 84 75 65
8.835943e-01 1.338631e+00 3.149821e+00 170 160 152
2.063326e+00 1.373482e+00 3.070116e+00 89 77 59
-1.427093e+00 1.873121e+00 3.289582e+00 173 161 152
2.364984e+00 2.414375e+00 3.029732e+00 188 181 171
2.364984e+00 2.414375e+00 3.029732e+00 188 181 171
-3.300209e-01 2.537209e+00 2.944434e+00 192 181 180
2.170152e+00 2.626625e+00 3.037465e+00 161 151 142
1.954462e+00 2.708592e+00 3.045513e+00 157 145 128
3.297700e+00 2.959537e+00 2.947629e+00 110 118 120
3.297700e+00 2.959537e+00 2.947629e+00 110 118 120
-1.935526e+00 3.243289e+00 2.922709e+00 190 189 187
-1.875374e+00 3.251236e+00 2.761656e+00 187 187 181
1.991235e+00 5.201980e+00 3.064951e+00 74 59 46
1.903737e+00 5.631474e+00 3.009236e+00 177 178 170
2.150623e+00 5.713050e+00 3.009626e+00 191 180 173
-1.640384e+00 5.772608e+00 2.924830e+00 174 167 161
-2.358730e+00 6.058785e+00 2.973515e+00 89 91 85
-1.484629e+00 -2.479494e+00 3.030162e+00 161 144 128
2.267047e+00 -2.422024e+00 3.012235e+00 147 140 114
1.680789e+00 -2.335792e+00 2.978139e+00 142 128 112
1.124657e+00 -2.334250e+00 2.904202e+00 96 84 78
2.485714e+00 -1.967986e+00 2.924513e+00 67 51 49
2.597468e+00 -1.954669e+00 2.948846e+00 200 190 180
1.282280e-02 -1.976123e+00 3.045280e+00 81 60 39
2.384250e-01 -1.930031e+00 3.050295e+00 80 61 44
1.532114e+00 -1.578684e+00 2.900692e+00 213 205 194
5.230423e-01 -1.426047e+00 2.926482e+00 206 193 178
-1.587466e+00 -1.339783e+00 2.941939e+00 94 75 60
-1.587466e+00 -1.339783e+00 2.941939e+00 94 75 60
1.012970e+00 -1.223989e+00 2.883237e+00 159 151 140
-1.461324e-01 -1.172699e+00 2.939185e+00 60 50 40
5.222607e-01 -1.165412e+00 2.929954e+00 80 70 66
-4.058117e-01 -1.143752e+00 2.948361e+00 198 185 171
4.318524e-01 -1.139939e+00 2.963551e+00 72 58 42
5.203471e-01 -1.136962e+00 2.940877e+00 46 32 24
-1.513623e+00 -1.121700e+00 2.945239e+00 79 62 52
-2.490246e+00 -1.091437e+00 2.965585e+00 68 53 45
8.019341e-01 -1.121189e+00 2.940237e+00 71 53 44
1.806908e-01 -1.126513e+00 2.947871e+00 75 61 50
-1.984377e-01 -1.126374e+00 2.948018e+00 59 42 31
-7.775941e-01 -1.122945e+00 2.912673e+00 79 63 50
1.122271e+00 -1.117393e+00 2.900711e+00 201 193 182
1.367561e-01 -9.084793e-01 2.928990e+00 168 155 140
2.427970e+00 -8.695819e-01 2.858431e+00 134 125 115
-2.133203e+00 -7.933617e-01 2.952426e+00 97 83 70
2.089646e-01 -7.962115e-01 2.941824e+00 80 61 55
-2.087568e+00 -6.927354e-01 2.926120e+00 133 121 114
2.623321e+00 -3.919715e-01 2.854655e+00 188 179 162
2.557959e+00 -3.967321e-01 2.857601e+00 197 190 172
5.540657e-01 -5.352010e-02 3.431400e+00 41 27 18
-3.679281e-01 4.881455e-03 3.459202e+00 222 210 205
7.138027e-01 7.656328e-02 3.426387e+00 49 39 31
-4.040710e-01 1.367760e-01 3.453901e+00 197 187 182
9.649831e-01 4.402129e-01 3.221562e+00 100 92 80
1.422716e-02 5.893168e-01 3.517252e+00 229 223 220
2.103747e+00 5.341037e-01 3.111069e+00 200 193 180
2.074113e+00 5.462244e-01 3.120330e+00 103 99 89
9.423536e-01 6.189760e-01 3.237099e+00 101 89 75
3.341168e-01 7.505061e-01 3.521765e+00 33 22 9
-1.237632e+00 7.245182e-01 3.159608e+00 190 182 171
1.776483e+00 8.311761e-01 3.201978e+00 179 169 157
-1.898465e+00 8.155606e-01 3.193737e+00 102 92 83
2.159732e+00 7.986838e-01 3.085257e+00 107 95 76
2.370306e+00 7.930947e-01 3.029518e+00 97 91 77
1.579167e+00 8.619408e-01 3.144256e+00 192 184 170
2.305798e+00 8.443568e-01 3.048294e+00 183 167 153
1.633000e+00 9.142238e-01 3.125176e+00 186 175 151
-2.272732e+00 8.133289e-01 3.029155e+00 90 85 78
-1.684629e+00 9.935812e-01 3.174250e+00 90 73 58
-2.134569e+00 9.496656e-01 3.065874e+00 189 176 161
-2.134569e+00 9.496656e-01 3.065874e+00 189 176 161
2.169294e+00 9.926155e-01 3.037678e+00 105 96 79
-1.534317e+00 1.004208e+00 3.103703e+00 175 165 152
-1.564668e+00 1.020753e+00 3.104110e+00 180 171 154
-1.564668e+00 1.020753e+00 3.104110e+00 180 171 154
7.614267e-01 1.101175e+00 3.160480e+00 95 89 77
7.138127e-01 1.138247e+00 3.151078e+00 89 81 68
6.664202e-01 1.180068e+00 3.153044e+00 94 85 73
-1.856418e+00 1.113596e+00 3.080056e+00 172 158 142
-1.393540e+00 1.221446e+00 3.075525e+00 207 204 197
3.756796e-01 1.327571e+00 3.153587e+00 110 105 94
7.544229e-01 1.342100e+00 3.136563e+00 185 178 170
-5.093962e-01 1.325838e+00 3.089451e+00 197 187 180
2.544496e+00 2.388331e+00 3.020519e+00 177 169 160
2.380671e+00 2.434132e+00 3.022181e+00 183 171 165
-2.022777e+00 2.272694e+00 2.861718e+00 200 191 182
-1.466308e+00 2.241601e+00 2.762854e+00 107 93 80
6.269134e-01 2.698454e+00 3.065922e+00 53 48 40
2.587549e-01 2.665865e+00 3.019966e+00 75 71 59
2.066969e+00 2.666831e+00 3.008008e+00 153 138 124
-2.400354e+00 2.372306e+00 2.777665e+00 53 48 37
1.748859e+00 2.738982e+00 3.033962e+00 94 77 63
4.976387e-02 2.632831e+00 2.880595e+00 91 80 68
-4.896791e-02 2.610490e+00 2.854300e+00 91 83 71
-2.302581e-01 2.575806e+00 2.813700e+00 91 82 72
-6.065207e-01 2.513811e+00 2.745370e+00 83 69 58
2.138912e+00 5.169944e+00 3.097386e+00 64 50 44
-1.872656e+00 3.213032e+00 1.685337e+00 157 163 156
-1.739157e+00 5.806848e+00 2.904112e+00 169 163 155
-2.274610e+00 5.812015e+00 2.879066e+00 180 181 175
2.199271e+00 -2.428145e+00 3.002901e+00 154 143 120
4.906119e-01 -2.434839e+00 2.997589e+00 148 133 113
-1.304499e+00 -2.407050e+00 3.005992e+00 58 42 30
1.942527e+00 -2.332930e+00 2.979469e+00 25 13 6
1.960691e+00 -2.227499e+00 2.973644e+00 76 58 44
-7.163845e-01 -2.140693e+00 2.915385e+00 78 67 65
6.391493e-01 -1.513337e+00 2.927838e+00 197 188 178
4.642000e-01 -1.510108e+00 2.953043e+00 166 153 139
5.253255e-02 -1.487376e+00 2.986767e+00 65 46 29
5.029084e-02 -1.420902e+00 2.962546e+00 77 60 40
2.014419e-01 -1.380231e+00 2.961129e+00 139 122 104
1.807627e-01 -1.146445e+00 2.941969e+00 196 186 174
2.086484e-01 -1.144936e+00 2.934837e+00 198 187 187
9.441103e-01 -1.117709e+00 2.928330e+00 63 52 40
1.058544e+00 -1.106482e+00 2.898649e+00 200 187 186
-2.313539e+00 -8.879939e-01 2.941847e+00 132 117 112
-1.547232e+00 -6.847390e-01 2.921803e+00 147 129 112
6.877756e-01 6.626680e-02 3.420700e+00 195 182 174
2.324653e+00 1.592307e-02 3.116068e+00 170 162 143
5.136111e-01 1.834671e-01 3.398191e+00 202 195 192
7.615491e-01 4.061447e-01 3.464091e+00 32 24 12
2.458369e+00 5.476285e-01 3.019533e+00 180 169 154
2.458369e+00 5.476285e-01 3.019533e+00 180 169 154
-1.821473e+00 8.308102e-01 3.235219e+00 184 177 166
2.667728e-01 1.081278e+00 3.520211e+00 167 157 146
8.533855e-01 9.524482e-01 3.168858e+00 171 161 152
2.203828e+00 9.491783e-01 3.056666e+00 180 166 152
-6.063660e-01 1.023191e+00 3.140056e+00 183 173 164
-6.063660e-01 1.023191e+00 3.140056e+00 183 173 164
1.908181e+00 1.051115e+00 3.106041e+00 105 92 70
-1.531131e+00 1.028688e+00 3.081370e+00 89 82 69
-1.426456e+00 1.512181e+00 3.029355e+00 110 110 100
1.824187e+00 2.131217e+00 3.233285e+00 149 139 130
3.176185e+00 2.238654e+00 2.990675e+00 68 64 57
3.240463e+00 2.232443e+00 2.948453e+00 251 246 252
3.141266e+00 2.307170e+00 2.970720e+00 190 187 178
8.461497e-01 2.482906e+00 3.098986e+00 170 167 155
1.723322e+00 2.471136e+00 3.066121e+00 61 53 43
2.247450e+00 2.441113e+00 3.034082e+00 178 173 165
4.705121e-01 2.551813e+00 3.074569e+00 193 189 192
-2.056447e+00 2.334504e+00 2.765762e+00 84 74 68
1.869058e+00 5.182456e+00 3.146574e+00 175 166 155
2.561221e+00 5.580255e+00 2.960347e+00 186 181 173
-1.667204e+00 6.397699e+00 3.089547e+00 167 167 159
-1.724993e+00 6.335789e+00 3.050010e+00 157 162 150
-2.236083e+00 6.188493e+00 2.950535e+00 151 143 140
-2.266698e+00 6.243811e+00 2.965821e+00 77 66 64
2.828770e-01 -2.376717e+00 2.998716e+00 39 29 26
6.825142e-01 -2.217877e+00 2.970183e+00 84 69 47
1.606214e+00 -2.014925e+00 2.968988e+00 103 85 61
-1.639475e+00 -1.655663e+00 2.975086e+00 85 71 58
-1.470670e+00 -1.650408e+00 2.963636e+00 74 59 47
-6.242475e-02 -1.486203e+00 2.957254e+00 75 57 45
-1.325262e-01 -1.442966e+00 2.938199e+00 84 66 56
3.506739e-01 -1.345562e+00 2.936992e+00 102 84 69
2.516128e-01 -1.288766e+00 2.925818e+00 182 169 153
-7.481114e-01 -1.132219e+00 2.910701e+00 200 187 181
7.219632e-01 -1.127509e+00 2.929662e+00 204 195 180
2.302577e+00 2.308213e-01 3.172201e+00 47 38 28
3.492170e-01 9.053879e-01 3.533172e+00 173 162 152
-1.829909e+00 7.247465e-01 3.190707e+00 197 181 168
-6.968433e-01 1.106447e+00 3.123193e+00 190 180 170
-1.586449e+00 1.141252e+00 3.109884e+00 111 104 93
-6.473275e-01 1.257828e+00 3.091112e+00 170 157 146
1.345010e-01 1.344432e+00 3.156939e+00 174 160 147
-1.416338e+00 1.531531e+00 3.029590e+00 218 214 203
2.569056e+00 2.401262e+00 3.006584e+00 149 140 135
8.335365e-01 2.490596e+00 3.077051e+00 102 101 89
1.178713e+00 2.308222e+00 2.800370e+00 206 200 188
1.273063e+00 2.332193e+00 2.798929e+00 85 83 71
1.692619e+00 2.673870e+00 3.088685e+00 97 89 69
-2.193228e+00 2.307926e+00 2.775521e+00 104 103 99
2.317512e-01 2.619537e+00 2.987921e+00 152 149 142
-1.267812e-01 2.564324e+00 2.917640e+00 170 163 163
5.001394e-01 2.719475e+00 3.015376e+00 169 154 143
-2.322956e+00 2.368124e+00 2.741889e+00 131 128 116
-2.318422e+00 2.394822e+00 2.759433e+00 83 80 67
-2.611062e+00 2.379967e+00 2.706637e+00 140 131 124
2.714860e+00 2.924737e+00 2.874386e+00 78 71 71
2.715670e+00 2.929481e+00 2.859246e+00 172 168 159
-1.430523e+00 4.552223e+00 3.146517e+00 93 85 76
-1.467845e+00 6.502368e+00 3.141940e+00 82 70 68
-2.210984e+00 6.195875e+00 2.939581e+00 85 77 71
-1.364577e+00 -8.506749e-01 2.962348e+00 184 173 159
-3.925493e-01 -1.062767e+00 2.926940e+00 178 165 149
1.806708e+00 -7.215103e-01 2.886225e+00 177 163 144
-1.313747e+00 5.212783e-01 3.357591e+00 115 97 75
1.239768e-01 -9.339198e-01 2.968527e+00 30 14 8
2.588311e+00 -6.913846e-01 2.861674e+00 59 39 30
-1.307163e+00 -9.240975e-01 2.956222e+00 106 93 81
-4.579446e-01 -9.043460e-01 2.954190e+00 62 43 37
-1.974147e+00 -6.907142e-01 2.923131e+00 142 134 118
2.296489e-01 -7.309820e-01 2.907781e+00 50 32 21
-1.824590e-01 1.894121e-01 3.474322e+00 30 17 10
-2.437468e+00 1.884584e-02 2.900972e+00 186 178 171
-1.322002e+00 1.062177e+00 3.129847e+00 98 85 70
5.193451e-01 -8.874905e-01 2.947976e+00 182 174 155
8.531553e-01 -8.313160e-01 2.921483e+00 171 161 149
-1.198709e+00 -7.118604e-01 2.932412e+00 40 20 11
2.357915e+00 3.177513e-01 3.115604e+00 145 129 111
2.502684e+00 4.039098e-01 3.036290e+00 182 173 159
2.502684e+00 4.039098e-01 3.036290e+00 182 173 159
1.375281e-01 1.291840e+00 3.375480e+00 125 111 100
9.646928e-02 1.128076e+00 3.108807e+00 125 111 100
-4.706300e-01 1.321737e+00 3.108561e+00 189 179 170
-1.787633e+00 1.261749e+00 3.089383e+00 125 112 96
-1.806759e+00 1.287876e+00 3.067825e+00 189 181 173
9.358623e-01 2.553621e+00 3.103726e+00 101 91 75
-1.327598e+00 2.305919e+00 2.769994e+00 160 153 147
4.046301e-01 -1.146122e+00 2.934463e+00 204 195 185
-2.050538e+00 -8.845464e-01 2.942168e+00 87 79 68
-1.508512e+00 -6.679510e-01 2.926530e+00 92 73 61
1.868749e+00 5.442538e-02 3.148340e+00 199 196 183
1.823952e+00 1.685946e-01 3.205826e+00 90 76 60
7.869641e-01 5.393378e-01 3.471985e+00 28 16 7
2.281026e+00 3.877952e-01 3.142610e+00 93 74 57
9.549350e-01 5.529291e-01 3.225552e+00 109 97 80
-3.159522e-02 8.529567e-01 3.525474e+00 202 197 188
2.155727e+00 8.598825e-01 3.111081e+00 90 80 63
-1.272020e+00 7.766431e-01 3.155594e+00 189 179 169
1.768755e+00 1.019985e+00 3.123405e+00 185 169 144
-1.276721e+00 1.153400e+00 3.129906e+00 104 90 77
6.133612e-01 1.253437e+00 3.144112e+00 184 180 168
3.258177e+00 2.236323e+00 2.932648e+00 127 135 137
3.258177e+00 2.236323e+00 2.932648e+00 127 135 137
1.172481e+00 2.382552e+00 2.807318e+00 182 173 164
3.318560e+00 5.215717e+00 2.927794e+00 151 156 157
5.042427e-01 1.396721e+00 3.120097e+00 107 98 85
1.833734e+00 2.702220e+00 3.042570e+00 176 164 151
2.195175e+00 9.211205e-01 3.057215e+00 107 95 71
1.821022e+00 1.019039e+00 3.116893e+00 112 96 78
1.172825e+00 -1.399435e+00 2.909278e+00 191 185 170
-1.493752e+00 -1.225308e+00 2.932252e+00 106 90 79
1.709269e+00 -8.325222e-01 2.915347e+00 189 179 166
2.774089e+00 -6.178655e-01 2.866442e+00 107 92 75
2.322825e+00 5.757912e+00 2.985500e+00 124 120 115
2.253026e+00 -8.126152e-01 2.883118e+00 197 188 179
8.694267e-01 -1.776331e+00 2.926203e+00 190 183 171
3.399683e-01 -1.355616e+00 2.934894e+00 98 73 54
4.804495e-01 -1.300179e+00 2.936580e+00 190 182 163
6.974723e-01 -1.087660e+00 2.936344e+00 36 19 10
9.959959e-01 -1.080098e+00 2.911060e+00 68 53 45
-1.694170e+00 2.300246e+00 2.780107e+00 142 135 129
3.201753e+00 2.324718e+00 2.966729e+00 248 253 255
3.846659e-01 2.652251e+00 2.965808e+00 104 96 85
1.076191e+00 -1.993215e+00 2.889785e+00 192 188 179
-6.772680e-02 -1.103706e+00 2.935961e+00 51 33 24
2.482433e+00 -8.775297e-01 2.885580e+00 73 61 52
3.104984e+00 2.634521e-01 3.002728e+00 109 107 116
3.104984e+00 2.634521e-01 3.002728e+00 109 107 116
1.120913e-01 1.205007e+00 3.556744e+00 154 144 127
1.120913e-01 1.205007e+00 3.556744e+00 154 144 127
1.525378e+00 1.244224e+00 3.120177e+00 179 174 158
-1.478172e+00 1.341988e+00 3.059387e+00 121 104 94
3.064186e+00 1.116210e+00 2.993030e+00 175 174 161
-8.601192e-01 1.750848e+00 2.312032e+00 175 165 155
1.131543e+00 -2.314438e+00 2.904452e+00 214 205 196
-1.371198e+00 -1.455243e+00 2.939563e+00 199 193 180
2.685208e+00 -3.940530e-01 2.853331e+00 180 172 157
2.623321e+00 -3.919715e-01 2.854655e+00 188 179 162
-2.400354e+00 2.372306e+00 2.777665e+00 53 48 37
2.135544e+00 1.024478e+00 3.048457e+00 101 95 83
7.507249e-01 1.214524e+00 3.173681e+00 145 137 124
-1.864820e+00 2.407215e+00 2.737875e+00 172 166 152
5.768371e-02 2.756056e-01 3.211652e+00 41 30 30
-1.828886e+00 1.116498e+00 3.077224e+00 165 149 136
2.406829e+00 1.530852e+00 3.058579e+00 67 55 53
3.187121e+00 2.272308e+00 2.994010e+00 169 173 161
-2.094707e-01 4.166189e-01 3.506959e+00 57 46 53
1.230871e+00 2.603758e+00 2.840787e+00 179 166 150
4.431692e-01 -2.218531e+00 3.011785e+00 155 144 126
2.139080e-01 -2.228746e+00 3.013666e+00 115 102 86
2.690994e-01 -2.188711e+00 3.024428e+00 155 139 122
5.543241e-01 -2.518894e+00 3.024824e+00 120 107 90
8.896189e-01 -2.463562e+00 2.926616e+00 154 144 127
5.024997e-01 -2.420728e+00 2.996911e+00 134 124 105
4.064475e-01 -1.992189e+00 3.054665e+00 142 129 112
1.805211e-01 -1.879722e+00 3.072822e+00 135 118 96
-1.182137e-01 -1.502228e+00 2.948110e+00 146 132 114
-1.474225e-02 -1.452593e+00 2.928689e+00 141 128 111
8.208920e-02 -1.395037e+00 2.931145e+00 133 117 105
5.976365e-01 -2.689087e+00 3.001602e+00 76 57 42
8.852098e-01 -2.534806e+00 2.944089e+00 141 128 108
7.586283e-01 -2.466244e+00 2.959632e+00 146 139 120
7.586283e-01 -2.466244e+00 2.959632e+00 146 139 120
8.423216e-01 -1.920416e+00 2.909914e+00 164 152 131
-2.896360e-01 -1.136422e+00 2.947832e+00 174 167 161
8.134158e-01 -2.651955e+00 2.964413e+00 115 103 87
8.134158e-01 -2.651955e+00 2.964413e+00 115 103 87
6.205602e-01 -2.526822e+00 2.976798e+00 141 128 111
8.821239e-01 -2.381565e+00 2.930950e+00 54 36 24
1.705359e-01 -2.330774e+00 3.002655e+00 165 150 131
6.049531e-01 -2.149739e+00 2.991912e+00 90 69 48
8.949341e-01 -2.064674e+00 2.922839e+00 169 153 132
-3.970272e-01 -1.306209e+00 2.934480e+00 189 179 166
6.564686e-01 -1.206604e+00 2.906144e+00 115 103 97
1.415504e+00 -1.123667e+00 2.906103e+00 208 200 196
-1.434838e-01 -9.093660e-01 2.933544e+00 114 102 86
9.605338e-01 1.268677e+00 3.186861e+00 165 153 137
8.460029e-01 -2.638697e+00 2.960186e+00 50 30 21
6.533794e-01 -2.510983e+00 2.970313e+00 94 76 61
5.797276e-01 -2.464531e+00 2.982210e+00 133 124 108
7.230921e-01 -2.445776e+00 2.972802e+00 51 33 20
5.630881e-01 -2.403288e+00 2.988463e+00 42 29 20
8.777656e-01 -2.411585e+00 2.938532e+00 148 136 113
5.365466e-01 -2.096757e+00 3.012979e+00 77 56 32
5.365466e-01 -2.096757e+00 3.012979e+00 77 56 32
6.014077e-01 -2.099306e+00 2.990602e+00 69 46 32
2.380491e-01 -1.989566e+00 3.045138e+00 90 72 50
5.335814e-01 4.519085e-01 3.463963e+00 185 177 169
-4.248436e-01 9.872799e-01 3.405853e+00 150 138 126
5.943315e-01 -2.666704e+00 2.983554e+00 66 49 34
8.077044e-01 -2.410870e+00 2.946768e+00 152 137 120
2.094312e-02 -2.344571e+00 3.004808e+00 163 149 123
4.431692e-01 -2.218531e+00 3.011785e+00 155 144 126
6.845042e-01 -2.100094e+00 2.970009e+00 142 126 102
7.963070e-01 -9.182035e-01 2.939963e+00 191 178 170
1.103761e+00 -8.594385e-01 2.910709e+00 169 161 148
-1.364965e+00 8.280543e-01 3.147781e+00 105 92 75
9.306402e-01 -2.462077e+00 2.942951e+00 97 80 62
7.483871e-01 -2.316319e+00 2.951312e+00 97 80 58
7.391584e-01 -2.273565e+00 2.953195e+00 174 152 131
5.123641e-01 -2.249024e+00 3.008917e+00 105 92 75
1.039156e+00 -2.253592e+00 2.890557e+00 190 178 166
7.648442e-01 -2.216124e+00 2.946977e+00 154 139 117
5.723373e-01 -2.030976e+00 3.003543e+00 140 124 107
4.728702e-02 -1.922009e+00 3.054091e+00 81 60 41
7.837505e-01 -1.701460e+00 2.921078e+00 93 76 60
8.042969e-01 -1.697140e+00 2.925388e+00 202 193 176
8.540151e-01 -1.262635e+00 2.918243e+00 139 127 113
8.748565e-01 -1.087601e+00 2.935883e+00 44 30 20
9.169259e-01 -1.049891e+00 2.914534e+00 177 165 152
7.473826e-01 -9.886458e-01 2.932871e+00 197 187 178
-1.366630e+00 8.770782e-01 3.122606e+00 178 169 160
-1.400493e+00 9.033239e-01 3.118199e+00 180 172 160
8.181410e-01 1.392848e+00 3.170778e+00 159 142 129
6.757879e-01 -2.653305e+00 2.976274e+00 140 128 110
5.750494e-01 -2.439604e+00 2.988126e+00 77 63 52
4.836165e-01 -2.409388e+00 3.005645e+00 148 135 118
8.836561e-01 -2.311635e+00 2.929571e+00 165 151 130
2.842660e-01 -2.269571e+00 3.011427e+00 118 105 86
8.305099e-03 -2.239846e+00 3.017774e+00 104 89 68
9.524139e-01 -2.262323e+00 2.916567e+00 184 174 162
6.060391e-01 -2.229676e+00 2.980739e+00 85 68 52
7.985864e-01 -2.202270e+00 2.942685e+00 76 59 43
2.151343e-01 -2.158761e+00 3.021835e+00 71 53 39
1.556413e-01 -2.075588e+00 3.033301e+00 146 130 112
6.283897e-01 -1.982378e+00 2.987847e+00 75 58 40
6.905225e-02 -1.910330e+00 3.061246e+00 140 127 108
5.014016e-01 -1.729828e+00 2.994408e+00 72 55 34
-1.590339e-01 -1.653083e+00 2.981172e+00 146 129 113
1.051458e-01 -1.403737e+00 2.955231e+00 165 148 138
1.106147e-01 -1.384409e+00 2.962712e+00 105 89 74
-8.665904e-02 -1.375128e+00 2.932484e+00 161 151 139
3.850169e-01 -1.363118e+00 2.929885e+00 91 78 66
1.300071e+00 -4.082646e-01 2.914700e+00 103 89 74
1.934307e+00 7.837932e-01 3.165982e+00 180 175 165
9.474737e-01 8.499458e-01 3.173534e+00 82 73 63
1.854228e+00 1.058274e+00 3.106415e+00 190 174 151
1.865429e+00 1.087642e+00 3.092391e+00 102 91 78
6.865941e-01 -2.644507e+00 2.973126e+00 78 65 50
5.680577e-01 -2.582125e+00 2.982702e+00 98 85 66
4.777874e-01 -2.304899e+00 3.011471e+00 158 147 125
8.812311e-02 -2.294733e+00 3.006384e+00 113 98 75
4.738500e-01 -2.172829e+00 3.022290e+00 143 125 101
1.802746e-01 -2.169657e+00 3.021154e+00 89 73 58
6.202497e-01 -2.177955e+00 2.987223e+00 146 130 112
3.829830e-02 -2.095602e+00 3.033407e+00 94 84 64
5.240648e-01 -2.064839e+00 3.012835e+00 135 116 99
5.244428e-01 -2.051221e+00 3.012796e+00 96 78 57
1.408689e-01 -1.861777e+00 3.077141e+00 132 123 108
-1.189524e-01 -1.540394e+00 2.952264e+00 159 142 126
3.621736e-01 -1.129640e+00 2.946976e+00 78 66 55
1.597961e+00 -6.742041e-01 2.889962e+00 145 126 107
1.867950e+00 2.104959e-02 3.148414e+00 176 164 149
1.838720e+00 1.262894e-01 3.195591e+00 161 148 132
1.877217e+00 1.267358e-01 3.164551e+00 166 154 137
-1.336225e+00 1.042748e+00 3.113389e+00 95 85 75
1.031462e+00 3.532176e-01 3.197797e+00 101 90 70
-1.185354e+00 9.509288e-01 3.134693e+00 116 106 94
1.840455e+00 1.292401e+00 3.104857e+00 157 140 123
-2.519238e-01 1.312725e+00 3.103609e+00 179 173 162
-8.363945e-01 1.859282e-01 2.835459e+00 192 184 177
2.247492e-01 1.307473e+00 3.133883e+00 153 145 134
4.659974e-01 2.992432e-01 3.467672e+00 195 189 178
-5.469045e-01 1.342463e+00 3.073789e+00 151 141 133
4.392970e-01 3.309407e-01 3.486038e+00 25 12 4
2.489077e-02 4.737194e-01 3.511933e+00 34 21 15
2.714860e+00 2.924737e+00 2.874386e+00 78 71 71
-1.646567e+00 5.905823e-01 3.186448e+00 143 139 128
2.468331e+00 -1.384191e+00 2.867228e+00 207 206 198
1.728847e+00 -1.265029e+00 2.894385e+00 194 182 170
2.280070e+00 8.139467e-01 3.064004e+00 119 108 88
2.178723e+00 -1.591427e+00 2.882637e+00 207 201 187
-1.865386e+00 1.028321e+00 3.208331e+00 154 146 129
-2.536362e+00 1.292225e+00 2.805812e+00 101 89 80
2.131569e+00 1.309907e+00 3.068552e+00 173 159 144
1.185025e+00 1.127068e+00 2.980733e+00 204 200 199
1.119810e+00 -2.022128e+00 2.898206e+00 125 113 98
-8.328906e-01 -1.414246e+00 2.908052e+00 201 198 190
-1.427703e+00 1.249016e+00 3.046261e+00 184 175 168
1.440045e+00 -2.359453e+00 2.975227e+00 143 129 112
-1.003533e+00 -1.836733e+00 2.940837e+00 197 192 185
-1.017109e-02 -1.024415e+00 2.929005e+00 176 159 145
-4.505323e-01 2.192741e-01 3.464750e+00 55 51 56
1.177177e+00 9.372486e-02 2.849400e+00 194 190 179
-2.399428e+00 2.407795e+00 2.866466e+00 30 27 22
2.525872e+00 2.499477e+00 3.022997e+00 37 26 25
1.224955e+00 -1.376714e+00 2.886705e+00 208 202 196
1.966125e+00 2.446329e+00 3.140577e+00 77 68 61
-2.324160e+00 1.996260e+00 3.062145e+00 27 18 17
-3.549057e-01 -1.348025e+00 2.931023e+00 167 149 127
1.670495e+00 -1.060512e+00 2.909298e+00 177 167 147
-1.744359e+00 -1.013438e+00 2.942186e+00 175 163 151
-2.147186e+00 1.846240e+00 3.142809e+00 191 185 177
-8.371234e-01 1.785744e+00 2.191000e+00 110 107 87
1.786596e+00 -2.336187e+00 2.956350e+00 21 5 9
2.448140e-01 -1.101510e+00 2.936721e+00 79 59 45
1.765418e+00 -8.848288e-01 2.899640e+00 90 75 67
-2.322916e-01 2.072799e-01 3.474078e+00 29 19 16
2.031272e+00 4.861738e-01 3.120688e+00 190 183 173
-8.001216e-01 5.429543e-01 2.769354e+00 171 165 152
-1.881121e-01 -1.459103e+00 2.933725e+00 211 199 188
-1.788755e+00 -1.281617e+00 2.938874e+00 193 186 176
8.941047e-01 -1.122116e+00 2.930890e+00 47 31 31
2.450387e+00 1.530826e+00 3.050216e+00 65 56 59
-1.669067e+00 -1.282840e+00 2.933248e+00 191 182 164
-1.389090e+00 -1.129529e+00 2.935835e+00 59 45 38
-1.416200e+00 -1.118640e+00 2.956083e+00 185 178 175
-2.991038e-01 1.489207e-03 3.445057e+00 194 187 181
-1.169631e-01 9.353687e-01 3.587311e+00 182 175 170
-7.629928e-01 1.092630e+00 2.688339e+00 164 157 146
2.106472e+00 -1.086010e+00 2.878955e+00 199 197 180
-3.797250e-01 1.555902e-01 3.469926e+00 229 219 217
-1.806204e+00 3.697075e-01 3.144242e+00 208 202 191
-8.349626e-01 1.754458e+00 2.348940e+00 139 127 115
3.188747e+00 2.405844e+00 2.969840e+00 242 255 252
1.035156e+00 5.391575e+00 3.135235e+00 163 144 141
7.026888e-01 4.745663e-02 3.425722e+00 87 76 70
-7.153245e-01 1.851515e+00 3.115077e+00 85 80 69
2.400487e+00 5.116877e+00 3.050246e+00 32 32 26
1.257601e+00 -7.317829e-01 2.876035e+00 192 175 156
1.134657e+00 -9.066187e-01 2.894364e+00 187 180 164
1.250551e+00 -8.226123e-01 2.892800e+00 180 172 154
-8.363945e-01 1.859282e-01 2.835459e+00 192 184 177
2.190122e+00 2.128246e+00 3.165831e+00 26 20 22
2.474926e+00 5.039881e+00 3.012911e+00 67 55 46
4.760565e-01 1.160681e+00 3.376213e+00 91 74 51
1.976086e+00 1.119821e+00 3.097749e+00 111 99 83
-1.964459e-01 7.769501e-01 3.547626e+00 33 20 19
2.156033e+00 7.829577e-01 3.136980e+00 167 159 143
2.279172e+00 2.262881e+00 3.153972e+00 119 108 106
2.027408e+00 5.172711e+00 3.065641e+00 193 181 170
1.978818e+00 -6.919889e-01 2.877930e+00 161 141 119
-4.166027e-01 -6.710062e-01 2.882664e+00 102 84 64
1.886189e+00 1.009688e-01 3.149182e+00 134 119 106
2.134787e+00 9.462456e-01 3.112306e+00 155 144 125
-6.116606e-01 9.496908e-01 3.173691e+00 184 172 156
-1.640840e+00 1.039568e+00 3.116993e+00 106 99 81
2.166141e+00 2.249668e+00 3.169869e+00 26 12 9
-6.323367e-01 2.441976e+00 2.655984e+00 70 60 48
-1.778670e+00 1.088740e+00 3.098864e+00 102 93 76
2.348541e+00 2.180996e+00 3.119550e+00 93 86 65
-4.854740e-01 1.298046e+00 3.080865e+00 200 193 180
1.270881e+00 2.438398e+00 2.792717e+00 194 190 178
1.931365e+00 2.492111e+00 3.056879e+00 72 65 57
1.640116e-01 -2.109959e+00 3.036867e+00 148 137 119
1.131543e+00 -2.314438e+00 2.904452e+00 214 205 196
3.282159e-01 -2.352416e+00 3.004445e+00 105 93 76
1.383727e-01 -2.069444e+00 3.032669e+00 100 84 68
1.535046e+00 -1.432593e+00 2.893261e+00 184 174 157
1.656003e+00 2.306015e+00 3.228036e+00 136 123 111
1.226976e+00 -1.872211e-01 2.920340e+00 205 198 191
2.181877e+00 2.232384e-01 3.095518e+00 54 52 57
-2.122504e+00 1.143606e+00 3.042163e+00 195 185 175
-1.546867e+00 1.960827e+00 3.227058e+00 175 167 156
2.741972e+00 5.844727e+00 3.077726e+00 174 173 168
8.657645e-01 1.654886e-01 3.332301e+00 159 149 136
2.489954e+00 -4.316779e-01 2.855279e+00 110 97 88
1.897528e+00 -6.782636e-01 2.876981e+00 77 59 41
2.553281e+00 -5.544762e-01 2.811387e+00 208 207 202
2.334906e+00 1.497701e+00 3.070444e+00 190 185 178
-2.139978e+00 2.189534e+00 2.750575e+00 169 168 160
-3.005144e+00 6.238564e+00 3.056875e+00 178 174 167
9.600153e-01 -1.218959e+00 2.868116e+00 88 70 60
3.916966e-01 -8.607730e-01 2.925345e+00 187 174 160
3.916966e-01 -8.607730e-01 2.925345e+00 187 174 160
1.441463e+00 6.525843e-01 3.168903e+00 168 153 141
-1.837302e+00 7.714585e-01 3.193500e+00 177 169 161
1.876955e+00 2.462578e+00 3.108999e+00 83 75 67
2.532042e+00 2.639549e+00 3.015807e+00 150 142 131
-8.553762e-01 1.820813e+00 2.036695e+00 180 173 160
2.549584e+00 -2.061909e+00 2.958871e+00 185 183 171
2.632290e+00 -2.015387e+00 2.959283e+00 77 66 48
4.984270e-01 -1.517970e+00 2.946259e+00 137 121 108
1.341623e+00 -1.045607e+00 2.906451e+00 159 143 128
1.142493e+00 -1.020005e+00 2.896162e+00 167 157 141
-1.364577e+00 -8.506749e-01 2.962348e+00 184 173 159
1.149898e+00 -8.320286e-01 2.882570e+00 181 174 163
2.726020e+00 -7.238406e-01 2.931301e+00 66 49 34
1.090910e+00 -4.258502e-02 2.932221e+00 185 177 166
1.614308e+00 1.735053e+00 3.246693e+00 48 42 43
2.349905e+00 2.349551e+00 3.015087e+00 174 172 159
2.526290e+00 2.383969e+00 3.049284e+00 111 108 97
1.172481e+00 2.382552e+00 2.807318e+00 182 173 164
2.506133e+00 -2.128867e+00 2.969343e+00 111 95 76
-1.798228e+00 -1.140955e+00 2.939728e+00 203 200 195
2.572727e+00 -1.910990e-02 2.880934e+00 190 188 176
1.929070e+00 2.602803e-01 3.118959e+00 198 191 181
-6.402374e-01 1.128713e+00 3.172900e+00 174 164 152
2.328697e+00 1.641894e+00 3.033487e+00 194 188 179
1.780366e+00 2.195946e+00 3.237903e+00 36 27 23
2.377443e+00 2.579230e+00 3.057189e+00 39 29 24
-7.845327e-01 1.812843e+00 2.160345e+00 196 193 182
1.422311e+00 -2.429796e+00 2.964544e+00 150 138 120
2.310355e+00 -2.398284e+00 3.009468e+00 60 42 31
1.291742e+00 -2.380524e+00 2.931692e+00 153 141 129
2.429772e+00 -2.346564e+00 3.008559e+00 175 170 157
2.566170e+00 -2.139332e+00 2.977654e+00 185 177 166
2.424655e+00 -2.021752e+00 2.933316e+00 96 84 68
1.000763e+00 -2.062249e+00 2.901920e+00 114 102 90
1.013350e+00 -2.013773e+00 2.890235e+00 192 188 181
8.191204e-01 -1.775835e+00 2.927032e+00 121 105 86
2.524981e+00 -1.037107e+00 2.868761e+00 92 77 64
1.076427e+00 -1.074554e+00 2.911987e+00 84 65 52
1.852830e+00 -7.638775e-01 2.892686e+00 79 61 48
2.534772e+00 -4.341401e-01 2.874998e+00 111 98 83
2.539499e+00 2.918410e-02 2.877262e+00 80 69 57
2.650706e+00 6.701504e-01 2.926111e+00 189 177 163
-5.775498e-01 1.140589e+00 3.111342e+00 95 85 68
1.458381e+00 1.189857e+00 3.157287e+00 174 159 138
-1.340478e+00 1.147281e+00 3.109221e+00 176 166 154
-7.469957e-01 1.797166e+00 2.204945e+00 100 92 76
-1.868142e+00 -2.086872e+00 3.018667e+00 146 133 117
5.438034e-01 -1.097839e+00 2.941279e+00 162 150 134
-2.209780e-01 -1.008128e+00 2.937005e+00 194 181 166
2.255713e+00 9.902632e-01 3.067151e+00 209 206 195
1.209172e+00 2.456271e+00 2.828163e+00 167 151 140
1.252923e+00 1.732537e-01 2.890166e+00 113 107 94
-1.272020e+00 7.766431e-01 3.155594e+00 189 179 169
3.591048e-01 2.590738e+00 3.029077e+00 101 88 79
2.158015e+00 1.749161e+00 3.176813e+00 34 25 30
2.619789e+00 -1.938567e+00 2.936244e+00 194 192 177
1.330396e+00 -1.091671e+00 2.908545e+00 178 162 149
-2.621024e-01 5.881521e-01 3.505240e+00 216 203 195
6.829096e-01 -1.405868e+00 2.911377e+00 170 158 143
1.062842e+00 -2.311548e+00 2.904941e+00 184 174 165
2.550026e+00 -1.947219e+00 2.931671e+00 57 42 42
8.213116e-01 -9.008364e-01 2.946876e+00 91 73 61
1.256638e+00 -2.664871e+00 2.971224e+00 90 75 56
-1.490584e+00 -1.396514e+00 2.940668e+00 208 195 179
-2.331441e+00 7.224227e-01 3.035933e+00 98 89 80
-2.237572e+00 8.341475e-01 3.052504e+00 186 178 163
-2.185492e+00 8.970117e-01 3.058833e+00 189 179 167
2.194826e+00 2.069524e+00 3.186490e+00 32 23 27
2.194826e+00 2.069524e+00 3.186490e+00 32 23 27
3.224921e+00 5.096738e+00 2.962084e+00 117 113 105
3.078682e+00 6.399641e-01 2.992176e+00 172 175 168
3.289806e+00 5.244122e+00 2.905325e+00 246 253 254
3.278736e+00 2.873974e+00 2.951748e+00 240 252 248
3.120714e+00 2.742139e-01 3.002431e+00 244 250 247
1.547495e+00 -1.622087e+00 2.914437e+00 123 104 87
4.539703e-01 -1.944870e+00 3.032180e+00 79 56 43
1.773975e+00 -1.114430e+00 2.882334e+00 191 184 178
5.691170e-01 -2.484010e+00 2.987947e+00 139 128 109
9.757836e-01 -1.908632e+00 2.908071e+00 152 140 126
6.533794e-01 -2.510983e+00 2.970313e+00 94 76 61
-1.149475e+00 -2.420632e+00 3.001245e+00 149 135 116
1.592716e-01 -1.338651e+00 2.951805e+00 145 128 108
5.842515e-01 -2.222771e+00 2.997367e+00 142 130 108
1.079203e+00 -2.130257e+00 2.898712e+00 90 75 61
-9.638011e-01 -1.908347e+00 2.947228e+00 190 178 166
-1.132984e+00 -1.841492e+00 2.954118e+00 85 67 48
2.240246e-01 -2.631438e+00 2.985032e+00 99 85 73
1.564591e+00 -2.131779e+00 2.973909e+00 158 141 119
1.745360e+00 -1.939612e+00 2.970249e+00 107 92 72
1.583033e+00 -1.908326e+00 2.975264e+00 103 86 68
-9.690142e-01 -1.925848e+00 2.941593e+00 118 100 86
6.330179e-01 -2.338503e+00 2.977538e+00 113 102 82
6.875403e-01 -2.228363e+00 2.964855e+00 154 142 120
5.244428e-01 -2.051221e+00 3.012796e+00 96 78 57
1.701508e+00 5.259049e+00 3.153639e+00 24 19 26
-2.122504e+00 1.143606e+00 3.042163e+00 195 185 175
8.620597e-01 5.390446e-01 3.357082e+00 155 138 122
9.939173e-01 3.627204e-01 3.172579e+00 128 115 99
3.226156e+00 5.245314e+00 2.984173e+00 97 88 86
6.541439e-01 -1.487764e+00 2.935883e+00 186 182 173
-1.017109e-02 -1.024415e+00 2.929005e+00 176 159 145
9.434171e-01 -8.496336e-01 2.935739e+00 177 171 160
1.107489e+00 2.154834e+00 2.882915e+00 181 173 162
2.827753e+00 5.235199e+00 2.933511e+00 108 104 96
8.125533e-01 1.570660e+00 3.138114e+00 158 151 143
2.438079e+00 1.631398e+00 3.078082e+00 51 46 42
2.644201e+00 1.415742e+00 2.848951e+00 162 155 147
1.810395e+00 5.218510e+00 3.191106e+00 24 22 27
5.832396e-01 -1.501561e+00 2.936455e+00 100 82 65
1.676393e+00 -9.955324e-01 2.900055e+00 181 173 154
4.225071e-01 -7.305968e-01 2.917350e+00 48 29 24
9.850928e-01 -7.250786e-01 2.906748e+00 41 24 15
1.202205e+00 -7.232548e-01 2.896749e+00 43 28 20
1.435484e+00 -7.306724e-01 2.895143e+00 168 156 140
2.397684e+00 9.404793e-01 3.040376e+00 184 175 160
2.469624e+00 1.052527e+00 3.027566e+00 172 163 146
-1.377202e+00 -1.603688e+00 2.955922e+00 161 151 139
7.464894e-01 -1.671693e+00 2.912364e+00 112 95 75
1.079480e-02 -1.131493e+00 2.943986e+00 198 187 181
1.086084e+00 -1.111063e+00 2.896016e+00 88 70 60
1.748271e+00 -1.067227e+00 2.900248e+00 105 89 75
-7.170518e-01 -9.006148e-01 2.922754e+00 72 53 41
1.306110e+00 -9.874238e-01 2.918629e+00 162 149 130
1.579945e+00 -8.942025e-01 2.922884e+00 105 87 75
1.389577e+00 -7.206703e-01 2.911646e+00 51 31 21
1.529919e+00 -7.018641e-01 2.905034e+00 49 29 22
-7.167112e-01 -4.547344e-01 2.903566e+00 109 91 81
1.872301e+00 7.378284e-01 3.195897e+00 181 170 150
2.445648e+00 9.769173e-01 3.027161e+00 107 91 75
2.561673e+00 1.085237e+00 3.010598e+00 169 155 146
1.704612e+00 2.651213e+00 3.096081e+00 38 31 20
2.395789e+00 2.750619e+00 2.957051e+00 68 62 46
2.820043e+00 2.820984e+00 2.880702e+00 206 198 191
2.782366e+00 5.242314e+00 2.923190e+00 63 55 52
-1.168180e+00 -1.802666e+00 2.955983e+00 88 69 52
-1.209339e+00 -1.763181e+00 2.947670e+00 98 77 61
-1.318185e+00 -1.675748e+00 2.955655e+00 86 68 54
-1.405174e+00 -1.266264e+00 2.940083e+00 127 117 108
-1.349071e+00 -1.248906e+00 2.928065e+00 160 155 144
2.062277e-01 -1.335751e+00 2.951781e+00 141 125 109
2.334115e-01 -1.131971e+00 2.950457e+00 53 34 27
1.079592e+00 -8.939238e-01 2.937646e+00 72 54 41
1.141443e-01 -8.213043e-01 2.963444e+00 81 59 48
1.141443e-01 -8.213043e-01 2.963444e+00 81 59 48
1.772836e+00 -9.290315e-01 2.932341e+00 83 70 54
8.531553e-01 -8.313160e-01 2.921483e+00 171 161 149
1.042163e+00 -8.324813e-01 2.899549e+00 164 151 134
1.613440e+00 -8.250867e-01 2.901435e+00 172 158 144
1.798365e+00 -8.191554e-01 2.895076e+00 183 170 154
1.981838e+00 -8.121018e-01 2.895215e+00 184 168 153
1.350950e+00 -7.349585e-01 2.901257e+00 189 175 162
1.903332e+00 -6.876841e-01 2.889607e+00 50 30 19
6.283515e-01 -4.441767e-01 2.944218e+00 106 88 76
1.896993e+00 1.596126e-01 3.143639e+00 101 89 71
-1.699471e+00 8.543708e-01 3.239100e+00 161 153 142
2.134904e+00 5.578204e-01 3.109121e+00 201 194 182
2.517838e+00 5.960526e-01 3.034538e+00 180 178 161
1.817984e+00 8.502087e-01 3.204981e+00 89 79 64
1.697882e+00 1.628808e+00 3.118934e+00 198 190 191
2.273973e+00 2.108506e+00 3.124283e+00 134 125 116
-1.828612e+00 2.310251e+00 2.836650e+00 191 184 178
2.350181e+00 2.181439e+00 3.042144e+00 188 181 171
1.285669e-01 2.659125e+00 2.958690e+00 146 136 127
2.685613e+00 2.274365e+00 2.883238e+00 142 140 127
-1.161722e+00 -1.845337e+00 2.968767e+00 135 121 105
3.711428e-01 -1.754136e+00 3.031516e+00 64 46 30
4.919610e-01 -1.562808e+00 2.959479e+00 88 71 50
3.338398e-01 -1.503488e+00 2.978538e+00 125 108 90
7.249491e-02 -1.417051e+00 2.970019e+00 151 136 115
2.617303e-01 -1.397881e+00 2.955601e+00 154 142 126
1.350960e+00 -1.126035e+00 2.912914e+00 165 154 148
1.326512e+00 -1.109280e+00 2.918573e+00 63 49 40
1.513946e+00 -1.097578e+00 2.913283e+00 76 62 48
1.667357e+00 -9.258398e-01 2.898243e+00 201 195 182
1.442236e-01 -8.276905e-01 2.958035e+00 163 150 137
1.746256e+00 -8.614347e-01 2.891091e+00 207 198 192
1.556391e+00 -8.197345e-01 2.918402e+00 180 168 156
1.041192e+00 -4.135951e-01 2.907785e+00 165 154 147
1.796201e+00 -4.834695e-02 3.215800e+00 175 166 152
1.807851e+00 1.050196e-01 3.229259e+00 162 151 133
-6.879220e-02 8.287346e-01 3.539596e+00 17 7 2
-2.321238e+00 6.908290e-01 3.043732e+00 186 176 166
2.506008e+00 3.233120e-01 3.019245e+00 176 167 149
-2.442425e+00 9.958166e-01 3.005101e+00 111 105 101
2.172070e+00 7.527583e-01 3.100642e+00 106 97 83
-1.655367e+00 1.066741e+00 3.095856e+00 189 178 167
2.116879e+00 8.030297e-01 3.130301e+00 67 58 45
2.012502e+00 9.680207e-01 3.186197e+00 78 62 49
1.728669e+00 9.940883e-01 3.135342e+00 185 170 146
-1.773185e+00 1.304115e+00 3.084977e+00 192 179 171
2.516230e+00 1.513239e+00 3.029445e+00 48 39 45
-1.469194e+00 2.207028e+00 3.219208e+00 162 157 143
-1.438420e+00 2.270328e+00 2.781649e+00 175 170 158
1.616992e+00 2.640890e+00 3.071755e+00 172 165 150
1.892696e+00 2.627925e+00 3.025568e+00 157 150 138
2.233246e+00 2.594467e+00 3.008747e+00 160 149 130
2.730374e+00 2.375068e+00 2.882185e+00 199 197 184
2.924498e+00 2.649211e+00 2.878786e+00 67 60 50
