ply
format ascii 1.0
element face 0
property list uchar int vertex_indices
element vertex 956
property float x
property float y
property float z
property uchar diffuse_red
property uchar diffuse_green
property uchar diffuse_blue
end_header
-1.725385e+00 1.277313e+01 -9.408742e+00 81 122 146
-1.725385e+00 1.277313e+01 -9.408742e+00 81 122 146
-5.928713e-01 1.310209e+00 3.048761e+00 137 137 129
1.439022e-01 4.328953e-01 2.844931e+00 50 57 59
2.052057e+00 -2.398560e+00 2.180468e+00 15 14 15
1.845695e-01 1.463650e-01 3.108602e+00 114 119 114
1.845695e-01 1.463650e-01 3.108602e+00 114 119 114
3.799777e-01 2.820053e-01 2.856939e+00 49 52 58
1.504827e+00 2.176046e+00 3.080048e+00 49 51 47
1.548553e+00 -8.308687e-01 2.563632e+00 113 110 95
-1.966105e-01 -8.556052e-01 3.085971e+00 162 160 147
1.571297e+00 -7.960014e-01 2.947787e+00 137 131 117
2.485701e-01 -1.962319e-01 3.074530e+00 46 51 53
3.842330e-01 -1.325281e-01 2.960093e+00 45 51 50
4.921202e-01 -1.720014e-02 2.805088e+00 47 50 55
4.331152e-01 3.961131e-01 2.945617e+00 50 55 58
-4.343950e-01 2.518148e+00 2.940552e+00 45 45 46
4.316152e-01 5.658893e-01 2.663666e+00 143 143 122
-1.657411e-01 5.020594e-01 2.928793e+00 157 159 146
1.171801e+00 2.088194e+00 3.221321e+00 150 152 142
2.672864e+00 -2.362083e+00 2.700438e+00 164 166 155
1.324143e+00 -6.606833e-01 2.983924e+00 60 57 51
3.710325e-01 6.545697e-01 2.870433e+00 145 147 139
3.710325e-01 6.545697e-01 2.870433e+00 145 147 139
2.139665e+00 1.622184e+00 2.967861e+00 114 120 114
2.139005e+00 1.845987e+00 2.953368e+00 122 121 117
2.138851e+00 1.888491e+00 2.963287e+00 120 122 116
-2.251068e+00 1.924189e+00 3.053812e+00 139 142 119
3.036071e+00 2.501861e+00 2.846439e+00 142 145 137
2.834846e+00 5.627290e+00 2.959407e+00 162 187 208
1.816215e+00 -8.861511e-01 2.518237e+00 65 64 57
2.554540e+00 -5.721968e-01 2.696649e+00 127 124 111
1.152383e+00 -5.150564e-01 2.736532e+00 45 42 37
3.747494e-01 1.608915e-01 2.778965e+00 39 37 35
2.167439e-01 2.973475e-01 2.849018e+00 32 32 31
2.240125e-01 3.480503e-01 2.851681e+00 146 152 139
2.240125e-01 3.480503e-01 2.851681e+00 146 152 139
7.178389e-02 3.404302e-01 2.895590e+00 161 160 148
2.612267e-01 3.896282e-01 2.879993e+00 146 148 142
2.191124e+00 1.935271e+00 2.937834e+00 23 28 31
2.191292e+00 1.979604e+00 2.965285e+00 25 27 26
1.523101e+00 2.153231e+00 3.092097e+00 24 26 24
-7.671650e-02 2.424327e+00 3.267033e+00 130 137 129
-2.852878e+00 -2.056506e+00 2.607706e+00 149 150 137
-1.628353e-01 6.641370e-01 2.683181e+00 29 28 18
-1.622911e-01 7.065263e-01 2.685725e+00 161 170 163
2.430317e-01 8.174727e-01 2.651095e+00 151 153 143
2.571074e-01 8.161518e-01 2.728993e+00 50 52 55
2.181161e+00 1.562696e+00 2.921343e+00 37 39 41
-2.002525e+00 1.728990e+00 3.049088e+00 142 148 153
-1.366101e+00 2.007961e+00 3.317390e+00 62 70 73
1.504843e+00 2.137443e+00 3.037504e+00 85 87 83
1.470859e+00 2.212311e+00 2.965402e+00 25 25 25
5.000082e-01 2.365343e+00 3.064530e+00 43 45 37
-1.830774e-01 2.327032e+00 3.246941e+00 153 156 150
2.419589e+00 2.402824e+00 3.132940e+00 97 98 90
1.457335e+00 2.470730e+00 3.040691e+00 120 121 106
2.176427e+00 2.733335e+00 3.086816e+00 51 52 51
2.236141e+00 3.073282e+00 2.855738e+00 38 47 48
1.426289e+00 3.271572e+00 2.970111e+00 26 30 31
6.488525e-01 4.749593e+00 3.006942e+00 47 74 132
6.488525e-01 4.749593e+00 3.006942e+00 47 74 132
2.528884e+00 6.658603e+00 2.623888e+00 65 94 134
-1.258098e+00 -2.642816e+00 2.249452e+00 50 53 43
-1.258098e+00 -2.642816e+00 2.249452e+00 50 53 43
4.642350e-02 -2.563563e+00 2.090634e+00 93 90 82
-4.544577e-01 -2.500832e+00 2.300902e+00 115 112 93
8.069353e-01 -2.495216e+00 2.224072e+00 41 38 34
-8.110299e-01 -2.409965e+00 2.581996e+00 109 110 92
1.584385e+00 -2.222102e+00 2.191702e+00 79 69 59
-9.205724e-01 -2.257181e+00 2.597047e+00 74 75 68
2.847331e+00 -2.013973e+00 2.272903e+00 80 79 76
-1.498186e-01 -1.351697e+00 3.037730e+00 157 157 146
-2.019647e+00 -1.022768e+00 2.929469e+00 56 59 52
1.381080e+00 -9.358471e-01 2.508646e+00 153 155 148
2.933954e-01 -3.148658e-01 2.920054e+00 123 120 105
3.437821e-01 1.978015e-02 2.974133e+00 29 31 19
6.610366e-01 2.151948e-01 2.635534e+00 37 43 45
3.774655e-01 2.366050e-01 2.825700e+00 37 41 42
3.165929e-01 2.015527e-01 2.949314e+00 39 44 46
-1.745624e+00 1.210515e+00 2.981751e+00 83 83 76
2.116679e+00 1.712092e+00 2.874073e+00 133 134 128
1.676880e+00 2.096680e+00 2.988827e+00 25 26 20
2.159642e+00 2.143741e+00 2.956023e+00 25 29 31
-1.469499e+00 2.127990e+00 3.208140e+00 68 75 68
2.153417e-01 2.258664e+00 3.304940e+00 50 54 56
3.139173e+00 2.560767e+00 2.758917e+00 101 122 137
1.843782e-01 2.419845e+00 3.103903e+00 73 72 60
3.234735e+00 2.692466e+00 2.638638e+00 89 121 152
-2.391250e-01 2.395504e+00 3.264846e+00 36 37 30
3.183543e+00 2.680346e+00 2.735636e+00 173 204 218
-1.247287e+00 3.748200e+00 3.172607e+00 68 77 69
-1.742483e+00 4.838047e+00 2.949236e+00 24 27 12
6.607756e-01 4.747216e+00 3.077187e+00 139 182 205
2.999908e+00 5.244895e+00 2.683400e+00 78 88 102
2.865865e+00 5.843350e+00 2.796392e+00 94 111 148
1.021001e+00 -2.420270e+00 2.404270e+00 138 141 127
1.256554e+00 -2.417631e+00 2.993857e+00 76 76 65
2.859540e+00 -1.958262e+00 2.330783e+00 172 168 166
2.790913e+00 -1.956841e+00 2.325061e+00 49 49 49
-1.720512e-01 -1.040953e+00 2.969855e+00 48 50 44
2.405273e+00 -9.634051e-01 2.651506e+00 40 40 31
-2.702149e+00 -9.958208e-01 2.965582e+00 194 195 190
2.559460e+00 -7.969506e-01 2.684317e+00 148 151 140
2.319740e+00 -6.552528e-01 2.655331e+00 78 80 69
1.046541e+00 9.510343e-02 3.158257e+00 120 115 100
-2.395313e-01 7.036062e-01 2.699338e+00 138 146 142
-1.965177e-01 7.106073e-01 2.703687e+00 40 48 51
1.599333e+00 9.843661e-01 2.962397e+00 90 88 73
1.626337e+00 2.179125e+00 3.034672e+00 34 37 32
-2.068010e+00 2.293602e+00 3.173832e+00 30 31 14
1.757994e+00 -1.434282e+00 1.067390e+01 49 52 44
1.628214e+00 -1.185806e+00 1.017924e+01 57 56 51
2.477283e+00 2.476530e+00 2.977720e+00 39 39 39
1.499828e+00 2.434901e+00 3.120801e+00 44 43 38
-1.109844e-01 2.470873e+00 3.117468e+00 71 73 58
-3.285677e-01 2.525130e+00 3.089506e+00 37 40 32
3.188497e+00 2.816046e+00 2.810070e+00 102 130 154
-1.190763e+00 3.625873e+00 3.219966e+00 70 75 77
-1.241095e+00 3.685201e+00 3.184874e+00 65 70 64
-1.987258e+00 3.997371e+00 3.087714e+00 136 146 154
-1.883512e+00 3.952783e+00 3.179146e+00 123 124 126
-1.277981e+00 4.536002e+00 3.189984e+00 64 68 68
-1.911913e+00 4.682082e+00 3.196943e+00 122 123 126
8.051734e-01 5.185169e+00 3.064887e+00 75 106 140
8.051734e-01 5.185169e+00 3.064887e+00 75 106 140
2.886459e+00 5.558533e+00 2.828147e+00 87 115 154
2.500699e+00 6.629476e+00 2.624133e+00 140 177 230
-2.412421e+00 -2.952919e+00 2.192292e+00 168 171 153
-1.295829e+00 -2.513223e+00 2.294339e+00 63 60 56
9.929484e-01 -2.298805e+00 2.476395e+00 115 118 109
-7.836417e-01 -2.031578e+00 2.657843e+00 170 170 169
4.285945e+00 -1.895309e+00 4.707213e+00 201 226 231
2.207245e+00 -9.755459e-01 2.688443e+00 59 59 56
3.782695e-03 -1.004875e+00 2.912653e+00 146 148 129
2.195934e+00 -9.650703e-01 2.714108e+00 157 156 144
1.903691e+00 -7.822634e-01 2.635183e+00 73 76 69
7.712187e-01 -7.011150e-01 3.089597e+00 133 131 119
4.566010e-01 -1.068270e-01 2.739022e+00 129 131 126
2.857738e+00 5.048459e-01 2.775079e+00 152 152 145
-2.384222e-01 6.091528e-01 2.688189e+00 32 41 40
2.336412e+00 1.576184e+00 2.859320e+00 187 192 198
1.462471e+00 1.617528e+00 2.955069e+00 48 51 45
1.458061e+00 1.691667e+00 3.003068e+00 48 49 45
2.204973e+00 2.272420e+00 2.989744e+00 120 123 111
1.745181e+00 2.246648e+00 3.082540e+00 71 71 68
2.421465e+00 2.737487e+00 3.026893e+00 98 106 101
3.178124e+00 2.911261e+00 2.871105e+00 158 190 223
3.150980e+00 2.955052e+00 2.871012e+00 153 189 230
2.721729e+00 2.892505e+00 3.045624e+00 126 128 117
-9.663706e-01 2.865540e+00 3.400860e+00 72 78 74
-9.663706e-01 2.865540e+00 3.400860e+00 72 78 74
1.390894e+00 4.626939e+00 2.991445e+00 116 115 110
3.015553e+00 4.827844e+00 2.838995e+00 150 185 226
2.999003e+00 4.843217e+00 2.834166e+00 42 51 81
-1.275147e+00 4.622738e+00 3.219752e+00 70 71 71
1.119549e+00 4.811081e+00 3.304432e+00 123 123 116
1.616872e+00 5.071773e+00 3.062212e+00 78 82 59
1.660316e+00 5.010840e+00 3.209839e+00 111 113 102
8.481289e-01 5.209623e+00 3.183262e+00 156 185 202
7.639057e-01 -5.828910e-01 3.033018e+00 21 13 11
1.750320e+00 -6.308294e-01 3.138087e+00 28 20 15
-2.204128e+00 7.429728e-01 2.907577e+00 122 126 129
1.743738e+00 1.751571e+00 2.995758e+00 114 117 116
2.076346e+00 1.433648e+00 3.054458e+00 107 116 115
2.211126e+00 1.978046e+00 2.914866e+00 9 13 16
-3.813167e-01 -6.826337e-01 3.186971e+00 26 17 17
-1.134087e-01 -6.889166e-01 3.185739e+00 99 99 92
-1.968704e-01 5.909796e-01 2.675312e+00 130 134 136
2.297679e+00 1.396426e+00 3.069716e+00 109 114 108
2.297679e+00 1.396426e+00 3.069716e+00 109 114 108
2.284449e+00 4.738657e+00 3.184908e+00 67 73 67
1.796496e-01 -6.806034e-01 3.138223e+00 97 94 87
1.836685e-01 -6.375910e-01 3.043970e+00 97 94 87
1.785837e+00 -6.724053e-01 3.157532e+00 20 15 10
1.705090e+00 -6.513184e-01 3.133861e+00 29 19 17
1.545198e+00 -6.552680e-01 3.165935e+00 18 13 10
2.212493e-01 7.710822e-01 2.742845e+00 114 111 106
2.017984e+00 1.483076e+00 3.046975e+00 9 13 16
-3.146127e-01 -7.675100e-01 3.133321e+00 100 100 94
8.020247e-02 -7.195159e-01 3.033897e+00 107 108 101
-1.789535e-01 -6.039545e-01 3.135440e+00 84 76 66
1.522764e+00 -3.537679e-01 3.160601e+00 119 119 112
-1.893667e-02 5.035298e-01 2.653183e+00 7 7 8
7.388522e-01 4.409802e-01 2.711328e+00 117 113 106
1.798096e+00 3.936867e-01 2.777527e+00 101 96 92
1.798096e+00 3.936867e-01 2.777527e+00 101 96 92
-4.492818e-02 7.688558e-01 2.763342e+00 135 142 137
4.544501e-01 1.273155e+00 3.003418e+00 138 141 140
2.377506e+00 1.388373e+00 3.059135e+00 130 136 137
1.523421e+00 1.480474e+00 3.128530e+00 98 106 108
3.408177e-01 -9.788652e-01 2.930011e+00 99 100 92
-4.555743e-01 -6.445351e-01 3.195591e+00 76 67 62
-2.894359e-01 -3.504389e-01 3.171462e+00 134 136 133
2.053646e+00 -3.985732e-01 3.124641e+00 98 99 100
2.053646e+00 -3.985732e-01 3.124641e+00 98 99 100
7.426256e-01 3.060992e-01 2.717903e+00 108 108 100
-1.372189e-01 6.774858e-01 2.719561e+00 132 134 138
6.913059e-01 8.159944e-01 2.798952e+00 113 115 108
2.426716e+00 6.328847e-01 2.969445e+00 123 122 117
3.174467e-01 1.085381e+00 2.829263e+00 99 89 86
4.566087e-01 1.110290e+00 2.789082e+00 64 53 49
1.581377e+00 2.271711e+00 3.091666e+00 140 143 141
2.541539e+00 2.412323e+00 3.330573e+00 106 106 106
2.239737e+00 8.543704e-01 3.004525e+00 131 126 120
1.642190e+00 9.904996e-01 2.996889e+00 62 59 57
2.035325e+00 1.760134e+00 2.927042e+00 12 9 15
1.651527e+00 2.110669e+00 2.967026e+00 73 74 68
1.500260e+00 2.243458e+00 2.965395e+00 47 47 47
1.895132e+00 2.447045e+00 3.165010e+00 112 108 105
2.630217e+00 2.467767e+00 3.290627e+00 94 96 91
1.720992e+00 -3.055720e-01 3.163244e+00 109 106 100
1.394634e+00 1.111830e-01 2.776431e+00 102 104 99
1.394728e+00 1.980600e-01 2.782912e+00 98 100 95
9.202349e-01 3.680586e-01 2.868724e+00 101 98 87
1.877264e+00 3.392969e-01 2.871515e+00 138 144 143
1.430520e+00 4.257972e-01 2.825741e+00 84 80 69
1.416266e+00 9.196641e-01 2.983078e+00 77 81 80
2.232759e-01 1.337896e+00 3.030451e+00 109 105 102
1.464223e+00 1.768540e+00 2.932246e+00 11 12 20
1.463996e+00 1.886568e+00 2.936474e+00 5 4 10
2.173336e+00 1.916619e+00 2.942337e+00 1 1 9
5.056035e-01 2.438381e+00 3.108157e+00 133 134 138
2.220552e+00 2.466820e+00 3.165925e+00 53 51 46
7.101000e-01 4.753714e+00 3.201934e+00 217 214 227
1.991894e+00 5.142936e+00 3.246290e+00 105 108 107
-3.031661e+00 2.220333e+00 3.171199e+00 104 102 103
-1.436040e+00 -9.766278e-01 3.033583e+00 134 133 127
7.152945e-02 8.724153e-01 2.723715e+00 59 64 79
7.143873e-01 3.101284e-01 2.668831e+00 127 128 126
-1.180763e+00 -1.990975e+00 3.415474e+00 115 114 110
5.021936e-01 4.066055e-01 2.671459e+00 61 62 74
1.769622e-01 9.673611e-01 2.949205e+00 47 48 52
-1.802867e+00 1.194407e+00 2.960462e+00 137 136 130
1.551196e+00 -7.084150e-01 3.124482e+00 133 130 118
2.364069e+00 2.143977e-01 2.814422e+00 126 125 121
2.391012e+00 3.628494e-01 2.839792e+00 131 127 124
-4.690172e-01 5.282357e-01 2.677212e+00 51 55 64
2.762859e+00 -2.057505e+00 3.018322e+00 66 68 68
-2.384881e+00 -1.056511e+00 3.100512e+00 146 150 153
1.867705e+00 3.563245e+00 3.045315e+00 102 103 105
2.161530e+00 -3.275057e-01 3.147265e+00 118 118 117
2.038430e+00 -3.216150e-01 3.135007e+00 129 128 124
1.255466e-01 1.288103e+00 2.963833e+00 120 119 117
-2.555332e-01 4.039754e-01 2.666267e+00 54 56 69
1.550664e+00 -1.519191e+00 2.976426e+00 130 126 126
-2.635930e+00 6.004662e+00 3.427297e+00 116 115 119
1.080443e+00 -1.958188e+00 3.065257e+00 135 131 129
2.745516e+00 -2.027449e+00 2.959990e+00 111 105 107
-1.381809e+00 -8.158745e-01 3.034221e+00 60 57 52
-2.428604e+00 5.736606e-01 2.867077e+00 76 72 69
8.440567e-02 9.279691e-01 3.004730e+00 79 76 71
2.546108e+00 1.098040e+00 3.015493e+00 56 55 51
1.971032e+00 5.125706e+00 3.144232e+00 72 72 74
2.119261e+00 -6.536401e-01 3.183490e+00 23 21 22
1.473689e+00 -1.033836e+00 2.978307e+00 99 100 102
2.261912e+00 -1.031657e+00 2.967129e+00 101 103 109
-2.263465e+00 2.353690e+00 3.075808e+00 22 24 29
-4.500892e-01 3.320424e-01 2.679696e+00 95 95 97
-4.500892e-01 3.320424e-01 2.679696e+00 95 95 97
-2.368335e+00 7.806391e-01 2.862634e+00 68 60 57
5.289589e-03 8.386163e-01 2.715621e+00 27 29 35
-2.721303e-01 9.242768e-01 2.785248e+00 88 77 67
-1.877855e+00 1.055390e+00 2.872249e+00 90 85 82
7.741433e-02 1.123968e+00 2.826000e+00 78 67 63
1.260308e+00 2.741894e+00 3.301357e+00 38 36 37
-4.206341e-01 3.381790e-01 2.682041e+00 88 88 89
-6.091038e-02 7.109141e-01 2.714298e+00 22 19 24
2.423912e+00 5.658213e-01 2.949605e+00 54 48 45
-1.918647e+00 8.007085e-01 2.814648e+00 40 40 40
-2.281358e+00 9.541323e-01 2.945153e+00 47 45 43
1.619308e-01 1.049308e+00 2.745735e+00 19 16 14
-4.920579e-02 1.121090e+00 2.866389e+00 37 31 28
-1.553784e+00 1.139504e+00 2.978484e+00 47 39 37
6.982448e-01 1.310811e+00 2.938701e+00 110 106 105
1.460267e+00 1.998232e+00 2.952009e+00 22 21 25
-2.100380e+00 2.374063e+00 3.086684e+00 95 95 99
1.463823e-01 2.423485e+00 3.100710e+00 102 100 101
-2.472959e-02 2.551938e+00 3.155301e+00 59 55 55
5.326384e-01 2.576129e+00 3.103815e+00 43 39 39
1.873016e+00 2.474887e+00 3.168354e+00 50 41 42
1.427495e+00 -3.445080e-01 3.139868e+00 40 36 35
4.384283e-01 4.374299e-01 2.657166e+00 31 34 39
1.925368e+00 7.597004e-01 2.888777e+00 94 93 91
-9.338373e-02 1.262266e+00 3.012922e+00 50 45 43
4.588948e-01 1.355066e+00 3.039346e+00 41 37 36
4.042750e-01 1.355819e+00 3.043835e+00 46 42 42
1.094136e+00 1.411538e+00 3.146445e+00 91 86 82
1.460822e+00 1.710790e+00 2.932314e+00 33 32 37
1.667093e+00 1.934231e+00 2.942339e+00 25 24 29
5.542375e-01 2.450996e+00 3.094407e+00 44 39 43
1.817487e-01 2.483728e+00 3.116168e+00 38 33 37
1.249895e-01 2.492952e+00 3.114761e+00 38 35 36
-7.409539e-01 -7.185115e-01 3.208934e+00 78 75 68
8.905886e-01 -6.692600e-01 3.162138e+00 22 20 19
3.003257e-01 8.049107e-01 2.734277e+00 30 33 40
1.474058e-01 1.021613e+00 2.728772e+00 23 22 23
1.432117e+00 1.146222e+00 2.999419e+00 53 45 42
1.798324e-01 1.230980e+00 3.039735e+00 103 98 95
5.556447e-01 2.370209e+00 3.086361e+00 25 24 28
1.664053e+00 2.325832e+00 3.108582e+00 91 86 83
1.563011e-01 2.524543e+00 3.135480e+00 98 93 90
1.160475e+00 1.395631e-02 3.181580e+00 57 52 48
5.967526e-01 1.312781e+00 3.008199e+00 101 96 93
1.465830e+00 1.971387e+00 2.954856e+00 57 57 60
1.465830e+00 1.971387e+00 2.954856e+00 57 57 60
1.324544e+00 1.972742e+00 2.967722e+00 59 54 51
8.750741e-01 2.338128e+00 3.084263e+00 52 46 46
2.395536e+00 2.656398e+00 3.224920e+00 35 34 36
2.770827e+00 2.645000e+00 3.398893e+00 88 87 92
2.103672e-01 -6.337957e-01 3.162006e+00 74 63 57
-5.169792e-01 4.763124e-01 2.709726e+00 80 81 81
-6.378216e-02 1.070619e+00 2.762176e+00 45 34 33
-5.760929e-02 2.330594e+00 3.083484e+00 89 89 91
1.794583e+00 2.256195e+00 3.106519e+00 65 57 55
5.327524e-01 2.451395e+00 3.113375e+00 95 95 97
3.598450e-01 2.517099e+00 3.128660e+00 104 96 94
3.083522e+00 2.443692e+00 3.117551e+00 91 95 111
1.262026e+00 2.692680e+00 3.371417e+00 73 71 73
2.763052e+00 2.620522e+00 3.387515e+00 72 71 76
-2.534310e+00 4.676715e+00 3.021987e+00 93 79 53
1.539161e+00 -1.520955e+00 2.948481e+00 128 124 106
1.494050e+00 -4.753309e-01 3.116288e+00 97 89 78
2.696972e+00 -4.335318e-01 3.010749e+00 116 109 91
6.880009e-01 -8.833740e-01 3.076196e+00 65 52 41
-2.440595e+00 -6.096411e-01 3.122490e+00 24 13 3
1.971186e+00 -6.010530e-01 3.101674e+00 20 15 11
1.657929e+00 -4.809169e-01 3.104758e+00 105 98 79
4.330541e+00 -1.549931e+00 3.110665e+00 47 39 31
4.174461e+00 -1.613361e+00 3.446978e+00 37 35 32
4.691781e+00 -1.398311e+00 2.929968e+00 59 54 53
2.893079e+00 -1.116694e+00 2.990577e+00 50 52 41
-8.260807e-01 2.319046e-01 3.163717e+00 147 127 105
4.928487e+00 -1.746320e+00 2.930900e+00 65 71 57
5.054788e+00 -1.516065e+00 2.878925e+00 55 51 43
4.984453e+00 -1.468351e+00 2.963183e+00 223 212 184
-1.211509e+00 -8.324624e-01 3.086418e+00 128 111 92
1.581357e+00 -3.736146e-01 3.074556e+00 36 34 34
3.233231e+00 -2.796896e+00 2.669036e+00 18 21 25
4.550882e-01 5.699884e-01 2.682580e+00 115 104 75
2.028000e-01 8.169619e-01 2.684610e+00 115 90 62
3.061688e+00 -2.802356e+00 2.714357e+00 29 28 28
3.147382e+00 -2.781076e+00 2.704676e+00 20 25 29
3.147382e+00 -2.781076e+00 2.704676e+00 20 25 29
1.964337e-01 -1.215109e+00 3.043908e+00 34 25 22
1.322231e+00 -1.009488e+00 3.023385e+00 19 17 10
1.523715e+00 -1.019861e+00 3.098289e+00 20 16 13
2.111324e+00 -1.005333e+00 3.059320e+00 16 12 10
-6.157887e-02 -8.666688e-01 3.094823e+00 32 28 26
1.211991e+00 -8.300844e-01 3.111430e+00 121 106 83
4.859103e-01 -6.403826e-01 3.107501e+00 84 68 44
-2.542101e+00 -5.592455e-01 3.168005e+00 56 37 31
1.181432e+00 -6.123649e-01 3.155247e+00 13 10 8
1.952070e-01 -2.502110e-01 3.129042e+00 122 105 83
1.657870e+00 9.239512e-01 2.893002e+00 149 115 87
1.121382e+00 2.142793e+00 3.241934e+00 66 54 46
1.420523e+00 4.750815e+00 2.944775e+00 99 83 57
3.098838e+00 -2.787724e+00 2.782534e+00 90 91 81
1.327676e+00 -2.466169e+00 2.738983e+00 40 29 24
4.481799e+00 -1.599179e+00 3.054669e+00 69 42 82
4.675794e+00 -1.366916e+00 3.039613e+00 226 215 198
2.654374e+00 -7.433380e-01 3.109457e+00 91 91 74
-2.032880e+00 -6.496000e-01 3.086198e+00 98 93 61
-2.187613e+00 -6.319404e-01 3.105048e+00 18 13 17
2.129214e+00 -4.539749e-01 3.200419e+00 39 30 31
1.731624e+00 -3.931882e-01 3.277615e+00 37 36 32
1.593066e+00 -3.531882e-01 3.173482e+00 41 31 30
-4.118587e-02 5.333160e-01 2.466516e+00 151 125 98
-4.239353e-01 1.173620e+00 2.970783e+00 146 127 99
-3.769827e-01 2.321579e+00 3.081785e+00 151 128 93
1.154282e+00 -1.985964e+00 2.987999e+00 58 57 53
2.291233e+00 -1.532360e+00 3.113156e+00 108 110 98
1.821545e+00 -1.047955e+00 3.218864e+00 99 83 68
1.607079e+00 -1.002693e+00 3.088256e+00 98 84 70
1.122202e-01 -7.547693e-01 3.071571e+00 28 26 13
1.662055e+00 -3.676108e-01 3.240755e+00 45 34 25
1.662055e+00 -3.676108e-01 3.240755e+00 45 34 25
1.564007e+00 -3.505011e-01 3.230134e+00 125 109 78
4.783589e-01 -2.225879e-01 3.152299e+00 12 11 6
4.485080e-01 -1.509001e-01 2.878314e+00 12 11 6
5.135903e-01 -2.203147e-01 3.171027e+00 101 93 83
4.442681e-01 2.895262e-01 2.593096e+00 29 14 8
-2.900245e-01 4.901732e-01 2.634908e+00 22 12 10
-1.800605e-01 6.781463e-01 2.656365e+00 27 17 5
1.798547e+00 5.584056e-01 2.889648e+00 143 125 106
-3.782597e-01 8.806562e-01 2.686952e+00 22 15 4
-1.621819e+00 -6.811688e-01 3.104684e+00 102 82 64
1.463132e+00 -2.861592e-01 3.201109e+00 131 106 81
1.484325e+00 -2.520405e-01 3.212626e+00 97 65 44
3.490130e-01 3.212950e-01 2.580634e+00 34 27 24
6.190241e-01 8.527776e-01 2.622046e+00 62 60 45
-1.586346e-01 1.064302e+00 2.695087e+00 125 95 68
1.876765e+00 1.099747e+00 2.959408e+00 121 97 70
1.941924e+00 1.114685e+00 2.976836e+00 72 51 37
1.581499e+00 1.136923e+00 2.959574e+00 67 54 23
1.563926e-03 1.371391e+00 3.051486e+00 48 28 16
-4.389177e-01 2.358944e+00 3.072285e+00 128 115 98
-4.009162e-01 2.506850e+00 3.111358e+00 44 28 12
7.369541e-01 -1.040754e+00 3.028612e+00 122 103 92
3.192938e-01 -2.525964e-01 3.163436e+00 35 32 17
2.081831e-01 4.227238e-01 2.590067e+00 147 127 109
2.081831e-01 4.227238e-01 2.590067e+00 147 127 109
-6.018923e-02 1.038068e+00 2.656468e+00 31 19 6
-3.487115e-01 1.154169e+00 2.969105e+00 153 118 91
-4.201359e-01 7.947407e-01 2.711917e+00 136 106 78
-2.699976e+00 -1.352017e+00 3.108860e+00 147 148 151
4.345637e-01 -9.692838e-01 3.159471e+00 126 118 105
1.373610e+00 -6.448382e-01 3.055329e+00 127 122 103
-1.676501e+00 -6.288677e-01 3.087789e+00 40 32 27
1.894901e-01 6.054712e-01 2.602392e+00 124 124 122
7.390210e-01 1.118824e+00 2.937614e+00 136 135 140
1.170980e+00 -2.205127e+00 3.026914e+00 79 68 66
2.787222e+00 -2.071204e+00 3.006828e+00 118 117 115
9.140915e-01 -1.027092e+00 3.193384e+00 22 20 25
8.528659e-01 -1.016355e+00 3.163117e+00 27 27 34
1.372420e+00 -9.743226e-01 3.389826e+00 118 114 100
6.837538e-01 1.319613e+00 2.912590e+00 139 138 134
1.158922e+00 -2.044161e+00 3.024537e+00 133 128 127
6.998391e-01 6.491825e-01 2.589371e+00 110 104 100
4.884430e-01 7.068827e-01 3.333549e+00 28 29 36
-1.469118e+00 5.166997e+00 3.231493e+00 72 72 75
8.240032e-01 9.890682e-01 2.864727e+00 88 84 83
7.868192e-01 1.032847e+00 2.862767e+00 84 79 76
7.071802e-01 1.115509e+00 2.874329e+00 92 86 87
2.298943e+00 -1.027608e+00 2.965178e+00 35 30 45
1.566195e+00 -2.640736e+00 2.924038e+00 43 43 43
2.516186e+00 -6.933419e-01 2.573755e+00 79 71 65
1.390621e+00 -9.556088e-01 3.015619e+00 153 150 140
2.690070e+00 -3.828746e-01 3.046751e+00 184 182 174
1.252506e+00 -7.168935e-01 3.118041e+00 101 96 93
5.934912e-01 -1.334808e+00 2.962766e+00 181 178 172
1.511011e+00 -7.600195e-01 3.050501e+00 98 94 93
2.826458e+00 -2.172659e+00 2.905871e+00 125 125 123
2.354797e+00 -1.013240e+00 2.983610e+00 111 112 105
1.242136e+00 -2.222694e+00 2.961143e+00 139 144 140
2.117789e+00 3.350782e+00 2.705881e+00 20 27 33
-1.543176e+00 4.647396e+00 2.542077e+00 17 20 25
-2.157596e+00 -7.008518e-01 2.947934e+00 62 63 46
-1.654078e-01 2.224479e+00 1.473162e+00 21 24 28
-2.401577e+00 3.684353e+00 2.983795e+00 139 148 133
-2.402356e+00 3.815856e+00 2.981594e+00 149 154 139
1.431808e+00 4.150580e+00 3.080711e+00 19 20 25
-2.152864e+00 6.140241e-01 2.567988e+00 42 43 38
2.331706e+00 9.551055e-01 3.058016e+00 141 144 130
-1.296000e+00 -9.477668e-01 2.915822e+00 139 139 128
-1.650449e-01 -3.549250e-01 3.172041e+00 154 155 140
-1.750935e+00 8.552229e-01 2.804792e+00 67 69 58
-1.614987e+00 9.630471e-01 2.841819e+00 60 60 53
-1.891423e-01 1.029800e+00 2.687754e+00 120 116 96
-1.895703e-01 1.030787e+00 2.688410e+00 120 116 96
-1.686007e+00 1.062615e+00 2.845325e+00 112 113 100
4.914092e-01 2.384475e+00 3.159270e+00 134 139 138
6.905702e-01 2.488020e+00 3.060653e+00 42 45 42
-2.737830e-02 2.507930e+00 3.101867e+00 148 152 145
-7.629777e-01 5.689762e+00 2.810838e+00 82 105 163
-2.849194e+00 -2.984159e+00 2.518531e+00 35 46 52
-3.673122e+00 -2.668164e+00 2.210431e+00 164 154 149
-3.554382e+00 -2.649616e+00 2.321638e+00 169 156 153
-2.735097e+00 -1.014573e+00 2.743768e+00 58 64 69
1.522551e+00 -1.046852e+00 3.024490e+00 136 140 128
1.416007e+00 -1.024474e+00 2.920417e+00 22 23 16
-2.624721e-02 -9.593862e-01 3.005107e+00 102 99 90
4.887461e-01 -3.466391e-01 3.096226e+00 86 83 70
-1.797149e+00 1.222347e+00 2.946565e+00 85 83 70
2.935793e+00 2.258340e+00 3.102536e+00 142 143 136
2.094081e+00 2.327576e+00 2.984292e+00 76 80 77
-4.679539e-01 2.392859e+00 3.152767e+00 136 138 126
-1.459435e+00 2.547542e+00 3.150424e+00 127 129 116
6.256237e-01 2.558315e+00 3.101973e+00 67 67 56
3.315512e-02 2.571275e+00 3.126724e+00 80 83 67
9.173989e-01 -2.081814e+00 2.816666e+00 68 65 54
-1.997049e+00 -8.107329e-01 3.021719e+00 131 127 106
-1.138591e-01 -3.682318e-01 3.129144e+00 154 154 148
1.332496e+00 4.247963e-01 3.103050e+00 94 89 71
2.537571e-01 1.314393e+00 2.937197e+00 80 80 68
1.669303e+00 1.896446e+00 2.802900e+00 55 56 52
2.104975e+00 1.732645e+00 3.168912e+00 143 146 136
-1.684232e+00 2.389403e+00 3.163677e+00 148 149 139
1.791127e+00 2.441692e+00 3.023962e+00 82 82 64
1.789360e-02 2.502305e+00 3.092677e+00 46 48 44
-2.202883e+00 3.009603e+00 3.006117e+00 54 60 58
1.176178e+00 4.952864e+00 3.125747e+00 123 128 114
-7.442567e-01 5.050736e+00 2.139578e+00 95 122 183
-3.231716e+00 5.478934e+00 3.041057e+00 102 139 160
-2.686336e+00 6.137003e+00 3.146701e+00 81 86 82
-4.520520e-01 4.283630e-01 2.671762e+00 15 24 33
-4.060161e-01 -1.065052e+00 3.022124e+00 110 114 117
7.470172e-01 -1.587583e+00 2.987016e+00 37 34 38
-1.931881e+00 -8.589952e-01 2.971720e+00 40 38 42
1.955009e+00 -4.355284e-01 3.099122e+00 30 33 40
-5.758501e-01 1.126172e+00 2.942858e+00 118 118 116
-2.382339e+00 4.961729e+00 3.072795e+00 87 97 97
-1.741733e+00 -7.919031e-01 2.948271e+00 43 44 46
-1.936077e+00 9.212001e-01 2.818259e+00 99 106 104
-8.497648e-01 1.278043e+00 3.217552e+00 147 153 158
2.040658e+00 3.641357e+00 2.893591e+00 39 54 63
-2.322552e+00 -6.019544e-01 3.090531e+00 68 69 61
-7.550053e-01 -3.118136e-01 3.144029e+00 115 117 112
1.888168e-02 7.786831e-01 2.676896e+00 8 5 3
2.244829e+00 5.159070e-01 2.790688e+00 86 86 76
-1.941767e+00 1.052462e+00 2.847660e+00 94 94 89
-1.275573e+00 1.384237e+00 2.987621e+00 65 66 63
-1.364993e+00 1.710029e+00 2.929509e+00 112 118 117
-1.437671e+00 1.703084e+00 2.949187e+00 131 138 141
-2.022940e+00 4.724856e+00 3.005718e+00 116 116 115
8.664035e-02 -1.588425e+00 2.958402e+00 71 73 71
-3.352837e-01 -1.431062e+00 2.785787e+00 32 32 30
-7.931449e-01 -8.222931e-01 3.068213e+00 98 102 101
-1.416787e+00 -5.632614e-01 3.014104e+00 91 88 82
8.173733e-02 -1.877648e+00 2.995359e+00 62 63 57
1.338331e-01 -1.591509e+00 2.989592e+00 17 15 7
-1.683153e+00 -1.076419e+00 3.003849e+00 28 31 46
-1.802376e+00 2.565840e+00 3.147950e+00 53 54 48
-1.427659e+00 5.774133e+00 3.464738e+00 60 79 104
-1.300208e+00 2.515617e+00 3.173713e+00 118 119 114
2.658043e+00 -1.042922e+00 3.039536e+00 123 128 133
1.964885e-01 -1.220851e+00 3.024557e+00 70 67 62
4.275821e-02 -9.792115e-01 2.951092e+00 55 54 59
6.237161e-01 -6.146766e-01 3.037376e+00 51 47 46
-1.295424e+00 -6.104993e-01 3.018535e+00 36 32 31
-2.256994e+00 -5.846449e-01 3.021435e+00 39 37 38
-1.435791e+00 -3.823359e-01 2.993814e+00 45 60 67
-1.400834e+00 -2.634000e-01 2.996069e+00 126 126 118
-1.890846e+00 -2.988668e-01 3.092064e+00 145 145 143
2.414730e+00 2.269866e+00 3.107556e+00 117 117 118
-1.356833e+00 -7.029382e-01 2.963833e+00 129 126 121
-1.437727e+00 -2.749178e-01 2.989235e+00 55 57 59
-1.437727e+00 -2.749178e-01 2.989235e+00 55 57 59
-9.807050e-01 2.818723e+00 3.325913e+00 88 87 92
-1.471375e+00 -6.682253e-01 2.980001e+00 60 58 59
-1.679883e+00 -6.537596e-01 2.957530e+00 61 59 63
-1.974685e+00 -5.740590e-01 2.984808e+00 123 119 116
-9.562961e-01 1.290794e-01 3.152503e+00 138 136 137
2.024352e+00 2.422366e+00 3.110938e+00 141 138 133
-1.466778e+00 2.405313e+00 3.123482e+00 149 148 144
2.590321e-01 2.470569e+00 3.121156e+00 90 90 92
2.394394e+00 4.988318e+00 3.132429e+00 89 88 93
-1.733460e+00 -1.517838e+00 3.033521e+00 62 58 51
-1.699281e-01 6.155561e-01 2.645160e+00 63 64 69
-1.828212e+00 8.675576e-01 2.810212e+00 64 63 61
2.139156e+00 2.422433e+00 3.109364e+00 78 74 74
-3.023533e+00 5.836346e+00 3.461725e+00 138 126 162
-3.260883e-01 -2.278911e+00 2.911868e+00 49 45 41
5.120256e-01 -2.309698e+00 2.916099e+00 87 87 87
-5.360555e-04 -2.138251e+00 2.869673e+00 80 79 82
1.798522e+00 -1.390304e+00 3.377369e+00 193 176 152
-1.983118e+00 -1.208334e+00 2.994571e+00 187 174 155
2.821102e+00 -9.876583e-01 3.027077e+00 141 130 112
7.204127e-01 -1.642683e+00 2.906514e+00 149 132 104
-1.907481e+00 -1.455753e+00 2.952152e+00 147 129 105
-1.450021e+00 -6.226033e-01 2.996217e+00 155 141 129
-2.838682e-01 -1.451808e+00 2.785767e+00 159 139 114
7.674256e-01 -2.091400e+00 2.877318e+00 153 135 111
-2.492489e-01 -1.467563e+00 5.356876e+00 166 150 130
-7.020691e-01 -2.990768e-01 1.721935e+00 51 35 20
5.883367e-01 -1.358519e+00 6.289026e+00 137 114 98
1.294275e-01 -2.313077e+00 2.976656e+00 129 111 87
-9.322403e-01 -1.548809e+00 2.841268e+00 114 109 106
-1.803045e+00 1.934960e+00 2.946405e+00 105 104 102
-2.479238e+00 2.307032e+00 3.130942e+00 49 48 53
-7.473113e-01 -2.721382e-01 3.026717e+00 71 66 63
-5.779772e-01 5.355678e-01 2.655026e+00 101 100 98
-7.942898e-01 -2.180920e+00 2.934782e+00 106 105 103
-1.202283e+00 -8.001964e-01 2.915229e+00 37 35 32
1.706627e+00 -6.428813e-01 3.103316e+00 32 28 24
-2.997538e+00 8.993112e-01 2.898114e+00 93 93 95
1.840579e+00 4.409441e+00 2.930055e+00 82 82 82
-2.566818e+00 2.501392e+00 3.343099e+00 112 110 113
-6.459049e-01 -7.404967e-01 3.030872e+00 86 84 87
-4.509234e-01 5.708260e-01 2.697974e+00 25 26 31
-4.151305e-01 7.152163e-01 2.715080e+00 21 22 26
-8.686571e-01 -2.971933e-01 3.163973e+00 36 32 31
-5.866161e-01 -8.514395e-01 2.994861e+00 78 77 73
-2.443437e-01 5.746841e-01 2.652465e+00 16 16 17
3.648754e-01 6.783638e-01 2.659539e+00 20 14 15
-5.348545e-02 -1.046172e+00 3.012180e+00 90 89 89
8.942418e-01 -9.946266e-01 3.005911e+00 14 14 16
2.405513e+00 6.291854e-01 2.933750e+00 51 46 43
-1.179213e-01 1.131382e+00 2.825849e+00 43 35 32
-2.055331e+00 2.051097e+00 2.934721e+00 103 94 91
-7.257340e-01 2.637107e+00 3.344654e+00 79 74 71
3.365027e-01 -1.051726e+00 3.018244e+00 91 94 97
-2.597741e+00 -2.836867e-01 3.145265e+00 35 34 37
-2.997703e+00 8.825642e-01 2.930141e+00 66 66 73
-4.467038e-01 1.095956e+00 2.975598e+00 58 51 49
4.141535e-02 2.463588e+00 3.144198e+00 95 93 96
-1.345343e+00 1.523985e+00 3.043205e+00 68 64 63
-1.660809e+00 5.107083e+00 3.049189e+00 63 66 69
-2.681193e+00 5.808127e+00 3.260025e+00 61 64 39
-2.143167e+00 8.866407e-02 2.535895e+00 23 26 25
8.146909e-01 4.939858e+00 2.905525e+00 51 54 53
-2.075486e+00 1.256979e+00 2.957998e+00 148 121 94
-2.770926e+00 6.244555e+00 3.125810e+00 102 96 77
-1.340420e+00 2.320122e+00 3.244290e+00 126 99 77
6.856422e-01 -1.424804e+00 3.008691e+00 122 111 91
1.651897e+00 2.022331e+00 2.878987e+00 9 9 7
-4.063327e-01 2.442021e+00 3.078690e+00 12 8 5
-4.122092e-01 2.446092e+00 3.068280e+00 12 8 5
1.410288e+00 2.430518e+00 2.990665e+00 24 19 12
-1.444359e+00 -7.295026e-01 2.976764e+00 118 102 77
2.168380e+00 -7.845554e-01 3.160441e+00 109 97 83
-2.457369e+00 3.640087e-01 2.787021e+00 129 95 61
-1.782300e+00 4.355044e-01 2.791768e+00 127 110 81
-2.017767e+00 7.349487e-01 2.861372e+00 150 135 103
1.601614e+00 2.235052e+00 3.051596e+00 124 101 69
-2.420197e+00 3.284600e+00 2.891827e+00 115 94 68
-1.327602e+00 -1.072587e+00 3.059568e+00 95 89 80
1.406030e+00 -9.904156e-01 3.111324e+00 109 93 70
-8.525425e-01 4.800670e-01 3.139463e+00 61 52 43
-8.525425e-01 4.800670e-01 3.139463e+00 61 52 43
-2.442724e+00 1.215363e+00 2.935816e+00 147 113 76
-5.126179e-01 1.227597e+00 2.969495e+00 148 121 98
2.805274e+00 1.559556e+00 3.070090e+00 76 74 69
-6.111387e-01 2.376925e+00 3.079233e+00 151 128 92
-6.403422e-01 2.435056e+00 3.144730e+00 92 68 56
2.250324e+00 2.406411e+00 3.050234e+00 18 15 12
-1.360758e+00 -6.292464e-01 3.010270e+00 79 68 46
3.044560e-01 -6.677441e-01 3.173063e+00 88 71 56
-2.375743e+00 -1.468793e-01 2.582661e+00 57 45 27
-3.963432e-01 1.114089e+00 2.933174e+00 126 104 64
-5.268815e-01 1.156676e+00 2.956270e+00 49 40 26
2.615987e+00 2.711370e+00 3.229134e+00 27 27 22
-1.826639e+00 -9.393827e-01 2.641065e+00 27 20 9
2.027489e+00 -1.008385e+00 3.054055e+00 26 21 15
-1.857860e+00 -6.349176e-01 3.022094e+00 90 76 57
-1.961159e+00 -5.207176e-01 2.756044e+00 14 10 6
2.699190e+00 -2.919042e-01 3.073869e+00 81 62 52
-5.204847e-01 6.167463e-01 2.689809e+00 158 119 84
-9.246642e-01 2.334799e+00 3.230302e+00 69 49 30
1.637241e+00 2.381714e+00 3.052408e+00 145 120 103
-1.422017e+00 2.611818e+00 3.254114e+00 96 78 54
7.666817e-01 -1.017041e+00 3.105741e+00 103 97 77
-1.897752e+00 -5.460577e-01 2.772673e+00 20 17 10
-2.354194e+00 -1.939082e-01 2.593721e+00 146 121 91
2.107672e-01 5.850962e-01 2.668948e+00 133 121 96
-2.387150e+00 1.022934e+00 2.934216e+00 106 80 69
-1.976327e+00 1.036741e+00 2.875966e+00 82 50 27
-1.940212e+00 1.067754e+00 2.885866e+00 73 42 23
-2.024869e+00 1.077549e+00 2.923519e+00 85 43 27
-2.555036e+00 4.824749e+00 3.031727e+00 148 124 98
-1.139921e+00 5.937143e+00 3.152636e+00 147 187 195
3.041217e-01 -1.031369e+00 3.053086e+00 118 105 86
-1.650189e+00 -6.182588e-01 3.012518e+00 89 83 60
-4.453397e-01 2.001444e-01 2.616147e+00 60 31 26
-1.178377e+00 7.860130e-01 2.907734e+00 93 95 82
-2.003338e+00 9.854491e-01 2.870098e+00 90 59 38
-1.844611e+00 1.178086e+00 2.958612e+00 134 104 69
-2.312996e+00 1.275501e+00 2.952248e+00 78 53 31
-2.480027e+00 1.453994e+00 3.003188e+00 52 38 28
-2.151784e+00 5.254417e+00 3.190189e+00 39 29 15
2.705581e+00 2.416072e+00 3.152634e+00 138 126 105
-2.447716e+00 3.724588e+00 3.015812e+00 87 65 49
6.232544e-01 2.460126e+00 3.072115e+00 73 69 51
2.166067e+00 5.960565e+00 3.115820e+00 166 207 253
-8.312474e-01 2.545200e-01 3.124067e+00 140 140 141
-7.363025e-01 2.464180e+00 3.359800e+00 152 152 154
-6.857435e-01 -2.436399e+00 2.898574e+00 99 103 107
-1.508084e+00 1.337628e+00 2.989790e+00 146 146 144
-2.326011e+00 2.297626e+00 3.132942e+00 122 120 117
-1.994413e+00 -2.714881e-01 2.987895e+00 125 118 107
-1.673550e+00 2.360892e+00 3.102752e+00 59 55 53
1.891013e-01 2.408435e+00 3.189797e+00 123 123 121
2.015750e+00 -9.724808e-01 2.843389e+00 24 23 32
-4.755865e-01 -9.909685e-01 3.016386e+00 25 24 30
-1.978310e+00 -9.528770e-01 2.796574e+00 29 34 40
-2.846220e-01 2.438422e+00 3.116405e+00 124 125 130
-2.148304e-01 -1.024951e+00 3.001551e+00 54 55 59
4.850135e-01 -1.104370e+00 3.249148e+00 128 133 146
-6.400789e-01 -1.035587e+00 2.982101e+00 113 122 129
-8.332101e-01 5.099196e-01 3.183198e+00 174 174 172
-8.436193e-01 -8.118957e-02 3.099904e+00 174 174 170
-1.631560e+00 4.912846e+00 2.918514e+00 59 76 93
-1.137866e+00 1.105049e+00 3.082074e+00 138 137 133
1.408374e+00 4.817092e+00 3.012229e+00 149 151 148
1.846462e-01 2.424833e-02 3.090162e+00 176 177 172
-4.190694e-03 -9.334138e-01 3.081576e+00 153 146 140
6.030963e-01 -9.199323e-01 3.094349e+00 161 157 149
-3.797107e-01 -7.718917e-01 3.126618e+00 152 149 145
-4.557440e-01 5.946346e-01 2.664935e+00 76 85 93
-2.754599e-01 2.330637e+00 2.982405e+00 145 146 143
-4.035509e-01 2.315427e+00 3.061956e+00 144 144 146
-4.075742e-01 2.322372e+00 3.056337e+00 144 144 146
4.951644e-01 -1.063207e+00 3.081595e+00 166 167 169
8.668444e-01 -1.045135e+00 3.043633e+00 158 164 162
1.971347e-01 -9.932491e-01 3.081366e+00 148 142 136
1.490238e+00 -9.947240e-01 2.970563e+00 102 98 97
6.071461e-02 -8.422094e-02 3.145800e+00 176 171 165
-3.228427e-01 2.288441e+00 3.060009e+00 80 87 89
-6.572743e-01 -1.022164e+00 3.071363e+00 79 79 77
1.602298e-01 9.085560e-01 2.649901e+00 76 88 101
1.542283e+00 -9.712477e-01 3.053769e+00 154 151 142
2.050016e-01 6.020399e-01 2.631920e+00 159 164 168
1.261497e-01 6.468148e-01 2.678980e+00 75 84 93
7.129509e-01 4.757601e+00 3.290550e+00 114 140 172
-1.301210e+00 -1.021384e+00 3.123442e+00 101 102 97
8.852552e-01 -7.582454e-01 3.112431e+00 140 137 133
-5.774961e-01 -3.775154e-01 3.192408e+00 101 98 91
-6.828643e-01 1.454590e-01 2.933478e+00 107 106 101
1.570863e-01 6.238129e-01 2.671088e+00 158 164 166
9.600480e-02 6.287127e-01 2.682072e+00 152 157 159
3.460322e-01 7.786115e-01 2.715621e+00 152 156 157
-2.855826e-01 2.454635e+00 3.100190e+00 162 166 166
-1.796997e+00 5.024771e+00 2.898209e+00 60 75 88
1.506527e-01 -1.048229e+00 3.074580e+00 98 99 94
1.239241e-01 -1.010816e+00 3.073176e+00 88 87 82
-1.279145e+00 9.459983e-01 2.987051e+00 124 124 122
-5.889608e-01 9.192618e-01 2.958706e+00 131 128 122
2.951667e-01 1.063804e+00 2.675152e+00 74 76 71
1.989972e-01 1.107373e+00 2.699386e+00 82 80 71
-1.590064e+00 1.431441e+00 3.065537e+00 149 148 144
2.587569e+00 -1.181262e+00 3.229908e+00 70 62 51
1.581513e+00 -8.298539e-01 3.100944e+00 145 129 113
2.165404e+00 -7.721016e-01 3.139741e+00 150 137 123
1.523954e+00 -7.045924e-01 3.109295e+00 54 50 47
1.289509e+00 -6.513519e-01 3.144802e+00 126 113 93
2.423786e+00 4.900734e+00 3.267720e+00 123 131 124
1.952573e+00 -7.431637e-01 3.091311e+00 118 115 107
2.221470e+00 1.199129e+00 3.030989e+00 178 160 126
1.828682e+00 2.492036e+00 3.097501e+00 131 103 89
2.158075e+00 2.467639e+00 3.106932e+00 130 117 85
1.660200e+00 9.380608e-01 2.878285e+00 199 177 137
2.398408e+00 1.030818e+00 2.964347e+00 39 39 40
2.414342e+00 1.110011e+00 2.963921e+00 134 126 106
2.289168e+00 1.156512e+00 2.931970e+00 161 140 110
1.576713e+00 5.176616e+00 3.152209e+00 95 85 76
1.835937e+00 5.018332e+00 3.235586e+00 175 160 137
1.819874e-01 -9.449581e-02 2.622336e+00 17 21 25
2.348554e+00 4.118424e-01 2.802839e+00 95 84 73
2.029693e+00 7.100703e-01 2.830732e+00 42 48 49
2.689871e+00 3.997792e-01 3.223264e+00 68 72 80
2.064706e+00 8.777508e-01 2.833234e+00 16 11 14
2.276794e+00 8.127426e-01 2.941329e+00 71 63 55
8.217911e-01 9.462867e-01 2.903324e+00 132 125 109
2.220230e+00 8.798862e-01 2.922946e+00 64 55 46
-1.679769e-01 1.157172e+00 2.841551e+00 162 124 95
-1.679769e-01 1.157172e+00 2.841551e+00 162 124 95
2.457009e+00 1.170434e+00 2.973873e+00 39 48 43
2.457009e+00 1.170434e+00 2.973873e+00 39 48 43
2.293687e+00 1.206184e+00 2.958379e+00 68 61 52
2.406979e+00 1.211346e+00 3.009979e+00 131 124 106
2.406979e+00 1.211346e+00 3.009979e+00 131 124 106
2.672151e+00 1.506970e+00 3.186879e+00 102 100 110
2.672151e+00 1.506970e+00 3.186879e+00 102 100 110
1.908312e+00 4.889571e+00 3.180708e+00 182 167 141
1.846586e+00 4.876436e+00 3.226085e+00 31 28 25
1.731813e+00 5.022876e+00 3.155242e+00 150 146 130
1.524415e+00 -6.078044e-01 3.141534e+00 103 86 70
1.140629e+00 -3.517978e-01 3.150365e+00 81 68 62
1.075523e+00 -3.152350e-01 3.159048e+00 151 139 101
2.523180e+00 -3.730926e-01 3.179899e+00 14 19 18
1.150588e+00 -3.181804e-01 3.167495e+00 169 145 121
-3.841942e-01 1.518396e-01 2.642359e+00 183 166 129
2.311423e+00 4.569819e-01 2.804731e+00 83 84 68
-1.064354e-01 6.920131e-01 2.673869e+00 8 3 5
1.605472e+00 5.606257e-01 2.769280e+00 145 113 78
2.176199e+00 5.298580e-01 2.803576e+00 123 115 94
-6.570185e-02 7.473457e-01 2.737709e+00 180 162 134
2.178724e+00 5.605236e-01 2.815628e+00 34 28 19
2.276319e-01 4.433996e-01 3.084299e+00 9 6 13
1.463610e+00 8.000396e-01 2.967945e+00 194 171 136
4.929523e-01 1.098964e+00 2.774471e+00 54 45 33
2.359123e+00 8.118333e-01 2.966433e+00 39 46 33
-9.367833e-02 1.135303e+00 2.785659e+00 146 112 81
4.559429e-01 1.126219e+00 2.773089e+00 53 43 32
-5.752560e-04 1.142412e+00 2.801465e+00 129 94 67
-5.752560e-04 1.142412e+00 2.801465e+00 129 94 67
6.992137e-02 1.175065e+00 2.772811e+00 131 96 73
1.903487e+00 1.005721e+00 2.854916e+00 149 130 106
1.640960e+00 9.616661e-01 2.985699e+00 183 152 110
6.265967e-01 1.168592e+00 2.906177e+00 178 157 131
1.767321e+00 1.143060e+00 2.949398e+00 194 177 150
4.334281e-01 1.217069e+00 2.973558e+00 171 149 126
3.188145e-01 1.313860e+00 2.918580e+00 179 163 129
2.750731e-01 1.263024e+00 2.981500e+00 179 160 135
2.371296e+00 1.622933e+00 2.991310e+00 23 22 28
2.493978e+00 2.330272e+00 3.076807e+00 5 4 10
2.570068e+00 2.229400e+00 3.269691e+00 26 26 23
2.673186e+00 2.282749e+00 3.255444e+00 183 173 144
2.818884e+00 2.278960e+00 3.272564e+00 160 154 136
1.520251e+00 5.158106e+00 3.219303e+00 72 60 53
1.798221e+00 5.335750e+00 3.256636e+00 94 76 76
1.901066e+00 5.333479e+00 3.252887e+00 96 79 76
3.218945e+00 1.056386e+01 6.833403e-01 107 91 76
1.385542e+00 5.551672e+00 3.378535e+00 141 194 226
-4.040862e-01 -7.116382e-01 3.096723e+00 65 48 42
-1.169494e-01 -5.798974e-01 3.144008e+00 67 48 43
1.868621e+00 -6.002874e-01 3.172217e+00 41 41 39
1.117755e+00 -3.236830e-01 3.164430e+00 60 43 36
2.455481e+00 5.354452e-01 2.921176e+00 42 38 31
2.098893e+00 6.974244e-01 2.866778e+00 68 60 56
-3.846945e-02 1.026212e+00 2.691728e+00 8 10 13
1.850276e+00 8.331880e-01 2.822461e+00 59 57 52
9.301872e-01 8.331172e-01 2.890504e+00 39 28 34
-6.572667e-02 1.115425e+00 2.767628e+00 70 41 30
2.228807e+00 9.602635e-01 2.963311e+00 47 41 47
1.696151e+00 1.051144e+00 2.925945e+00 178 151 110
1.738998e+00 1.072594e+00 2.931353e+00 170 142 96
2.072025e+00 1.048923e+00 2.947495e+00 161 146 113
1.784492e+00 1.093586e+00 2.930746e+00 185 158 115
1.868447e+00 1.377130e+00 2.987914e+00 58 38 37
2.499071e+00 2.259626e+00 3.070260e+00 65 68 60
4.801858e-01 2.464627e+00 3.052576e+00 158 142 122
2.184934e+00 2.368586e+00 3.049504e+00 13 10 10
-4.253032e-02 2.546102e+00 3.090812e+00 200 175 148
2.745770e+00 2.517008e+00 3.318062e+00 125 114 99
3.134487e+00 2.744859e+00 3.141641e+00 146 207 210
1.637273e+00 4.787745e+00 2.987615e+00 1 1 3
2.406155e+00 5.219233e+00 3.244022e+00 29 33 37
2.002222e+00 5.326147e+00 3.250854e+00 89 81 71
3.136655e-01 2.403928e+00 3.042238e+00 198 179 155
-1.911935e+00 6.466332e+00 -1.456552e+00 252 254 253
-8.721930e-01 -5.843086e-01 2.994787e+00 52 49 42
-8.068439e-01 6.135746e-02 1.488267e+00 69 67 55
-1.230214e+00 6.729821e-01 3.009280e+00 142 137 118
2.492608e+00 2.169301e+00 3.029914e+00 53 53 45
-7.389515e-01 2.651269e+00 3.073731e+00 54 53 51
-1.005446e+00 2.532846e+00 3.483028e+00 58 57 55
-6.727513e-01 -8.598605e-01 3.141418e+00 67 64 55
2.638601e+00 1.415332e+00 3.157112e+00 134 134 125
-9.223219e-01 2.411563e+00 3.448519e+00 147 147 137
1.253352e+00 2.423125e+00 3.238468e+00 142 139 130
1.253352e+00 2.423125e+00 3.238468e+00 142 139 130
8.483026e-01 5.780430e+00 2.963930e+00 253 253 254
-1.144914e-01 -1.585941e-02 2.916476e+00 31 31 26
-7.924545e-01 4.148506e-01 3.438597e+00 166 166 156
-4.278907e-01 7.373365e-01 2.659478e+00 28 27 26
2.615490e+00 1.444664e+00 3.071133e+00 133 133 125
-1.329921e+00 2.142439e+00 2.884485e+00 121 118 109
-1.250177e+00 2.491214e+00 3.037802e+00 38 37 32
1.361309e+00 2.381543e+00 2.792673e+00 87 86 82
-4.183848e-01 2.450356e+00 3.057773e+00 40 38 41
-7.008364e-01 2.418961e+00 3.444877e+00 149 148 143
1.336366e+00 3.045668e+00 2.687567e+00 89 89 87
2.164155e+00 4.988840e+00 3.153823e+00 69 69 67
7.288975e-01 -1.093601e+00 3.211318e+00 141 139 127
-1.190476e-01 3.667883e-01 2.669308e+00 30 30 28
-1.326023e+00 2.349076e+00 3.045138e+00 41 40 36
-8.587768e-01 2.065033e+00 3.733488e+00 57 56 51
2.020809e+00 2.219316e+00 3.064377e+00 53 52 47
1.403496e+00 2.820050e+00 3.018108e+00 44 43 38
-2.148962e+00 5.020688e+00 2.904026e+00 103 103 104
-1.508365e+00 5.023873e+00 2.841390e+00 105 105 107
9.313815e-01 -1.090984e+00 3.239428e+00 121 121 112
2.353333e+00 4.715662e+00 2.897439e+00 84 86 81
1.993074e+00 4.922437e+00 3.107887e+00 82 82 80
2.348784e+00 4.938188e+00 3.021610e+00 137 138 133
2.001784e+00 5.160279e+00 3.169216e+00 143 143 141
-2.832535e+00 6.247899e+00 3.333364e+00 140 144 147
-4.160951e-01 2.330230e+00 3.033931e+00 155 126 84
-5.175309e-01 2.318539e+00 2.958803e+00 91 66 50
-2.444033e-01 2.478734e+00 3.070053e+00 32 24 7
-1.370658e+00 1.746906e+00 2.905759e+00 172 151 107
-1.821358e-01 2.506502e+00 3.084363e+00 166 139 95
1.249579e+00 8.545838e-01 2.824194e+00 143 142 124
1.251946e+00 -2.171339e-02 2.777768e+00 184 186 183
9.951534e-01 -1.113986e+00 2.958423e+00 78 78 68
-4.433119e-01 1.583739e-01 2.684888e+00 203 203 190
1.198028e+00 -1.948335e+00 3.085876e+00 170 170 170
3.129100e+00 2.893957e+00 2.726551e+00 111 115 115
-2.355749e+00 4.165629e+00 2.936661e+00 14 14 15
-2.100295e+00 -2.524844e+00 2.421122e+00 110 108 88
-4.661298e-01 5.938869e-01 2.657950e+00 51 55 54
-3.457884e-01 8.594258e-01 2.675567e+00 46 52 54
1.239896e+00 2.465595e+00 3.197318e+00 146 148 136
2.233589e+00 -1.053472e+00 3.021966e+00 186 188 178
-6.197981e-01 9.971051e-01 2.953173e+00 184 181 170
-6.197981e-01 9.971051e-01 2.953173e+00 184 181 170
1.283420e+00 2.316723e+00 3.217071e+00 161 161 159
-2.399564e+00 4.457533e+00 3.113657e+00 125 129 116
2.081426e+00 -9.964196e-01 3.001574e+00 31 29 27
-1.602784e+00 6.607633e-01 2.879640e+00 135 138 127
8.135893e-01 -1.626290e+00 3.054537e+00 149 150 137
-9.234029e-02 1.233675e+00 2.998132e+00 124 125 112
2.063842e+00 2.278562e+00 3.935031e+00 57 59 60
1.757210e+00 -2.364195e+00 3.094372e+00 53 48 45
1.621823e+00 1.096273e-01 1.503875e+00 59 57 49
-1.929769e+00 1.195163e+00 2.973868e+00 165 170 158
1.723496e+00 -2.356935e+00 3.078477e+00 75 69 64
7.417954e-02 4.226453e-01 2.641101e+00 28 29 19
-2.267791e-01 7.200968e-01 2.676357e+00 39 47 46
-2.439801e+00 1.285099e+00 2.956863e+00 89 90 77
-2.119435e+00 2.389341e+00 3.106883e+00 74 74 63
4.466103e-02 2.496808e+00 3.096207e+00 150 151 142
2.911377e+00 4.799717e+00 2.991800e+00 79 80 72
2.090924e+00 5.281482e+00 2.975809e+00 126 129 129
1.742295e+00 -2.036193e+00 3.033424e+00 83 77 60
5.677328e-01 -1.104947e+00 2.964197e+00 43 38 37
-4.459024e-01 1.027079e+00 2.989837e+00 112 115 109
-6.372797e-01 1.298638e+00 2.998403e+00 45 40 37
-1.142797e-01 -7.875104e-01 3.174376e+00 100 100 93
-3.896314e-02 1.141553e+00 2.894210e+00 98 95 93
-1.537390e+00 5.292792e+00 3.225051e+00 125 133 133
-2.022331e+00 9.757725e-01 2.913659e+00 119 124 123
-2.166484e+00 1.055527e+00 2.927115e+00 120 119 119
-1.704550e+00 1.298322e+00 2.992050e+00 78 76 76
-1.414070e+00 1.037245e+00 2.997876e+00 37 36 41
1.831203e+00 9.495109e-01 2.896220e+00 35 27 23
1.964763e+00 1.035682e+00 3.014070e+00 124 119 112
1.860615e+00 1.048322e+00 3.012829e+00 120 115 103
-6.902194e-01 1.303258e+00 3.018266e+00 103 103 103
1.832072e+00 -6.278620e-01 3.204439e+00 99 95 85
1.901913e+00 -6.020236e-01 3.222576e+00 78 76 77
-1.574228e+00 5.186700e-01 2.752338e+00 96 91 85
-1.574228e+00 5.186700e-01 2.752338e+00 96 91 85
2.044798e-01 6.906441e-01 2.739165e+00 125 123 126
8.781932e-01 8.139710e-01 2.967757e+00 124 125 119
1.487331e+00 7.819675e-01 2.965752e+00 63 62 57
-1.699155e+00 1.123974e+00 2.957727e+00 97 93 90
-4.816062e-01 1.012472e+00 2.987218e+00 129 130 125
-4.789690e-01 1.080162e+00 2.946899e+00 131 130 126
-1.642162e+00 1.161533e+00 3.006778e+00 57 58 62
2.086466e+00 9.722711e-01 3.012380e+00 120 116 105
2.002953e+00 9.958184e-01 3.004148e+00 71 71 58
-6.749596e-01 1.405631e+00 3.059683e+00 94 95 98
2.259953e+00 2.036384e+00 3.053599e+00 80 75 72
1.092357e+00 2.479203e+00 3.335062e+00 52 49 44
-2.314461e+00 5.153179e+00 3.052555e+00 79 84 80
2.030221e+00 4.770915e+00 3.047749e+00 91 92 94
-1.699297e+00 5.255242e+00 3.213483e+00 124 130 133
-1.671760e+00 5.269467e+00 3.215307e+00 120 128 127
1.668122e+00 -1.701589e+00 2.763411e+00 75 72 64
1.879934e+00 -1.523093e+00 2.652870e+00 140 140 130
1.888894e+00 -1.510935e+00 2.649308e+00 92 87 81
-2.000177e-01 -8.510416e-01 3.102017e+00 177 161 136
2.214601e+00 -6.074250e-01 2.673719e+00 88 70 59
-1.382664e+00 -1.232799e+00 3.091697e+00 198 180 166
2.222945e+00 -6.828043e-01 2.708329e+00 73 61 50
2.719281e+00 -7.161109e-01 2.810955e+00 174 162 140
-3.274001e+00 3.386062e+00 3.104435e+00 255 254 255
2.174968e+00 2.559006e+00 3.250603e+00 104 101 98
1.914876e+00 5.156899e+00 3.155214e+00 117 116 116
-2.332871e+00 -2.939702e+00 2.873146e+00 38 37 33
1.925325e+00 9.466069e-01 2.900951e+00 54 49 46
-3.331848e+00 4.573624e+00 3.198033e+00 161 184 216
-2.244565e+00 5.289316e+00 3.118565e+00 32 28 32
-2.438729e+00 5.833376e-01 2.857715e+00 48 44 41
2.220692e+00 1.119122e+00 3.030559e+00 56 46 44
-3.181197e+00 1.710983e+00 2.952848e+00 183 216 245
-6.155826e-01 2.587249e+00 3.169299e+00 35 33 34
1.157663e-01 -6.033174e-01 3.231208e+00 71 68 64
1.823389e+00 1.065927e+00 3.026589e+00 59 50 48
1.480553e+00 4.820166e+00 3.052890e+00 71 69 71
-1.680989e+00 5.073566e+00 3.043351e+00 70 72 77
-2.676955e+00 5.646016e+00 3.192171e+00 79 77 76
-2.122106e+00 1.073975e+00 2.978640e+00 49 49 49
-1.510949e+00 1.171827e+00 2.983442e+00 65 58 56
2.015403e+00 1.908366e+00 2.958200e+00 96 94 95
-2.692313e+00 2.304618e+00 3.232720e+00 53 46 46
9.938888e-01 2.706868e+00 3.379575e+00 48 45 46
-5.955003e-01 4.900880e+00 2.959015e+00 168 182 206
2.660684e-01 2.512896e+00 3.136994e+00 107 102 100
-1.477209e+00 4.401507e-01 2.381457e+00 22 24 24
1.871064e+00 1.981367e+00 2.756648e+00 93 86 62
1.871064e+00 1.981367e+00 2.756648e+00 93 86 62
1.195227e+00 4.988726e-01 3.351362e+00 146 124 105
2.078588e+00 5.168611e+00 2.216460e+00 3 7 6
