ply
format ascii 1.0
element face 0
property list uchar int vertex_indices
element vertex 954
property float x
property float y
property float z
property uchar diffuse_red
property uchar diffuse_green
property uchar diffuse_blue
end_header
-3.840720e-01 2.339332e+00 1.942568e+00 254 254 254
-8.860345e-01 1.484708e+00 3.239501e+00 148 152 156
-2.048750e+00 2.323638e+00 3.040047e+00 25 24 28
1.974564e+00 2.377867e+00 3.122138e+00 146 145 140
1.457742e-01 2.439410e+00 3.081057e+00 143 142 147
6.334921e-01 2.519316e+00 3.054132e+00 152 150 152
2.251796e-01 2.536366e+00 3.056208e+00 153 152 153
-8.609003e-01 2.564188e+00 3.421736e+00 132 128 124
-2.165609e+00 2.728246e+00 3.273118e+00 124 126 124
-2.043300e+00 2.808018e+00 3.225126e+00 39 38 56
-2.118471e+00 2.811360e+00 3.225680e+00 46 43 62
-1.857429e+00 4.748508e+00 3.220131e+00 154 152 153
1.687580e+00 5.040112e+00 3.126796e+00 150 149 147
8.100625e-01 -2.894868e+00 2.888095e+00 46 48 47
-1.124542e+00 -2.780915e+00 2.878458e+00 44 46 45
-9.044018e-01 -2.492000e+00 2.849451e+00 72 73 77
-9.044018e-01 -2.492000e+00 2.849451e+00 72 73 77
1.144779e+00 -2.065771e+00 2.993414e+00 49 49 50
2.163043e+00 -1.036574e+00 3.050108e+00 79 75 76
2.168216e+00 -1.030012e+00 3.032110e+00 79 75 76
-2.178683e+00 -9.000915e-01 2.590645e+00 122 122 122
-2.656172e+00 -1.048352e+00 3.138817e+00 58 57 62
2.462076e+00 -7.726703e-01 3.079048e+00 32 32 32
-1.723283e+00 -5.790114e-01 2.713514e+00 61 59 63
-2.369252e+00 -6.471873e-01 3.140889e+00 35 35 35
2.845450e+00 -3.371593e-01 3.145775e+00 144 146 145
-2.311963e-01 4.115296e-01 2.639899e+00 145 146 150
3.196175e+00 3.965041e-01 2.804644e+00 107 108 128
1.987709e+00 4.401669e-01 2.832195e+00 75 69 58
-2.106107e+00 6.351389e-01 2.670203e+00 130 128 116
-2.145053e+00 6.168540e-01 2.707450e+00 127 125 113
1.864014e+00 7.754790e-01 2.861259e+00 136 135 131
1.846758e-01 8.457161e-01 2.697828e+00 66 66 80
-2.352088e+00 7.642857e-01 2.896721e+00 98 97 95
-4.950921e-01 9.589221e-01 2.898247e+00 80 76 73
-2.089173e-01 1.255400e+00 2.978729e+00 100 99 104
5.691249e-01 1.382873e+00 2.996795e+00 91 89 90
2.618927e+00 1.352921e+00 3.130455e+00 74 71 66
3.074281e+00 1.537203e+00 2.954631e+00 244 255 254
-1.354425e+00 1.470409e+00 3.046203e+00 69 69 67
-3.609788e-02 3.395150e+00 8.199621e-01 253 253 251
2.836849e+00 2.220586e+00 3.187254e+00 130 131 128
2.144994e+00 2.366164e+00 3.035856e+00 129 130 125
2.365055e+00 2.460581e+00 3.055282e+00 139 135 132
-7.156936e-02 2.483388e+00 3.126410e+00 92 92 94
-7.536795e-02 2.529487e+00 3.069690e+00 92 92 94
-2.101288e+00 2.450708e+00 3.186408e+00 152 152 148
-1.861989e+00 4.704690e+00 3.217813e+00 159 159 159
-1.245946e+00 -2.884121e+00 2.833657e+00 55 57 57
-1.774132e+00 -2.595596e+00 2.811010e+00 79 81 79
-9.220006e-01 -2.473922e+00 2.878025e+00 125 128 133
-9.534919e-01 -2.452319e+00 2.946543e+00 113 113 111
1.593584e+00 -1.070723e+00 3.092635e+00 141 146 143
1.593584e+00 -1.070723e+00 3.092635e+00 141 146 143
1.186854e+00 -1.062538e+00 3.101543e+00 134 135 141
-2.378891e+00 -1.048728e+00 3.055435e+00 18 21 27
2.714543e+00 -1.058873e+00 3.148870e+00 82 82 83
2.727470e+00 -1.047293e+00 3.116299e+00 82 82 83
3.241254e+00 4.677193e-02 2.887636e+00 250 254 255
-3.382910e+00 4.904392e-01 2.673235e+00 254 254 255
-3.396603e+00 5.549096e-01 2.641373e+00 252 252 251
1.020592e-01 8.339253e-01 2.273621e+00 52 55 68
-5.019318e-01 6.582104e-01 2.699218e+00 40 37 46
2.446582e+00 6.840349e-01 2.934439e+00 99 100 94
1.841665e+00 8.027237e-01 2.853573e+00 83 83 81
2.293809e+00 8.815715e-01 2.962832e+00 93 93 88
8.398023e-01 9.755558e-01 2.898426e+00 98 98 96
8.046459e-01 1.017012e+00 2.903066e+00 91 91 89
-2.096869e+00 1.066864e+00 3.000860e+00 84 84 82
7.977663e-01 1.147967e+00 2.938864e+00 85 85 83
-1.156110e+00 1.115712e+00 2.948174e+00 83 82 80
-1.562873e-01 1.305553e+00 2.929108e+00 97 97 97
3.106517e+00 1.390628e+00 2.968492e+00 253 255 253
4.600485e-01 1.421152e+00 2.948567e+00 93 92 91
3.775519e-01 1.402831e+00 3.020682e+00 141 141 139
1.093786e+00 1.412480e+00 3.146362e+00 141 138 133
-1.178880e+00 1.456487e+00 3.028323e+00 125 124 120
-2.578232e+00 1.350228e+00 3.390561e+00 126 125 118
2.210785e+00 2.361313e+00 3.052273e+00 165 166 158
2.192629e+00 2.392624e+00 3.054476e+00 161 160 156
2.175746e-01 2.477420e+00 3.076358e+00 95 95 97
1.558467e-01 2.538755e+00 3.047736e+00 138 136 139
-3.654192e-01 2.512504e+00 3.083972e+00 93 93 95
-4.149278e-01 2.532652e+00 3.083441e+00 81 81 83
-3.277708e-01 2.512876e+00 3.113697e+00 73 72 78
3.157905e+00 2.668246e+00 3.096982e+00 116 112 153
3.163034e+00 2.792204e+00 3.044467e+00 241 254 253
2.209090e+00 2.729323e+00 3.119433e+00 160 160 156
-1.474526e+00 2.807141e+00 3.223045e+00 148 149 144
-2.081926e+00 2.821296e+00 3.225267e+00 156 158 148
2.357409e+00 4.744170e+00 3.081934e+00 95 95 95
1.526191e+00 5.220686e+00 3.152300e+00 144 144 142
-1.446027e+00 5.256644e+00 3.359538e+00 108 103 109
-4.215040e-01 -2.180023e+00 2.824065e+00 123 120 115
-3.875956e-01 -2.044192e+00 2.834139e+00 132 134 131
5.826882e-01 -1.069321e+00 3.064194e+00 138 137 142
2.291695e+00 -1.061456e+00 3.099115e+00 139 139 141
2.545475e+00 -1.055345e+00 3.101535e+00 52 52 54
6.533151e-01 -1.040141e+00 3.061284e+00 142 146 149
-2.695555e+00 -8.435888e-01 3.160204e+00 75 76 80
-1.987298e+00 -7.856209e-01 3.076144e+00 81 83 81
1.982519e+00 -3.106160e-01 3.100059e+00 148 148 140
3.210800e+00 3.523270e-02 2.910458e+00 106 108 131
3.197281e+00 3.142143e-01 2.835759e+00 248 253 255
-3.356869e+00 5.867746e-01 2.686182e+00 157 155 176
2.467409e+00 6.280709e-01 2.945117e+00 90 88 89
-2.618254e+00 4.243359e-01 3.287132e+00 85 89 92
-1.174222e+00 8.304216e-01 2.914703e+00 87 87 86
-1.973709e-01 1.074063e+00 2.741121e+00 96 91 86
1.463511e+00 1.099030e+00 2.917791e+00 90 86 84
-1.795378e+00 1.142388e+00 2.881330e+00 70 63 56
-2.266936e+00 1.092938e+00 2.976212e+00 71 72 76
-1.753577e+00 1.128223e+00 2.937562e+00 142 138 129
-1.874130e+00 1.129052e+00 2.939335e+00 83 79 68
-2.353047e+00 1.228935e+00 2.992868e+00 90 90 92
1.423941e-01 1.296166e+00 2.975437e+00 156 156 154
2.501916e+00 1.349473e+00 3.023637e+00 144 143 141
5.469368e-01 1.410686e+00 2.999997e+00 140 138 139
3.061627e+00 1.497407e+00 2.962666e+00 138 140 160
-6.003010e-01 1.448917e+00 3.012205e+00 116 115 111
-2.498394e+00 1.832951e+00 2.978877e+00 42 43 48
-2.498394e+00 1.832951e+00 2.978877e+00 42 43 48
-2.498394e+00 1.832951e+00 2.978877e+00 42 43 48
-2.645585e+00 1.720676e+00 3.339331e+00 67 68 73
2.242024e+00 2.199889e+00 3.043554e+00 154 154 150
7.594560e-01 2.240888e+00 3.031147e+00 152 152 150
1.470040e+00 2.322002e+00 3.056997e+00 142 142 140
1.579738e+00 2.329958e+00 3.070896e+00 65 65 64
3.096800e+00 2.471263e+00 3.009945e+00 62 61 70
-2.482884e+00 2.250140e+00 3.170863e+00 136 135 127
2.016569e+00 2.434603e+00 3.086757e+00 156 155 150
1.848496e+00 2.464245e+00 3.057799e+00 156 154 157
-7.578583e-01 2.211668e+00 3.328543e+00 162 161 156
-9.709791e-01 2.208810e+00 3.350246e+00 157 156 151
-6.386684e-01 2.423068e+00 3.113681e+00 66 66 68
2.262319e+00 2.524550e+00 3.077155e+00 149 147 137
-2.575918e+00 2.173362e+00 3.429537e+00 97 95 96
-2.575918e+00 2.173362e+00 3.429537e+00 97 95 96
-2.486611e+00 2.158206e+00 3.457348e+00 171 170 168
-2.727335e+00 2.152418e+00 3.475083e+00 153 152 150
6.657419e-01 2.565355e+00 3.056753e+00 139 138 136
5.754068e-01 2.561214e+00 3.067359e+00 146 145 141
-9.829873e-02 2.550414e+00 3.083350e+00 159 159 161
2.208738e+00 2.749815e+00 3.125325e+00 68 67 66
2.130110e+00 2.729875e+00 3.142781e+00 60 60 60
1.574604e+00 2.763622e+00 3.119172e+00 133 134 129
1.519712e+00 2.802768e+00 3.120528e+00 128 129 122
-2.351702e+00 2.764806e+00 3.332078e+00 64 67 75
-7.418535e-01 2.771847e+00 3.436165e+00 130 130 133
-9.668215e-01 2.773552e+00 3.454168e+00 137 138 134
-2.410500e+00 3.377525e+00 3.057524e+00 84 87 93
2.209744e+00 4.673491e+00 3.005100e+00 32 31 47
1.722212e+00 4.922703e+00 3.105531e+00 70 68 71
1.663146e+00 4.971194e+00 3.121357e+00 85 83 87
2.131134e+00 5.024383e+00 3.113435e+00 80 76 73
-1.701419e+00 5.050360e+00 3.198789e+00 133 131 133
1.760597e+00 5.243785e+00 3.164360e+00 143 143 142
-1.606823e+00 5.163095e+00 3.257673e+00 153 152 150
-1.482696e+00 5.171146e+00 3.269251e+00 101 97 99
-2.752613e+00 5.066631e+00 3.529500e+00 57 56 65
1.017951e+00 5.751190e+00 3.240447e+00 251 251 249
9.124362e-02 -1.137622e+00 3.101751e+00 150 151 154
2.088189e+00 -1.095264e+00 3.100007e+00 68 78 80
-2.261228e+00 -1.059316e+00 3.077561e+00 145 150 158
-4.343365e-01 -1.045327e+00 3.021351e+00 146 147 149
-1.947981e+00 -1.049680e+00 3.086777e+00 140 144 154
2.285324e+00 -1.033706e+00 3.109744e+00 145 145 147
2.731832e+00 -8.675714e-01 3.187413e+00 100 100 100
1.428431e+00 -6.691099e-01 3.121712e+00 151 151 147
1.545063e-01 -4.241947e-01 3.063688e+00 105 103 109
-1.740215e+00 7.591719e-02 3.102807e+00 161 162 164
3.192950e+00 3.330194e-01 2.831528e+00 135 138 157
-1.758844e+00 3.505427e-01 2.821396e+00 139 140 134
4.364249e-02 4.978969e-01 2.693473e+00 137 141 138
1.015678e+00 4.340448e-01 2.880520e+00 101 102 104
1.189248e-02 5.396860e-01 2.694754e+00 170 169 175
-3.369260e+00 6.032702e-01 2.617023e+00 250 251 255
9.995445e-01 5.761590e-01 2.887684e+00 106 104 105
4.495549e-01 6.895627e-01 2.678908e+00 61 64 73
3.826638e-01 7.591886e-01 2.672901e+00 57 64 71
-8.360460e-01 5.071146e-01 3.189348e+00 102 103 108
2.476618e+00 6.874583e-01 2.952728e+00 101 101 101
1.577120e+00 7.301979e-01 2.879625e+00 101 101 99
-2.577206e+00 4.740425e-01 3.295497e+00 104 111 120
2.727901e+00 7.009418e-01 3.118719e+00 105 107 106
-2.051035e+00 9.976293e-01 2.925799e+00 81 80 79
1.926457e+00 1.121968e+00 2.965260e+00 112 111 106
1.439405e+00 1.170576e+00 2.937931e+00 141 138 136
3.000141e-01 1.238047e+00 2.903858e+00 85 81 82
-2.470544e+00 1.178522e+00 3.013510e+00 78 82 83
-1.219806e+00 1.237668e+00 2.951556e+00 86 85 80
-1.944321e+00 1.662022e+00 3.018160e+00 105 106 110
1.705455e+00 1.997525e+00 2.905892e+00 90 91 93
2.991196e+00 2.227244e+00 2.980466e+00 122 122 124
2.206840e+00 2.197681e+00 3.017680e+00 142 142 141
8.117695e-01 2.203057e+00 2.988707e+00 89 89 89
1.482431e+00 2.334648e+00 3.060802e+00 81 83 82
2.006629e+00 2.450030e+00 3.058554e+00 156 155 153
1.819589e+00 2.461429e+00 3.049685e+00 147 146 142
2.631586e+00 2.386261e+00 3.214033e+00 122 124 122
7.980397e-03 2.453732e+00 3.047399e+00 147 147 149
-9.989988e-01 2.218614e+00 3.340298e+00 156 155 151
1.900675e+00 2.506328e+00 3.064226e+00 117 114 109
1.548935e+00 2.500830e+00 3.066021e+00 146 142 139
-2.703576e+00 2.156060e+00 3.424607e+00 88 88 88
5.347836e-01 2.531486e+00 3.045352e+00 79 78 80
-1.331663e-01 2.508764e+00 3.093241e+00 162 161 165
1.365504e-01 2.551540e+00 3.067399e+00 151 149 152
2.411551e+00 2.721591e+00 3.143718e+00 65 65 67
3.135481e+00 2.849285e+00 3.088654e+00 243 253 255
-2.752545e+00 2.444577e+00 3.506401e+00 79 79 79
1.637615e+00 4.673948e+00 3.009580e+00 119 120 123
1.399401e+00 4.704273e+00 2.977349e+00 135 135 135
2.154786e+00 5.030707e+00 3.119699e+00 141 140 135
-1.391110e+00 5.177022e+00 3.271114e+00 122 117 121
-2.714838e+00 4.944153e+00 3.498917e+00 139 139 139
-2.147524e+00 5.440774e+00 3.335045e+00 91 90 95
-2.622375e+00 -1.039315e+00 3.166060e+00 149 152 159
2.768593e+00 -8.682543e-01 3.159199e+00 86 86 86
-1.556029e-01 -8.109920e-01 3.055396e+00 111 110 105
1.896176e+00 -7.362081e-01 3.075346e+00 127 127 125
1.440275e+00 -6.852501e-01 3.103210e+00 135 130 127
1.966023e+00 -4.885327e-01 3.115465e+00 99 103 107
3.193162e+00 2.990704e-01 2.827703e+00 161 164 178
5.333074e-01 4.820359e-01 2.668693e+00 61 64 73
1.012137e-01 6.031322e-01 2.662054e+00 100 105 98
3.058426e+00 6.615559e-01 2.924541e+00 100 101 103
4.627954e-01 8.929032e-01 3.522813e+00 106 106 106
1.670287e+00 2.120877e+00 2.916010e+00 105 105 106
3.043819e+00 2.117066e+00 2.996885e+00 120 120 125
2.238449e+00 2.150093e+00 3.043799e+00 105 104 102
1.756291e+00 2.190237e+00 3.035079e+00 114 115 109
1.907512e+00 2.184448e+00 3.050280e+00 104 104 104
2.318580e+00 2.301973e+00 3.039222e+00 96 97 91
1.997570e+00 2.318081e+00 3.029843e+00 97 98 93
1.006564e+00 2.194551e+00 3.213580e+00 131 131 131
1.006564e+00 2.194551e+00 3.213580e+00 131 131 131
2.300873e+00 2.348152e+00 3.054510e+00 128 127 122
-9.597052e-01 2.187627e+00 3.354117e+00 96 95 91
3.333511e-01 2.472723e+00 3.091966e+00 135 135 134
4.669928e-01 2.536190e+00 3.083039e+00 118 117 115
2.089723e-01 2.552834e+00 3.063822e+00 152 150 152
3.976615e-01 2.573300e+00 3.059207e+00 151 147 147
-3.952557e-01 2.584328e+00 3.082663e+00 112 112 112
-3.952557e-01 2.584328e+00 3.082663e+00 112 112 112
1.580163e+00 2.726934e+00 3.113023e+00 125 125 124
2.574382e+00 -1.152095e+00 3.100720e+00 87 74 63
-2.328435e+00 -1.104574e+00 2.933058e+00 103 89 82
-2.181017e+00 -1.222242e+00 2.983899e+00 203 184 169
2.628129e+00 -6.394309e-01 3.129794e+00 173 156 136
-1.410362e+00 -2.569643e+00 2.211616e+00 75 61 47
2.910502e+00 -2.385492e+00 2.955893e+00 197 189 170
2.013715e+00 -6.992023e-01 3.046158e+00 59 46 31
2.845011e-01 -6.378926e-01 3.085945e+00 164 147 130
2.873273e+00 -1.292170e+00 3.079575e+00 220 206 190
1.064615e+00 -9.759619e-01 3.067127e+00 173 167 152
2.202530e+00 -8.181657e-01 3.076532e+00 84 72 57
1.573319e+00 -6.441341e-01 3.011830e+00 158 149 135
-2.164153e+00 -2.666334e+00 2.318567e+00 131 116 100
1.177624e+00 -2.446040e+00 2.816160e+00 107 89 75
6.188661e-01 -1.417065e+00 3.032833e+00 197 183 170
2.618342e+00 -1.167545e+00 2.980505e+00 98 80 68
2.243612e+00 -9.405240e-01 2.883030e+00 165 151 134
8.651663e-01 -9.676324e-01 3.022615e+00 158 149 132
2.112293e+00 -7.808812e-01 2.637060e+00 173 168 146
-3.901181e-01 -1.038085e+00 2.979018e+00 179 165 154
-2.625130e+00 -6.053225e-02 3.113281e+00 129 127 128
-2.605205e+00 -3.179913e-01 3.127789e+00 67 66 64
1.139278e+00 4.508185e+00 3.338694e+00 117 117 117
-7.183683e-01 5.543316e+00 3.104481e+00 253 255 254
-1.562125e+00 5.189975e+00 3.167264e+00 56 56 56
-2.802209e+00 -6.783578e-01 3.069510e+00 35 35 33
-2.324025e+00 2.434630e+00 3.190343e+00 31 32 34
2.042511e+00 3.874664e+00 2.887754e+00 14 15 16
2.816187e-01 -1.046717e+00 3.039323e+00 115 115 113
-2.530702e+00 -6.934451e-01 3.046331e+00 28 28 28
-3.150949e+00 1.640510e+00 2.964313e+00 136 137 142
1.968386e+00 3.048593e+00 3.078820e+00 15 16 17
-2.057195e+00 4.333437e+00 3.013215e+00 20 20 22
-2.401744e+00 4.329793e+00 3.061531e+00 96 97 100
1.415011e+00 4.401093e+00 3.157510e+00 24 24 26
-2.875359e+00 5.933984e+00 3.079557e+00 109 109 109
1.853615e+00 5.732725e+00 3.167953e+00 77 82 88
2.454084e+00 -1.216831e+00 3.023613e+00 117 113 109
-1.568138e+00 -9.419521e-01 2.790499e+00 33 30 25
2.537846e+00 -6.596978e-01 3.072476e+00 95 91 87
-1.481774e+00 -6.068717e-01 2.948468e+00 83 80 76
2.842607e+00 -3.010635e-01 3.077692e+00 78 76 75
-3.316004e+00 5.067013e-01 2.669679e+00 234 238 243
-3.326082e+00 5.988500e-01 2.659286e+00 228 240 248
-1.968026e+00 1.201585e+00 2.974830e+00 127 126 122
3.149666e+00 2.509712e+00 3.019970e+00 201 209 228
-1.788474e+00 2.530589e+00 3.092788e+00 27 26 24
-3.310843e+00 2.860085e+00 3.001756e+00 75 82 89
-6.824624e-01 2.696500e+00 3.472829e+00 108 106 105
5.804233e-01 4.596314e+00 1.660131e+00 228 222 229
-1.953284e+00 3.550376e+00 3.059662e+00 103 101 100
2.188187e+00 4.670158e+00 3.023871e+00 23 28 31
-1.423974e+00 4.848306e+00 3.115648e+00 26 26 27
1.077177e+00 5.164555e+00 3.450625e+00 92 92 94
6.200997e-01 -1.413462e+00 3.013408e+00 116 110 107
2.459884e+00 -1.005601e+00 3.046874e+00 47 43 38
-1.755686e+00 -9.590429e-01 2.982468e+00 87 85 84
-3.552296e-01 -7.495894e-01 3.010155e+00 39 35 33
1.662054e+00 -7.331523e-01 3.032431e+00 81 77 73
-2.916889e+00 -6.087685e-01 2.968841e+00 55 55 55
-1.895618e+00 -3.032250e-01 3.084115e+00 99 95 90
3.151717e+00 7.230489e-01 2.836332e+00 178 184 199
-3.268785e+00 9.225351e-01 2.786761e+00 124 135 140
-3.248142e+00 8.914760e-01 2.836114e+00 124 135 140
2.729254e-01 1.056174e+00 2.743912e+00 90 86 83
-2.214786e+00 1.237074e+00 2.997075e+00 81 75 75
2.448852e+00 1.541412e+00 2.938801e+00 38 36 39
-2.258119e+00 1.917060e+00 3.027297e+00 98 99 101
-2.048117e+00 2.025949e+00 2.956349e+00 114 111 110
3.078407e+00 2.227875e+00 3.095493e+00 201 207 225
-3.203320e+00 2.387591e+00 3.071270e+00 107 108 113
3.079540e+00 2.332267e+00 3.087763e+00 210 218 232
1.507719e+00 2.439800e+00 3.041227e+00 87 86 82
1.222697e+00 2.498856e+00 3.376269e+00 75 74 72
-6.777184e-01 2.619843e+00 3.464204e+00 109 108 110
2.248321e+00 3.107348e+00 2.977937e+00 102 102 102
-2.285600e+00 5.631836e+00 3.239705e+00 58 56 59
-1.557194e+00 5.592276e+00 3.318578e+00 59 58 61
2.592932e+00 6.429351e+00 2.914411e+00 221 231 247
-2.879865e+00 5.711380e+00 3.391123e+00 60 52 51
-2.118768e+00 -2.123575e-01 3.086143e+00 92 91 89
8.677037e-01 -1.035684e+00 3.008412e+00 89 91 90
-5.904351e-01 -6.081835e-01 3.043893e+00 26 23 24
1.875148e-02 -6.137688e-01 3.054994e+00 20 19 17
-1.400375e+00 -6.171674e-01 3.046845e+00 23 18 18
-3.381998e+00 2.838581e-01 2.766481e+00 213 237 254
-2.354520e+00 -9.913730e-01 3.004656e+00 78 77 79
8.646757e-01 -9.714695e-01 3.033536e+00 73 71 68
-4.038483e-01 2.042525e-01 2.632909e+00 98 96 97
-6.835963e-01 1.483982e-01 3.121246e+00 32 28 29
-3.373045e+00 5.323175e-01 2.632656e+00 96 95 107
1.207906e-01 8.146269e-01 2.706544e+00 20 15 12
2.433190e-01 1.127480e+00 2.799387e+00 77 65 61
-2.018223e+00 1.090975e+00 2.976728e+00 96 91 88
3.154492e+00 2.225258e+00 2.992000e+00 181 204 235
2.147722e+00 2.272906e+00 3.027211e+00 39 36 37
-2.295923e+00 -1.053372e+00 2.999504e+00 79 85 86
-1.453556e+00 -1.030525e+00 2.953386e+00 33 28 25
2.413334e+00 -1.116255e+00 3.014335e+00 44 38 38
7.663859e-01 -1.032631e+00 3.023548e+00 47 39 37
1.156999e+00 -1.035245e+00 3.036367e+00 88 91 97
-3.745591e-01 2.179860e-01 2.641134e+00 91 89 91
-4.434234e-01 3.235559e-01 2.644783e+00 16 14 17
-3.343639e+00 5.242152e-01 2.611949e+00 211 230 243
1.451944e+00 2.109639e+00 2.962399e+00 27 25 30
-1.361135e+00 2.783023e+00 3.235182e+00 42 44 56
-2.661302e+00 -1.073944e+00 3.126721e+00 86 91 100
-2.661302e+00 -1.073944e+00 3.126721e+00 86 91 100
-7.976968e-01 -1.017119e+00 2.990602e+00 23 24 28
-3.431918e-01 -1.019112e+00 2.992864e+00 78 81 85
1.758256e+00 -1.025937e+00 2.990386e+00 28 25 25
-2.572346e+00 -6.740453e-01 3.199185e+00 87 85 86
2.318135e+00 1.054764e+00 2.920838e+00 48 44 44
1.356023e-01 1.329294e+00 2.993846e+00 88 84 83
1.874754e+00 2.261919e+00 3.088270e+00 46 41 41
1.998695e+00 2.457892e+00 3.066723e+00 43 39 38
1.821684e+00 2.425024e+00 3.124484e+00 43 41 39
-2.341002e+00 4.902284e+00 3.100493e+00 10 15 26
2.730133e+00 -2.853894e-01 3.085961e+00 52 51 54
1.424914e+00 2.273000e+00 3.052254e+00 48 46 49
-4.276803e-01 2.489247e+00 3.132773e+00 85 85 87
-3.284532e+00 2.943763e+00 3.140859e+00 82 96 118
-1.937254e+00 2.856821e+00 3.235441e+00 97 93 92
-3.265703e+00 3.020181e+00 3.177286e+00 168 192 219
-2.438663e+00 4.330949e+00 3.134704e+00 54 54 56
3.110494e-01 -1.228869e-01 3.038485e+00 61 60 58
1.575636e+00 7.413445e-01 2.864549e+00 64 56 53
-2.423610e+00 1.016604e+00 2.946422e+00 60 58 61
1.393621e+00 9.194429e-01 2.916373e+00 59 53 53
2.323177e+00 1.529545e+00 2.950536e+00 37 41 51
-2.118193e+00 2.291138e+00 3.087520e+00 80 80 84
-3.269113e+00 2.853959e+00 3.158379e+00 166 192 222
-1.000094e+00 2.778286e+00 3.430721e+00 44 44 44
-3.185774e+00 2.435504e+00 3.325615e+00 193 229 250
1.971804e+00 -2.480412e+00 2.661844e+00 48 44 35
3.256107e+00 -4.113792e-01 2.555452e+00 112 109 91
-9.198101e-01 3.765612e-01 3.181346e+00 137 130 96
1.069195e+00 4.821625e-01 3.060721e+00 151 132 116
1.640257e+00 1.656073e+00 2.797241e+00 21 21 19
-1.617651e+00 5.252570e+00 3.234884e+00 139 118 92
-2.715376e+00 5.197544e-02 3.328658e+00 150 136 109
1.071226e+00 3.596480e-01 3.102544e+00 139 124 101
-2.228076e+00 1.154383e+00 3.087068e+00 144 122 92
-2.376902e+00 1.010651e+00 2.841409e+00 164 145 120
-2.376902e+00 1.010651e+00 2.841409e+00 164 145 120
-1.357963e+00 6.694503e+00 -5.066938e+00 90 59 41
-2.899951e+00 2.760609e+00 3.482820e+00 55 53 45
-3.208736e+00 4.807540e+00 3.102956e+00 169 214 219
1.431401e+00 -2.728260e+00 2.744880e+00 95 90 72
1.124213e+00 -2.392727e+00 2.952817e+00 29 26 19
2.124764e+00 2.763601e-01 -5.675830e-01 93 88 69
-2.832841e+00 9.023822e-02 3.192980e+00 30 30 36
3.991587e-01 2.641007e-01 2.603158e+00 19 12 8
1.414369e+00 1.634030e+00 2.797237e+00 146 129 103
1.836913e+00 2.434004e+00 2.850162e+00 54 38 24
-1.365631e+00 4.509533e+00 3.020015e+00 72 82 81
-3.127614e+00 4.846926e+00 3.370194e+00 153 211 227
7.078411e-01 5.190840e+00 3.051429e+00 151 198 228
2.790624e+00 -2.023794e+00 2.936184e+00 17 19 16
-1.482732e+00 -7.487591e-01 3.090484e+00 32 24 14
-4.921043e-01 5.179787e-01 2.654929e+00 153 129 97
-3.159705e+00 5.330814e-01 2.943771e+00 119 115 91
-3.407335e-01 1.475524e+00 1.653016e-01 133 121 96
-2.440332e-01 6.354555e-01 2.651014e+00 25 22 16
1.125501e-01 9.364312e-01 2.560659e+00 19 20 13
-1.236438e-01 1.582802e+00 2.933365e+00 27 22 18
1.447166e+00 1.685094e+00 2.678568e+00 29 19 18
-3.181112e+00 2.326477e+00 3.233962e+00 96 92 83
1.098569e+00 6.389161e+00 -4.981461e+00 147 128 117
-5.893155e-01 3.466755e+00 1.842900e+00 175 212 228
-3.054735e+00 4.668899e+00 3.416953e+00 157 203 208
1.960845e+00 5.095570e+00 3.103136e+00 76 62 37
-2.617653e+00 -1.317273e+00 3.372579e+00 135 121 94
-2.617653e+00 -1.317273e+00 3.372579e+00 135 121 94
-1.835362e+00 -1.047627e+00 3.047131e+00 57 39 33
-2.596132e+00 -1.093334e+00 3.301138e+00 44 38 28
4.142510e-01 -2.624349e-03 2.453951e+00 33 27 21
-4.792890e-01 3.224120e-01 2.626235e+00 157 136 109
1.875974e-01 4.647910e-01 2.621656e+00 26 17 11
3.268805e+00 5.109836e-01 2.482221e+00 205 227 207
-2.275220e+00 6.761162e+00 -6.195031e+00 7 7 41
-1.882846e+00 6.778530e+00 -5.977235e+00 202 219 242
-3.160078e+00 2.531179e+00 3.251408e+00 59 81 68
1.593988e+00 2.398336e+00 2.907031e+00 129 116 92
1.992394e+00 6.665777e-01 6.424962e+00 49 37 14
-4.048230e-02 2.523400e+00 2.998478e+00 51 34 19
-1.710557e+00 1.202377e+01 -9.432831e+00 44 65 88
-1.710557e+00 1.202377e+01 -9.432831e+00 44 65 88
7.899608e-01 4.450909e+00 3.135756e+00 46 48 39
-3.221351e+00 5.062705e+00 3.211386e+00 153 197 178
-1.310566e+00 5.761104e+00 3.344277e+00 78 80 56
-2.372588e+00 -1.066598e+00 3.243569e+00 126 110 96
-2.432533e+00 -8.512999e-01 3.240649e+00 107 98 91
-3.394663e+00 2.077303e-01 2.735577e+00 210 226 187
6.423552e-01 3.920259e-01 2.484036e+00 63 68 64
-3.336628e+00 5.737924e-01 2.737769e+00 93 105 130
-1.986704e+00 2.218320e+00 3.022357e+00 155 133 108
-1.108000e+00 5.216765e+00 -1.534453e+00 78 82 61
-1.790240e+00 1.070796e+01 -9.445555e+00 157 191 227
-8.579186e-01 9.562564e+00 -4.417206e+00 120 164 199
-8.579186e-01 9.562564e+00 -4.417206e+00 120 164 199
-3.139272e+00 5.333967e+00 3.263472e+00 61 92 92
-3.327740e+00 5.003730e-01 2.719184e+00 92 93 139
-6.398658e-01 2.082470e+00 2.959620e+00 95 77 55
-6.344852e-01 3.501831e+00 1.843258e+00 145 148 160
-1.773412e+00 1.251914e+01 -9.510473e+00 153 183 223
-1.741610e+00 1.269085e+01 -9.324789e+00 155 200 223
-1.727679e+00 1.277291e+01 -9.408755e+00 81 122 146
-1.727679e+00 1.277291e+01 -9.408755e+00 81 122 146
-5.929988e-01 1.310253e+00 3.048763e+00 137 137 129
1.436882e-01 4.328239e-01 2.844989e+00 50 57 59
2.052195e+00 -2.398274e+00 2.180517e+00 15 14 15
1.843932e-01 1.462867e-01 3.108669e+00 114 119 114
1.843932e-01 1.462867e-01 3.108669e+00 114 119 114
3.797548e-01 2.819335e-01 2.857013e+00 49 52 58
1.504483e+00 2.175856e+00 3.079931e+00 49 51 47
1.548569e+00 -8.308767e-01 2.563698e+00 113 110 95
-1.967584e-01 -8.558023e-01 3.086146e+00 162 160 147
1.571288e+00 -7.960631e-01 2.947753e+00 137 131 117
2.483991e-01 -1.963014e-01 3.074641e+00 46 51 53
3.840383e-01 -1.325956e-01 2.960212e+00 45 51 50
4.918934e-01 -1.725854e-02 2.805192e+00 47 50 55
4.328952e-01 3.960308e-01 2.945673e+00 50 55 58
-4.346292e-01 2.517988e+00 2.940475e+00 45 45 46
4.314185e-01 5.653978e-01 2.664869e+00 143 143 122
-1.659259e-01 5.019803e-01 2.928859e+00 157 159 146
1.171476e+00 2.088102e+00 3.221542e+00 150 152 142
2.672902e+00 -2.361789e+00 2.700455e+00 164 166 155
1.323900e+00 -6.607367e-01 2.984042e+00 60 57 51
3.707999e-01 6.544790e-01 2.870481e+00 145 147 139
3.707999e-01 6.544790e-01 2.870481e+00 145 147 139
2.139270e+00 1.622014e+00 2.967777e+00 114 120 114
2.138600e+00 1.845806e+00 2.953265e+00 122 121 117
2.138446e+00 1.888309e+00 2.963177e+00 120 122 116
-2.251217e+00 1.924106e+00 3.053802e+00 139 142 119
3.035553e+00 2.501640e+00 2.846258e+00 142 145 137
2.834280e+00 5.626935e+00 2.959037e+00 162 187 208
1.816155e+00 -8.861271e-01 2.518362e+00 65 64 57
2.554384e+00 -5.721112e-01 2.696645e+00 127 124 111
1.152411e+00 -5.151658e-01 2.736577e+00 45 42 37
3.745225e-01 1.608277e-01 2.779062e+00 39 37 35
2.165308e-01 2.972781e-01 2.849093e+00 32 32 31
2.237982e-01 3.479770e-01 2.851756e+00 146 152 139
2.237982e-01 3.479770e-01 2.851756e+00 146 152 139
7.158567e-02 3.403558e-01 2.895669e+00 161 160 148
2.610120e-01 3.895505e-01 2.880064e+00 146 148 142
2.190709e+00 1.935086e+00 2.937723e+00 23 28 31
2.190881e+00 1.979417e+00 2.965165e+00 25 27 26
1.522757e+00 2.153041e+00 3.091983e+00 24 26 24
-7.693350e-02 2.424154e+00 3.266941e+00 130 137 129
-2.853042e+00 -2.056544e+00 2.607954e+00 149 150 137
-1.637349e-01 6.636432e-01 2.684496e+00 29 28 18
-1.631612e-01 7.076285e-01 2.683200e+00 161 170 163
2.426467e-01 8.178421e-01 2.650030e+00 151 153 143
2.563743e-01 8.142313e-01 2.732083e+00 50 52 55
2.180757e+00 1.562533e+00 2.921259e+00 37 39 41
-2.002668e+00 1.728903e+00 3.049090e+00 142 148 153
-1.366244e+00 2.007839e+00 3.317355e+00 62 70 73
1.504493e+00 2.137255e+00 3.037395e+00 85 87 83
1.470499e+00 2.212121e+00 2.965293e+00 25 25 25
4.999364e-01 2.365809e+00 3.063584e+00 43 45 37
-1.832873e-01 2.326867e+00 3.246859e+00 153 156 150
2.418500e+00 2.404240e+00 3.130438e+00 97 98 90
1.458295e+00 2.468498e+00 3.045855e+00 120 121 106
2.176595e+00 2.734206e+00 3.086426e+00 51 52 51
2.235673e+00 3.073039e+00 2.855545e+00 38 47 48
1.425898e+00 3.271333e+00 2.969925e+00 26 30 31
6.484767e-01 4.749312e+00 3.006690e+00 47 74 132
6.484767e-01 4.749312e+00 3.006690e+00 47 74 132
2.528257e+00 6.658204e+00 2.623490e+00 65 94 134
-1.258244e+00 -2.642777e+00 2.249770e+00 50 53 43
-1.258244e+00 -2.642777e+00 2.249770e+00 50 53 43
4.621724e-02 -2.563481e+00 2.090981e+00 93 90 82
-4.546185e-01 -2.500780e+00 2.301224e+00 115 112 93
8.066937e-01 -2.495146e+00 2.224401e+00 41 38 34
-8.111496e-01 -2.409954e+00 2.582310e+00 109 110 92
1.584571e+00 -2.221910e+00 2.191846e+00 79 69 59
-9.206852e-01 -2.257173e+00 2.597369e+00 74 75 68
2.846914e+00 -2.013931e+00 2.273140e+00 80 79 76
-1.499337e-01 -1.351807e+00 3.037706e+00 157 157 146
-2.019743e+00 -1.022801e+00 2.929667e+00 56 59 52
1.381133e+00 -9.358566e-01 2.508711e+00 153 155 148
2.935086e-01 -3.151158e-01 2.920057e+00 123 120 105
3.435863e-01 1.970758e-02 2.974235e+00 29 31 19
6.602613e-01 2.153066e-01 2.634727e+00 37 43 45
3.772411e-01 2.365356e-01 2.825785e+00 37 41 42
3.163903e-01 2.014739e-01 2.949407e+00 39 44 46
-1.741856e+00 1.199243e+00 2.999976e+00 83 83 76
2.116268e+00 1.711921e+00 2.873988e+00 133 134 128
1.676510e+00 2.096492e+00 2.988718e+00 25 26 20
2.159226e+00 2.143544e+00 2.955897e+00 25 29 31
-1.469652e+00 2.127870e+00 3.208102e+00 68 75 68
2.151170e-01 2.258489e+00 3.304848e+00 50 54 56
3.138629e+00 2.560545e+00 2.758729e+00 101 122 137
1.840833e-01 2.419255e+00 3.105290e+00 73 72 60
3.234157e+00 2.692239e+00 2.638444e+00 89 121 152
-2.393319e-01 2.395336e+00 3.264761e+00 36 37 30
3.182987e+00 2.680118e+00 2.735440e+00 173 204 218
-1.247506e+00 3.748023e+00 3.172469e+00 68 77 69
-1.743287e+00 4.838430e+00 2.948792e+00 24 27 12
6.604081e-01 4.746937e+00 3.076933e+00 139 182 205
2.999288e+00 5.244545e+00 2.683047e+00 78 88 102
2.865262e+00 5.842981e+00 2.796014e+00 94 111 148
1.020767e+00 -2.420222e+00 2.404591e+00 138 141 127
1.256792e+00 -2.417554e+00 2.993969e+00 76 76 65
2.859129e+00 -1.958229e+00 2.331017e+00 172 168 166
2.790506e+00 -1.956806e+00 2.325296e+00 49 49 49
-1.721833e-01 -1.040988e+00 2.970052e+00 48 50 44
2.404905e+00 -9.634284e-01 2.651632e+00 40 40 31
-2.702269e+00 -9.958617e-01 2.965767e+00 194 195 190
2.559330e+00 -7.968439e-01 2.684340e+00 148 151 140
2.319626e+00 -6.551894e-01 2.655361e+00 78 80 69
1.046657e+00 9.518995e-02 3.156778e+00 120 115 100
-2.403781e-01 7.034611e-01 2.700029e+00 138 146 142
-1.973900e-01 7.100781e-01 2.705108e+00 40 48 51
1.599227e+00 9.851170e-01 2.961095e+00 90 88 73
1.625976e+00 2.178933e+00 3.034556e+00 34 37 32
-2.068162e+00 2.293499e+00 3.173797e+00 30 31 14
1.758738e+00 -1.434860e+00 1.067392e+01 49 52 44
1.628891e+00 -1.186405e+00 1.017937e+01 57 56 51
2.476833e+00 2.476314e+00 2.977552e+00 39 39 39
1.499481e+00 2.434698e+00 3.120664e+00 44 43 38
-1.114296e-01 2.471286e+00 3.116208e+00 71 73 58
-3.285849e-01 2.524203e+00 3.090620e+00 37 40 32
3.187950e+00 2.815809e+00 2.809859e+00 102 130 154
-1.190976e+00 3.625697e+00 3.219833e+00 70 75 77
-1.241311e+00 3.685025e+00 3.184740e+00 65 70 64
-1.987475e+00 3.997217e+00 3.087592e+00 136 146 154
-1.883724e+00 3.952628e+00 3.179020e+00 123 124 126
-1.278227e+00 4.535803e+00 3.189810e+00 64 68 68
-1.912151e+00 4.681911e+00 3.196789e+00 122 123 126
8.047802e-01 5.184871e+00 3.064607e+00 75 106 140
8.047802e-01 5.184871e+00 3.064607e+00 75 106 140
2.885868e+00 5.558176e+00 2.827780e+00 87 115 154
2.500075e+00 6.629079e+00 2.623737e+00 140 177 230
-2.412609e+00 -2.952933e+00 2.192586e+00 168 171 153
-1.295967e+00 -2.513189e+00 2.294664e+00 63 60 56
9.927213e-01 -2.298767e+00 2.476704e+00 115 118 109
-7.837572e-01 -2.031573e+00 2.658139e+00 170 170 169
4.285641e+00 -1.895226e+00 4.707731e+00 201 226 231
2.206899e+00 -9.755729e-01 2.688589e+00 59 59 56
3.633245e-03 -1.004906e+00 2.912845e+00 146 148 129
2.195593e+00 -9.651006e-01 2.714254e+00 157 156 144
1.903651e+00 -7.822449e-01 2.635262e+00 73 76 69
7.709264e-01 -7.009775e-01 3.086073e+00 133 131 119
4.563716e-01 -1.068761e-01 2.739137e+00 129 131 126
2.857293e+00 5.047360e-01 2.775067e+00 152 152 145
-2.393342e-01 6.086156e-01 2.689603e+00 32 41 40
2.335984e+00 1.576019e+00 2.859235e+00 187 192 198
1.462131e+00 1.617368e+00 2.955008e+00 48 51 45
1.457725e+00 1.691502e+00 3.002997e+00 48 49 45
2.204554e+00 2.272217e+00 2.989601e+00 120 123 111
1.744815e+00 2.246450e+00 3.082411e+00 71 71 68
2.421021e+00 2.737257e+00 3.026705e+00 98 106 101
3.177587e+00 2.911018e+00 2.870885e+00 158 190 223
3.150444e+00 2.954808e+00 2.870788e+00 153 189 230
2.721259e+00 2.892265e+00 3.045412e+00 126 128 117
-9.665482e-01 2.865379e+00 3.400757e+00 72 78 74
-9.665482e-01 2.865379e+00 3.400757e+00 72 78 74
1.390466e+00 4.626645e+00 2.991173e+00 116 115 110
3.014971e+00 4.827514e+00 2.838659e+00 150 185 226
2.998421e+00 4.842887e+00 2.833831e+00 42 51 81
-1.275395e+00 4.622539e+00 3.219575e+00 70 71 71
1.119180e+00 4.810796e+00 3.304151e+00 123 123 116
1.616424e+00 5.071460e+00 3.061907e+00 78 82 59
1.658717e+00 5.014242e+00 3.204067e+00 111 113 102
8.477478e-01 5.209328e+00 3.182977e+00 156 185 202
7.639975e-01 -5.829956e-01 3.032606e+00 21 13 11
1.751104e+00 -6.313750e-01 3.135859e+00 28 20 15
-2.205969e+00 7.440427e-01 2.908979e+00 122 126 129
1.743070e+00 1.751441e+00 2.995494e+00 114 117 116
2.075724e+00 1.433518e+00 3.053904e+00 107 116 115
2.209821e+00 1.978063e+00 2.914023e+00 9 13 16
-3.828339e-01 -6.836037e-01 3.186794e+00 26 17 17
-1.147450e-01 -6.897839e-01 3.184875e+00 99 99 92
-1.987053e-01 5.971245e-01 2.665124e+00 130 134 136
2.296893e+00 1.396324e+00 3.068965e+00 109 114 108
2.296893e+00 1.396324e+00 3.068965e+00 109 114 108
2.281484e+00 4.738707e+00 3.180755e+00 67 73 67
1.786309e-01 -6.813433e-01 3.136787e+00 97 94 87
1.838602e-01 -6.378303e-01 3.043817e+00 97 94 87
1.786693e+00 -6.729728e-01 3.155231e+00 20 15 10
1.705871e+00 -6.518371e-01 3.131528e+00 29 19 17
1.545963e+00 -6.558175e-01 3.163536e+00 18 13 10
2.204077e-01 7.708864e-01 2.743407e+00 114 111 106
2.017364e+00 1.482940e+00 3.046478e+00 9 13 16
-3.161139e-01 -7.684925e-01 3.132934e+00 100 100 94
8.042002e-02 -7.197641e-01 3.033762e+00 107 108 101
-1.803566e-01 -6.044941e-01 3.134436e+00 84 76 66
1.523403e+00 -3.541772e-01 3.158689e+00 119 119 112
-1.924881e-02 5.042249e-01 2.652053e+00 7 7 8
7.382023e-01 4.407737e-01 2.711125e+00 117 113 106
1.797726e+00 3.934742e-01 2.776782e+00 101 96 92
1.797726e+00 3.934742e-01 2.776782e+00 101 96 92
-4.529430e-02 7.654432e-01 2.768280e+00 135 142 137
4.541528e-01 1.274603e+00 3.001904e+00 138 141 140
2.376621e+00 1.388298e+00 3.058304e+00 130 136 137
1.523162e+00 1.480329e+00 3.128427e+00 98 106 108
3.410211e-01 -9.790055e-01 2.929701e+00 99 100 92
-4.570991e-01 -6.455277e-01 3.195672e+00 76 67 62
-2.907554e-01 -3.511899e-01 3.171494e+00 134 136 133
2.054273e+00 -3.990188e-01 3.122875e+00 98 99 100
2.054273e+00 -3.990188e-01 3.122875e+00 98 99 100
7.417221e-01 3.051462e-01 2.718244e+00 108 108 100
-1.382022e-01 6.772365e-01 2.720485e+00 132 134 138
6.907122e-01 8.158351e-01 2.799090e+00 113 115 108
2.426114e+00 6.327673e-01 2.968500e+00 123 122 117
3.169931e-01 1.082437e+00 2.833273e+00 99 89 86
4.559248e-01 1.110106e+00 2.789659e+00 64 53 49
1.580631e+00 2.271535e+00 3.091465e+00 140 143 141
2.540076e+00 2.412453e+00 3.328939e+00 106 106 106
2.240418e+00 8.572716e-01 3.000053e+00 131 126 120
1.641967e+00 9.903257e-01 2.996518e+00 62 59 57
2.034344e+00 1.760037e+00 2.926519e+00 12 9 15
1.650679e+00 2.110519e+00 2.966810e+00 73 74 68
1.499427e+00 2.243266e+00 2.965316e+00 47 47 47
1.893697e+00 2.445952e+00 3.165003e+00 112 108 105
2.629165e+00 2.469489e+00 3.287608e+00 94 96 91
1.721685e+00 -3.060022e-01 3.161480e+00 109 106 100
1.394384e+00 1.109154e-01 2.775514e+00 102 104 99
1.394467e+00 1.978078e-01 2.782080e+00 98 100 95
9.196762e-01 3.679912e-01 2.867809e+00 101 98 87
1.877065e+00 3.390714e-01 2.870642e+00 138 144 143
1.430271e+00 4.255852e-01 2.825080e+00 84 80 69
1.416075e+00 9.194915e-01 2.982792e+00 77 81 80
2.227259e-01 1.337715e+00 3.031379e+00 109 105 102
1.463593e+00 1.768395e+00 2.932237e+00 11 12 20
1.463317e+00 1.886414e+00 2.936471e+00 5 4 10
2.172143e+00 1.916556e+00 2.941630e+00 1 1 9
5.051686e-01 2.438175e+00 3.108895e+00 133 134 138
2.219221e+00 2.466759e+00 3.164835e+00 53 51 46
7.091905e-01 4.753350e+00 3.199833e+00 217 214 227
1.987925e+00 5.142705e+00 3.241416e+00 105 108 107
-3.031439e+00 2.220053e+00 3.170996e+00 104 102 103
-1.436407e+00 -9.763787e-01 3.033967e+00 134 133 127
7.077081e-02 8.713607e-01 2.725504e+00 59 64 79
7.136793e-01 3.102160e-01 2.668169e+00 127 128 126
-1.181184e+00 -1.990070e+00 3.415706e+00 115 114 110
5.013859e-01 4.064096e-01 2.671467e+00 61 62 74
1.765308e-01 9.681354e-01 2.947753e+00 47 48 52
-1.802933e+00 1.194035e+00 2.960856e+00 137 136 130
1.552639e+00 -7.062030e-01 3.117391e+00 133 130 118
2.363821e+00 2.150918e-01 2.812351e+00 126 125 121
2.390669e+00 3.634622e-01 2.837941e+00 131 127 124
-4.697446e-01 5.269210e-01 2.679865e+00 51 55 64
2.762900e+00 -2.056862e+00 3.016245e+00 66 68 68
-2.385042e+00 -1.056012e+00 3.100404e+00 146 150 153
1.866351e+00 3.563148e+00 3.043891e+00 102 103 105
2.163084e+00 -3.255796e-01 3.142126e+00 118 118 117
2.039933e+00 -3.196400e-01 3.129765e+00 129 128 124
1.249732e-01 1.286885e+00 2.965807e+00 120 119 117
-2.564192e-01 4.029835e-01 2.668174e+00 54 56 69
1.550822e+00 -1.519128e+00 2.976328e+00 130 126 126
-2.636539e+00 6.004348e+00 3.427522e+00 116 115 119
1.080742e+00 -1.958164e+00 3.065253e+00 135 131 129
2.745691e+00 -2.026725e+00 2.957409e+00 111 105 107
-1.381967e+00 -8.166615e-01 3.034459e+00 60 57 52
-2.429375e+00 5.728394e-01 2.867379e+00 76 72 69
8.445990e-02 9.286300e-01 3.004429e+00 79 76 71
2.545028e+00 1.097802e+00 3.014692e+00 56 55 51
1.971167e+00 5.127401e+00 3.143403e+00 72 72 74
2.120409e+00 -6.532988e-01 3.180120e+00 23 21 22
1.473711e+00 -1.033641e+00 2.977186e+00 99 100 102
2.261882e+00 -1.031295e+00 2.965704e+00 101 103 109
-2.261854e+00 2.348818e+00 3.080338e+00 22 24 29
-4.508995e-01 3.312226e-01 2.681488e+00 95 95 97
-4.508995e-01 3.312226e-01 2.681488e+00 95 95 97
-2.368373e+00 7.804410e-01 2.863279e+00 68 60 57
4.690442e-03 8.379479e-01 2.717497e+00 27 29 35
-2.727419e-01 9.233235e-01 2.787230e+00 88 77 67
-1.877725e+00 1.054748e+00 2.873377e+00 90 85 82
7.681947e-02 1.123196e+00 2.827521e+00 78 67 63
1.259986e+00 2.744468e+00 3.298531e+00 38 36 37
-4.214547e-01 3.373827e-01 2.683763e+00 88 88 89
-6.166846e-02 7.102694e-01 2.715626e+00 22 19 24
2.423623e+00 5.664971e-01 2.947740e+00 54 48 45
-1.918453e+00 7.999851e-01 2.815804e+00 40 40 40
-2.281392e+00 9.539284e-01 2.945794e+00 47 45 43
1.612660e-01 1.048673e+00 2.747024e+00 19 16 14
-4.925659e-02 1.117529e+00 2.871568e+00 37 31 28
-1.553985e+00 1.139500e+00 2.978754e+00 47 39 37
6.978868e-01 1.312335e+00 2.936575e+00 110 106 105
1.459576e+00 1.998048e+00 2.951992e+00 22 21 25
-2.099939e+00 2.372897e+00 3.088168e+00 95 95 99
1.461083e-01 2.422375e+00 3.102360e+00 102 100 101
-2.488459e-02 2.550724e+00 3.157063e+00 59 55 55
5.321433e-01 2.578112e+00 3.101628e+00 43 39 39
1.872167e+00 2.475145e+00 3.167396e+00 50 41 42
1.428149e+00 -3.438103e-01 3.136517e+00 40 36 35
4.377378e-01 4.375417e-01 2.656540e+00 31 34 39
1.925083e+00 7.600239e-01 2.887619e+00 94 93 91
-9.380575e-02 1.261188e+00 3.014919e+00 50 45 43
4.584912e-01 1.354344e+00 3.040561e+00 41 37 36
4.040600e-01 1.353123e+00 3.047457e+00 46 42 42
1.093919e+00 1.413298e+00 3.144074e+00 91 86 82
1.460227e+00 1.710644e+00 2.932281e+00 33 32 37
1.666350e+00 1.934215e+00 2.942011e+00 25 24 29
5.538103e-01 2.450159e+00 3.095517e+00 44 39 43
1.814722e-01 2.482636e+00 3.117742e+00 38 33 37
1.247354e-01 2.491833e+00 3.116390e+00 38 35 36
-7.423464e-01 -7.193994e-01 3.209475e+00 78 75 68
8.906693e-01 -6.682248e-01 3.157339e+00 22 20 19
2.996198e-01 8.045085e-01 2.735031e+00 30 33 40
1.467245e-01 1.020990e+00 2.730053e+00 23 22 23
1.431840e+00 1.146183e+00 2.999136e+00 53 45 42
1.752129e-01 1.276854e+00 2.993228e+00 103 98 95
5.553800e-01 2.367127e+00 3.089796e+00 25 24 28
1.663307e+00 2.325827e+00 3.108118e+00 91 86 83
1.560487e-01 2.523437e+00 3.137054e+00 98 93 90
1.160781e+00 1.450612e-02 3.179323e+00 57 52 48
5.963376e-01 1.312204e+00 3.009147e+00 101 96 93
1.465152e+00 1.971214e+00 2.954828e+00 57 57 60
1.465152e+00 1.971214e+00 2.954828e+00 57 57 60
1.323916e+00 1.972448e+00 2.967917e+00 59 54 51
8.745619e-01 2.337492e+00 3.085008e+00 52 46 46
2.394384e+00 2.657556e+00 3.222584e+00 35 34 36
2.769676e+00 2.646932e+00 3.395497e+00 88 87 92
2.093186e-01 -6.332885e-01 3.158781e+00 74 63 57
-5.176873e-01 4.753589e-01 2.711833e+00 80 81 81
-6.440924e-02 1.069784e+00 2.763895e+00 45 34 33
-5.780988e-02 2.329347e+00 3.085442e+00 89 89 91
1.793812e+00 2.256304e+00 3.105866e+00 65 57 55
5.323464e-01 2.450544e+00 3.114510e+00 95 95 97
3.595061e-01 2.516125e+00 3.129986e+00 104 96 94
3.081912e+00 2.446029e+00 3.113650e+00 91 95 111
1.261530e+00 2.692373e+00 3.371332e+00 73 71 73
2.761914e+00 2.622437e+00 3.384158e+00 72 71 76
-2.534978e+00 4.676919e+00 3.021816e+00 93 79 53
1.539371e+00 -1.520680e+00 2.947144e+00 128 124 106
1.494079e+00 -4.754440e-01 3.116365e+00 97 89 78
2.697405e+00 -4.326096e-01 3.009285e+00 116 109 91
6.881600e-01 -8.834755e-01 3.075889e+00 65 52 41
-2.440642e+00 -6.102653e-01 3.122902e+00 24 13 3
1.971173e+00 -6.010966e-01 3.101792e+00 20 15 11
1.657939e+00 -4.810105e-01 3.104854e+00 105 98 79
4.330311e+00 -1.549548e+00 3.110791e+00 47 39 31
4.174259e+00 -1.613060e+00 3.447204e+00 37 35 32
4.691475e+00 -1.397868e+00 2.930085e+00 59 54 53
2.893010e+00 -1.116538e+00 2.990680e+00 50 52 41
-8.261310e-01 2.317219e-01 3.164074e+00 147 127 105
4.928172e+00 -1.745815e+00 2.931106e+00 65 71 57
5.054424e+00 -1.515565e+00 2.879134e+00 55 51 43
4.984096e+00 -1.467881e+00 2.963399e+00 223 212 184
-1.211481e+00 -8.329193e-01 3.086771e+00 128 111 92
1.581364e+00 -3.737305e-01 3.074673e+00 36 34 34
3.233323e+00 -2.796414e+00 2.668952e+00 18 21 25
4.542801e-01 5.702768e-01 2.682152e+00 115 104 75
2.029237e-01 8.167397e-01 2.684683e+00 115 90 62
3.061806e+00 -2.801904e+00 2.714267e+00 29 28 28
3.147485e+00 -2.780612e+00 2.704584e+00 20 25 29
3.147485e+00 -2.780612e+00 2.704584e+00 20 25 29
1.967274e-01 -1.215284e+00 3.043854e+00 34 25 22
1.322403e+00 -1.009183e+00 3.022409e+00 19 17 10
1.523810e+00 -1.019896e+00 3.098298e+00 20 16 13
2.111345e+00 -1.005300e+00 3.059399e+00 16 12 10
-6.151427e-02 -8.668344e-01 3.094793e+00 32 28 26
1.212168e+00 -8.298134e-01 3.110738e+00 121 106 83
4.859951e-01 -6.403238e-01 3.107231e+00 84 68 44
-2.542136e+00 -5.598843e-01 3.168453e+00 56 37 31
1.181515e+00 -6.124969e-01 3.155260e+00 13 10 8
1.953533e-01 -2.504909e-01 3.128985e+00 122 105 83
1.657654e+00 9.244264e-01 2.891921e+00 149 115 87
1.121086e+00 2.143009e+00 3.241978e+00 66 54 46
1.420536e+00 4.752116e+00 2.944317e+00 99 83 57
3.098949e+00 -2.787277e+00 2.782428e+00 90 91 81
1.327979e+00 -2.465984e+00 2.738772e+00 40 29 24
4.481550e+00 -1.598761e+00 3.054802e+00 69 42 82
4.675485e+00 -1.366500e+00 3.039758e+00 226 215 198
2.654289e+00 -7.432830e-01 3.109610e+00 91 91 74
-2.032965e+00 -6.502640e-01 3.086529e+00 98 93 61
-2.187647e+00 -6.325349e-01 3.105473e+00 18 13 17
2.129160e+00 -4.540287e-01 3.200548e+00 39 30 31
1.731609e+00 -3.932967e-01 3.277681e+00 37 36 32
1.593066e+00 -3.533118e-01 3.173574e+00 41 31 30
-4.136950e-02 5.337994e-01 2.465715e+00 151 125 98
-4.240857e-01 1.173720e+00 2.970753e+00 146 127 99
-3.727701e-01 2.338247e+00 3.063823e+00 151 128 93
1.154492e+00 -1.985782e+00 2.986909e+00 58 57 53
2.291297e+00 -1.532232e+00 3.113131e+00 108 110 98
1.821605e+00 -1.047962e+00 3.218865e+00 99 83 68
1.607163e+00 -1.002721e+00 3.088279e+00 98 84 70
1.122730e-01 -7.548465e-01 3.071421e+00 28 26 13
1.662047e+00 -3.677276e-01 3.240826e+00 45 34 25
1.662047e+00 -3.677276e-01 3.240826e+00 45 34 25
1.564009e+00 -3.506311e-01 3.230204e+00 125 109 78
4.784700e-01 -2.228429e-01 3.152273e+00 12 11 6
4.485076e-01 -1.509082e-01 2.877489e+00 12 11 6
5.136964e-01 -2.205675e-01 3.171001e+00 101 93 83
4.444208e-01 2.892828e-01 2.593219e+00 29 14 8
-2.902662e-01 4.904465e-01 2.634227e+00 22 12 10
-1.801481e-01 6.782628e-01 2.655977e+00 27 17 5
1.798763e+00 5.597443e-01 2.886554e+00 143 125 106
-3.792991e-01 8.820816e-01 2.684441e+00 22 15 4
-1.621823e+00 -6.816822e-01 3.105099e+00 102 82 64
1.463138e+00 -2.863064e-01 3.201183e+00 131 106 81
1.484323e+00 -2.521892e-01 3.212698e+00 97 65 44
3.488766e-01 3.217419e-01 2.579733e+00 34 27 24
6.189437e-01 8.534003e-01 2.621258e+00 62 60 45
-1.588068e-01 1.064517e+00 2.694721e+00 125 95 68
1.876523e+00 1.100329e+00 2.958207e+00 121 97 70
1.941679e+00 1.115297e+00 2.975570e+00 72 51 37
1.581281e+00 1.137361e+00 2.958734e+00 67 54 23
1.540849e-03 1.371359e+00 3.051750e+00 48 28 16
-4.390716e-01 2.359203e+00 3.072623e+00 128 115 98
-4.010597e-01 2.507104e+00 3.111747e+00 44 28 12
7.370601e-01 -1.040672e+00 3.028016e+00 122 103 92
3.194255e-01 -2.528654e-01 3.163386e+00 35 32 17
2.080245e-01 4.231411e-01 2.589266e+00 147 127 109
2.080245e-01 4.231411e-01 2.589266e+00 147 127 109
-6.037746e-02 1.038487e+00 2.656012e+00 31 19 6
-3.493279e-01 1.153742e+00 2.970760e+00 153 118 91
-4.210003e-01 7.944378e-01 2.713360e+00 136 106 78
-2.699850e+00 -1.352519e+00 3.109334e+00 147 148 151
4.347344e-01 -9.694271e-01 3.159317e+00 126 118 105
1.373578e+00 -6.444250e-01 3.054176e+00 127 122 103
-1.676502e+00 -6.292238e-01 3.088028e+00 40 32 27
1.892430e-01 6.058741e-01 2.601416e+00 124 124 122
7.389958e-01 1.119014e+00 2.937146e+00 136 135 140
1.170841e+00 -2.205058e+00 3.025087e+00 79 68 66
2.787234e+00 -2.070941e+00 3.006626e+00 118 117 115
9.142113e-01 -1.027190e+00 3.193287e+00 22 20 25
8.529932e-01 -1.016459e+00 3.163028e+00 27 27 34
1.372482e+00 -9.744292e-01 3.389876e+00 118 114 100
6.836447e-01 1.320013e+00 2.912100e+00 139 138 134
1.157446e+00 -2.045305e+00 3.024678e+00 133 128 127
6.996218e-01 6.497660e-01 2.588089e+00 110 104 100
4.884846e-01 7.069171e-01 3.333851e+00 28 29 36
-1.469327e+00 5.166819e+00 3.231313e+00 72 72 75
8.238822e-01 9.895431e-01 2.863996e+00 88 84 83
7.866959e-01 1.033312e+00 2.862063e+00 84 79 76
7.070575e-01 1.115942e+00 2.873707e+00 92 86 87
2.298922e+00 -1.026991e+00 2.962850e+00 35 30 45
1.566435e+00 -2.640562e+00 2.923992e+00 43 43 43
2.516052e+00 -6.931807e-01 2.573524e+00 79 71 65
1.390697e+00 -9.554185e-01 3.014455e+00 153 150 140
2.690038e+00 -3.823398e-01 3.045232e+00 184 182 174
1.252592e+00 -7.167922e-01 3.117242e+00 101 96 93
6.007850e-01 -1.344388e+00 3.019238e+00 181 178 172
1.511064e+00 -7.597738e-01 3.049297e+00 98 94 93
2.826629e+00 -2.171839e+00 2.902804e+00 125 125 123
2.354829e+00 -1.012629e+00 2.981464e+00 111 112 105
1.242406e+00 -2.222480e+00 2.959991e+00 139 144 140
2.117965e+00 3.352045e+00 2.704366e+00 20 27 33
-1.543462e+00 4.647235e+00 2.542034e+00 17 20 25
-2.158011e+00 -7.009250e-01 2.948088e+00 62 63 46
-1.657336e-01 2.224377e+00 1.473039e+00 21 24 28
-2.401110e+00 3.683784e+00 2.983719e+00 139 148 133
-2.402075e+00 3.815257e+00 2.981401e+00 149 154 139
1.431354e+00 4.150713e+00 3.080425e+00 19 20 25
-2.153231e+00 6.143224e-01 2.567333e+00 42 43 38
2.331926e+00 9.549007e-01 3.058809e+00 141 144 130
-1.296304e+00 -9.478513e-01 2.915495e+00 139 139 128
-1.650949e-01 -3.549449e-01 3.171995e+00 154 155 140
-1.751040e+00 8.550584e-01 2.805501e+00 67 69 58
-1.615375e+00 9.633726e-01 2.841049e+00 60 60 53
-1.894030e-01 1.030073e+00 2.686969e+00 120 116 96
-1.894030e-01 1.030073e+00 2.686969e+00 120 116 96
-1.686102e+00 1.062432e+00 2.846018e+00 112 113 100
4.910897e-01 2.384287e+00 3.159117e+00 134 139 138
6.901439e-01 2.488879e+00 3.059396e+00 42 45 42
-2.770506e-02 2.508569e+00 3.100716e+00 148 152 145
-7.633230e-01 5.689492e+00 2.810604e+00 82 105 163
-2.849944e+00 -2.984712e+00 2.518609e+00 35 46 52
-3.674294e+00 -2.668891e+00 2.210564e+00 164 154 149
-3.555469e+00 -2.650287e+00 2.321753e+00 169 156 153
-2.735403e+00 -1.014621e+00 2.743658e+00 58 64 69
1.522315e+00 -1.047102e+00 3.024051e+00 136 140 128
1.415879e+00 -1.024414e+00 2.920490e+00 22 23 16
-2.636623e-02 -9.594830e-01 3.005247e+00 102 99 90
4.886658e-01 -3.466627e-01 3.096217e+00 86 83 70
-1.797625e+00 1.222163e+00 2.946471e+00 85 83 70
2.935419e+00 2.258276e+00 3.102400e+00 142 143 136
2.093888e+00 2.329716e+00 2.979661e+00 76 80 77
-4.683145e-01 2.392711e+00 3.152609e+00 136 138 126
-1.459931e+00 2.548279e+00 3.149264e+00 127 129 116
6.242312e-01 2.560627e+00 3.096583e+00 67 67 56
3.282860e-02 2.571934e+00 3.125549e+00 80 83 67
9.173338e-01 -2.081571e+00 2.816198e+00 68 65 54
-1.997422e+00 -8.108015e-01 3.021886e+00 131 127 106
-1.139264e-01 -3.682653e-01 3.129106e+00 154 154 148
1.332310e+00 4.247071e-01 3.103063e+00 94 89 71
2.534896e-01 1.314688e+00 2.936328e+00 80 80 68
1.669158e+00 1.896879e+00 2.801777e+00 55 56 52
2.104673e+00 1.732507e+00 3.168841e+00 143 146 136
-1.684745e+00 2.390097e+00 3.162569e+00 148 149 139
1.790600e+00 2.444072e+00 3.018768e+00 82 82 64
1.757431e-02 2.502938e+00 3.091533e+00 46 48 44
-2.203691e+00 3.009673e+00 3.005979e+00 54 60 58
1.175710e+00 4.953393e+00 3.125456e+00 123 128 114
-7.446438e-01 5.050468e+00 2.139385e+00 95 122 183
-3.232010e+00 5.478825e+00 3.040943e+00 102 139 160
-2.686642e+00 6.136855e+00 3.146550e+00 81 86 82
-4.521974e-01 4.285571e-01 2.671776e+00 15 24 33
-4.059526e-01 -1.065203e+00 3.021945e+00 110 114 117
7.472476e-01 -1.587665e+00 2.986459e+00 37 34 38
-1.932310e+00 -8.590589e-01 2.971635e+00 40 38 42
1.954827e+00 -4.356799e-01 3.098644e+00 30 33 40
-5.760123e-01 1.126410e+00 2.942418e+00 118 118 116
-2.382350e+00 4.961542e+00 3.072379e+00 87 97 97
-1.742086e+00 -7.919511e-01 2.947793e+00 43 44 46
-1.936252e+00 9.214067e-01 2.818520e+00 99 106 104
-8.489820e-01 1.275868e+00 3.223034e+00 147 153 158
2.039811e+00 3.641807e+00 2.892150e+00 39 54 63
-2.323127e+00 -6.019007e-01 3.090489e+00 68 69 61
-7.548308e-01 -3.128996e-01 3.145040e+00 115 117 112
1.853846e-02 7.786843e-01 2.676882e+00 8 5 3
2.244150e+00 5.159973e-01 2.789905e+00 86 86 76
-1.941923e+00 1.052662e+00 2.847926e+00 94 94 89
