ply
format ascii 1.0
element face 0
property list uchar int vertex_indices
element vertex 940
property float x
property float y
property float z
property uchar diffuse_red
property uchar diffuse_green
property uchar diffuse_blue
end_header
8.896590e-01 9.905454e-01 3.068358e+00 183 173 160
2.985040e+00 2.047480e+00 2.994001e+00 69 63 53
2.608124e+00 2.081643e+00 2.930969e+00 178 170 159
2.545185e+00 2.116454e+00 2.998213e+00 117 100 83
2.900879e+00 3.254337e+00 3.001279e+00 250 254 253
-2.474233e+00 4.590064e+00 2.914252e+00 154 143 138
2.174617e+00 4.734282e+00 3.013324e+00 97 92 81
-1.473491e+00 -2.598926e+00 2.992095e+00 135 118 103
3.057689e-01 -2.514802e+00 3.015872e+00 22 11 15
1.957335e+00 -2.482417e+00 2.969014e+00 166 150 134
2.753145e+00 -2.406543e+00 2.953951e+00 190 186 180
-1.678734e+00 -2.134067e+00 3.015541e+00 145 132 116
-2.447447e+00 -2.070068e+00 3.002636e+00 170 159 140
1.092321e+00 -1.288251e+00 2.916285e+00 199 192 182
1.991152e+00 -1.031425e+00 2.920250e+00 146 141 137
1.593575e+00 -1.028390e+00 2.935264e+00 139 135 127
1.593575e+00 -1.028390e+00 2.935264e+00 139 135 127
1.694050e+00 -1.010554e+00 2.936718e+00 189 185 175
8.814078e-01 -1.002482e+00 2.941021e+00 192 186 181
2.419237e+00 -6.451144e-01 2.917757e+00 63 50 42
-1.195020e+00 -5.748139e-01 2.972674e+00 168 155 142
2.659352e+00 -4.993891e-01 2.936402e+00 90 72 60
1.935491e+00 -4.968950e-01 2.929509e+00 128 110 97
1.126000e+00 -3.164613e-01 2.893723e+00 179 165 149
3.196494e+00 6.145302e-02 2.977405e+00 89 85 76
3.062051e+00 4.761308e-01 3.004059e+00 183 181 169
1.519980e+00 6.074227e-01 3.066651e+00 187 180 164
-2.085728e+00 1.766314e+00 3.071642e+00 30 17 18
7.627267e-01 2.110015e+00 3.018429e+00 180 172 162
1.690491e+00 5.042837e+00 3.080592e+00 185 175 173
-1.342317e+00 5.398481e+00 3.137367e+00 177 171 165
6.787232e-01 -2.814954e+00 2.988302e+00 129 113 97
2.577731e+00 -2.788814e+00 2.972528e+00 157 148 130
2.499550e+00 -2.787986e+00 2.971045e+00 155 140 122
2.499550e+00 -2.787986e+00 2.971045e+00 155 140 122
7.465788e-01 -2.736976e+00 2.957688e+00 132 117 93
2.575185e+00 -2.716896e+00 2.965618e+00 163 155 142
2.575185e+00 -2.716896e+00 2.965618e+00 163 155 142
2.500707e+00 -2.716131e+00 2.970025e+00 151 137 120
2.425279e+00 -2.714655e+00 2.964555e+00 151 142 127
8.244873e-01 -2.705899e+00 2.971906e+00 147 132 111
2.494248e+00 -2.667802e+00 2.966296e+00 153 140 120
2.465794e+00 -2.564759e+00 2.960160e+00 57 39 32
1.336799e+00 -2.419872e+00 2.948378e+00 185 180 173
1.336799e+00 -2.419872e+00 2.948378e+00 185 180 173
-1.627683e+00 -2.315780e+00 3.027733e+00 92 74 60
8.699027e-01 -2.270550e+00 2.969363e+00 116 99 85
8.497803e-01 -1.703162e+00 2.950523e+00 113 94 71
-1.546947e+00 -1.665800e+00 2.998618e+00 130 118 104
-6.407526e-01 -1.185760e+00 2.956298e+00 183 175 159
1.047986e+00 -1.152548e+00 2.926179e+00 106 90 80
-2.664447e+00 -1.168088e+00 3.007072e+00 188 182 173
2.493349e+00 -1.089149e+00 2.920264e+00 96 82 73
5.768422e-01 -1.037447e+00 2.933867e+00 153 146 141
2.438354e+00 -9.720616e-01 2.936942e+00 102 86 74
2.331474e+00 -6.412189e-01 2.926236e+00 80 66 52
-1.331078e+00 -6.738112e-01 2.985727e+00 172 162 147
2.421840e+00 -5.878150e-01 2.944000e+00 56 39 29
2.226003e+00 -5.863228e-01 2.939217e+00 45 31 22
8.783284e-01 -5.778127e-01 2.953771e+00 170 158 142
2.172366e+00 -5.686715e-01 2.910750e+00 52 33 28
-1.188420e+00 -5.803368e-01 2.945483e+00 171 157 144
9.716574e-01 -5.576038e-01 2.922653e+00 40 23 18
2.974911e+00 -4.960213e-01 2.891008e+00 112 98 84
2.452944e-01 -4.760848e-01 2.925426e+00 118 107 98
2.656406e+00 -3.722411e-01 2.907762e+00 136 125 107
2.061733e+00 -2.986701e-01 2.940874e+00 75 66 61
2.328880e-01 4.248816e-01 3.233723e+00 190 182 176
2.328880e-01 4.248816e-01 3.233723e+00 190 182 176
8.577326e-01 8.754039e-01 3.079033e+00 168 158 146
-4.700759e-01 1.092691e+00 3.079656e+00 158 149 134
-2.317276e+00 1.147841e+00 3.026175e+00 81 72 63
-1.216609e+00 1.295094e+00 3.020619e+00 182 178 166
7.730090e-01 1.577971e+00 3.073741e+00 180 176 167
2.416127e+00 1.586936e+00 2.997715e+00 62 55 60
2.038799e+00 1.817718e+00 3.095639e+00 29 24 25
1.639638e+00 1.846807e+00 3.129478e+00 56 48 40
1.639638e+00 1.846807e+00 3.129478e+00 56 48 40
2.039159e+00 1.865944e+00 3.096152e+00 35 28 30
2.088062e+00 2.275413e+00 3.019593e+00 188 182 170
2.764860e+00 2.303963e+00 2.994282e+00 80 71 60
2.845440e+00 2.365885e+00 2.995431e+00 188 180 176
1.567850e+00 2.506168e+00 3.010588e+00 148 138 126
1.590426e+00 3.371418e+00 3.335403e+00 69 73 84
1.841574e+00 4.469981e+00 3.054539e+00 90 84 69
-1.915734e+00 5.275025e+00 3.211542e+00 66 60 57
6.327114e-01 -2.943210e+00 2.988399e+00 142 132 109
2.431886e+00 -2.903621e+00 2.975393e+00 136 127 111
2.435995e+00 -2.904718e+00 2.985294e+00 136 127 111
2.429313e+00 -2.838909e+00 2.971793e+00 142 128 109
-2.456128e+00 -2.830551e+00 3.017720e+00 84 68 58
1.425035e+00 -2.718531e+00 2.962638e+00 121 104 86
2.352669e+00 -2.693940e+00 2.967326e+00 153 141 126
1.446909e+00 -2.671098e+00 2.968689e+00 169 152 132
7.505612e-01 -2.681387e+00 2.978372e+00 151 138 123
7.501055e-01 -2.681100e+00 2.978653e+00 151 138 123
1.020158e+00 -2.572638e+00 2.961979e+00 93 75 56
-1.807498e+00 -2.536313e+00 3.010231e+00 73 56 46
1.650416e+00 -2.476535e+00 2.983337e+00 149 134 119
1.337397e+00 -2.461445e+00 2.941964e+00 90 78 68
1.118505e+00 -2.460586e+00 2.944772e+00 92 79 73
7.370768e-01 -2.432161e+00 2.990741e+00 102 86 60
2.824724e+00 -2.387201e+00 2.948793e+00 115 102 85
-2.363689e+00 -2.400315e+00 3.017555e+00 158 145 128
1.601857e+00 -2.319557e+00 2.989007e+00 146 132 119
-1.954423e+00 -2.245222e+00 3.022593e+00 111 92 78
1.688404e+00 -1.994334e+00 2.999110e+00 145 129 108
1.100343e+00 -1.939985e+00 2.926395e+00 212 208 196
-1.234692e+00 -1.956897e+00 2.989565e+00 100 77 57
5.334490e-01 -1.913127e+00 3.011298e+00 85 60 46
-2.260086e+00 -1.842739e+00 3.014889e+00 113 95 81
-1.573198e+00 -1.587535e+00 2.981044e+00 85 68 58
1.024977e-01 -1.457753e+00 2.992490e+00 126 109 93
-2.471146e-01 -1.332383e+00 2.940424e+00 158 142 127
-2.932473e-03 -1.294886e+00 2.966166e+00 145 130 110
2.685772e+00 -1.117462e+00 2.903776e+00 150 145 125
1.465968e+00 -1.098643e+00 2.920974e+00 114 99 83
-9.885109e-01 -1.111498e+00 2.930452e+00 164 154 144
2.692577e+00 -1.070639e+00 2.912652e+00 106 100 96
1.642637e+00 -9.856556e-01 2.933646e+00 91 77 67
2.769749e+00 -9.644758e-01 2.921611e+00 183 179 167
2.048796e+00 -9.745242e-01 2.942517e+00 100 86 75
1.526107e+00 -9.648488e-01 2.936473e+00 55 39 33
2.773792e+00 -9.009646e-01 2.925527e+00 187 183 171
2.390345e+00 -8.997996e-01 2.920587e+00 183 170 161
2.245535e+00 -8.685554e-01 2.936509e+00 84 71 62
6.517598e-01 -8.360355e-01 2.963018e+00 95 78 62
-8.104158e-01 -8.219832e-01 2.934894e+00 157 149 135
-1.445963e+00 -8.005255e-01 2.955686e+00 160 152 133
2.656473e+00 -7.758648e-01 2.943275e+00 73 61 52
2.250341e+00 -7.740469e-01 2.943962e+00 88 70 60
2.476896e+00 -7.020452e-01 2.936184e+00 170 157 144
2.476896e+00 -7.020452e-01 2.936184e+00 170 157 144
2.687779e+00 -6.800851e-01 2.927436e+00 187 176 166
2.687779e+00 -6.800851e-01 2.927436e+00 187 176 166
1.493485e+00 -6.907792e-01 2.947944e+00 169 153 139
1.815538e+00 -6.707305e-01 2.933665e+00 172 159 156
2.579370e+00 -6.083976e-01 2.921721e+00 174 163 145
2.376640e+00 -6.041507e-01 2.932641e+00 159 149 135
2.810250e+00 -5.883677e-01 2.928880e+00 169 152 139
2.625390e+00 -5.857028e-01 2.939551e+00 46 32 19
1.944369e+00 -5.782606e-01 2.936565e+00 56 36 26
1.780921e+00 -5.604424e-01 2.911620e+00 51 31 22
2.528558e+00 -5.424882e-01 2.905780e+00 140 120 96
9.335762e-02 -5.383432e-01 2.910668e+00 152 134 111
-1.794532e-01 -5.267921e-01 2.903754e+00 134 112 91
-2.679576e-01 -5.240676e-01 2.903034e+00 135 110 90
-5.637562e-01 -2.571828e-01 2.958059e+00 195 186 179
-2.047306e+00 -2.158009e-01 2.998569e+00 189 180 165
1.097592e+00 -1.961359e-01 2.884082e+00 199 195 186
-2.771737e+00 -1.701055e-01 3.017872e+00 92 79 70
-2.832633e+00 -1.671993e-01 3.018075e+00 97 88 80
2.646061e+00 2.106792e-01 2.945294e+00 202 200 188
-1.815157e+00 5.580109e-01 3.068744e+00 205 198 188
6.850375e-01 6.809605e-01 3.249202e+00 23 14 5
-1.869434e+00 6.413945e-01 3.058143e+00 200 193 188
2.037206e+00 7.261705e-01 3.007007e+00 76 66 49
1.106023e-01 8.101544e-01 3.271666e+00 23 15 8
6.788093e-01 8.383151e-01 3.210246e+00 151 139 127
2.027870e+00 8.095159e-01 3.002601e+00 67 58 45
1.705005e+00 8.564958e-01 3.012299e+00 147 138 123
-2.031690e+00 9.909255e-01 3.022118e+00 184 177 164
1.436741e+00 1.145635e+00 3.068399e+00 107 91 73
-3.746717e-01 1.241638e+00 3.053960e+00 183 178 174
-1.265229e+00 1.316921e+00 3.027515e+00 187 179 168
-1.282049e+00 1.409334e+00 3.023311e+00 117 103 92
1.435638e+00 1.933925e+00 3.128466e+00 198 188 186
2.183835e+00 2.408644e+00 3.021241e+00 38 24 23
-1.395198e+00 2.394811e+00 2.937797e+00 175 170 158
-2.812127e-01 2.567921e+00 2.855961e+00 153 142 137
1.041361e+00 2.521928e+00 2.723751e+00 126 116 108
1.041361e+00 2.521928e+00 2.723751e+00 126 116 108
2.515191e+00 2.629181e+00 2.854136e+00 198 200 191
2.522773e+00 2.757883e+00 2.887160e+00 193 184 175
-1.786398e+00 3.285720e+00 2.929984e+00 187 187 181
1.395606e+00 4.485984e+00 3.157814e+00 26 22 28
1.799837e+00 4.610437e+00 3.034710e+00 82 74 67
-1.756625e+00 5.597849e+00 3.277160e+00 177 172 163
2.583264e+00 -2.938721e+00 2.981469e+00 66 54 45
6.451878e-01 -2.877088e+00 2.982991e+00 66 49 34
1.966082e+00 -2.843850e+00 2.972984e+00 144 127 112
8.674751e-01 -2.848073e+00 2.970029e+00 52 36 26
-2.136442e+00 -2.815328e+00 3.018630e+00 107 92 77
1.455549e+00 -2.754912e+00 2.972122e+00 182 172 150
5.465079e-01 -2.702639e+00 2.996086e+00 94 77 57
-1.767937e+00 -2.690465e+00 3.015832e+00 78 56 45
2.392324e+00 -2.630055e+00 2.969861e+00 62 44 27
2.415573e+00 -2.599148e+00 2.975180e+00 143 133 111
7.899331e-01 -2.589853e+00 2.986750e+00 51 33 20
2.417100e+00 -2.569297e+00 2.975347e+00 48 31 17
2.559222e+00 -2.561478e+00 2.960273e+00 40 23 15
2.673226e+00 -2.490319e+00 2.957264e+00 83 65 53
2.992514e+00 -2.452426e+00 2.957610e+00 90 82 73
2.928878e+00 -2.454642e+00 2.963376e+00 94 84 76
1.257989e+00 -2.457244e+00 2.939177e+00 96 84 78
1.189524e+00 -2.455823e+00 2.939773e+00 93 82 77
2.679446e+00 -2.429647e+00 2.951234e+00 83 70 60
-1.983825e+00 -2.420511e+00 3.014353e+00 69 49 37
2.300141e+00 -2.344827e+00 2.977461e+00 86 70 51
-1.119614e+00 -2.365243e+00 2.988319e+00 154 143 125
-2.323437e+00 -2.373503e+00 3.008207e+00 75 58 41
-1.461206e+00 -2.285969e+00 3.001015e+00 147 134 124
7.196453e-01 -2.253940e+00 2.992957e+00 96 75 55
2.828202e+00 -2.222355e+00 2.946793e+00 95 82 70
-1.307731e+00 -2.231602e+00 2.993740e+00 71 53 39
6.788704e-01 -2.201527e+00 2.996993e+00 151 136 111
1.021187e+00 -2.112014e+00 2.944746e+00 94 77 59
2.838862e+00 -2.088050e+00 2.949417e+00 78 71 53
2.857006e+00 -2.050953e+00 2.939449e+00 199 193 181
2.854494e+00 -2.021021e+00 2.939657e+00 57 42 42
2.781405e+00 -1.967829e+00 2.934324e+00 96 87 86
1.002865e+00 -1.942308e+00 2.946637e+00 182 173 154
1.853720e+00 -1.940576e+00 2.999774e+00 86 69 47
1.889362e+00 -1.930114e+00 2.994977e+00 146 133 114
2.715118e+00 -1.879024e+00 2.931988e+00 205 204 191
1.089629e+00 -1.889143e+00 2.931347e+00 210 204 190
2.487449e+00 -1.682802e+00 2.929734e+00 193 185 168
2.106890e+00 -1.446389e+00 2.931541e+00 90 73 56
2.222873e-01 -1.449958e+00 2.996137e+00 120 103 86
9.307131e-01 -1.350310e+00 2.940310e+00 160 145 130
-1.594550e-01 -1.314294e+00 2.947555e+00 215 203 193
-1.885164e+00 -1.279995e+00 2.978924e+00 191 178 160
1.302675e-01 -1.143554e+00 2.934541e+00 161 153 145
2.576099e+00 -1.094700e+00 2.921123e+00 88 74 61
1.740077e+00 -1.096837e+00 2.922570e+00 105 91 81
2.639052e-01 -1.099498e+00 2.923927e+00 113 97 89
2.162363e+00 -1.011503e+00 2.926992e+00 187 180 174
2.374498e+00 -9.912696e-01 2.924051e+00 88 73 67
-6.589815e-01 -1.004838e+00 2.950393e+00 209 199 193
2.504536e+00 -9.704802e-01 2.929590e+00 60 41 36
2.250159e+00 -9.720060e-01 2.935174e+00 90 78 64
2.531392e+00 -8.166055e-01 2.918095e+00 218 211 194
1.860092e+00 -8.209064e-01 2.936970e+00 83 70 54
2.475710e+00 -8.040422e-01 2.921658e+00 183 169 158
2.626257e+00 -7.355949e-01 2.928401e+00 211 201 201
1.999014e+00 -7.448037e-01 2.930435e+00 142 131 121
1.999014e+00 -7.448037e-01 2.930435e+00 142 131 121
1.657128e+00 -7.112973e-01 2.946457e+00 77 60 47
2.280596e+00 -6.907609e-01 2.933150e+00 180 164 149
8.465173e-01 -7.072756e-01 2.950764e+00 74 54 45
-2.286768e+00 -6.441320e-01 2.990839e+00 161 159 151
2.128919e+00 -5.803709e-01 2.922296e+00 54 34 24
1.277884e+00 -5.463881e-01 2.879140e+00 151 130 107
5.347962e-01 -5.264516e-01 2.928119e+00 148 131 111
-2.373819e+00 -5.057858e-01 2.982058e+00 129 116 107
2.416677e+00 -3.063322e-01 2.919375e+00 105 92 78
1.167726e+00 -2.852500e-01 2.888367e+00 129 112 99
1.825101e+00 -2.657685e-01 2.916325e+00 193 181 166
1.356852e+00 -2.488415e-01 2.963813e+00 196 187 171
1.250773e+00 -2.541092e-01 2.883917e+00 179 163 148
1.098143e+00 -2.528332e-01 2.882725e+00 175 161 146
1.176075e+00 -2.493064e-01 2.883229e+00 178 163 150
2.677071e+00 -2.157142e-01 2.902912e+00 206 207 199
-7.798625e-01 -2.298139e-01 2.905222e+00 179 166 150
-2.860743e+00 -1.920206e-01 3.002561e+00 189 182 170
6.389561e-01 8.890560e-02 3.207836e+00 191 180 168
2.734676e+00 1.353144e-01 2.901830e+00 191 180 171
6.160586e-01 1.500654e-01 3.213340e+00 194 184 182
6.160586e-01 1.500654e-01 3.213340e+00 194 184 182
6.752194e-01 1.604120e-01 3.213622e+00 181 171 162
2.515506e+00 3.460449e-01 3.005909e+00 173 164 150
-5.107841e-01 3.941408e-01 3.228693e+00 45 36 34
1.978463e+00 4.320577e-01 3.080864e+00 96 75 63
2.224102e+00 4.802241e-01 3.071130e+00 128 115 98
2.742971e+00 4.973530e-01 2.897200e+00 104 101 92
2.094354e-01 5.550867e-01 3.249011e+00 216 207 202
-1.408508e+00 6.094046e-01 3.124413e+00 137 124 108
1.953481e+00 6.346876e-01 3.080808e+00 104 96 83
-4.857321e-01 6.855663e-01 3.249672e+00 172 161 154
2.132440e+00 7.415844e-01 3.044930e+00 196 191 172
8.618190e-01 7.490056e-01 3.103103e+00 104 90 78
1.473924e+00 9.667779e-01 3.064431e+00 150 141 130
-2.210308e+00 1.012132e+00 3.016442e+00 181 173 160
4.437462e-01 1.094601e+00 3.192615e+00 91 74 51
2.414246e+00 1.053157e+00 2.999529e+00 186 182 173
-1.949055e+00 1.047237e+00 3.070801e+00 145 133 120
2.537700e+00 1.042154e+00 2.973968e+00 49 39 25
-2.393663e+00 1.039241e+00 3.016883e+00 140 131 122
-1.353036e+00 1.060559e+00 3.025678e+00 195 189 179
-1.604190e+00 1.082242e+00 3.069556e+00 159 147 135
-1.485900e+00 1.094393e+00 3.036404e+00 175 165 152
-4.294150e-02 1.174971e+00 3.202884e+00 89 70 50
2.372589e+00 1.166473e+00 2.990772e+00 82 73 62
5.831453e-01 1.206100e+00 3.059354e+00 94 86 73
2.729004e+00 1.373181e+00 2.921769e+00 83 75 60
2.729004e+00 1.373181e+00 2.921769e+00 83 75 60
-1.669231e+00 1.470242e+00 2.992314e+00 94 88 72
2.807285e+00 1.556024e+00 2.913293e+00 141 139 127
1.144079e+00 1.558186e+00 2.865130e+00 199 193 179
-9.598254e-01 1.564887e+00 2.739000e+00 153 150 138
2.141179e+00 1.883052e+00 3.094259e+00 153 145 146
2.007144e+00 1.890754e+00 3.104371e+00 158 146 154
-2.047222e+00 1.932695e+00 3.060268e+00 201 190 181
2.156433e+00 2.083015e+00 3.082197e+00 19 10 8
-7.786964e-01 2.130495e+00 2.605351e+00 174 163 157
1.858373e+00 2.411865e+00 3.011512e+00 35 25 23
5.931712e-01 2.517712e+00 3.047080e+00 53 48 40
-1.848413e+00 2.484198e+00 2.983070e+00 115 102 87
2.775898e+00 2.530295e+00 2.904348e+00 67 60 50
9.853824e-01 2.536530e+00 2.741812e+00 130 116 104
-1.757882e+00 4.494249e+00 2.780639e+00 170 162 154
2.224367e+00 4.888883e+00 3.012026e+00 105 106 98
2.509790e+00 -2.939016e+00 2.990446e+00 60 42 31
2.435871e+00 -2.937547e+00 2.989554e+00 60 42 32
8.300792e-01 -2.914714e+00 2.975940e+00 60 40 22
9.694726e-01 -2.858218e+00 2.967472e+00 148 138 114
8.108432e-01 -2.766442e+00 2.983100e+00 138 123 102
1.457645e+00 -2.705212e+00 2.959110e+00 195 186 171
8.597862e-01 -2.706876e+00 2.965058e+00 69 50 34
1.417388e+00 -2.646483e+00 2.965028e+00 88 73 51
2.531798e+00 -2.637664e+00 2.973321e+00 52 36 23
2.608117e+00 -2.629286e+00 2.968876e+00 87 70 52
2.483256e+00 -2.601070e+00 2.967922e+00 154 143 120
1.373484e+00 -2.507446e+00 2.944758e+00 92 77 67
-1.580406e+00 -2.545530e+00 3.009360e+00 58 42 30
1.988980e+00 -2.476535e+00 2.974070e+00 147 127 119
4.579706e-01 -2.491736e+00 3.008340e+00 43 28 21
2.834831e+00 -2.452012e+00 2.963445e+00 87 76 70
2.951455e+00 -2.417281e+00 2.967309e+00 115 110 98
2.568812e-01 -2.431176e+00 3.010863e+00 116 101 82
1.284630e+00 -2.395678e+00 2.940748e+00 170 156 143
2.095868e-01 -2.393815e+00 3.014156e+00 101 85 66
-1.545440e+00 -2.410118e+00 2.998777e+00 69 50 35
1.763419e+00 -2.375019e+00 2.985659e+00 152 137 118
-1.371424e+00 -2.396615e+00 3.001836e+00 154 142 125
2.623745e+00 -2.348299e+00 2.954767e+00 88 74 54
8.282577e-01 -2.268128e+00 2.969440e+00 154 139 119
-1.675827e+00 -2.288492e+00 3.003715e+00 145 132 118
-2.446303e+00 -2.287201e+00 2.964114e+00 96 80 65
6.685400e-01 -2.157632e+00 2.999007e+00 134 119 96
7.336695e-01 -2.145308e+00 2.986492e+00 142 126 102
1.091987e+00 -2.115895e+00 2.931522e+00 92 79 63
1.091987e+00 -2.115895e+00 2.931522e+00 92 79 63
1.229304e+00 -2.107552e+00 2.931662e+00 90 78 66
1.229304e+00 -2.107552e+00 2.931662e+00 90 78 66
2.899307e+00 -2.078447e+00 2.939899e+00 157 139 134
-1.270227e+00 -2.043637e+00 2.993736e+00 74 55 41
8.904307e-01 -2.006630e+00 2.959741e+00 166 150 134
2.961404e+00 -1.982046e+00 2.939778e+00 191 187 173
1.123649e+00 -1.992121e+00 2.927123e+00 190 183 176
2.049238e+00 -1.987209e+00 2.992199e+00 99 84 61
-5.051247e-03 -1.991420e+00 3.032005e+00 136 120 99
2.982725e-01 -1.923266e+00 3.037240e+00 84 71 55
-2.149409e+00 -1.728558e+00 2.998252e+00 93 75 63
-1.531415e+00 -1.591197e+00 2.986081e+00 157 143 132
4.677786e-01 -1.529745e+00 2.976746e+00 140 124 106
2.003060e+00 -1.329578e+00 2.925927e+00 104 91 78
3.549090e-01 -1.347461e+00 2.959594e+00 155 139 124
1.966479e+00 -1.323109e+00 2.926853e+00 192 181 172
-1.490975e+00 -1.173639e+00 2.978744e+00 191 183 172
-5.608689e-01 -1.038896e+00 2.939009e+00 180 174 168
2.848820e+00 -1.004541e+00 2.917495e+00 230 223 214
2.769372e+00 -9.992896e-01 2.916264e+00 233 231 219
2.742435e+00 -1.001333e+00 2.914865e+00 83 78 67
5.573619e-01 -1.014721e+00 2.933061e+00 194 180 165
1.998718e+00 -9.994987e-01 2.926744e+00 98 92 81
1.918546e+00 -9.941041e-01 2.934413e+00 202 192 184
7.759951e-01 -9.948780e-01 2.933300e+00 95 82 73
2.398000e+00 -9.692044e-01 2.916488e+00 171 156 143
2.394986e+00 -9.426808e-01 2.906457e+00 167 154 146
-8.837706e-01 -9.532323e-01 2.939241e+00 166 149 139
1.830477e+00 -9.147450e-01 2.927863e+00 174 161 150
2.148448e+00 -9.094739e-01 2.925393e+00 151 140 122
2.567599e+00 -8.377066e-01 2.917891e+00 126 114 98
2.194437e+00 -7.548869e-01 2.917160e+00 190 180 170
1.966374e+00 -7.309806e-01 2.918113e+00 196 188 176
1.580497e+00 -7.255527e-01 2.927922e+00 182 170 156
1.810725e+00 -7.055227e-01 2.913636e+00 126 113 102
-4.517010e-01 -7.142417e-01 2.939297e+00 122 107 91
2.326935e+00 -6.811913e-01 2.926699e+00 164 156 143
2.577851e+00 -6.452246e-01 2.907191e+00 164 148 132
1.324258e+00 -5.840062e-01 2.893964e+00 184 170 157
2.883140e+00 -5.506984e-01 2.900171e+00 138 120 96
2.883140e+00 -5.506984e-01 2.900171e+00 138 120 96
1.703591e+00 -5.606755e-01 2.908236e+00 160 141 123
3.218121e+00 -5.580064e-01 2.987116e+00 177 181 172
1.846618e+00 -5.198762e-01 2.918266e+00 96 78 54
1.919561e+00 -5.165023e-01 2.914902e+00 97 76 59
1.645096e+00 -5.203784e-01 2.911978e+00 107 90 72
-1.055192e+00 -5.309075e-01 2.945489e+00 112 93 74
-5.351786e-01 -4.979654e-01 2.905024e+00 100 81 65
2.652462e+00 -2.778722e-01 2.914724e+00 85 73 60
2.627357e+00 -2.727703e-01 2.914393e+00 161 149 138
-7.142950e-01 -2.582557e-01 2.935354e+00 178 165 153
1.781130e+00 4.886931e-02 3.111622e+00 136 123 107
-2.886670e-01 5.408829e-02 3.205520e+00 194 187 181
2.649019e+00 2.356739e-01 2.905236e+00 134 130 124
8.926556e-01 4.119308e-01 3.126347e+00 106 91 72
9.454233e-01 4.659815e-01 3.072112e+00 163 157 144
9.454233e-01 4.659815e-01 3.072112e+00 163 157 144
1.614000e+00 4.986412e-01 3.137342e+00 82 66 49
-8.626822e-01 6.031718e-01 2.860891e+00 209 203 196
1.959950e+00 6.639645e-01 3.078996e+00 211 206 194
1.764988e-01 7.052537e-01 3.257171e+00 194 184 176
1.764988e-01 7.052537e-01 3.257171e+00 194 184 176
-2.417987e+00 6.546488e-01 3.024865e+00 103 91 76
-1.661282e+00 7.028265e-01 3.062808e+00 107 102 99
2.103097e+00 7.376645e-01 3.048408e+00 103 95 79
1.425726e+00 7.772176e-01 3.055866e+00 184 172 156
1.928259e+00 8.064500e-01 3.081712e+00 182 176 162
2.832962e+00 7.924338e-01 2.901529e+00 71 69 53
1.494753e+00 8.250834e-01 3.064244e+00 104 92 78
1.653313e+00 8.734107e-01 3.072149e+00 191 181 171
1.462086e+00 8.981205e-01 3.045309e+00 182 178 169
2.035857e+00 9.231503e-01 3.082219e+00 137 122 103
1.522417e+00 9.327063e-01 3.043439e+00 105 92 81
1.561310e+00 9.347983e-01 3.046632e+00 186 175 151
1.420783e+00 9.655658e-01 3.057775e+00 137 131 119
1.072981e-01 1.020613e+00 3.285892e+00 163 150 138
1.727352e+00 1.048292e+00 3.042170e+00 181 165 143
2.015536e+00 1.055205e+00 3.020752e+00 173 156 141
1.766425e-01 1.136501e+00 3.259630e+00 86 71 55
2.525541e+00 1.083608e+00 3.000014e+00 154 139 134
-5.761675e-01 1.092208e+00 3.059047e+00 125 121 110
1.915886e+00 1.094695e+00 3.024211e+00 182 172 154
2.323892e+00 1.115779e+00 3.019242e+00 107 93 79
1.580992e+00 1.147874e+00 3.049991e+00 107 96 77
-1.713985e+00 1.232982e+00 3.026314e+00 76 72 60
7.393713e-02 1.365180e+00 3.051072e+00 170 157 148
-4.308606e-02 1.447672e+00 3.016135e+00 171 164 153
2.418436e+00 1.450994e+00 3.006259e+00 113 106 102
-1.155278e+00 1.439783e+00 3.004667e+00 131 119 107
2.448452e+00 1.566994e+00 3.024198e+00 97 86 93
2.448452e+00 1.566994e+00 3.024198e+00 97 86 93
1.127887e+00 1.647899e+00 2.888619e+00 155 148 138
1.738119e+00 1.754446e+00 3.088361e+00 156 148 135
2.944813e+00 2.151432e+00 3.014983e+00 75 65 63
2.242939e+00 2.259543e+00 2.995006e+00 73 62 55
2.752195e+00 2.290759e+00 2.913614e+00 205 203 191
1.488266e+00 2.467759e+00 3.015193e+00 56 43 32
-1.842724e+00 2.438429e+00 2.959065e+00 192 182 168
2.040382e+00 2.503597e+00 2.978290e+00 94 79 62
6.917600e-03 2.523129e+00 3.000889e+00 52 38 31
1.452316e+00 2.524526e+00 2.977059e+00 98 83 67
8.584456e-01 2.552942e+00 2.975283e+00 67 55 40
-2.010160e+00 2.650963e+00 2.909556e+00 82 75 60
-2.415422e+00 3.206163e+00 2.898612e+00 186 184 179
7.915535e-01 3.484108e+00 3.110175e+00 91 82 72
2.595472e+00 4.249483e+00 2.984444e+00 189 187 181
1.799536e+00 4.498355e+00 3.070460e+00 169 158 150
-1.641315e+00 4.104110e+00 2.527134e+00 107 105 99
7.951977e-01 4.777220e+00 3.043170e+00 179 176 169
1.726893e+00 4.860544e+00 3.031110e+00 184 179 175
-2.210973e+00 5.519954e+00 3.190224e+00 176 175 170
-2.328912e+00 -3.067887e+00 3.055546e+00 180 169 163
1.512554e+00 -2.915653e+00 2.970045e+00 148 134 122
1.435438e+00 -2.907390e+00 2.965198e+00 157 143 124
-2.215439e+00 -2.910959e+00 3.029272e+00 98 84 71
2.408545e+00 -2.767495e+00 2.975661e+00 154 148 127
1.463530e+00 -2.722934e+00 2.960568e+00 131 119 107
1.438299e+00 -2.721104e+00 2.960596e+00 106 93 74
8.786501e-01 -2.657539e+00 2.965191e+00 95 82 65
1.958777e+00 -2.566160e+00 2.972844e+00 70 55 35
2.635635e+00 -2.543182e+00 2.967624e+00 85 67 57
1.471003e+00 -2.515278e+00 2.957189e+00 176 164 151
-1.853523e+00 -2.540943e+00 2.999214e+00 90 75 59
-1.853523e+00 -2.540943e+00 2.999214e+00 90 75 59
2.639318e+00 -2.491391e+00 2.962275e+00 159 146 129
2.639318e+00 -2.491391e+00 2.962275e+00 159 146 129
2.628907e+00 -2.466515e+00 2.961818e+00 97 82 62
2.187054e+00 -2.459942e+00 2.979049e+00 153 139 126
1.160860e-01 -2.468204e+00 3.008709e+00 99 83 67
2.745531e+00 -2.432134e+00 2.956938e+00 184 175 172
1.737631e+00 -2.426184e+00 2.982411e+00 106 89 73
-1.239441e-02 -2.427132e+00 3.013885e+00 102 85 65
4.703805e-01 -2.419635e+00 3.010370e+00 108 93 74
1.668602e+00 -2.372206e+00 2.985033e+00 140 123 104
3.933823e-01 -2.389750e+00 3.016936e+00 104 92 71
1.785114e+00 -2.370707e+00 2.982565e+00 145 130 110
2.189793e+00 -2.365569e+00 2.979432e+00 140 125 106
1.775880e+00 -2.351462e+00 2.982878e+00 83 67 52
1.743640e+00 -2.352058e+00 2.985193e+00 88 73 57
1.645824e+00 -2.352286e+00 2.985368e+00 83 65 51
1.173435e+00 -2.320482e+00 2.937965e+00 90 78 62
1.173435e+00 -2.320482e+00 2.937965e+00 90 78 62
1.882943e+00 -2.322826e+00 2.979851e+00 166 149 132
7.191471e-01 -2.326356e+00 2.986057e+00 97 83 59
1.994958e+00 -2.303348e+00 2.985644e+00 118 103 80
-1.839970e+00 -2.339589e+00 3.002007e+00 63 46 30
1.184359e+00 -2.273563e+00 2.942625e+00 123 111 95
1.202859e+00 -2.270209e+00 2.937705e+00 191 179 165
-1.731601e+00 -2.308457e+00 3.003012e+00 87 71 54
2.549241e+00 -2.241116e+00 2.934511e+00 112 97 75
1.043532e+00 -2.211102e+00 2.948558e+00 92 76 60
8.776593e-01 -2.214829e+00 2.967332e+00 112 93 70
2.012172e-01 -2.211793e+00 3.020295e+00 71 53 39
1.866169e+00 -2.189775e+00 2.989249e+00 102 85 63
-8.722119e-01 -2.194776e+00 2.961853e+00 78 67 65
2.914301e+00 -2.161280e+00 2.953785e+00 181 167 160
6.446895e-01 -2.178624e+00 3.003472e+00 134 120 96
-1.816230e+00 -2.200274e+00 3.001282e+00 126 110 95
-1.658187e+00 -2.195816e+00 3.001780e+00 129 110 95
2.813346e+00 -2.100774e+00 2.943211e+00 86 74 55
-1.996471e+00 -2.156576e+00 3.000617e+00 76 58 50
1.771157e+00 -2.115460e+00 2.986848e+00 117 99 76
1.771157e+00 -2.115460e+00 2.986848e+00 117 99 76
1.346137e+00 -2.104018e+00 2.936268e+00 100 89 73
9.144996e-01 -2.089829e+00 2.961153e+00 153 137 115
1.774696e+00 -2.068410e+00 2.988462e+00 103 85 61
2.930117e+00 -2.012314e+00 2.938060e+00 194 192 177
2.915354e+00 -1.998346e+00 2.938856e+00 110 103 90
2.864995e+00 -1.992572e+00 2.935992e+00 175 165 158
2.729562e+00 -1.979424e+00 2.932513e+00 195 189 177
-2.287528e+00 -2.010133e+00 3.006196e+00 165 153 137
5.050778e-01 -1.986589e+00 3.019711e+00 93 76 52
-6.325888e-03 -1.932302e+00 3.037320e+00 127 109 88
2.568713e+00 -1.854432e+00 2.937274e+00 129 115 96
6.219473e-01 -1.789748e+00 2.990136e+00 140 124 109
-1.452455e+00 -1.760715e+00 2.994652e+00 151 137 128
1.945343e-02 -1.730673e+00 3.040617e+00 63 41 26
8.864508e-01 -1.704834e+00 2.947955e+00 194 187 169
5.181165e-01 -1.689514e+00 2.993546e+00 72 55 34
2.947279e-01 -1.665483e+00 2.999178e+00 127 106 86
2.379504e+00 -1.582682e+00 2.925752e+00 121 108 89
-1.611127e+00 -1.623350e+00 2.998156e+00 76 57 46
3.971883e-03 -1.576680e+00 3.013847e+00 64 47 31
1.837256e+00 -1.511154e+00 2.951922e+00 140 124 104
-2.388155e-01 -1.526095e+00 2.968757e+00 174 161 145
-2.388155e-01 -1.526095e+00 2.968757e+00 174 161 145
-2.209497e-03 -1.505401e+00 2.999312e+00 139 125 109
-2.088342e+00 -1.508842e+00 2.990091e+00 192 179 162
-1.509465e+00 -1.470674e+00 2.982879e+00 153 138 119
1.166170e-01 -1.438930e+00 2.992818e+00 126 107 93
4.456850e-01 -1.418459e+00 2.960860e+00 149 133 117
5.442319e-01 -1.356646e+00 2.939842e+00 99 80 68
4.653496e-01 -1.303457e+00 2.943756e+00 93 80 68
2.836704e-01 -1.288388e+00 2.955672e+00 111 94 78
-1.596613e+00 -1.170830e+00 2.978273e+00 194 184 175
2.627357e+00 -1.130320e+00 2.920180e+00 123 105 93
1.528875e+00 -1.018643e+00 2.940060e+00 221 212 213
2.344092e+00 -1.003490e+00 2.921671e+00 202 193 181
1.973611e+00 -1.004580e+00 2.924815e+00 195 186 177
2.793144e+00 -9.909147e-01 2.914094e+00 86 76 74
1.782238e+00 -1.000895e+00 2.928141e+00 71 57 44
1.953842e+00 -9.968206e-01 2.930036e+00 105 95 83
2.670023e+00 -9.846386e-01 2.911888e+00 198 199 182
5.822849e-01 -9.992358e-01 2.943987e+00 71 57 48
2.449624e+00 -9.785972e-01 2.917335e+00 111 101 80
1.577206e+00 -9.694209e-01 2.922893e+00 164 151 134
1.428320e+00 -9.671234e-01 2.939625e+00 173 156 147
-1.928662e+00 -9.888550e-01 2.982965e+00 70 60 49
-1.972818e+00 -9.892077e-01 2.988461e+00 63 52 46
2.377875e+00 -9.537106e-01 2.912758e+00 103 94 79
1.171560e+00 -9.631949e-01 2.911135e+00 167 151 135
1.194534e+00 -9.089565e-01 2.908804e+00 185 173 157
2.411022e+00 -8.036741e-01 2.908214e+00 215 204 202
1.778433e+00 -8.022791e-01 2.913991e+00 104 94 84
6.070448e-01 -8.106496e-01 2.915682e+00 109 97 88
1.627313e+00 -7.978232e-01 2.930355e+00 177 164 155
2.587895e+00 -7.829612e-01 2.915978e+00 185 172 156
2.587895e+00 -7.829612e-01 2.915978e+00 185 172 156
6.193474e-01 -7.964840e-01 2.915792e+00 205 197 187
1.793234e+00 -7.762144e-01 2.912434e+00 209 200 191
2.570389e+00 -7.681912e-01 2.912829e+00 124 116 102
2.320759e+00 -7.699763e-01 2.924475e+00 82 71 53
2.002717e+00 -7.726608e-01 2.916394e+00 204 191 182
2.345006e+00 -7.448423e-01 2.908520e+00 107 97 86
2.363681e+00 -7.401889e-01 2.909051e+00 119 111 95
1.562964e+00 -7.468579e-01 2.920999e+00 128 114 101
1.562964e+00 -7.468579e-01 2.920999e+00 128 114 101
-1.682689e+00 -7.386068e-01 2.972321e+00 133 127 113
1.595468e+00 -7.106673e-01 2.913610e+00 141 131 116
-8.464147e-01 -7.069877e-01 2.914827e+00 106 96 87
-2.066541e+00 -7.031325e-01 2.991373e+00 157 149 140
-4.537717e-02 -6.366226e-01 2.928091e+00 100 83 73
-1.540861e+00 -6.404697e-01 2.967315e+00 166 150 139
7.191723e-02 -5.004178e-01 2.897530e+00 88 71 55
-5.991411e-01 -4.994024e-01 2.920436e+00 93 70 56
-1.985603e+00 -4.825330e-01 2.971593e+00 94 77 61
1.085958e+00 -4.151359e-01 2.882683e+00 236 230 219
2.852263e+00 -2.675769e-01 2.906465e+00 111 99 88
-7.880450e-01 -2.636867e-01 2.902791e+00 129 113 97
2.447932e+00 -1.103822e-01 3.024348e+00 192 181 164
2.462669e+00 -9.650752e-02 3.022543e+00 140 126 113
2.447461e+00 -8.088307e-02 3.022790e+00 178 165 149
2.447461e+00 -8.088307e-02 3.022790e+00 178 165 149
2.447766e+00 -5.064335e-02 3.026632e+00 187 174 159
5.740771e-01 -1.520252e-02 3.204517e+00 40 31 27
2.462332e+00 2.991417e-02 3.026449e+00 129 112 94
1.795534e+00 1.079508e-01 3.098485e+00 167 158 141
2.446059e+00 1.319003e-01 3.027955e+00 169 156 139
2.355025e+00 1.713344e-01 3.060220e+00 160 149 131
3.176380e+00 2.995491e-01 3.025354e+00 242 250 245
1.872222e+00 3.422767e-01 3.052836e+00 221 215 199
2.734075e+00 4.441755e-01 2.903038e+00 110 106 95
-2.830302e+00 4.628838e-01 3.003596e+00 132 129 120
-8.475010e-01 4.412958e-01 2.858904e+00 121 112 106
5.827148e-02 5.154189e-01 3.243272e+00 127 118 109
1.952209e+00 5.032206e-01 3.056533e+00 214 204 195
1.589430e-01 5.332660e-01 3.249516e+00 34 20 10
-8.438388e-01 4.855540e-01 2.853136e+00 178 168 161
9.711987e-01 7.022000e-01 3.072042e+00 112 99 89
9.520015e-01 7.580481e-01 3.071896e+00 101 91 79
3.217053e-01 8.318610e-01 3.273197e+00 173 162 152
1.754275e+00 8.008391e-01 3.098490e+00 180 171 158
-1.639759e+00 8.098888e-01 3.102768e+00 198 190 179
1.284528e+00 8.403963e-01 2.876871e+00 217 216 208
1.709879e+00 9.320635e-01 3.073550e+00 97 85 71
-9.751235e-01 8.760632e-01 2.811374e+00 75 69 63
1.888775e+00 9.615696e-01 3.092990e+00 166 156 141
-6.168914e-01 9.565376e-01 3.051040e+00 108 98 86
-2.329440e+00 9.399776e-01 3.018290e+00 98 91 81
-1.948673e+00 9.867346e-01 3.073305e+00 171 162 147
2.070884e+00 1.003305e+00 3.028647e+00 113 103 78
-1.273838e+00 1.020844e+00 3.043525e+00 191 184 174
-5.876646e-01 1.068880e+00 3.049039e+00 186 176 166
1.535081e+00 1.091867e+00 3.048106e+00 186 178 168
-1.518983e+00 1.077362e+00 3.013991e+00 107 94 78
2.355734e+00 1.115359e+00 3.004929e+00 123 111 94
-6.388148e-01 1.114980e+00 3.036457e+00 199 193 181
-2.006917e+00 1.132234e+00 3.041277e+00 111 102 86
9.110943e-01 1.176597e+00 3.069272e+00 163 157 145
-5.860022e-02 1.208082e+00 3.175779e+00 138 122 107
-1.873854e+00 1.178651e+00 3.034883e+00 107 98 80
2.983970e+00 1.212731e+00 3.007283e+00 195 183 170
2.925909e+00 1.230972e+00 3.008044e+00 131 119 103
-2.343999e+00 1.227660e+00 3.032797e+00 123 109 99
2.263755e+00 1.292841e+00 3.002987e+00 175 157 143
1.760306e+00 1.314353e+00 3.030989e+00 166 153 137
1.727278e+00 1.317057e+00 3.034372e+00 171 162 144
2.998023e+00 1.311579e+00 2.994349e+00 197 195 180
2.998023e+00 1.311579e+00 2.994349e+00 197 195 180
2.929908e+00 1.315942e+00 2.999676e+00 176 170 156
2.965590e+00 1.321160e+00 2.998120e+00 153 141 123
-2.147108e+00 1.325590e+00 3.030212e+00 211 201 192
-2.147108e+00 1.325590e+00 3.030212e+00 211 201 192
7.367230e-01 1.363502e+00 3.075311e+00 155 143 127
-2.149231e+00 1.342920e+00 3.021106e+00 161 154 138
-6.473061e-01 1.362683e+00 3.027751e+00 151 142 132
-4.511352e-01 1.387720e+00 3.038299e+00 160 150 140
-4.847844e-01 1.427871e+00 3.042717e+00 146 134 122
-1.177421e+00 1.429662e+00 3.013815e+00 102 89 73
2.408987e+00 1.463802e+00 2.986784e+00 210 201 199
1.861724e+00 1.489613e+00 3.034164e+00 233 226 220
1.861724e+00 1.489613e+00 3.034164e+00 233 226 220
-7.336431e-01 1.397808e+00 2.786409e+00 98 84 71
-8.696160e-01 1.395597e+00 2.776953e+00 108 91 74
2.506739e+00 1.507935e+00 2.999324e+00 177 176 155
1.403002e+00 1.533106e+00 3.060480e+00 138 129 114
3.017260e+00 1.526439e+00 3.012729e+00 177 179 167
-2.687312e+00 1.529659e+00 2.979425e+00 101 89 73
-2.687312e+00 1.529659e+00 2.979425e+00 101 89 73
-2.754963e+00 1.539147e+00 2.984654e+00 146 137 120
-5.561452e-02 1.598412e+00 3.043811e+00 198 197 195
-1.244368e+00 1.594209e+00 3.013545e+00 211 208 199
-1.618708e+00 1.601896e+00 3.008062e+00 217 214 202
-2.381722e+00 1.617799e+00 3.004132e+00 212 206 195
2.242016e+00 1.743822e+00 3.070622e+00 194 190 181
1.414719e+00 1.766853e+00 3.122520e+00 147 140 121
1.124394e+00 1.806013e+00 2.873119e+00 154 148 135
2.773086e+00 1.865939e+00 2.927060e+00 151 147 136
2.773086e+00 1.865939e+00 2.927060e+00 151 147 136
2.275435e+00 1.924265e+00 3.067349e+00 167 161 145
2.981116e+00 1.906453e+00 3.012360e+00 127 117 107
2.259230e+00 1.933697e+00 3.068484e+00 86 79 69
-1.316549e+00 2.079194e+00 3.134155e+00 170 156 145
8.171029e-01 2.257079e+00 3.071079e+00 100 87 78
2.373889e+00 2.240443e+00 3.012267e+00 76 72 60
-5.937766e-01 2.274486e+00 2.912885e+00 197 189 180
1.042409e+00 2.273664e+00 2.794873e+00 95 93 83
8.548472e-01 2.389274e+00 3.037622e+00 160 151 140
-1.334286e+00 2.359793e+00 2.964551e+00 162 158 148
1.947128e+00 2.410157e+00 3.006413e+00 79 72 51
-1.818387e+00 2.412987e+00 2.960041e+00 107 96 86
-1.277348e+00 2.411256e+00 2.935709e+00 184 177 167
-2.181524e+00 2.478022e+00 2.964238e+00 187 181 176
7.529680e-01 2.560328e+00 3.042998e+00 159 146 133
-1.871344e+00 2.550254e+00 2.935185e+00 193 186 176
-1.679545e+00 2.604614e+00 2.915675e+00 171 160 144
-1.679545e+00 2.604614e+00 2.915675e+00 171 160 144
1.225885e+00 2.628687e+00 2.751710e+00 214 210 202
3.096304e+00 2.746355e+00 2.969245e+00 245 245 245
2.530718e+00 2.786268e+00 2.882656e+00 105 101 95
2.530718e+00 2.786268e+00 2.882656e+00 105 101 95
-2.163011e+00 2.902356e+00 2.930773e+00 75 68 62
2.599192e+00 4.213573e+00 2.985546e+00 182 179 174
2.619058e+00 4.358139e+00 2.984583e+00 131 125 118
2.336334e+00 4.410485e+00 3.020958e+00 164 157 143
2.187085e+00 4.457899e+00 3.042598e+00 149 150 139
2.120443e+00 4.557838e+00 3.046097e+00 117 115 97
1.299140e+00 4.675092e+00 3.064363e+00 93 89 77
-1.699526e+00 3.914108e+00 2.247064e+00 129 109 105
1.720227e+00 4.675738e+00 3.029875e+00 167 167 154
1.407614e+00 4.733291e+00 3.088062e+00 109 100 91
2.753898e+00 4.788618e+00 3.020789e+00 94 90 86
1.139903e+00 4.890551e+00 3.029566e+00 191 193 180
2.264973e+00 5.020236e+00 3.022197e+00 165 164 154
-1.338295e+00 5.069376e+00 3.032350e+00 189 185 174
1.247442e+00 5.098161e+00 3.026807e+00 164 159 154
-1.324295e+00 5.271309e+00 3.183209e+00 99 100 94
-2.112126e+00 5.423496e+00 3.139904e+00 179 177 173
-1.979431e+00 5.791283e+00 3.340665e+00 161 160 154
-1.095535e+00 6.152943e+00 3.580784e+00 163 153 154
-1.095535e+00 6.152943e+00 3.580784e+00 163 153 154
1.537613e+00 -2.949246e+00 2.975830e+00 68 53 34
2.592634e+00 -2.908289e+00 2.988079e+00 174 165 158
1.521344e+00 -2.896043e+00 2.972263e+00 110 97 81
6.243600e-01 -2.895828e+00 2.986474e+00 129 112 101
8.374645e-01 -2.859516e+00 2.972848e+00 143 131 119
-1.392661e+00 -2.632924e+00 2.995596e+00 123 103 91
2.527343e+00 -2.591054e+00 2.969558e+00 67 52 36
-1.531686e+00 -2.590017e+00 2.999123e+00 151 138 121
1.639886e-01 -2.534893e+00 3.000719e+00 128 110 103
1.639886e-01 -2.534893e+00 3.000719e+00 128 110 103
7.142479e-02 -2.469819e+00 3.009423e+00 103 90 71
3.858519e-01 -2.444424e+00 3.009736e+00 123 110 93
8.967563e-01 -2.396921e+00 2.964928e+00 104 89 69
2.570320e-01 -2.403891e+00 3.008233e+00 150 134 111
9.785410e-02 -2.405796e+00 3.011475e+00 109 96 77
-1.593692e+00 -2.413694e+00 2.995018e+00 93 80 61
1.054261e+00 -2.338765e+00 2.949482e+00 101 86 71
-5.352076e-02 -2.350268e+00 3.017337e+00 152 137 114
1.403670e+00 -2.321017e+00 2.955682e+00 114 97 81
8.591887e-01 -2.313918e+00 2.970311e+00 97 80 63
1.282765e+00 -2.246018e+00 2.930709e+00 181 168 159
2.614634e+00 -2.237877e+00 2.949380e+00 165 150 130
7.378750e-01 -2.225263e+00 2.983995e+00 125 109 84
8.104028e-01 -2.219677e+00 2.976947e+00 116 96 74
7.332618e-01 -2.203015e+00 2.988766e+00 111 96 75
1.905742e+00 -2.188949e+00 2.985102e+00 110 93 68
1.632375e+00 -2.164529e+00 2.993680e+00 103 86 66
6.955249e-02 -2.181969e+00 3.024404e+00 115 102 83
2.540331e+00 -2.136750e+00 2.948553e+00 113 96 78
7.702624e-01 -2.140773e+00 2.982339e+00 131 113 92
2.861432e+00 -2.086278e+00 2.941031e+00 162 154 143
1.462314e+00 -2.093964e+00 2.955450e+00 159 142 126
1.436313e+00 -2.094387e+00 2.959542e+00 160 143 125
1.446173e+00 -2.068625e+00 2.954451e+00 160 143 126
2.015991e+00 -2.026493e+00 2.988626e+00 109 93 69
5.078255e-01 -2.007247e+00 3.021279e+00 132 115 99
9.682912e-01 -1.902202e+00 2.946600e+00 130 118 96
6.945680e-01 -1.904016e+00 2.986181e+00 153 138 118
1.815888e+00 -1.886028e+00 2.996801e+00 105 87 64
4.521880e-02 -1.884082e+00 3.042663e+00 93 78 57
1.049741e-01 -1.866851e+00 3.050431e+00 144 128 113
-1.044814e-01 -1.861471e+00 3.032995e+00 82 57 38
1.896531e+00 -1.836200e+00 2.996182e+00 96 81 60
2.011801e-01 -1.840146e+00 3.045945e+00 94 75 56
1.865289e+00 -1.780938e+00 3.003852e+00 95 78 60
1.692048e+00 -1.768471e+00 2.976405e+00 82 64 46
8.979354e-01 -1.729340e+00 2.945025e+00 192 183 170
4.023204e-01 -1.736785e+00 3.020113e+00 129 110 95
2.772244e-01 -1.729003e+00 3.032548e+00 122 103 86
1.629872e+00 -1.657748e+00 2.947234e+00 83 67 51
5.145171e-01 -1.670023e+00 2.990729e+00 124 105 90
3.069241e-01 -1.583660e+00 3.004457e+00 116 98 83
6.792751e-01 -1.467299e+00 2.945722e+00 126 111 95
-9.579611e-02 -1.417827e+00 2.964994e+00 150 133 117
-9.524058e-02 -1.417327e+00 2.962987e+00 150 133 117
2.520214e+00 -1.376532e+00 2.931240e+00 204 193 182
-1.954124e+00 -1.327687e+00 2.987792e+00 204 189 170
-2.051338e+00 -1.295617e+00 2.991436e+00 157 149 135
-2.024698e+00 -1.278556e+00 2.993078e+00 203 192 174
-2.048320e+00 -1.278882e+00 2.991350e+00 199 188 171
-1.945726e+00 -1.274364e+00 2.988508e+00 197 180 161
2.425323e+00 -1.076028e+00 2.911806e+00 164 157 151
2.323980e+00 -1.011053e+00 2.917589e+00 131 120 117
2.832805e+00 -9.829558e-01 2.912804e+00 87 79 69
-6.428777e-01 -9.743776e-01 2.948564e+00 147 130 117
-8.379121e-01 -9.636144e-01 2.943731e+00 173 157 144
9.853057e-01 -9.479758e-01 2.944769e+00 115 105 94
-4.638370e-01 -9.542078e-01 2.949756e+00 188 175 158
2.796744e+00 -8.508002e-01 2.901592e+00 139 126 119
2.809506e+00 -8.420282e-01 2.900413e+00 190 183 172
1.762215e+00 -8.400245e-01 2.914661e+00 121 112 95
2.746247e+00 -8.187196e-01 2.910212e+00 143 137 115
-4.124939e-01 -8.287193e-01 2.935809e+00 166 153 137
-1.071575e+00 -8.274216e-01 2.958140e+00 138 123 106
2.827209e+00 -7.851237e-01 2.904177e+00 202 190 181
1.570184e+00 -7.885712e-01 2.914918e+00 200 191 179
2.555103e+00 -7.787428e-01 2.915375e+00 174 162 146
1.213899e+00 -7.751853e-01 2.894050e+00 199 189 179
1.806047e+00 -7.673456e-01 2.909695e+00 199 191 181
5.856065e-01 -7.723362e-01 2.951941e+00 119 105 94
1.800067e+00 -7.551959e-01 2.913991e+00 119 110 100
2.552269e+00 -7.492756e-01 2.916370e+00 185 175 162
1.193337e+00 -7.495040e-01 2.896431e+00 183 173 162
1.091160e-02 -7.536369e-01 2.917721e+00 95 82 70
-1.690957e+00 -7.549108e-01 2.975443e+00 180 173 161
3.980846e-01 -7.421964e-01 2.907057e+00 128 119 105
1.462732e-01 -7.444553e-01 2.926937e+00 100 88 77
1.378700e+00 -7.171734e-01 2.913922e+00 119 109 92
2.582495e+00 -6.692993e-01 2.919311e+00 111 92 84
-1.679118e+00 -6.838557e-01 2.973065e+00 135 127 116
2.286674e-01 -6.546089e-01 2.924583e+00 144 127 118
2.963063e+00 -6.110512e-01 2.903017e+00 126 119 107
-1.090761e-01 -5.177776e-01 2.906015e+00 140 120 98
-5.179633e-01 -5.160367e-01 2.915102e+00 144 126 106
7.927381e-01 -5.048941e-01 2.892395e+00 102 86 70
7.927381e-01 -5.048941e-01 2.892395e+00 102 86 70
-1.780328e-02 -4.970429e-01 2.893824e+00 101 83 69
7.975395e-01 -4.439083e-01 2.893847e+00 188 186 181
1.127280e+00 -2.498532e-01 2.888255e+00 111 92 83
1.796496e+00 1.090279e-02 3.094505e+00 168 157 140
2.748762e+00 3.575239e-02 2.907984e+00 125 123 111
3.212897e+00 4.614499e-02 2.992046e+00 119 117 102
1.811791e+00 1.273737e-01 3.102751e+00 123 109 96
2.444528e+00 1.924360e-01 3.026911e+00 156 143 127
2.510085e+00 2.143609e-01 3.005513e+00 116 109 92
1.874309e+00 2.670791e-01 3.055993e+00 177 172 154
1.874309e+00 2.670791e-01 3.055993e+00 177 172 154
1.479682e-02 3.632730e-01 3.227181e+00 167 160 146
1.001017e+00 4.286283e-01 3.074208e+00 149 138 120
2.115668e+00 5.970571e-01 3.044680e+00 142 136 124
-1.299463e+00 6.005377e-01 3.106424e+00 99 82 64
1.595273e+00 6.113302e-01 3.071289e+00 217 213 204
-1.735698e+00 5.984658e-01 3.077289e+00 203 196 188
1.702613e+00 6.189028e-01 3.085114e+00 205 201 190
-1.884680e+00 6.124501e-01 3.078820e+00 149 145 135
1.949804e+00 6.596719e-01 3.077941e+00 209 206 192
-2.781591e+00 6.665514e-01 2.987862e+00 123 124 119
-1.935199e+00 6.639608e-01 3.058241e+00 157 150 142
-1.974235e+00 6.742376e-01 3.057518e+00 207 199 191
-1.978051e+00 6.931341e-01 3.059498e+00 138 130 122
1.046433e+00 7.053308e-01 2.890838e+00 206 200 189
-2.290650e+00 7.220554e-01 3.045008e+00 118 110 100
1.900686e+00 7.687398e-01 3.080880e+00 98 90 76
2.595492e+00 8.291447e-01 2.919214e+00 154 153 141
1.490447e+00 9.640354e-01 3.047954e+00 155 148 136
-2.582203e+00 9.665422e-01 2.964848e+00 111 109 105
2.406479e+00 9.840144e-01 3.005759e+00 189 184 165
3.001531e+00 1.020433e+00 3.009279e+00 133 130 118
2.985924e+00 9.989206e-01 2.962582e+00 133 130 118
2.430993e+00 1.036881e+00 3.007408e+00 124 117 108
2.313166e+00 1.049181e+00 3.009794e+00 188 180 170
1.383386e+00 1.069553e+00 3.052908e+00 167 153 145
2.298647e+00 1.079773e+00 3.015169e+00 204 191 182
2.714977e+00 1.096903e+00 2.929286e+00 138 134 125
2.714977e+00 1.096903e+00 2.929286e+00 138 134 125
9.045271e-01 1.139248e+00 3.073999e+00 115 102 92
2.449617e+00 1.149719e+00 2.977902e+00 104 99 82
8.492774e-01 1.190925e+00 3.089143e+00 111 105 94
2.270562e+00 1.194328e+00 3.012169e+00 93 91 78
1.371137e+00 1.337657e+00 3.052335e+00 170 154 138
-1.708249e+00 1.337550e+00 3.040451e+00 149 133 120
5.421054e-01 1.356597e+00 3.043947e+00 163 151 137
3.010461e+00 1.381148e+00 2.995381e+00 212 208 199
2.957136e+00 1.460491e+00 3.020056e+00 110 101 94
-6.566382e-01 1.819493e+00 3.073023e+00 85 80 69
-6.253049e-01 1.962166e+00 3.041325e+00 131 126 121
2.135107e+00 2.023049e+00 3.079245e+00 141 131 121
2.165186e+00 2.111208e+00 3.087595e+00 81 76 62
2.940557e+00 2.167841e+00 3.005366e+00 153 150 140
1.217034e+00 2.130178e+00 2.853416e+00 116 102 93
1.231713e+00 2.156941e+00 2.828464e+00 99 90 79
2.763324e+00 2.209231e+00 2.902779e+00 176 177 163
1.867606e+00 2.256819e+00 3.020769e+00 185 180 166
1.142238e+00 2.193920e+00 2.820239e+00 180 174 162
1.785280e+00 2.313027e+00 3.022531e+00 179 175 166
1.771058e+00 2.312707e+00 3.022883e+00 108 100 90
7.289352e-01 2.306386e+00 3.003922e+00 106 106 87
1.767658e+00 2.338148e+00 3.023827e+00 152 139 126
-2.115615e+00 2.350473e+00 2.970194e+00 174 172 162
-1.388142e+00 2.336646e+00 2.916008e+00 176 171 160
1.477142e+00 2.412202e+00 3.007239e+00 164 157 138
-1.440991e+00 2.373631e+00 2.943648e+00 156 144 132
2.153992e+00 2.441729e+00 3.023281e+00 172 163 152
-1.288403e+00 2.392720e+00 2.952429e+00 126 115 98
-1.269510e+00 2.389077e+00 2.927377e+00 117 108 95
1.932941e+00 2.450694e+00 3.010064e+00 83 78 58
-2.707784e+00 2.475102e+00 3.001090e+00 175 164 155
1.215169e+00 2.400289e+00 2.825366e+00 136 131 119
2.271837e+00 2.484852e+00 2.978006e+00 137 118 110
-5.669456e-01 2.437902e+00 2.912708e+00 145 139 127
-2.162356e+00 2.471811e+00 2.969967e+00 142 130 121
1.949604e+00 2.501865e+00 2.977889e+00 112 96 83
-1.789330e+00 2.465030e+00 2.936404e+00 113 107 101
2.804320e-01 2.525761e+00 2.996806e+00 196 189 181
-2.833859e+00 2.565529e+00 3.003822e+00 206 204 193
-1.938490e+00 2.535868e+00 2.931052e+00 91 86 71
-2.352920e+00 2.581089e+00 2.966439e+00 130 128 113
-1.625030e+00 2.593250e+00 2.900567e+00 164 150 141
-2.706917e+00 2.699025e+00 3.004911e+00 185 179 166
-2.216577e+00 2.652693e+00 2.963129e+00 163 150 137
-2.707139e+00 2.719011e+00 3.009810e+00 140 133 122
2.830131e+00 2.745364e+00 2.897393e+00 82 84 77
2.830131e+00 2.745364e+00 2.897393e+00 82 84 77
2.519352e+00 2.796498e+00 2.873836e+00 185 179 171
9.890662e-01 2.703479e+00 2.711947e+00 66 62 59
9.890662e-01 2.703479e+00 2.711947e+00 66 62 59
1.491851e+00 3.364315e+00 3.359059e+00 14 22 24
1.853274e+00 3.535199e+00 3.092961e+00 186 184 175
9.554529e-01 3.607875e+00 3.127531e+00 133 125 116
1.362362e+00 4.489018e+00 3.127498e+00 131 120 112
9.559321e-01 4.546311e+00 3.054793e+00 150 135 128
9.276189e-01 4.561434e+00 3.070822e+00 163 144 141
1.737589e+00 4.633532e+00 3.033177e+00 155 148 138
1.704125e+00 4.639321e+00 3.036246e+00 136 127 118
-2.051438e+00 4.123579e+00 2.400355e+00 121 126 128
2.436776e+00 4.725051e+00 2.992513e+00 167 149 147
1.512984e+00 4.784723e+00 3.050355e+00 129 119 105
1.684639e+00 4.850759e+00 3.025785e+00 143 134 127
1.684639e+00 4.850759e+00 3.025785e+00 143 134 127
1.079030e+00 4.912286e+00 3.033775e+00 189 179 170
-1.835106e+00 4.736166e+00 2.842723e+00 133 124 117
-1.478879e+00 5.594101e+00 3.345017e+00 142 138 137
-1.754907e+00 5.733318e+00 3.328529e+00 86 77 74
-2.186682e+00 5.728034e+00 3.282527e+00 80 80 75
-2.238046e+00 5.733512e+00 3.284766e+00 83 77 74
-2.203795e+00 5.806407e+00 3.339318e+00 166 162 158
-2.444107e+00 5.706513e+00 3.240864e+00 91 79 77
-2.293271e+00 5.745282e+00 3.274785e+00 142 133 124
-2.557064e+00 5.732053e+00 3.252558e+00 76 63 60
-2.613294e+00 5.734143e+00 3.236188e+00 145 136 127
-1.032625e-01 -9.297796e-01 3.171180e+00 148 143 128
1.826266e-01 -5.806447e-01 3.146175e+00 48 44 37
3.490736e-01 -1.123275e+00 3.069813e+00 90 87 81
-4.331265e-01 3.033063e-01 2.674679e+00 46 52 55
-3.383711e-02 7.393031e-01 2.741564e+00 48 50 52
-3.383711e-02 7.393031e-01 2.741564e+00 48 50 52
-2.109576e-01 5.886807e-01 2.726407e+00 157 159 146
1.763293e+00 5.793588e-01 2.885947e+00 179 179 169
1.967027e-01 -1.209299e+00 3.113841e+00 72 70 58
1.473694e+00 -5.852169e-01 2.934877e+00 131 127 116
-2.649361e-01 5.027282e-01 2.720123e+00 160 164 150
3.423009e-01 7.120721e-01 2.747482e+00 145 147 139
-2.286823e+00 1.107155e+00 3.092862e+00 88 88 80
4.911230e-01 1.275284e+00 3.022961e+00 147 151 142
-2.739309e-01 -2.126454e+00 2.881428e+00 116 105 84
-2.312423e+00 -8.749720e-01 3.276849e+00 65 69 70
1.261553e+00 -6.907838e-01 3.095703e+00 48 46 33
-1.439666e+00 -6.422198e-01 3.259087e+00 123 125 101
2.395802e-01 -5.986244e-01 3.151208e+00 44 44 39
-2.117037e-01 3.674250e-01 2.704076e+00 165 168 150
2.629580e-01 4.958116e-01 2.683178e+00 33 38 37
-3.948070e-02 5.006942e-01 2.695666e+00 35 36 41
-4.968484e-01 5.099797e-01 2.724053e+00 153 152 139
-4.939804e-01 5.106817e-01 2.720365e+00 153 152 139
-7.551821e-02 6.637196e-01 2.383674e+00 39 42 47
1.434759e+00 1.145115e+00 2.924776e+00 107 101 85
-2.353432e+00 1.202480e+00 3.056038e+00 107 106 98
-2.287288e+00 1.315733e+00 3.064868e+00 153 163 152
-1.808299e-01 2.409120e+00 3.158818e+00 144 146 142
-7.621216e-01 -2.150039e+00 3.183692e+00 73 73 61
-2.893247e-01 -2.092422e+00 2.893259e+00 75 67 49
-2.310355e-01 -1.945387e+00 2.916353e+00 70 62 45
-2.113068e+00 -1.019424e+00 3.357337e+00 148 145 130
6.590211e-01 -9.862518e-01 3.083124e+00 57 55 36
-4.550984e-01 -9.694870e-01 3.087499e+00 152 148 139
-3.350976e-01 -6.853514e-01 3.000756e+00 149 146 127
