ply
format ascii 1.0
element face 0
property list uchar int vertex_indices
element vertex 952
property float x
property float y
property float z
property uchar diffuse_red
property uchar diffuse_green
property uchar diffuse_blue
end_header
-1.678296e+01 2.661208e+01 5.308410e+00 167 167 167
-9.976681e-01 -2.344775e+00 2.749972e-01 116 109 103
5.087046e+00 1.225272e+01 7.571589e+00 197 193 190
8.484833e+00 4.300720e+01 1.029965e+01 113 117 118
-1.069332e+01 6.538207e+00 2.585095e+00 169 170 168
7.970001e-01 7.089148e+00 5.103824e+00 160 160 162
9.819567e+00 8.128187e+00 1.246008e+01 148 141 131
-8.027519e-01 2.852412e+01 6.433780e+00 58 55 63
-1.600307e+01 4.044646e+01 4.621169e+00 139 140 144
-1.288900e+01 1.152631e+01 6.190133e-01 64 63 70
9.060684e+00 8.660863e+00 1.066911e+01 159 152 146
-2.856198e+00 1.795275e+01 3.349832e+00 146 137 134
-1.102133e+01 2.675143e+01 5.180689e+00 162 157 157
1.334803e+01 2.931427e+01 1.198224e+01 182 183 189
-2.408630e+00 -1.819978e+00 2.567333e+00 63 56 46
-6.739087e+00 -2.033593e+00 5.201705e-01 70 61 64
2.290572e+00 1.532251e+01 4.223121e+00 42 41 43
-1.653065e+00 1.563727e+01 2.733515e+00 32 30 31
-1.424989e+00 1.725570e+01 3.356103e+00 19 19 18
-4.034864e+00 6.972282e+00 4.033840e+00 36 32 33
1.239608e+00 2.730839e+01 7.525489e+00 162 163 167
-4.452011e+00 2.794620e+01 6.507955e+00 56 55 55
1.055104e+01 2.817890e+01 9.826836e+00 67 65 66
6.586220e+00 4.394498e+01 1.197113e+01 107 108 119
-1.340697e+01 7.876670e+00 2.307620e+00 148 143 138
4.116000e+00 1.547493e+01 4.301200e+00 144 140 131
-1.401274e+01 1.489113e+01 1.944203e+00 101 98 85
-1.429676e+01 1.660781e+01 2.399269e+00 159 152 144
-1.467935e+01 1.652892e+01 2.603832e+00 118 117 113
5.535072e-02 1.962479e+01 3.989925e+00 58 59 54
-4.278878e+00 1.933648e+01 4.701327e+00 107 103 104
1.265594e+01 4.375929e+01 4.634341e+00 134 138 153
-9.112386e+00 4.220669e+01 1.210602e+01 92 89 117
-1.957260e+01 3.810274e+01 1.178749e+01 233 243 253
2.880776e+00 1.478404e+01 1.809890e+00 36 36 51
1.554168e+01 4.650512e+01 1.306331e+01 237 246 253
1.235236e+01 4.943922e+01 1.385207e+01 113 119 132
1.570453e+01 3.131093e+01 9.485164e+00 67 66 71
-1.983433e+01 3.689027e+01 1.100861e+01 233 243 254
-9.770327e+00 4.019944e+01 1.165877e+01 125 126 130
-1.900799e+01 -1.349592e+00 1.911428e+01 37 38 42
-2.430495e+01 1.930888e+00 8.979856e+00 32 32 48
-1.667070e+01 1.373426e+01 5.246860e+00 154 149 146
7.025719e+00 3.866297e+01 9.142628e+00 24 39 62
1.192635e+01 4.948150e+01 1.458126e+01 105 115 142
-1.380648e+01 1.405682e+01 2.638533e+00 81 72 73
-1.593116e+01 2.527589e+01 7.076351e+00 64 68 69
-1.501375e+01 2.837513e+01 8.110834e+00 100 100 100
-1.318603e+01 2.868076e+01 8.448891e+00 24 31 60
-1.367652e+01 4.260518e+01 8.074829e+00 123 124 135
-1.800162e+01 4.068289e+01 1.391643e+01 83 91 112
-2.303121e+01 -2.477539e+00 1.121627e+01 36 40 35
-1.280611e+01 7.240451e+00 -6.185973e-01 129 123 113
-1.277948e+01 7.252907e+00 -6.113871e-01 129 123 113
-5.657598e+00 8.837044e+00 1.111978e+00 57 49 46
-5.669802e+00 1.012561e+01 1.488198e+00 32 27 24
-1.537375e+01 1.388100e+01 3.759463e+00 141 138 146
-1.388603e+01 2.106579e+01 6.140188e+00 21 25 47
-1.388603e+01 2.106579e+01 6.140188e+00 21 25 47
-1.318070e+01 2.282369e+01 6.292547e+00 21 24 46
9.290657e+00 2.943609e+01 7.489513e+00 33 37 46
1.468541e+01 4.697473e+01 1.358001e+01 33 49 68
-9.575163e+00 4.210086e+01 1.234950e+01 48 55 79
-2.027314e+01 -3.029251e+00 1.534535e+01 26 23 35
-2.027314e+01 -3.029251e+00 1.534535e+01 26 23 35
-2.129456e+01 1.209131e+00 1.419753e+01 42 52 77
-1.492605e+01 1.287232e+01 3.757086e+00 54 50 59
1.905529e-01 1.603299e+01 2.300810e+00 22 20 30
-1.404410e+01 2.217163e+01 4.072753e+00 127 125 121
-1.587264e+01 2.422117e+01 7.083480e+00 42 47 51
1.484552e+01 3.001055e+01 7.675967e+00 33 36 41
-1.032840e+01 3.797905e+01 1.033037e+01 97 96 102
-1.248425e+01 3.990364e+01 1.164421e+01 124 125 129
-1.342611e+01 4.057369e+01 1.212754e+01 45 53 75
-1.774575e+01 4.057491e+01 1.355899e+01 130 137 144
-7.324286e-01 1.481223e+01 -6.594253e+00 133 126 120
1.578983e-01 1.637477e+01 2.317001e+00 151 150 149
-4.291717e-01 2.821375e+01 6.810542e+00 124 122 126
-7.491114e+00 8.379900e+00 2.264251e+00 12 7 6
-2.848409e+00 1.505587e+01 2.145713e+00 39 37 53
-3.914269e+00 1.846378e+01 5.762762e+00 64 59 55
-1.277824e+01 1.745357e+01 6.318028e+00 122 118 108
3.441959e+00 1.429725e+01 2.642477e+00 143 140 144
-9.369625e-01 1.388062e+01 3.390209e+00 149 147 150
-1.572033e+00 1.554254e+01 2.094725e+00 28 27 43
4.248846e+00 1.603981e+01 2.812809e+00 20 14 15
4.248846e+00 1.603981e+01 2.812809e+00 20 14 15
6.906297e+00 2.023572e+01 -7.088723e+00 32 31 44
-1.918831e+01 2.348022e+01 7.977887e+00 98 107 130
1.321118e+01 9.234588e+00 7.352401e-01 68 68 66
2.694636e+00 1.429133e+01 1.914033e+00 31 31 48
3.577649e+00 1.428417e+01 2.399779e+00 71 69 70
4.489821e+00 1.608345e+01 3.031123e+00 33 24 19
3.236175e+00 2.683398e+01 6.422470e+00 33 33 43
-1.432550e+00 2.219704e+01 5.711882e+00 142 137 125
1.225322e+01 4.492767e+01 1.103600e+01 162 153 137
1.623560e+01 1.316317e+01 5.044449e+00 108 103 87
-9.763812e+00 1.794274e+01 4.698345e+00 164 154 128
-1.275179e+01 2.920303e+01 9.747512e+00 159 151 136
-2.863671e+00 9.123994e+00 3.686813e+00 146 141 121
-3.453143e+00 1.511794e+01 3.834727e+00 170 165 147
3.181551e+00 1.928063e+01 6.238462e-01 48 46 44
-3.237859e+00 1.691257e+01 4.020623e+00 151 145 130
-1.285806e+01 3.050491e+01 1.003405e+01 157 150 137
1.702032e+01 1.182863e+01 5.829330e+00 126 111 88
-1.005710e+01 1.728999e+01 5.260714e+00 69 55 42
-1.350174e+00 2.720195e+01 7.035726e+00 61 48 39
8.144189e+00 3.000428e+01 7.657869e+00 135 122 106
-7.940699e+00 2.831934e+01 8.392972e+00 52 47 43
4.379092e+00 1.653962e+01 4.694355e+00 73 60 36
-3.591720e+00 2.693220e+01 7.110951e+00 155 149 133
-3.091225e+00 2.700614e+01 6.645567e+00 168 157 145
-1.399059e+01 2.670228e+01 7.686125e+00 119 113 101
7.087041e+00 4.293556e+01 1.007110e+01 118 108 92
-1.704470e+01 3.691989e+01 1.093110e+01 94 93 88
-5.466986e+00 1.567966e+01 4.292553e+00 207 200 190
-1.603147e+01 1.951805e+01 7.038224e+00 207 207 195
7.610437e-01 1.483418e+01 2.780831e+00 156 150 144
-1.227332e+00 1.889709e+01 4.993019e+00 36 40 39
9.053492e+00 7.715063e+00 5.167895e+00 119 118 113
-4.007670e-01 1.341078e+01 2.937874e+00 215 208 199
-1.630441e-01 1.405266e+01 3.827744e+00 206 202 196
-7.821369e-01 1.409912e+01 4.618860e+00 202 197 186
-1.381984e+01 1.814659e+01 3.521511e+00 207 202 192
-8.906085e-02 2.096054e+01 5.673117e+00 106 106 98
-3.278853e+00 -1.236128e+00 1.718203e+00 217 206 197
-3.891303e+00 1.972382e+01 4.758979e+00 186 181 169
-3.927304e+00 -1.919336e-01 1.653915e+00 163 146 128
-4.434194e+00 2.343750e+00 1.804996e+00 172 163 154
-6.414666e-01 7.898881e+00 2.595662e+00 86 80 72
-1.560004e+00 1.901097e+01 5.003514e+00 110 104 90
-9.717951e-01 2.673799e+01 7.466148e+00 166 166 157
7.455193e+00 2.543000e-01 1.807194e+00 72 65 58
-1.141124e+01 1.018197e+00 3.639204e-02 56 55 43
-1.141124e+01 1.018197e+00 3.639204e-02 56 55 43
-1.141124e+01 1.018197e+00 3.639204e-02 56 55 43
-2.327137e+00 7.477292e+00 3.081854e+00 189 186 179
-1.766703e+01 2.014471e+01 5.875080e+00 94 96 95
-1.040340e+01 3.894872e+01 1.206253e+01 72 77 69
-1.115918e+00 1.040316e+00 4.386702e-01 59 58 50
9.713836e+00 3.436852e+00 2.172339e+00 107 92 77
-3.129306e+00 3.492747e+00 1.653104e+00 198 188 174
-4.757554e+00 3.909470e+01 7.648744e+00 219 222 239
1.589346e+00 4.161835e+01 1.092920e+01 224 230 244
1.911948e+01 3.417221e+01 8.042147e+00 219 225 243
-4.229223e+00 3.815325e+01 6.979095e+00 56 50 58
-4.361589e+00 3.869496e+01 7.460233e+00 55 53 64
2.982747e+00 4.277772e+01 1.098603e+01 221 231 240
-2.735992e+00 2.732113e+01 7.169213e+00 101 91 77
-4.669867e+00 3.843915e+01 7.287415e+00 42 44 54
-4.833220e+00 3.862317e+01 7.402207e+00 210 220 227
-5.237535e+00 3.852714e+01 7.479395e+00 209 220 229
1.595721e+00 4.138454e+01 1.086790e+01 222 231 244
2.376999e+00 4.248048e+01 1.115189e+01 222 230 241
2.376999e+00 4.248048e+01 1.115189e+01 222 230 241
-4.971254e+00 3.961333e+01 7.732555e+00 45 43 71
-4.971254e+00 3.961333e+01 7.732555e+00 45 43 71
-5.178871e+00 4.146420e+01 8.779514e+00 72 74 96
6.989882e-01 2.834849e+01 7.153508e+00 83 73 63
-5.076410e+00 3.940119e+01 7.598962e+00 56 37 65
3.254033e+00 4.328730e+01 1.061323e+01 48 52 73
-4.718324e+00 3.850114e+01 7.461266e+00 65 66 107
-4.718324e+00 3.850114e+01 7.461266e+00 65 66 107
-2.487490e+01 6.015370e+00 4.174592e+00 66 72 70
-1.949654e+01 1.674323e+01 7.368059e+00 252 254 251
-1.807303e+01 2.583141e+01 6.392309e+00 87 87 80
-8.753043e+00 -3.674761e+00 4.789458e+00 103 90 74
-7.082481e+00 6.498567e+00 2.358810e+00 77 73 62
5.524678e+00 2.308516e+01 5.318642e+00 86 78 67
1.839087e+01 2.207981e+01 4.824102e+00 184 177 159
6.524391e+00 1.743914e+01 2.785294e+00 159 151 128
3.585557e+00 1.778975e+01 5.190031e+00 55 54 52
-1.232121e+00 1.881979e+01 5.558908e+00 47 48 53
4.146250e+00 2.266111e+01 5.309138e+00 96 90 76
1.932572e+01 1.231362e+01 3.505674e+00 130 118 97
1.911099e+01 1.677702e+01 4.688437e+00 88 82 71
8.025990e+00 1.634699e+01 4.508926e+00 81 75 61
-1.802944e+01 1.799427e+01 4.981017e+00 170 171 156
-1.128169e+01 2.467335e+01 7.389202e+00 70 62 65
1.541253e+01 1.154616e+01 3.642648e+00 64 62 53
1.622071e+01 1.194509e+01 3.705589e+00 50 43 33
1.374996e+01 1.318782e+01 3.878214e+00 63 65 60
-1.121578e+01 1.279376e+01 3.282924e+00 58 58 53
-7.891217e+00 1.880040e+01 4.099607e+00 89 85 66
-3.519482e+00 2.067254e+01 4.520012e+00 97 90 74
-5.557779e+00 2.099486e+01 4.156293e+00 168 160 141
1.276154e+01 2.706776e+01 6.226691e+00 52 53 51
1.350106e+01 4.903376e+01 1.384320e+01 251 255 254
1.206263e+01 1.099152e+00 -7.278026e+00 131 122 104
-7.783274e+00 8.039541e+00 2.472608e+00 55 53 40
-6.784856e+00 9.177145e+00 2.668352e+00 57 48 39
-8.544454e+00 9.415294e+00 1.836173e+00 107 95 79
7.954425e+00 1.560262e+01 3.848228e+00 73 67 53
1.917199e+01 1.731666e+01 4.013561e+00 74 71 58
1.656544e+01 1.912764e+01 4.812711e+00 110 107 89
1.075253e+01 2.029094e+01 5.007531e+00 82 75 59
-1.839882e+01 1.878567e+01 4.857702e+00 241 250 245
1.406514e+01 2.530826e+01 5.416709e+00 151 146 127
-1.019761e+01 6.864618e+00 2.981815e+00 74 71 56
1.705567e+01 1.078942e+01 3.772374e+00 56 53 41
-1.158583e+01 1.080259e+01 3.142803e+00 121 114 98
-1.091698e+01 1.122196e+01 3.143754e+00 136 127 114
7.957036e+00 1.607192e+01 3.166254e+00 66 54 40
2.880680e+00 1.680510e+01 4.146502e+00 154 143 123
1.089617e+01 2.073015e+01 5.347725e+00 74 68 53
1.385088e+01 2.613751e+01 6.446251e+00 64 64 52
-7.804668e+00 8.191692e+00 2.651050e+00 59 56 41
1.243610e+01 1.105836e+01 2.177679e+00 63 59 47
1.460898e+01 1.099858e+01 3.543763e+00 68 65 53
1.396492e+00 1.845664e+01 4.326091e+00 43 40 34
-1.425787e+01 2.112299e+01 8.501052e+00 140 131 116
1.497921e+01 2.589138e+01 6.015385e+00 155 142 129
1.497921e+01 2.589138e+01 6.015385e+00 155 142 129
1.401969e+01 3.102344e+01 6.770417e+00 72 64 55
-1.090476e+01 1.529061e+01 4.242640e+00 129 121 102
-1.943382e+01 2.663632e+01 7.439945e+00 234 245 241
7.617785e+00 2.234972e+01 1.932385e+00 174 170 158
2.617488e+00 2.290867e+01 5.254283e+00 177 169 166
1.189540e+01 1.161647e+01 2.609600e+00 133 125 105
-1.749796e+00 1.620668e+01 4.653997e+00 141 139 126
2.239731e+00 2.332477e+01 5.755525e+00 34 31 39
1.419643e+01 1.186392e+01 2.953900e+00 52 45 35
-1.750045e+00 2.066205e+01 5.521503e+00 123 111 99
-3.617187e+00 2.631606e+01 7.281627e+00 44 43 39
9.375162e+00 2.823565e+01 7.090238e+00 32 32 26
-3.002740e+00 1.704608e+01 4.786843e+00 44 43 42
1.122910e+01 2.947888e+01 6.383647e+00 151 145 132
3.055114e+00 2.350774e+01 4.449904e+00 26 24 21
1.019272e+01 2.676476e+01 5.641107e+00 39 39 28
1.294178e+01 2.755646e+01 6.160217e+00 49 44 38
9.614076e+00 2.768378e+01 6.923699e+00 52 43 31
-2.687073e+00 2.685265e+01 7.411017e+00 49 42 42
2.273678e+01 2.422507e+01 3.467161e+00 161 185 214
2.827338e+00 2.318084e+01 6.886428e+00 23 29 33
6.933768e-01 1.855367e+01 2.756268e+00 30 29 38
2.141794e+00 2.812947e+01 7.235665e+00 17 22 22
-1.325395e+01 2.414422e+01 7.968952e+00 22 23 25
1.736600e+01 1.135791e+01 3.762155e+00 84 78 88
1.276849e+00 1.777463e+01 2.443673e+00 19 24 28
-1.198824e+01 1.642514e+01 5.415629e+00 47 44 40
1.710875e+01 1.121896e+01 3.830641e+00 30 31 20
1.710875e+01 1.121896e+01 3.830641e+00 30 31 20
-1.440769e+01 3.697523e+01 1.516688e+01 139 140 143
-1.484058e+01 2.919677e+01 1.402448e+01 21 25 61
-2.170783e+00 1.828737e+01 5.934550e+00 35 31 48
-4.959612e+00 2.508688e+01 6.752513e+00 121 112 113
-2.605743e+01 3.318992e+00 6.788465e+00 121 119 126
-1.110528e+01 3.059967e+01 1.382963e+01 125 124 137
-1.179303e+01 3.081761e+01 1.586558e+01 125 121 136
-1.195467e+01 3.125596e+01 1.630761e+01 123 123 136
-1.868813e+01 1.571379e+01 5.347115e+00 200 208 227
-1.029734e+01 2.510904e+01 9.332140e+00 127 121 133
-1.134219e+01 2.224800e+01 6.596236e+00 101 106 99
-1.691305e+01 2.513762e+01 5.768314e+00 114 117 107
1.265912e+01 2.197986e+01 -1.773595e+01 14 2 6
1.570764e+01 2.194887e+01 3.771038e+00 75 77 72
3.454161e+00 2.138802e+01 5.294187e+00 41 41 45
1.459434e+01 2.506121e+01 4.887830e+00 72 76 75
1.769101e+01 3.288963e+01 5.756585e+00 69 65 62
-1.252767e+01 3.054616e+01 1.028994e+01 79 87 87
6.830648e+00 2.016412e+01 1.946261e+00 28 24 27
-2.092233e+00 2.069564e+01 4.977331e+00 37 27 33
-2.564411e+00 2.706710e+01 7.312041e+00 83 84 85
4.444054e+00 2.050361e+01 4.868569e+00 44 45 47
1.457853e+01 2.289537e+01 4.180429e+00 54 49 45
-3.086891e+00 1.387179e+01 1.620830e+01 39 45 55
-1.755199e+00 1.304562e+01 4.609383e+00 1 2 7
-1.021253e+01 2.057132e+01 2.983400e+00 117 118 119
-7.722046e+00 1.985886e+01 7.379667e+00 45 43 38
-1.526451e+01 2.395191e+01 7.446220e+00 11 9 14
-1.398873e+01 1.849992e+01 4.995135e+00 111 111 109
-1.487375e+01 1.790613e+01 5.896177e+00 91 92 94
1.245469e-01 2.650959e+01 6.446297e+00 77 76 82
1.245469e-01 2.650959e+01 6.446297e+00 77 76 82
-1.213865e+01 8.495125e+00 2.780925e+00 10 9 8
-2.873033e+00 1.953803e+01 5.554607e+00 62 57 51
2.387915e+00 4.307573e+01 8.286481e+00 126 131 133
-1.399289e+01 1.028126e+01 4.227020e+00 106 102 88
-1.996240e+01 2.810602e+01 2.165998e+01 79 77 64
-1.964317e+01 2.858271e+01 2.165610e+01 70 71 64
-8.765687e+00 1.801510e+00 4.138609e+01 142 136 122
9.765710e+00 2.791711e+00 -1.503515e+00 220 223 235
1.817735e+01 6.338152e+00 -1.210647e+00 102 106 118
-2.467385e+00 8.207459e+00 -2.535190e-01 183 195 211
-3.652424e+00 1.109868e+01 5.001458e-01 141 120 116
-1.548790e+01 6.886660e-01 4.479204e-01 145 143 147
-9.115123e+00 1.054734e+01 7.250199e-01 98 91 85
-1.375802e+00 1.902874e+00 1.534835e+00 69 60 49
-3.360621e+00 7.057459e+00 2.885851e+00 41 49 44
1.720348e+01 2.419097e+01 4.097740e+00 201 192 178
1.643818e+01 1.220575e+01 3.957241e+00 84 68 42
1.672962e+01 2.573008e+01 4.683172e+00 173 160 143
7.851663e+00 2.702603e+01 6.522761e+00 184 163 139
1.516763e+01 1.106525e+01 3.517536e+00 194 178 157
1.570812e+01 1.183688e+01 3.784217e+00 169 147 120
-4.717408e+01 1.666100e+01 -2.805190e+01 194 182 170
-8.981482e-02 1.326949e+01 2.740930e+00 80 80 71
-4.663212e+01 1.699448e+01 -2.751754e+01 122 107 90
-4.663212e+01 1.699448e+01 -2.751754e+01 122 107 90
-5.778564e+00 2.721683e+01 1.858131e+01 131 124 114
1.744075e+01 -3.234205e-02 -2.579888e+00 7 21 11
-4.764491e+00 8.979196e-01 1.144036e+00 136 124 113
-3.391673e+01 6.387628e+00 3.664679e+00 192 192 195
-3.391673e+01 6.387628e+00 3.664679e+00 192 192 195
-1.688350e+01 1.278799e+01 2.152146e+00 212 200 193
-1.579312e+01 2.434083e+01 5.617523e+00 181 161 149
1.305601e+01 9.327746e+00 2.775585e+00 48 20 3
-3.391591e+01 7.200597e+00 4.075615e+00 187 187 190
-5.714663e+00 9.972338e+00 2.350128e+00 170 155 134
9.345807e+00 1.068299e+01 2.456076e+00 94 69 38
5.480100e+00 9.363769e+00 1.162268e+01 57 40 17
9.288059e-01 1.624846e+01 2.008616e+00 202 189 170
-1.302936e+01 2.467456e+01 6.619369e+00 39 37 20
1.791810e+01 9.375833e+00 3.709099e+00 191 191 175
1.421604e+01 9.452164e+00 2.960176e+00 172 145 114
-1.072311e+01 8.805995e+00 2.000950e+00 71 52 24
-7.458896e+00 9.080738e+00 2.113505e+00 162 147 124
8.197583e+00 1.547966e+01 3.838040e+00 189 179 159
-7.749397e+00 2.797176e+01 5.249809e+00 88 81 65
-7.315119e-01 2.857901e+01 6.744837e+00 106 93 76
-2.811059e-01 2.867630e+01 6.768746e+00 103 85 71
1.763358e+00 2.892694e+01 8.672448e+00 155 146 128
1.856293e+01 1.484947e+00 2.468925e+00 170 167 153
-3.109417e+01 2.447391e+00 -1.166551e+01 158 150 138
5.093839e+00 8.813806e+00 2.042981e-01 92 72 48
1.161713e+01 8.999268e+00 2.458324e+00 93 72 56
5.790133e-02 1.340727e+01 2.922992e+00 145 144 132
-1.442886e+01 1.571160e+01 4.251883e+00 153 129 107
-1.442886e+01 1.571160e+01 4.251883e+00 153 129 107
-1.389100e+01 1.674184e+01 4.470364e+00 130 110 90
1.204862e+00 1.933546e+01 5.916345e+00 49 37 18
9.080559e+00 2.042604e+01 4.465176e+00 127 105 88
-1.504762e+01 2.534959e+01 6.808595e+00 169 153 136
3.735806e+00 2.695892e+01 6.746072e+00 108 91 76
-1.872832e+01 3.578288e+01 9.430054e+00 138 112 93
2.132396e-01 1.530846e+01 2.975840e+00 103 83 64
-2.660313e+00 1.765058e+01 4.145173e+00 106 83 51
-1.251709e+01 1.848910e+01 4.754337e+00 164 147 127
-1.332338e+01 2.418475e+01 6.443884e+00 158 141 120
-1.504947e+01 2.450077e+01 6.627965e+00 101 98 89
-1.370032e+01 2.501650e+01 6.329652e+00 189 171 153
5.232463e+00 2.860625e+01 5.328002e+00 131 115 98
2.370169e+00 2.875115e+01 7.053397e+00 167 158 144
-6.096159e+00 8.932051e+00 3.564574e+00 67 68 63
-6.912540e+00 9.238468e+00 3.225131e+00 134 131 123
3.833959e+00 1.018042e+01 5.136444e+00 81 81 78
2.433686e+00 2.828389e+01 7.101011e+00 73 81 92
-1.805330e+00 7.384077e+00 3.821839e+00 132 128 123
-2.962355e+00 7.539355e+00 3.736801e+00 136 135 130
-9.202945e+00 9.513130e+00 2.579914e+00 63 60 59
1.809438e+01 2.162632e+01 -1.449334e+01 92 88 87
8.564940e+00 1.227319e+01 6.135946e+00 174 172 167
3.568770e+00 1.758334e+01 4.631311e+00 72 71 76
3.568770e+00 1.758334e+01 4.631311e+00 72 71 76
-1.232838e+01 2.604272e+01 5.592692e+00 161 161 161
-3.196296e+00 2.731470e+01 6.498877e+00 92 95 100
3.175156e+00 4.473393e+01 1.105981e+01 145 146 164
-2.823829e+01 3.370114e+00 -6.794662e+01 144 147 151
-4.368427e+00 7.054775e+00 3.133484e+00 168 168 167
-1.167318e+01 1.106990e+01 2.412074e+00 84 86 92
3.998802e+00 1.613859e+01 4.226832e+00 148 149 140
1.299667e+01 2.109974e+01 6.453276e+00 126 125 121
-1.319471e+01 2.316814e+01 3.963388e+00 156 160 152
1.271388e+01 2.874160e+01 8.935641e+00 119 120 125
5.871806e+00 4.357546e+01 1.103208e+01 176 176 181
-1.566351e+01 4.065286e+01 9.021347e+00 106 106 115
5.198693e-01 7.283723e+00 4.569682e+00 138 133 131
5.198693e-01 7.283723e+00 4.569682e+00 138 133 131
9.433942e+00 7.985874e+00 5.338726e+00 179 180 169
-1.378201e+01 2.569813e+01 4.956498e+00 167 167 167
1.117040e+01 2.958559e+01 8.097389e+00 128 127 131
7.869583e+00 2.940583e+01 7.981059e+00 114 109 110
-4.096464e+00 4.283983e+01 1.087317e+00 254 254 255
-1.443574e+01 4.172269e+01 8.152866e+00 156 155 156
-5.404891e+00 8.125972e+00 3.823647e+00 176 172 171
-1.582632e+01 7.663498e+00 2.917195e+00 178 175 174
4.296297e+00 9.216654e+00 4.666099e+00 149 146 148
-1.047026e+01 1.127728e+01 2.490479e+00 82 81 77
-1.475931e+00 1.593325e+01 1.326152e+00 182 183 185
-4.448600e+00 1.567249e+01 2.917375e+00 129 125 114
-1.526426e+01 1.889011e+01 2.918728e+00 159 159 159
1.032052e+00 2.739183e+01 6.538638e+00 87 90 111
-8.884210e-01 2.780761e+01 6.829010e+00 71 79 95
-7.068596e+00 2.939084e+01 7.716894e+00 87 87 97
-1.938584e+01 3.946876e+01 7.861609e+00 163 171 168
-1.938584e+01 3.946876e+01 7.861609e+00 163 171 168
1.268483e+00 2.779481e+01 6.971092e+00 93 98 103
1.450256e+01 3.213182e+01 1.027364e+01 128 126 138
-8.057144e+00 4.250239e+01 9.860064e+00 112 120 124
-1.483924e+01 2.539155e+01 6.561642e+00 128 124 123
1.143208e+01 1.104941e+01 5.199787e+00 49 42 37
-2.890302e-01 2.359273e+01 4.947434e+00 157 158 162
1.504607e+01 2.627419e+01 6.229762e+00 70 73 87
4.465265e+00 1.011559e+00 3.648095e-01 77 73 62
6.326156e+00 7.860606e+00 4.180307e+00 71 68 70
-1.519707e+00 1.675492e+01 1.923514e+00 198 197 195
5.090619e-01 1.980751e+01 5.780097e+00 128 120 111
-1.174284e+01 2.809380e+01 5.325412e+00 88 84 81
-7.039364e+00 6.790626e+00 2.638396e+00 78 78 78
-3.498412e+00 6.991500e+00 3.173337e+00 154 152 157
8.195592e+00 9.335113e+00 8.787558e+00 135 124 119
5.962893e-01 1.778821e+01 4.878544e+00 48 42 44
1.408332e+01 4.401090e+01 1.290430e+01 120 126 143
8.928364e+00 2.060715e+01 5.618578e+00 99 94 89
-1.088320e+01 1.954091e+01 4.954951e+00 186 181 178
-4.327853e+00 2.840974e+01 6.472984e+00 136 132 129
-1.877750e+01 1.351056e+01 4.463065e+00 210 222 241
-1.874497e+01 2.136501e+01 2.881847e+00 141 140 154
-1.294823e+01 -3.460816e+00 -9.302114e+00 51 45 47
-1.567442e+01 1.365025e+01 2.969292e+00 129 133 133
-9.160239e+00 3.353188e+01 5.911824e+00 113 112 117
-1.489354e+00 1.378722e+01 1.677126e+00 29 29 50
-5.554643e+00 1.792916e+01 5.172974e+00 40 34 38
-1.170768e+01 6.785890e+00 2.696246e+00 41 38 41
4.175614e-01 1.221216e+01 5.811430e-01 169 161 155
-1.422678e+01 1.397309e+01 1.455334e+00 132 123 118
-2.833750e-01 1.833422e+01 3.066633e+00 32 23 23
-1.890832e+01 1.666533e+01 1.696989e+00 209 223 239
-1.578270e+01 1.705199e+01 3.915480e+00 135 135 133
1.956959e+01 3.227971e+01 8.151022e+00 235 250 254
1.951418e+01 3.383119e+01 8.360500e+00 235 255 255
1.951418e+01 3.383119e+01 8.360500e+00 235 255 255
5.216400e+00 3.144817e+00 1.850256e+00 62 53 36
2.376226e+00 6.047446e+00 3.093957e+00 59 50 45
1.689003e+00 7.801867e+00 3.314417e+00 66 57 48
-1.130890e+01 8.146366e+00 3.066630e+00 134 129 124
-4.909568e+00 9.606783e+00 3.417083e+00 120 120 112
2.548126e+00 1.559879e+01 3.483874e+00 34 38 50
2.054918e+01 1.789578e+01 5.821672e+00 229 230 255
3.067592e+00 1.872231e+01 -5.775000e-01 139 133 126
1.861945e+01 2.504362e+00 2.627393e+00 44 35 39
-3.438271e-01 7.613469e+00 3.062714e+00 99 96 104
-1.759158e+01 1.474716e+01 4.358573e+00 101 100 105
-8.318149e-02 1.660951e+01 5.822843e+00 26 24 36
-1.966345e+01 2.741974e+01 4.635438e+00 107 108 119
-3.861511e+00 2.770328e+01 6.947825e+00 128 116 102
-1.772601e+00 1.871038e+01 4.312687e+00 53 47 44
-3.371284e+00 2.645741e+01 6.406640e+00 55 50 46
1.140637e+01 1.135253e+01 2.797460e+00 79 63 50
6.323798e-01 1.552670e+01 4.518843e+00 186 185 165
-1.503177e+00 1.685308e+01 4.144768e+00 179 176 159
-1.268687e+01 2.649247e+01 6.981613e+00 137 131 118
6.037875e-01 1.810795e+01 5.114732e+00 57 60 58
1.778670e+00 1.888762e+01 5.836306e+00 119 104 86
7.456190e-01 1.568733e+01 4.490600e+00 64 58 54
-1.087009e+01 2.660810e+01 6.968401e+00 96 87 70
-1.441731e+01 3.800379e+01 9.013908e+00 102 99 80
-1.377371e+01 3.898862e+01 9.841835e+00 98 87 69
4.900774e-02 1.631682e+01 4.687756e+00 108 101 88
-1.401410e+01 2.542857e+01 6.939105e+00 58 57 41
-1.510514e+01 2.896491e+01 8.493847e+00 122 118 106
1.175059e+01 2.437049e+01 8.290898e+00 119 122 113
-1.651374e+01 2.007205e+01 4.521462e+00 89 90 85
-1.517749e+01 2.020894e+01 3.944518e+00 100 93 79
-6.635922e+00 1.591138e+01 5.039830e+00 213 210 201
-1.645334e+01 3.837585e+01 7.171978e+00 159 156 141
-1.544773e+01 6.601567e+00 1.026436e+00 206 203 197
4.141883e-01 1.913673e+01 5.498198e+00 41 39 42
1.211504e+01 2.304516e+01 8.021292e+00 224 215 206
1.590182e+01 2.395235e+01 9.526374e+00 122 124 115
1.473863e+01 2.574402e+01 9.681482e+00 209 205 194
5.324262e+00 1.667684e+01 5.354889e+00 81 78 70
1.635000e+01 2.671419e+01 8.323985e+00 208 201 191
1.054040e+01 8.184066e+00 5.750169e+00 71 69 59
-1.173368e+01 7.766974e+00 1.790433e+00 71 62 59
-1.691236e+01 8.059692e+00 4.758688e-01 85 76 69
9.066336e-01 1.929493e+01 5.458743e+00 121 117 106
1.433305e+01 2.375554e+01 8.303650e+00 37 37 41
9.003186e+00 2.697037e+01 6.974800e+00 24 22 22
1.351470e+01 3.135202e+01 1.137742e+01 88 83 80
-8.667884e+00 2.417847e+01 5.027212e+00 118 119 113
3.278921e+00 2.755661e+01 6.844878e+00 119 121 116
1.313629e+00 2.764931e+01 6.835044e+00 195 195 190
3.281891e+00 4.319308e+01 9.854694e+00 63 59 57
-1.809177e+01 4.059746e+01 7.528646e+00 84 81 78
-1.402174e+01 8.145724e+00 9.932448e-01 188 182 174
-1.118484e+01 8.313683e+00 1.628943e+00 172 167 154
1.372875e+01 9.102275e+00 7.041096e+00 218 203 196
1.390333e+01 1.914750e+01 7.288787e+00 92 91 79
6.132884e+00 3.125590e+01 1.030702e+01 210 211 204
6.697123e+00 3.478710e+01 8.105017e+00 217 214 205
-5.925286e+00 -6.267366e+00 4.091225e+01 139 136 133
1.078343e+01 8.032699e+00 6.064042e+00 49 45 36
8.811206e+00 8.250827e+00 5.543414e+00 181 169 155
1.099147e+01 1.457078e+01 4.903409e+00 146 142 131
-1.480680e+01 1.365643e+01 5.827765e-01 190 177 160
-1.393234e+01 1.441029e+01 2.273929e-01 159 143 125
-1.393234e+01 1.441029e+01 2.273929e-01 159 143 125
-1.385303e+01 1.452835e+01 2.515800e-01 221 209 193
6.960959e-01 1.810302e+01 5.229009e+00 120 120 114
8.273856e+00 2.625265e+01 7.047319e+00 101 102 97
4.776750e+00 3.193284e+01 -1.425928e+00 121 138 159
-1.589900e+01 3.641928e+01 4.372543e+00 127 123 114
6.038897e+00 4.052812e+01 9.481446e+00 208 195 187
1.398384e+01 4.843685e+01 1.368734e+01 74 90 97
-3.647708e+00 3.609675e+01 6.460704e+00 207 216 233
-1.935796e+00 2.711446e+01 6.909253e+00 194 203 219
-3.786437e+00 3.692339e+01 6.935148e+00 209 218 235
-3.940557e+00 3.621747e+01 6.503702e+00 50 39 58
-3.677099e+00 3.389393e+01 5.847023e+00 207 208 215
1.762692e+01 1.214275e+01 4.803128e+00 55 46 37
-8.185069e+00 2.769982e+01 6.728285e+00 75 72 65
-1.945837e+01 3.688469e+01 1.074633e+01 254 254 254
-1.620630e+01 2.535077e+01 6.298668e+00 166 159 141
-1.610701e+01 2.652815e+01 8.695148e+00 77 78 73
-1.118886e+01 2.754126e+01 1.002173e+01 47 51 51
-1.029977e+01 2.925462e+01 1.080534e+01 45 46 51
-1.560151e+00 2.520269e+01 9.231853e+00 90 92 87
-1.560151e+00 2.520269e+01 9.231853e+00 90 92 87
7.149540e+00 1.806198e+00 3.565455e+00 150 144 125
-3.062709e+00 8.990358e+00 1.875301e+00 138 128 101
-1.389605e+01 3.588904e+01 1.226393e+01 119 115 103
-1.040856e+01 3.711267e+01 1.325924e+01 148 145 133
1.021828e-01 7.915471e+00 1.659922e+00 152 143 122
5.301902e+00 8.520388e+00 1.654038e+00 143 135 115
1.648695e+01 1.222445e+01 2.382380e+00 124 112 90
-7.462178e+00 1.228447e+01 3.910705e+00 130 119 96
-5.475687e+00 1.525070e+01 3.123647e+00 108 104 87
-1.136382e+01 2.860372e+01 9.172119e+00 132 127 116
-9.840592e+00 2.882559e+01 9.861958e+00 57 58 62
-1.522269e+01 3.036652e+01 1.030476e+01 129 131 118
-1.869011e+01 3.998697e+01 1.265554e+01 134 146 141
1.735514e+01 1.225485e+01 2.239448e+00 122 112 93
-1.077121e+00 1.192669e+01 3.215670e+00 135 127 105
2.490475e+00 1.751257e+01 4.606427e+00 138 132 118
-7.276345e-01 2.206536e+01 2.061208e+00 147 140 121
-5.340392e+00 2.849539e+01 1.004311e+01 121 119 109
-1.338666e+01 3.595448e+01 1.156053e+01 84 84 74
-1.908102e+01 3.949508e+01 1.251214e+01 247 254 254
-1.912271e+01 3.977268e+01 1.304797e+01 248 254 253
-1.838336e+01 3.977742e+01 1.389424e+01 245 254 249
1.234434e-01 8.676555e+00 1.132005e+00 40 37 28
2.246667e+00 1.693572e+01 -1.095884e+00 43 42 33
4.284743e+00 1.662962e+01 4.557608e+00 120 114 90
3.723821e+00 1.835098e+01 4.689680e+00 113 100 83
-2.623649e+00 1.780531e+01 4.904481e+00 44 38 32
5.084632e+00 2.313654e+01 1.467030e+00 152 144 125
-1.860036e+01 2.445775e+01 5.781889e+00 242 251 242
-7.636581e+00 2.635323e+01 6.058449e+00 167 160 143
-7.636581e+00 2.635323e+01 6.058449e+00 167 160 143
-2.970528e+00 2.896934e+01 2.797941e+00 57 57 45
-1.095124e+01 3.992550e+01 1.176816e+01 145 142 129
-8.943897e+00 4.150434e+01 1.587311e+01 253 255 254
6.299319e+00 4.639375e+01 1.282816e+01 116 116 110
-3.193853e+00 7.465052e+00 1.981930e+00 134 127 111
-4.543800e+00 9.741244e+00 2.339550e+00 100 95 81
2.979171e+00 1.360095e+01 3.799161e+00 136 134 118
3.932039e+00 1.508491e+01 4.216043e+00 55 55 48
1.274207e+01 2.176827e+01 6.137312e+00 98 95 78
-1.259189e+01 2.381276e+01 6.480065e+00 140 131 119
2.936977e-01 2.883292e+01 6.586840e+00 81 78 67
1.697222e+01 3.474355e+01 7.087154e+00 112 113 95
9.780880e+00 1.871232e+01 4.823441e+00 152 144 130
1.290712e+01 2.979543e+01 6.910436e+00 107 104 95
6.607818e+00 2.633624e+01 3.969534e+00 159 150 136
-1.367416e+00 1.431494e+01 2.720964e+00 46 48 53
9.684550e+00 2.587639e+01 2.996017e+00 127 124 112
3.078570e-01 1.391598e+01 2.133972e+00 45 44 49
-7.873293e-01 1.376332e+01 2.539709e+00 50 49 53
-5.016430e-01 1.381143e+01 2.823450e+00 147 140 129
1.140837e+01 1.576807e+01 4.505328e+00 141 134 121
2.292059e+01 1.749025e+01 9.097773e+00 37 39 62
1.083296e+01 2.998090e+01 7.379331e+00 45 41 38
8.469876e+00 3.574129e+01 2.772593e+01 253 253 244
1.263200e+01 9.208888e+00 3.400114e+00 49 33 18
2.107347e+01 1.245090e+01 8.661658e+00 172 165 152
8.411889e+00 1.575523e+01 3.200768e+00 67 60 46
-1.028949e-01 2.489572e+01 -1.841592e+00 132 133 130
1.283745e+01 1.017499e+01 3.811361e+00 79 61 51
-3.073343e+00 2.815485e+01 6.515758e+00 73 70 61
-3.259745e+01 8.402902e+00 3.491747e+00 28 29 67
-3.348530e+00 1.610059e+01 3.944749e+00 69 79 70
-1.878625e+01 1.891523e+01 6.639943e+00 170 208 225
-1.885780e+01 1.405782e+01 1.615439e+00 145 173 186
4.097102e+00 2.022651e+01 5.108067e+00 34 37 41
-1.912608e+01 3.660963e+01 8.284335e+00 172 206 227
-1.888067e+00 1.397859e+01 2.839614e+00 64 67 66
-1.333425e+01 3.015716e+01 -6.133378e+00 130 130 128
1.199675e+01 4.631527e+01 -3.835129e-01 121 116 123
5.571299e+00 4.227164e+01 1.088218e+01 134 125 129
-4.435664e-01 1.788698e+01 3.337320e+00 130 130 129
-1.465043e+01 2.249698e+01 -5.972938e+00 93 88 98
-3.110793e+00 2.738991e+01 6.615311e+00 119 114 121
-1.764286e+00 7.249829e+00 5.241378e+00 39 29 30
-6.987594e+00 1.625379e+01 3.867906e+00 101 93 91
-4.889486e-01 1.846744e+01 2.547635e+00 85 87 99
-7.010523e+00 3.609166e+01 9.435902e+00 81 85 74
-9.919533e+00 1.864734e+01 2.694241e+00 14 8 15
-5.588538e+00 2.272694e+01 3.225606e+00 108 114 106
-5.588538e+00 2.272694e+01 3.225606e+00 108 114 106
-1.113260e+01 2.405678e+01 1.394810e+00 78 83 76
-9.119427e+00 2.129275e+01 4.735497e+00 95 100 96
-8.966877e+00 3.680434e+01 2.226358e+01 241 253 232
-7.233841e+00 2.163327e+01 3.311106e+00 70 78 72
8.383101e+00 2.998237e+01 3.030991e+00 120 124 108
7.381791e+00 3.058814e+01 2.640298e+00 115 117 102
1.289150e+00 2.749144e+01 4.516664e+00 1 1 3
-1.029164e-01 2.737561e+01 4.054665e+00 90 102 97
-1.029164e-01 2.737561e+01 4.054665e+00 90 102 97
1.766945e+01 3.137478e+01 4.709302e+00 124 125 112
-6.759148e+00 1.983480e+01 2.375495e+00 90 97 89
-4.770479e+00 2.122617e+01 2.692246e+00 129 138 127
6.582955e+00 2.841236e+01 3.735784e+00 52 43 48
-1.592108e+01 2.666528e+01 5.596851e+00 106 110 103
-7.334286e-01 3.831415e+01 1.030787e+01 56 61 67
-6.830865e+00 1.885031e+01 2.954276e+00 99 96 87
-2.880481e+00 1.942721e+01 3.349192e+00 92 93 85
-5.183472e-01 1.964578e+01 5.175580e+00 10 2 7
8.143667e+00 3.016813e+01 2.497177e+00 111 106 89
-1.573257e+01 2.661927e+01 5.954000e+00 97 110 104
8.842664e+00 3.177267e+01 2.148298e+00 54 54 51
1.056972e+01 3.381040e+01 2.627583e+00 73 74 72
1.341757e+00 3.936486e+01 7.896110e+00 248 248 227
-3.305229e+01 -4.505975e+00 4.322603e+00 67 64 61
-1.469041e+01 2.001020e+01 4.515727e+00 66 75 74
1.441080e+01 2.747299e+01 6.323546e+00 85 86 83
-2.370012e-01 2.866414e+01 4.015506e+00 86 90 93
4.836546e+00 2.984868e+01 4.178270e+00 67 55 54
-1.456597e+01 3.583188e+01 8.855343e+00 75 81 76
1.014614e+00 4.061860e+01 7.488218e+00 254 245 220
-1.150966e+01 1.540591e+01 3.170742e+00 18 8 7
-1.006062e+01 1.644890e+01 2.871346e+00 58 60 56
-9.888095e+00 1.837625e+01 3.360174e+00 68 64 60
-1.623391e+01 2.070363e+01 4.024803e+00 78 78 73
-1.633508e+01 2.422314e+01 5.049372e+00 94 90 86
6.991263e+00 3.033945e+01 2.252908e+00 90 91 82
-3.327317e-02 2.910146e+01 3.294786e+00 80 76 68
5.174625e+00 3.014489e+01 3.256133e+00 70 63 60
2.602968e+00 2.980608e+01 3.134672e+00 14 11 15
2.097706e+00 3.086406e+01 2.689466e+00 13 10 21
-1.958971e+01 2.643012e+01 8.153735e+00 73 116 118
-1.877802e+01 2.714558e+01 7.738045e+00 90 116 122
-1.587576e+01 3.282079e+01 8.341622e+00 14 14 24
-1.440671e+01 3.462859e+01 8.373661e+00 78 82 82
-2.655914e+00 3.741595e+01 6.706148e+00 75 72 67
-2.627259e+00 3.749009e+01 6.955343e+00 35 29 31
2.206955e+00 4.609570e+01 1.482486e+01 126 146 142
-1.247327e+01 1.741552e+01 3.010146e+00 97 94 88
-6.971603e+00 1.847435e+01 1.973707e+00 92 93 87
-6.971603e+00 1.847435e+01 1.973707e+00 92 93 87
-3.051253e+00 1.977056e+01 3.941455e+00 41 37 36
-6.641525e+00 2.133557e+01 2.890817e+00 62 56 60
1.320019e+00 2.743818e+01 3.364424e+00 89 89 87
1.059370e+00 2.913475e+01 -6.756741e+00 81 82 78
-1.547735e+01 2.608124e+01 1.122926e+01 57 61 66
-1.086242e+01 2.892153e+01 6.270978e+00 35 33 44
-1.059354e+01 2.934984e+01 5.462091e+00 12 7 8
-8.750240e+00 3.224423e+01 1.885708e+01 34 32 40
-9.749190e+00 3.581689e+01 6.760715e+00 45 47 50
-2.929163e+01 -8.491829e-01 -3.605276e+00 34 38 38
-5.033237e+00 1.395852e+01 4.059658e+00 97 96 91
2.734210e+00 1.536281e+01 4.072872e+00 141 136 133
1.661054e+01 2.375598e+01 2.791200e+00 83 83 78
1.523639e+01 1.175013e+01 3.283732e+00 115 112 107
1.669668e+01 1.186116e+01 3.560068e+00 123 119 110
-1.845035e+01 2.327181e+01 6.935729e+00 90 93 102
-5.969824e+00 4.978657e+00 3.280735e+00 120 121 123
6.202332e+00 9.169957e+00 5.901653e+00 87 85 90
5.789901e+00 1.430080e+01 5.536212e+00 128 120 143
4.163537e-01 1.679015e+01 2.885935e+00 3 3 14
-1.485943e+01 2.457304e+01 7.838267e+00 7 2 6
6.066519e+00 1.341736e+01 4.896943e+00 137 134 151
-2.041194e+00 1.493369e+01 1.349871e+00 2 4 11
8.080501e-01 2.050663e+01 3.038205e+00 4 1 9
7.925846e-02 2.042943e+01 2.808779e+00 4 8 19
-1.578201e+01 1.836356e+01 6.786753e+00 134 135 137
-7.417508e+00 2.477652e+01 1.024740e+01 87 86 84
-9.411233e+00 2.577653e+01 8.293360e+00 97 96 94
-1.247145e+01 2.535170e+01 7.959811e+00 87 86 82
-1.449942e+01 2.499815e+01 8.039957e+00 86 86 84
2.241247e+01 9.438689e-01 -1.471115e+00 82 82 80
2.280671e+01 2.783901e+00 -2.886088e+00 125 129 133
-6.901631e+00 8.502444e+00 3.694685e+00 72 71 69
5.646604e+00 1.051433e+01 4.265939e+00 22 17 20
-1.408319e+01 1.811461e+01 4.829260e+00 70 71 73
-5.361849e+00 2.600315e+01 7.657980e+00 121 123 123
-1.153093e+00 2.748539e+01 7.640957e+00 26 27 31
-1.544961e+01 2.463692e+01 7.999988e+00 70 68 71
2.128365e+01 2.508838e-01 -2.529967e+00 120 121 117
7.249035e+00 -4.105857e-01 -7.188924e-01 82 78 79
2.195784e+01 1.071874e+00 -2.219191e+00 78 75 73
2.241214e+01 1.976060e+00 -2.365125e+00 125 124 122
-1.055710e+01 7.688551e+00 1.817541e+00 7 6 6
2.967499e+00 9.585960e+00 4.885459e+00 26 22 19
2.705862e+00 9.805038e+00 3.950971e+00 16 12 6
-8.304513e+00 9.019006e+00 2.797686e+00 11 7 3
4.926164e+00 1.027027e+01 4.035962e+00 78 72 72
7.289339e+00 1.061599e+01 4.155548e+00 4 0 3
7.289339e+00 1.061599e+01 4.155548e+00 4 0 3
-6.944577e-01 9.655138e+00 4.632193e+00 9 3 2
-1.577789e+01 8.084839e+00 4.745216e+00 5 3 4
-1.425698e+01 1.742670e+01 4.208273e+00 120 124 127
1.932796e+01 -7.773807e-01 -3.050544e+00 85 86 85
6.037679e+00 3.445616e+00 1.285818e+00 57 52 48
-7.061669e+00 7.241584e+00 2.349607e+00 4 4 4
-6.636104e-01 9.069491e+00 4.212123e+00 103 99 96
5.351818e+00 1.013499e+01 4.441577e+00 75 69 71
4.264528e+00 1.013877e+01 4.208007e+00 102 97 94
-1.257121e+01 8.494671e+00 3.873350e+00 62 61 59
-3.446475e+00 2.050914e+01 4.528142e+00 117 118 120
-2.269486e+00 2.079393e+01 4.526051e+00 107 106 102
-4.668959e+00 2.052311e+01 5.659360e+00 92 88 85
-1.224361e+01 2.939464e+01 7.659094e+00 102 107 114
-1.596048e+01 5.993371e+00 3.735108e+00 38 42 45
-8.708246e+00 8.147449e+00 2.499518e+00 20 19 14
9.976823e+00 9.657364e+00 6.365166e+00 57 55 55
-6.223695e+00 8.332648e+00 4.439196e+00 17 16 14
8.456550e+00 1.073662e+01 3.922569e+00 83 77 79
9.701522e+00 1.220125e+01 6.577918e+00 87 82 86
1.464404e+01 1.487508e+01 8.866304e+00 84 96 110
1.518382e+01 1.697183e+01 6.831537e+00 24 27 34
-1.133446e+01 1.546292e+01 2.653033e+00 54 51 45
-1.778977e+00 1.700829e+01 2.471752e+00 12 14 14
-1.717534e+00 1.734432e+01 2.660929e+00 11 12 17
3.411839e+00 2.096127e+01 4.991259e+00 66 66 68
1.800090e+00 2.120511e+01 5.528456e+00 71 69 67
-1.226817e+01 2.977887e+01 7.756915e+00 101 106 112
-1.025653e+01 2.018297e+01 5.096843e+00 107 98 84
2.811739e+01 2.670673e+01 1.341177e+01 206 209 213
1.990451e+01 3.143953e+01 1.073308e+01 120 112 94
2.772170e+00 2.476702e+01 2.115359e+00 39 35 31
2.479223e+00 2.847370e+01 3.931743e+00 149 148 134
1.043141e+01 3.728247e+01 1.337823e+01 31 29 30
-1.365192e+01 3.588157e+01 1.757352e+01 79 72 62
5.225843e+00 4.427722e+01 2.165272e+01 79 76 70
-7.138333e-01 -5.985689e+00 3.279324e+00 232 224 198
5.877005e-01 1.418727e+01 1.382480e+00 59 56 50
1.097078e+01 3.788692e+01 1.352051e+01 139 131 118
-1.171501e+01 3.565572e+01 1.510772e+01 114 108 96
2.171175e+01 -5.347073e+00 -4.579574e+00 146 139 123
2.028100e+01 -5.368309e+00 -4.036453e+00 157 150 136
1.923698e+01 -5.425056e+00 -3.831415e+00 149 142 125
1.699576e+01 -5.517754e+00 -3.171340e+00 157 148 139
2.172467e+01 -4.506812e+00 -4.963777e+00 177 170 150
2.781375e+01 2.799518e+01 1.354235e+01 214 217 202
-5.019857e-01 2.729745e+01 4.813520e+00 183 185 192
7.779048e-01 2.824516e+01 5.554423e+00 188 188 193
1.664491e+00 2.874216e+01 5.652776e+00 31 29 20
1.666980e+00 2.877998e+01 5.591830e+00 31 29 20
1.666980e+00 2.877998e+01 5.591830e+00 31 29 20
-3.996586e-01 2.852633e+01 5.328725e+00 34 32 24
-1.988558e+01 2.475234e+01 9.662861e+00 193 196 202
-1.980544e+01 2.529640e+01 1.009408e+01 119 119 109
9.498770e+00 3.963468e+01 1.622054e+01 133 126 107
-1.374314e+01 3.508608e+01 1.584224e+01 139 132 128
1.575350e+01 -5.833333e+00 -3.081934e+00 51 42 35
9.590526e+00 -6.030693e+00 -8.700173e-01 71 62 50
1.840832e+01 -5.458895e+00 -3.697664e+00 156 148 137
2.138410e+01 2.222769e+01 1.108663e+01 233 234 225
7.882390e-01 2.765382e+01 4.350733e+00 184 187 193
1.891866e+01 3.126145e+01 1.181763e+01 214 215 229
1.037924e+01 3.492800e+01 1.082220e+01 24 25 30
7.324915e+00 3.956362e+01 1.664814e+01 106 102 100
-8.468721e-01 4.015230e+01 1.781731e+01 209 213 224
-1.321324e+01 -7.811003e+00 9.158726e+00 230 221 209
1.290518e+01 1.837016e+01 6.436857e+00 69 61 43
1.010613e+00 2.817997e+01 6.467428e+00 140 131 128
1.378347e+01 3.009183e+01 6.890935e+00 51 44 34
-8.964092e+00 2.529121e+01 7.184067e+00 135 130 114
1.329761e+01 2.996292e+01 6.767639e+00 139 135 116
9.592130e+00 2.760166e+01 4.391298e+00 123 126 115
7.009851e+00 1.850801e+01 7.061754e+00 200 200 184
7.009851e+00 1.850801e+01 7.061754e+00 200 200 184
-1.540052e+01 3.964513e+01 6.856809e+00 155 156 148
-4.425209e+00 1.604135e+01 3.013147e+00 153 156 145
1.466676e+01 1.012379e+01 8.069857e+00 41 35 24
1.529490e+01 2.622173e+01 1.017946e+01 181 181 173
-1.034303e+01 2.557563e+01 6.917761e+00 184 182 177
8.304746e+00 4.217810e+01 1.022182e+01 107 111 106
-1.145981e+01 1.109768e+01 2.542226e+00 192 191 170
8.738799e-03 2.799193e+01 6.803350e+00 18 18 7
-1.580207e+00 7.700425e+00 2.998801e+00 159 156 142
-1.559183e+01 6.797959e+00 7.842079e-01 95 78 68
8.047319e+00 1.209782e+01 6.322004e+00 194 192 177
1.590398e+01 2.374315e+01 9.888426e+00 139 140 133
1.821952e+00 2.837966e+01 6.251270e+00 26 27 17
1.614394e+00 2.772135e+01 7.132737e+00 26 27 17
-9.868483e+00 2.713586e+01 5.556404e+00 204 202 186
4.210245e+00 2.900885e+01 9.314229e+00 149 146 134
-6.172546e+00 2.802796e+01 7.649835e+00 85 86 70
-1.547775e+01 4.074086e+01 9.007913e+00 164 164 159
8.995985e+00 7.269941e+00 6.395969e+00 184 186 182
-2.766822e+00 7.257838e+00 3.272206e+00 42 29 14
8.222509e+00 1.203677e+01 6.384545e+00 82 76 70
3.370238e+00 1.423397e+01 3.137249e+00 191 190 185
1.216598e+00 2.143493e+01 5.584163e+00 192 192 185
1.561204e+01 2.389186e+01 9.662353e+00 180 175 172
-1.539914e+01 3.137143e+01 5.003472e+00 167 168 160
-1.566644e+01 3.461829e+01 5.775242e+00 165 167 159
-1.209326e+01 3.615931e+01 6.539677e+00 163 164 152
-1.575495e+01 3.580515e+01 6.197410e+00 163 164 156
-1.213916e+01 3.677037e+01 6.735892e+00 168 169 161
-1.585381e+01 3.708333e+01 6.610416e+00 164 165 159
-1.223318e+01 3.793943e+01 7.016354e+00 167 168 163
-1.225926e+01 3.835119e+01 7.283469e+00 166 167 161
-1.588410e+01 3.780080e+01 6.922480e+00 163 162 157
4.758238e+00 7.794037e+00 4.756013e+00 54 47 21
-2.607958e+00 7.376682e+00 3.211624e+00 193 192 184
8.010204e+00 1.188026e+01 6.204252e+00 91 91 73
4.625539e+00 1.183996e+01 5.349802e+00 97 98 90
1.724928e+00 2.015711e+01 4.355335e+00 152 148 136
8.961396e-01 2.842957e+01 6.469120e+00 85 89 73
8.925452e+00 2.902870e+01 8.505118e+00 168 165 158
1.309474e+00 2.833970e+01 7.402682e+00 58 59 50
2.054483e+00 2.872762e+01 7.210183e+00 170 168 163
-1.036923e+01 2.654329e+01 7.140484e+00 164 165 149
9.808193e+00 3.610282e+01 9.548334e+00 124 125 118
6.520807e+00 1.135913e+01 6.048579e+00 143 137 124
7.661491e+00 1.963368e+01 6.059525e+00 142 143 129
7.922887e+00 2.117024e+01 6.688346e+00 103 106 90
-5.287040e+00 2.761068e+01 6.533316e+00 180 182 167
1.509053e+01 2.927505e+01 1.090222e+01 176 171 165
4.396405e+00 4.388513e+01 -4.756146e-01 18 19 27
-1.924546e+01 2.500316e+01 7.518477e+00 74 71 63
2.097695e-01 1.650180e+01 3.515729e+00 32 33 33
-1.941495e+01 1.285619e+01 1.279241e+00 237 238 232
-1.658377e+01 1.412598e+01 4.394893e+00 120 116 104
-1.163069e+01 7.040774e+00 8.546480e-01 100 99 88
-1.404789e+01 2.380956e+01 6.931304e+00 26 26 23
7.099821e-02 2.609395e+01 9.980009e+00 32 31 27
-1.551161e+01 4.283492e+01 4.580283e+00 17 17 18
-3.018559e+00 -1.340409e+00 -3.065718e+00 90 86 74
-1.328606e+01 8.709558e+00 1.301212e+00 84 85 72
1.304410e+01 3.792369e+01 7.694392e+00 25 27 22
-1.422379e+01 8.606948e+00 1.145358e+00 23 22 15
-6.110367e+00 1.896056e+01 7.737936e+00 118 115 100
1.098713e+01 3.494296e+01 8.203780e+00 18 21 19
-1.861417e+00 1.849646e+01 2.679200e+01 24 28 29
1.087169e+01 3.335930e+01 9.478304e+00 91 91 91
4.473638e+00 8.680580e+00 5.220920e+00 123 71 54
-1.139314e+01 8.856200e+00 2.792062e+00 110 72 52
-1.655499e+00 1.444712e+01 1.191093e+00 13 13 11
-7.908941e+00 1.737161e+01 2.755136e+00 44 40 39
-5.416957e+00 9.794865e-01 2.220999e+00 149 145 150
-3.990172e-01 3.279138e+01 1.020835e+01 255 255 255
-1.118842e+01 3.088077e+01 1.172672e+01 25 31 28
-1.489021e+01 3.201471e+01 1.237792e+01 28 33 28
6.696645e+00 4.076224e+01 1.258497e+01 39 44 41
1.699352e+01 3.150669e+01 5.767380e+00 131 121 103
-1.169170e+01 -2.411672e+00 -3.967769e-01 105 90 59
-3.958430e+01 -1.172170e+00 7.270215e+00 189 179 161
1.341593e+01 1.887457e+01 3.933549e+00 113 94 68
7.422385e+00 2.918925e+01 6.855200e+00 64 52 35
1.873205e+01 3.058554e+01 6.828564e+00 110 96 75
1.637745e+01 2.887647e+01 5.061397e+00 195 183 166
7.240800e+00 3.063248e+01 6.909740e+00 74 69 49
-1.361910e+01 3.937893e+01 1.056297e+01 194 178 157
-7.522339e+00 4.730620e+00 3.124623e+01 61 39 12
-1.280647e+01 2.405678e+01 6.583800e+00 58 50 33
1.152352e+01 2.922762e+01 7.207197e+00 116 108 92
1.721292e+01 3.270482e+01 6.269241e+00 145 138 118
6.012179e+00 4.093790e+01 1.279420e+01 51 19 11
1.555973e+00 4.113390e+01 1.088652e+01 253 255 255
-3.253359e+01 -4.747527e+00 4.319746e+00 170 161 143
-3.275136e+01 -4.706673e+00 4.151564e+00 187 174 157
-3.914518e+01 -1.860928e+00 6.899190e+00 127 120 104
4.655667e+01 1.376797e+01 -2.843659e+01 218 198 192
-9.970606e+00 7.301715e+00 1.378545e+00 173 153 126
-1.807347e+01 1.422507e+01 3.903816e+00 195 185 176
-1.842793e+00 1.621710e+01 4.770388e+00 34 41 30
1.016269e+01 2.001550e+01 5.195533e+00 144 117 92
5.866555e+00 2.207630e+01 1.727393e+01 54 57 47
2.667212e+00 2.894351e+01 7.026146e+00 160 146 127
1.058343e+01 2.946517e+01 6.873148e+00 90 86 72
1.643746e+01 3.207283e+01 -5.400042e-01 108 90 66
-1.624525e+01 3.702672e+01 9.997556e+00 96 80 67
-1.547822e+01 3.778429e+01 1.048191e+01 189 179 159
5.579746e+00 4.315276e+01 1.212659e+01 180 170 151
-3.683013e+01 -1.649788e+00 5.681557e+00 108 100 82
-3.660060e+01 -1.526295e+00 5.546774e+00 136 128 107
-3.681990e+01 1.080872e+00 8.203340e+01 129 115 96
1.913299e+01 2.490115e+01 6.155410e+00 160 154 133
1.110077e+01 2.595091e+01 1.099598e+01 38 61 57
2.851327e+00 2.669254e+01 2.028570e+01 78 70 49
-1.403989e+01 3.868409e+01 1.111162e+01 125 112 96
-1.244375e+01 3.897071e+01 1.123789e+01 177 165 150
1.900927e+00 4.089432e+01 1.102077e+01 108 103 96
-7.956410e+00 4.262226e+01 1.031927e-01 156 152 134
1.568414e+01 4.406379e+01 1.205834e+01 97 92 78
-1.827327e+01 2.276227e+01 3.040606e+01 141 132 112
-9.933594e+00 4.049677e+01 1.148854e+01 155 148 131
-1.443950e+00 1.713370e+01 2.699306e+00 172 171 171
-6.726764e-01 2.009672e+01 3.457952e+00 137 135 130
1.634129e+01 4.325602e+01 1.201888e+01 166 169 174
2.817173e+00 1.688519e+01 2.896179e+00 162 160 161
1.638159e+01 4.303302e+01 1.178837e+01 180 182 181
-2.021772e+00 9.262102e+00 2.985368e+00 143 137 132
1.209512e+01 6.970654e+00 1.059480e+01 47 42 49
1.688694e+01 8.795419e+00 5.331567e+00 86 83 95
-1.892867e+01 2.405853e+01 4.079604e+00 229 245 250
6.744345e+00 4.399901e+01 1.160700e+01 165 165 176
1.411553e+01 1.722329e+01 -8.381183e-01 104 101 96
-1.596481e+01 3.731864e+01 1.040414e+01 95 98 105
9.121892e+00 9.502491e+00 4.950122e+00 122 113 103
-1.452577e+01 2.513482e+01 7.886276e+00 118 119 114
-1.880849e+01 3.757926e+01 1.143261e+01 234 248 255
6.716254e-01 1.813856e+01 1.376025e+00 136 133 141
-1.926963e+01 2.593514e+01 1.296311e+00 92 101 119
3.591493e+00 5.203953e+00 3.432845e+00 136 127 122
-1.425531e+01 6.505156e+00 1.479669e+00 119 114 117
1.367664e+01 8.182488e+00 6.080596e+00 132 128 123
-5.021782e+00 1.367560e+00 1.773535e+00 120 120 116
1.509741e+00 1.405367e+01 3.965473e+00 49 42 43
-4.021486e+00 2.207201e+01 6.182447e+00 67 64 60
1.455771e+00 1.471084e+01 4.602849e+00 61 59 61
4.690046e-01 1.518210e+01 4.279381e+00 44 33 33
-1.515965e+00 1.473897e+01 4.295980e+00 178 171 149
1.295541e+00 1.398745e+01 5.056075e+00 193 186 167
1.570480e+00 1.432001e+01 5.045553e+00 175 163 142
5.835955e+00 2.867516e+01 6.635647e+00 115 100 77
7.362508e+00 4.434030e+01 1.187136e+01 183 173 161
8.394007e+00 2.288671e+01 7.179831e+00 168 153 140
1.296754e+01 3.232046e+01 8.040142e+00 173 156 144
-1.633431e+01 3.854494e+01 1.114548e+01 168 154 143
-1.625810e+01 4.191551e+01 1.157904e+01 181 173 158
-1.674762e+01 3.871785e+01 1.118350e+01 160 153 135
-4.451047e+00 1.370900e+01 2.249736e+00 242 234 223
-1.230940e+01 1.366738e+01 3.933259e+00 49 53 53
-1.114192e+01 1.804350e+01 4.284247e+00 90 88 75
-2.183331e+00 6.090342e+00 1.116512e-01 178 170 160
3.791352e+00 5.881184e+00 3.522901e+00 197 188 174
1.005211e+01 2.770598e+01 3.364254e+00 127 123 112
-1.088220e+01 1.564468e+01 3.646332e+00 180 177 162
-1.088220e+01 1.564468e+01 3.646332e+00 180 177 162
1.059415e+01 2.060041e+01 2.540019e+00 175 167 154
-7.803095e+00 1.903508e+01 5.302932e+00 119 122 108
1.530818e+01 3.281643e+01 7.310466e+00 65 65 51
-1.432994e+01 1.803603e+01 5.030076e+00 141 138 130
1.594506e+01 4.155917e+00 6.984755e+00 205 201 192
1.507746e+01 4.617018e+00 5.127307e+00 189 181 171
-1.473354e+01 8.734264e+00 3.401765e+00 74 70 59
-1.615910e+01 1.889910e+01 6.718395e+00 89 90 85
-1.720301e+01 2.428598e+01 7.782928e+00 181 176 161
9.381866e+00 -1.865566e+00 2.146120e+00 138 126 112
-1.532066e+01 5.384809e+00 3.428186e+00 89 89 84
-1.183128e+01 7.183347e+00 2.467905e+00 187 178 160
-1.183128e+01 7.183347e+00 2.467905e+00 187 178 160
-1.581976e+01 9.866154e+00 4.606616e+00 78 77 69
9.375635e+00 1.953342e+01 2.664906e+00 202 195 176
-6.823149e+00 1.779181e+01 6.273832e+00 221 220 213
-1.609613e+01 2.501973e+01 7.673398e+00 151 158 155
-1.479625e+01 -1.102367e+00 -3.041220e+00 237 225 216
-1.511069e+01 2.242143e-01 -3.504376e-01 78 74 65
-1.580411e+01 1.704475e-01 5.740676e-01 80 79 67
1.595270e+01 2.669728e+00 6.518354e+00 201 198 189
-8.973764e+00 7.670011e+00 1.982539e+00 188 175 158
9.050439e+00 8.567002e+00 5.167870e+00 122 115 102
-4.325947e+00 8.935395e+00 3.180696e+00 173 165 154
-1.365842e+01 1.504575e+01 3.636241e+00 98 93 81
-1.379032e+01 1.532240e+01 4.428368e+00 208 202 186
-1.351412e+01 2.419680e+01 7.367918e+00 166 167 153
4.278036e+00 2.939250e+01 7.558694e+00 63 56 46
