ply
format ascii 1.0
element face 0
property list uchar int vertex_indices
element vertex 941
property float x
property float y
property float z
property uchar diffuse_red
property uchar diffuse_green
property uchar diffuse_blue
end_header
1.869839e+00 3.107224e+00 2.955703e+00 191 184 174
2.070102e-01 3.166650e+00 2.308946e+00 165 155 139
1.881437e+00 3.191361e+00 2.961356e+00 69 60 54
2.328808e+00 3.311078e+00 3.267194e+00 183 172 151
8.843583e-01 3.271233e+00 2.545604e+00 161 147 124
3.700730e+00 3.397188e+00 4.016540e+00 166 157 142
3.698406e+00 3.402644e+00 4.041521e+00 166 157 142
-5.522275e-01 3.401416e+00 2.341634e+00 64 55 46
-2.047777e+00 3.571034e+00 2.542905e+00 79 68 50
-2.047777e+00 3.571034e+00 2.542905e+00 79 68 50
-4.650193e+00 3.938460e+00 3.040356e+00 188 187 186
2.017331e+00 3.468481e+00 3.109292e+00 60 52 43
2.017331e+00 3.468481e+00 3.109292e+00 60 52 43
-1.091926e+00 3.619964e+00 2.451834e+00 179 173 154
3.213790e-01 3.498247e+00 2.402395e+00 182 176 160
-2.190630e+00 3.833692e+00 2.590517e+00 130 124 106
-2.190630e+00 3.833692e+00 2.590517e+00 130 124 106
1.988519e+00 3.636477e+00 3.128452e+00 179 175 173
1.869310e+00 3.744141e+00 3.065560e+00 82 74 53
2.590426e+00 3.816411e+00 3.445857e+00 65 57 47
8.164935e-01 3.837476e+00 2.669095e+00 79 70 54
1.345642e+00 3.954385e+00 2.900912e+00 179 169 158
-1.088560e+00 4.144381e+00 2.559855e+00 201 192 176
-6.837910e-01 4.176398e+00 2.537407e+00 106 88 74
-3.659037e+00 4.558022e+00 2.850278e+00 96 86 76
2.705178e+00 4.230343e+00 3.498247e+00 111 94 78
8.207160e-01 4.227352e+00 2.780896e+00 182 175 158
1.725235e+00 4.350154e+00 3.152496e+00 195 194 192
1.506569e+00 4.332426e+00 3.027473e+00 62 52 42
1.628029e+00 4.410500e+00 3.090685e+00 210 208 209
1.105063e+00 4.544791e+00 2.972464e+00 160 149 140
-1.250873e+00 4.725755e+00 2.688955e+00 144 136 128
1.614008e+00 4.925262e+00 3.158917e+00 88 71 53
-1.374197e+00 5.376921e+00 2.735464e+00 113 99 86
-1.130937e+00 5.511842e+00 2.750689e+00 214 215 215
-4.797858e+00 -2.593174e+00 4.715462e+00 146 146 148
1.780327e+00 -1.626390e+00 3.599783e+00 134 130 129
1.862515e+00 -1.629242e+00 3.681485e+00 58 54 51
-2.711365e+00 -2.138703e+00 4.450621e+00 67 62 58
-8.032812e+00 -2.601428e+00 5.367938e+00 94 95 90
3.259247e+00 -1.381660e+00 4.603336e+00 156 152 151
3.030116e+00 -1.349822e+00 4.433400e+00 47 46 41
-4.926262e+00 -1.713741e+00 4.122523e+00 148 148 148
3.177792e+00 -1.336582e+00 4.524914e+00 39 35 34
1.391897e+00 -1.232787e+00 3.323035e+00 181 181 179
2.974798e+00 -1.271909e+00 4.367308e+00 163 163 161
-1.573475e+00 -1.368395e+00 3.392759e+00 83 75 61
-1.642668e+00 -1.334579e+00 3.390961e+00 175 173 168
1.369599e+00 -1.068267e+00 3.238853e+00 195 195 193
3.810787e+00 -1.158166e+00 4.959579e+00 161 160 158
-6.672523e+00 -1.588360e+00 4.523230e+00 123 119 116
9.230235e-01 -9.974741e-01 3.139820e+00 160 159 155
-5.096400e-01 -9.552824e-01 2.562467e+00 127 124 115
-2.499665e+00 -1.341702e+00 4.094578e+00 89 82 77
4.315916e+00 -1.115306e+00 5.371725e+00 33 29 26
4.315916e+00 -1.115306e+00 5.371725e+00 33 29 26
3.142627e+00 -9.835916e-01 4.258439e+00 114 114 103
1.173058e+00 -9.310272e-01 3.165268e+00 136 133 124
2.591387e+00 -9.409864e-01 3.839995e+00 190 183 165
-7.564470e+00 -1.507428e+00 4.789555e+00 66 65 65
9.869450e-01 -8.388565e-01 3.081112e+00 169 170 165
5.745432e-01 -8.285968e-01 2.926050e+00 171 168 155
1.935286e+00 -8.032994e-01 3.259791e+00 62 54 47
-2.646522e+00 -1.097480e+00 3.882808e+00 181 182 176
2.948915e+00 -8.005692e-01 4.060275e+00 164 158 136
2.948915e+00 -8.005692e-01 4.060275e+00 164 158 136
2.054507e+00 -7.462357e-01 3.313260e+00 170 169 165
7.549577e-01 -6.512682e-01 2.963893e+00 194 193 189
7.488962e-01 -6.545183e-01 2.979424e+00 194 193 189
-3.762483e+00 -8.794814e-01 3.494831e+00 177 171 160
-3.762483e+00 -8.794814e-01 3.494831e+00 177 171 160
-4.518299e+00 -8.397315e-01 3.664114e+00 167 160 145
3.510431e+00 -6.141344e-01 4.442971e+00 172 166 157
-2.733477e+00 -6.736768e-01 3.427088e+00 113 112 110
-2.009944e+00 -4.866952e-01 2.786319e+00 184 184 182
-4.416547e+00 -6.141888e-01 3.570304e+00 175 169 155
-6.708323e+00 -6.930868e-01 4.250074e+00 113 106 88
-4.385920e+00 -4.938332e-01 3.506355e+00 76 67 50
1.114780e+00 -2.392429e-01 2.886445e+00 192 192 190
3.653065e-01 -2.512321e-01 2.805986e+00 188 189 187
3.006720e-01 -2.470927e-01 2.733526e+00 191 192 190
2.568150e+00 -2.045271e-01 3.473220e+00 169 166 159
2.266203e+00 -1.304938e-01 3.200862e+00 127 123 120
7.706060e-01 -1.260324e-01 2.762321e+00 89 79 69
-3.339746e+00 -2.457820e-01 3.095546e+00 160 156 147
2.876667e+00 -1.101566e-01 3.682100e+00 49 45 41
-5.985127e+00 -3.436271e-01 3.940726e+00 45 41 38
4.529148e+00 -1.778990e-01 5.168466e+00 57 54 42
3.915046e+00 -1.263365e-01 4.662658e+00 101 94 87
2.980116e+00 -6.830814e-02 3.724411e+00 75 70 65
7.155638e-01 -5.723362e-02 2.746995e+00 179 178 174
4.269020e-01 -4.070369e-02 2.695611e+00 186 181 175
2.876211e-01 -4.522756e-02 2.677698e+00 181 178 169
-5.843707e+00 -2.330627e-01 3.817484e+00 180 180 187
3.306908e+00 -1.617052e-02 4.069726e+00 162 158 154
3.026658e-01 9.151018e-03 2.662629e+00 169 165 154
3.445356e+00 1.010785e-02 4.152418e+00 175 176 171
2.005767e+00 3.237549e-02 3.001684e+00 66 57 52
1.924707e+00 3.286052e-02 3.008554e+00 176 170 158
2.831669e+00 6.387935e-02 3.593963e+00 60 49 40
1.759548e-01 9.531433e-02 2.622007e+00 74 62 53
2.027979e+00 1.204589e-01 2.957349e+00 158 150 138
-5.034822e+00 -1.367208e-02 3.549911e+00 159 163 166
-5.760006e+00 -3.007892e-02 3.763166e+00 173 175 174
3.007718e+00 1.423410e-01 3.677920e+00 185 182 175
-3.166583e+00 6.544280e-02 2.946764e+00 181 175 150
2.029352e+00 1.959353e-01 2.987493e+00 75 68 60
-5.953451e+00 3.870765e-02 3.812345e+00 170 166 158
2.876660e+00 2.608810e-01 3.617951e+00 180 176 167
3.882255e-01 2.771277e-01 2.545739e+00 171 170 167
-5.742724e+00 1.527161e-01 3.723739e+00 171 167 163
-1.367320e+00 3.082168e-01 2.135845e+00 170 167 158
3.890831e+00 2.963665e-01 4.458546e+00 92 85 69
2.884361e+00 3.579482e-01 3.588030e+00 109 105 93
2.697571e+00 4.641619e-01 3.449104e+00 170 159 137
2.697571e+00 4.641619e-01 3.449104e+00 170 159 137
4.251294e-01 4.752714e-01 2.594361e+00 175 171 168
-2.879672e+00 4.671478e-01 2.727194e+00 177 173 161
4.241513e+00 4.987591e-01 4.726033e+00 172 167 163
4.241513e+00 4.987591e-01 4.726033e+00 172 167 163
4.241513e+00 4.987591e-01 4.726033e+00 172 167 163
-5.664391e+00 4.906639e-01 3.611131e+00 180 180 180
4.352824e+00 5.265314e-01 4.814141e+00 154 149 134
4.157753e+00 5.482142e-01 4.657695e+00 46 39 40
-7.734047e-01 5.717230e-01 2.209546e+00 83 76 70
-2.899137e-01 5.838368e-01 2.348171e+00 87 82 71
4.267042e+00 5.862864e-01 4.731948e+00 45 41 39
-1.222151e+00 6.134246e-01 2.129586e+00 184 169 149
3.329110e+00 6.297598e-01 3.877897e+00 192 189 177
1.733081e+00 6.424009e-01 2.688407e+00 195 188 177
2.325084e+00 6.568458e-01 3.120067e+00 85 74 64
-2.033623e-01 6.738459e-01 2.341653e+00 171 167 164
4.767357e-01 6.882184e-01 2.520193e+00 150 143 133
-2.067466e+00 6.940992e-01 2.386268e+00 168 164 152
-3.646859e+00 6.939755e-01 2.901699e+00 178 180 175
-4.371020e+00 7.023017e-01 3.248786e+00 96 76 58
-4.371020e+00 7.023017e-01 3.248786e+00 96 76 58
-6.304758e+00 7.554439e-01 3.749575e+00 95 77 71
3.527685e-01 8.116507e-01 2.488961e+00 178 173 167
-4.254867e+00 7.942775e-01 3.171640e+00 163 159 146
2.568548e+00 8.196599e-01 3.317502e+00 165 155 146
2.183461e+00 8.758896e-01 3.034703e+00 177 171 160
-2.590642e+00 9.115981e-01 2.569632e+00 172 176 175
6.632278e-01 9.382311e-01 2.399459e+00 103 93 80
2.558556e+00 9.373596e-01 3.242584e+00 192 193 189
1.968258e+00 1.007898e+00 2.774029e+00 86 75 64
3.153062e+00 1.037644e+00 3.649004e+00 190 183 175
2.140645e+00 1.052793e+00 2.940786e+00 109 100 88
2.073233e+00 1.051720e+00 2.888749e+00 152 144 126
-1.868847e+00 1.086377e+00 2.310842e+00 65 53 41
1.966523e+00 1.076783e+00 2.818182e+00 161 152 137
3.436063e+00 1.122397e+00 3.877859e+00 66 52 39
2.308622e+00 1.129441e+00 3.034479e+00 135 125 115
-4.364108e-01 1.165184e+00 2.113391e+00 83 70 61
3.473059e+00 1.181899e+00 3.908045e+00 186 180 167
-2.334678e+00 1.231551e+00 2.421262e+00 181 185 189
1.086867e+00 1.260591e+00 2.306185e+00 104 97 91
1.958975e+00 1.281106e+00 2.800905e+00 190 183 177
3.949337e+00 1.324834e+00 4.321242e+00 67 57 48
3.949337e+00 1.324834e+00 4.321242e+00 67 57 48
-6.971449e-01 1.352295e+00 2.059458e+00 169 160 145
-2.284272e+00 1.375106e+00 2.362391e+00 146 135 117
-3.949541e+00 1.441625e+00 2.944761e+00 179 173 159
-3.949541e+00 1.441625e+00 2.944761e+00 179 173 159
-4.768708e+00 1.457640e+00 3.227045e+00 172 159 144
-2.900627e+00 1.418084e+00 2.615073e+00 164 162 150
2.479836e+00 1.377412e+00 3.123910e+00 180 174 162
1.698942e+00 1.399959e+00 2.583289e+00 78 65 48
-5.432552e+00 1.584998e+00 3.353825e+00 159 153 139
-1.467054e-01 1.473399e+00 2.070930e+00 164 160 148
2.605040e+00 1.482179e+00 3.285433e+00 61 51 42
1.809456e+00 1.489048e+00 2.675695e+00 134 121 104
1.809699e+00 1.488724e+00 2.667256e+00 134 121 104
-9.360997e-01 1.520853e+00 1.984819e+00 122 109 92
1.108130e+00 1.517696e+00 2.305889e+00 97 94 87
2.591451e+00 1.590714e+00 3.278840e+00 143 136 125
2.278294e+00 1.589413e+00 3.037537e+00 100 85 67
2.681049e+00 1.634008e+00 3.278983e+00 164 157 149
3.638554e+00 1.677564e+00 4.033188e+00 164 156 144
-2.571078e+00 1.801723e+00 2.484472e+00 72 64 60
-1.866205e+00 1.783629e+00 2.294649e+00 158 146 129
3.288987e+00 1.772433e+00 3.698280e+00 183 179 168
2.978865e+00 1.803095e+00 3.536859e+00 172 164 153
2.114949e+00 1.815462e+00 2.904519e+00 75 62 45
1.551090e+00 1.853197e+00 2.539430e+00 81 68 55
4.276945e+00 1.934574e+00 4.506122e+00 82 74 63
1.620558e+00 1.861895e+00 2.575886e+00 166 157 143
3.466348e+00 1.921824e+00 3.853742e+00 165 158 155
2.887671e+00 1.920123e+00 3.482500e+00 169 162 152
-2.070790e-01 1.891580e+00 2.009526e+00 183 175 164
-4.436245e+00 2.085026e+00 3.015547e+00 180 180 181
4.943584e-01 1.924987e+00 2.018509e+00 175 163 151
-2.408305e+00 2.119861e+00 2.452124e+00 185 185 182
2.286679e+00 2.063026e+00 3.088681e+00 186 177 163
-5.131436e+00 2.342323e+00 3.197314e+00 189 191 192
1.940798e+00 2.109797e+00 2.827100e+00 158 152 140
-1.611353e+00 2.178415e+00 2.281616e+00 180 180 178
-1.611353e+00 2.178415e+00 2.281616e+00 180 180 178
1.120951e+00 2.164741e+00 2.449967e+00 89 75 60
-5.143589e+00 2.512090e+00 3.185112e+00 167 166 164
8.991156e-01 2.186469e+00 2.248585e+00 69 58 40
3.277569e+00 2.262464e+00 3.745009e+00 170 163 157
3.912952e+00 2.342252e+00 4.223769e+00 113 104 100
3.912952e+00 2.342252e+00 4.223769e+00 113 104 100
2.738876e+00 2.309528e+00 3.397347e+00 62 54 44
2.593034e+00 2.310757e+00 3.310156e+00 168 159 153
3.360043e+00 2.333255e+00 3.797106e+00 210 208 211
3.359172e+00 2.334573e+00 3.799815e+00 210 208 211
3.754128e+00 2.390164e+00 4.127543e+00 183 176 165
4.415532e+00 2.384851e+00 4.418594e+00 178 181 180
-5.172469e+00 2.693659e+00 3.177097e+00 175 174 169
2.829685e+00 2.388737e+00 3.400779e+00 180 173 165
-2.812785e+00 2.565612e+00 2.491461e+00 169 165 159
-4.809684e+00 2.727973e+00 3.115654e+00 162 159 154
1.988663e+00 2.430179e+00 2.942411e+00 187 181 169
-2.071996e-01 2.415468e+00 2.083919e+00 155 143 127
-2.071996e-01 2.415468e+00 2.083919e+00 155 143 127
7.037079e-01 2.410070e+00 2.269832e+00 180 177 170
3.185573e+00 2.483090e+00 3.685547e+00 55 45 36
-1.329739e+00 2.499890e+00 2.233049e+00 170 163 153
-3.034663e+00 2.624635e+00 2.617217e+00 191 187 184
8.157192e-01 2.443532e+00 2.322533e+00 171 164 154
6.673928e-01 2.452050e+00 2.209535e+00 75 65 47
3.432194e-01 2.474450e+00 2.103937e+00 127 114 97
3.432194e-01 2.474450e+00 2.103937e+00 127 114 97
-1.797001e+00 2.636043e+00 2.358145e+00 188 188 185
-2.811346e+00 2.707565e+00 2.579296e+00 98 93 81
3.606842e+00 2.656104e+00 3.906720e+00 88 69 58
8.885419e-01 2.578498e+00 2.336953e+00 108 95 76
4.523512e+00 2.720691e+00 4.558209e+00 124 115 107
2.242296e+00 2.641052e+00 3.085435e+00 80 67 56
1.985104e+00 2.649260e+00 2.893287e+00 180 173 163
4.941476e-01 2.651035e+00 2.276010e+00 176 166 157
-5.633107e+00 3.154279e+00 3.231587e+00 180 176 169
-3.516262e+00 2.990640e+00 2.754814e+00 109 104 100
4.405837e+00 2.844136e+00 4.468368e+00 112 105 94
-3.824310e+00 3.089334e+00 2.839342e+00 145 138 130
-1.973677e+00 2.941474e+00 2.446042e+00 124 117 101
-5.702053e+00 3.337594e+00 3.237635e+00 115 102 109
2.040985e+00 2.861272e+00 3.003373e+00 182 173 165
1.542607e+00 2.855409e+00 2.740851e+00 195 185 175
4.290078e+00 2.964453e+00 4.387405e+00 110 101 91
3.968279e+00 2.947676e+00 4.133321e+00 166 167 171
-4.055946e+00 3.242615e+00 2.931013e+00 151 143 123
-4.166486e+00 3.247714e+00 2.947118e+00 62 54 52
-5.760477e+00 3.405579e+00 3.233754e+00 201 206 210
-1.258207e+00 3.018044e+00 2.363135e+00 183 181 181
2.123884e+00 2.962176e+00 3.092189e+00 201 196 192
2.221058e+00 2.953471e+00 3.099354e+00 131 125 113
-2.866833e+00 3.209620e+00 2.665118e+00 52 41 30
2.776150e+00 3.015537e+00 3.494737e+00 178 174 165
6.350433e-01 2.973226e+00 2.384645e+00 178 176 171
-4.334525e+00 3.365012e+00 2.944016e+00 194 191 186
-1.762893e-03 3.007355e+00 2.290275e+00 178 173 166
1.125604e+00 3.060548e+00 2.611081e+00 184 171 148
3.776155e-01 3.097051e+00 2.340139e+00 169 166 158
-4.869968e+00 3.567238e+00 3.052854e+00 170 163 153
1.696345e+00 3.210215e+00 2.912771e+00 107 93 81
2.807776e-01 3.175638e+00 2.312753e+00 80 68 53
-1.574222e+00 3.349208e+00 2.356626e+00 59 50 35
2.935142e+00 3.325391e+00 3.609775e+00 156 151 138
-2.119135e+00 3.450922e+00 2.517042e+00 147 141 124
3.056134e+00 3.349936e+00 3.670866e+00 80 67 52
3.054909e+00 3.353537e+00 3.681037e+00 80 67 52
-4.984894e-01 3.377998e+00 2.369248e+00 51 43 30
-3.743444e+00 3.714038e+00 2.850228e+00 130 125 119
-3.218909e+00 3.689091e+00 2.769867e+00 149 140 125
1.599385e+00 3.397703e+00 2.912195e+00 194 189 186
-2.058081e+00 3.661219e+00 2.576768e+00 182 176 162
-3.355985e+00 3.809025e+00 2.809079e+00 173 165 163
-1.939431e+00 3.701270e+00 2.570691e+00 187 182 176
-1.939431e+00 3.701270e+00 2.570691e+00 187 182 176
-3.057232e+00 3.852202e+00 2.768970e+00 166 159 144
-3.057232e+00 3.852202e+00 2.768970e+00 166 159 144
3.346168e+00 3.597641e+00 3.799318e+00 182 175 159
3.346168e+00 3.597641e+00 3.799318e+00 182 175 159
-1.271966e+00 3.687222e+00 2.472025e+00 134 128 116
-3.019908e+00 3.912067e+00 2.757127e+00 103 96 87
-4.262672e+00 4.061465e+00 2.943880e+00 165 157 148
-9.470176e-01 3.690719e+00 2.454530e+00 140 127 110
3.353067e+00 3.674982e+00 3.813494e+00 113 95 75
5.871157e-02 3.614746e+00 2.413743e+00 57 44 36
-3.073264e+00 3.987756e+00 2.779267e+00 183 181 176
-9.216675e-01 3.780824e+00 2.474744e+00 178 173 167
-9.216675e-01 3.780824e+00 2.474744e+00 178 173 167
-4.121834e+00 4.235382e+00 2.931092e+00 162 154 148
-4.190870e+00 4.316051e+00 2.927017e+00 109 98 92
-2.028689e-01 3.884952e+00 2.505840e+00 146 129 112
3.305034e+00 3.940020e+00 3.809985e+00 119 110 100
2.984412e+00 3.927170e+00 3.638922e+00 78 72 67
-3.961028e+00 4.364335e+00 2.896700e+00 168 165 158
-1.850367e-01 3.960157e+00 2.523680e+00 76 66 54
-3.505876e+00 4.362444e+00 2.791861e+00 69 60 54
-3.414305e+00 4.359832e+00 2.788582e+00 176 161 141
7.403291e-02 4.026364e+00 2.548367e+00 175 172 167
-2.586155e+00 4.336806e+00 2.709277e+00 134 128 113
1.346785e+00 4.048524e+00 2.919136e+00 54 42 30
-1.023862e+00 4.176810e+00 2.570919e+00 78 66 49
-2.332101e+00 4.360201e+00 2.719218e+00 190 190 185
1.269814e-01 4.116376e+00 2.561551e+00 163 157 142
2.942863e+00 4.221936e+00 3.646004e+00 127 117 102
2.780665e+00 4.219575e+00 3.568961e+00 172 164 157
1.805753e+00 4.197706e+00 3.156057e+00 77 64 51
-2.143362e+00 4.445255e+00 2.688656e+00 196 198 197
-2.166517e+00 4.509900e+00 2.684332e+00 144 136 126
1.693670e+00 4.280798e+00 3.116022e+00 81 69 58
-5.102063e-01 4.366558e+00 2.603418e+00 180 175 162
2.386685e+00 4.350910e+00 3.371899e+00 88 78 70
3.661881e-01 4.385387e+00 2.701661e+00 127 123 111
-3.197555e+00 4.803993e+00 2.809961e+00 122 113 97
7.131784e-01 4.394306e+00 2.765141e+00 101 86 76
2.304257e+00 4.457707e+00 3.354606e+00 194 186 167
2.185530e+00 4.502449e+00 3.315713e+00 162 152 138
3.926618e-01 4.480503e+00 2.693847e+00 195 190 186
4.061336e-02 4.523350e+00 2.660350e+00 181 178 173
1.253702e+00 4.554046e+00 3.023179e+00 116 106 96
-1.253768e+00 4.807920e+00 2.682669e+00 72 65 47
1.896110e+00 4.643198e+00 3.216527e+00 157 150 135
9.148645e-01 4.666905e+00 2.919916e+00 60 47 38
1.835372e+00 4.666759e+00 3.174180e+00 83 78 72
3.681801e-01 4.790506e+00 2.756843e+00 71 57 44
-2.035506e+00 5.153256e+00 2.731260e+00 82 66 58
1.460789e+00 4.999174e+00 3.120117e+00 174 164 147
-1.198373e+00 5.307207e+00 2.744422e+00 115 99 83
-1.165155e+00 5.440978e+00 2.744581e+00 106 91 84
-6.637704e+00 -2.731154e+00 5.120919e+00 166 165 163
-2.992460e+00 -2.395079e+00 4.559906e+00 151 151 152
-6.038873e+00 -2.434699e+00 4.954310e+00 142 139 134
3.845515e+00 -1.803237e+00 5.273098e+00 111 110 108
-6.583545e+00 -2.405343e+00 4.941338e+00 149 154 157
-4.978616e-01 -1.660180e+00 3.162925e+00 35 30 24
1.292012e-01 -1.605904e+00 3.324373e+00 42 41 40
1.292012e-01 -1.605904e+00 3.324373e+00 42 41 40
1.813426e+00 -1.454517e+00 3.568053e+00 52 48 49
1.813426e+00 -1.454517e+00 3.568053e+00 52 48 49
-4.079248e+00 -1.844053e+00 3.993600e+00 147 146 144
-4.079248e+00 -1.844053e+00 3.993600e+00 147 146 144
8.306518e-01 -1.304258e+00 3.088100e+00 143 144 138
-1.096146e-01 -1.365919e+00 3.066485e+00 162 163 149
-8.171304e-01 -1.336878e+00 3.027169e+00 182 180 177
-5.723520e-01 -1.306312e+00 2.988061e+00 177 175 176
-1.269641e+00 -1.383413e+00 3.208465e+00 183 182 180
-5.083223e+00 -1.698803e+00 4.178612e+00 17 15 20
-4.973457e-02 -1.185225e+00 2.769216e+00 183 182 177
-1.970585e-01 -1.229863e+00 2.981838e+00 188 188 186
-6.319629e+00 -1.750188e+00 4.531021e+00 133 128 124
-4.904072e+00 -1.584844e+00 4.041533e+00 160 159 164
1.016730e+00 -1.026502e+00 3.072037e+00 110 109 105
-2.403149e+00 -1.421739e+00 4.109771e+00 48 43 38
-3.698184e+00 -1.421958e+00 3.991907e+00 133 128 109
4.256471e+00 -1.152161e+00 5.367743e+00 163 159 157
-7.018580e+00 -1.575980e+00 4.610164e+00 148 156 158
-3.961739e-01 -9.484267e-01 2.611633e+00 148 144 127
4.267367e+00 -1.043376e+00 5.328991e+00 166 165 163
4.017192e-01 -8.957110e-01 2.914014e+00 111 109 96
-1.177419e+00 -9.886266e-01 2.991721e+00 66 62 59
-2.979163e+00 -1.255779e+00 4.048169e+00 183 182 178
7.696568e-01 -8.751483e-01 3.091685e+00 84 81 72
-1.594570e-02 -8.709265e-01 2.961454e+00 116 113 106
4.273613e-01 -7.987321e-01 2.998620e+00 82 72 65
1.902707e+00 -7.500179e-01 3.257577e+00 172 171 167
5.821549e-01 -7.471325e-01 2.897879e+00 91 87 73
5.729881e-01 -7.524190e-01 2.924153e+00 91 87 73
-6.252194e+00 -1.184139e+00 4.311945e+00 159 158 153
1.466366e+00 -6.869708e-01 3.121981e+00 185 181 177
-4.063723e+00 -9.825830e-01 3.678906e+00 167 162 153
-7.180674e+00 -1.190330e+00 4.525505e+00 153 167 171
-7.427298e+00 -1.208133e+00 4.620211e+00 140 142 146
5.186923e-01 -6.361530e-01 2.901458e+00 109 103 92
4.534586e-02 -6.638653e-01 2.928227e+00 156 154 146
3.588100e+00 -6.914414e-01 4.544664e+00 177 172 161
-3.046527e+00 -8.542010e-01 3.479324e+00 166 159 149
-4.014129e+00 -8.949792e-01 3.620745e+00 174 168 153
-6.292089e+00 -9.851568e-01 4.216695e+00 173 173 171
-8.277593e-01 -6.764554e-01 3.105869e+00 173 172 168
-7.418725e+00 -1.077702e+00 4.594975e+00 150 150 141
-5.187587e+00 -8.881500e-01 3.878678e+00 107 98 88
-5.187587e+00 -8.881500e-01 3.878678e+00 107 98 88
-6.548181e+00 -9.717595e-01 4.284134e+00 181 182 187
4.013369e+00 -6.214035e-01 4.898894e+00 54 44 43
4.013369e+00 -6.214035e-01 4.898894e+00 54 44 43
8.213423e-01 -4.954522e-01 2.935198e+00 184 183 178
2.411863e-01 -4.976957e-01 2.779694e+00 189 189 189
-4.160914e+00 -7.194459e-01 3.542847e+00 150 154 158
2.097631e+00 -4.530518e-01 3.218447e+00 187 186 181
2.522413e+00 -4.369267e-01 3.580535e+00 48 44 44
2.522413e+00 -4.369267e-01 3.580535e+00 48 44 44
1.079892e+00 -4.185353e-01 2.849036e+00 192 193 188
1.169872e+00 -3.764933e-01 2.936312e+00 110 106 95
-6.440495e+00 -7.283429e-01 4.162962e+00 177 178 180
2.157261e+00 -3.579503e-01 3.187942e+00 176 174 162
-2.374476e+00 -5.268663e-01 3.148471e+00 163 165 164
1.503486e+00 -3.516841e-01 3.026054e+00 184 183 179
1.211890e+00 -3.428999e-01 2.990165e+00 176 173 164
4.352647e-01 -3.407500e-01 2.787258e+00 182 179 174
1.055737e-01 -2.695323e-01 2.835805e+00 195 195 193
-6.643413e+00 -5.215122e-01 4.174217e+00 129 125 122
2.880947e+00 -1.817738e-01 3.697009e+00 151 150 148
-5.799947e+00 -4.279830e-01 3.886023e+00 56 49 46
-7.108419e+00 -4.901065e-01 4.299366e+00 86 73 54
3.881929e+00 -1.794456e-01 4.642194e+00 179 174 165
-1.583332e+00 -9.150787e-02 2.127929e+00 167 159 142
1.937579e-01 -6.800540e-02 2.653810e+00 171 169 170
-4.023859e+00 -1.895428e-01 3.287219e+00 161 150 131
-4.023859e+00 -1.895428e-01 3.287219e+00 161 150 131
-3.237136e+00 -1.425428e-01 3.042488e+00 172 166 165
3.671199e-01 -2.584905e-02 2.687723e+00 45 40 35
2.079154e+00 2.272266e-02 3.011790e+00 171 164 150
6.509816e-01 7.240487e-02 2.696473e+00 182 181 177
2.826535e+00 1.346891e-01 3.583851e+00 180 170 146
-6.968333e+00 -4.759644e-02 4.111977e+00 36 31 36
-6.968333e+00 -4.759644e-02 4.111977e+00 36 31 36
4.358061e+00 1.123561e-01 4.940582e+00 180 179 176
1.932609e-01 1.745568e-01 2.641453e+00 180 177 171
-5.806385e+00 4.144500e-02 3.798168e+00 59 50 40
4.181972e-01 2.280701e-01 2.682815e+00 176 175 172
-3.210221e+00 2.460682e-01 2.904574e+00 166 165 162
3.833892e+00 2.892187e-01 4.444822e+00 183 177 163
1.032880e+00 3.287550e-01 2.678440e+00 132 123 115
-1.810423e-01 3.525012e-01 2.462933e+00 180 175 167
7.027470e-01 3.753332e-01 2.658487e+00 182 177 171
-6.687748e+00 2.525202e-01 3.966429e+00 80 69 63
-2.192164e+00 3.643122e-01 2.506702e+00 174 168 159
-2.312518e+00 3.867071e-01 2.536815e+00 76 71 67
-4.718156e+00 3.395119e-01 3.300724e+00 63 57 48
-4.935584e+00 3.285108e-01 3.472068e+00 78 71 62
4.227858e+00 4.077347e-01 4.715995e+00 61 51 42
2.633405e+00 4.563935e-01 3.400033e+00 108 99 84
2.633405e+00 4.563935e-01 3.400033e+00 108 99 84
4.055618e+00 4.861300e-01 4.554336e+00 163 157 141
-4.555243e+00 4.439173e-01 3.381557e+00 180 171 150
7.871918e-01 5.350282e-01 2.586648e+00 164 160 158
1.416937e+00 5.601577e-01 2.636736e+00 172 168 156
-1.490293e+00 5.774262e-01 2.164241e+00 181 172 160
-6.481503e+00 5.172817e-01 3.857777e+00 157 155 148
4.384391e+00 5.951919e-01 4.802591e+00 50 46 41
4.193726e+00 6.056135e-01 4.686850e+00 184 179 175
4.193726e+00 6.056135e-01 4.686850e+00 184 179 175
-6.461348e+00 5.847140e-01 3.829529e+00 49 43 42
-6.461348e+00 5.847140e-01 3.829529e+00 49 43 42
-2.124147e+00 6.259440e-01 2.388154e+00 49 42 34
-4.832575e+00 5.853613e-01 3.404208e+00 131 113 101
-5.525681e+00 6.038478e-01 3.553089e+00 183 182 177
-5.525681e+00 6.038478e-01 3.553089e+00 183 182 177
2.071796e-01 6.556771e-01 2.416780e+00 170 166 157
2.170709e+00 6.516157e-01 3.029769e+00 167 158 142
-4.276795e+00 6.346189e-01 3.158583e+00 188 185 176
-1.533080e+00 6.783625e-01 2.077081e+00 116 108 95
2.816454e+00 6.979642e-01 3.430034e+00 189 185 175
-2.536757e+00 6.999644e-01 2.560474e+00 156 147 137
2.183402e+00 7.420693e-01 3.017353e+00 143 132 114
2.180495e+00 7.399585e-01 3.046765e+00 143 132 114
-2.585958e+00 7.581477e-01 2.556449e+00 65 57 47
3.070910e+00 7.797329e-01 3.694336e+00 176 169 151
-2.672512e+00 7.784146e-01 2.590324e+00 165 154 132
1.606330e-01 8.257182e-01 2.457876e+00 179 176 169
-6.815000e+00 8.208074e-01 3.877575e+00 113 106 100
-6.683680e+00 8.422053e-01 3.844567e+00 167 160 142
-4.209314e+00 8.401928e-01 3.139612e+00 177 174 169
-2.069232e+00 9.078805e-01 2.379159e+00 69 60 53
-5.064865e+00 9.684281e-01 3.345205e+00 168 165 156
-3.286391e+00 9.818464e-01 2.762886e+00 161 155 143
2.956261e+00 9.896166e-01 3.589237e+00 175 168 149
-2.002589e+00 1.050365e+00 2.303488e+00 58 49 42
2.932522e+00 1.069412e+00 3.548624e+00 71 61 51
2.881061e+00 1.085397e+00 3.517275e+00 176 169 153
2.881061e+00 1.085397e+00 3.517275e+00 176 169 153
-3.985283e+00 1.167995e+00 2.970870e+00 56 46 31
-3.985517e+00 1.171900e+00 2.970408e+00 56 46 31
-6.014446e+00 1.200345e+00 3.589514e+00 194 196 195
3.628815e+00 1.140327e+00 3.961750e+00 188 181 171
-3.018083e+00 1.190270e+00 2.625389e+00 187 182 178
1.972299e+00 1.151527e+00 2.835460e+00 176 167 149
-4.392548e+00 1.214275e+00 3.080826e+00 171 167 158
-6.047518e+00 1.278633e+00 3.597519e+00 125 121 109
-6.176111e+00 1.283407e+00 3.623770e+00 193 203 205
-6.176111e+00 1.283407e+00 3.623770e+00 193 203 205
1.796802e+00 1.194633e+00 2.663849e+00 151 142 129
1.948371e+00 1.202236e+00 2.811125e+00 87 70 63
-3.801918e+00 1.308281e+00 2.868605e+00 150 138 116
-4.720955e+00 1.381934e+00 3.180506e+00 53 39 25
3.212425e+00 1.364057e+00 3.710040e+00 169 163 155
1.685159e+00 1.348169e+00 2.591655e+00 159 146 120
-4.929159e+00 1.508498e+00 3.229906e+00 181 177 166
-6.249777e+00 1.570687e+00 3.592140e+00 118 113 109
3.310866e+00 1.428773e+00 3.840839e+00 190 185 180
-2.168194e+00 1.457624e+00 2.375881e+00 146 134 111
2.225881e+00 1.428668e+00 3.006883e+00 193 190 184
2.305680e+00 1.461458e+00 3.063504e+00 201 192 186
-2.950759e+00 1.553405e+00 2.635041e+00 178 169 160
3.697503e+00 1.520896e+00 4.119693e+00 185 178 166
-1.100099e+00 1.531146e+00 2.021732e+00 112 98 72
3.794593e+00 1.590134e+00 4.174638e+00 116 108 103
-1.248591e+00 1.596893e+00 2.075148e+00 158 150 128
3.196335e+00 1.605585e+00 3.672067e+00 201 201 201
2.844529e+00 1.618707e+00 3.402085e+00 182 176 161
1.752589e+00 1.627175e+00 2.693765e+00 50 41 34
1.572257e+00 1.620354e+00 2.559037e+00 54 48 36
-2.624598e+00 1.717280e+00 2.513191e+00 179 171 158
-5.546373e+00 1.838800e+00 3.369966e+00 168 169 164
4.299238e+00 1.689051e+00 4.565712e+00 91 81 79
-2.236515e+00 1.721009e+00 2.375698e+00 180 176 173
6.999264e-01 1.659109e+00 2.180997e+00 179 175 166
-6.821116e+00 1.984643e+00 3.652183e+00 59 51 52
3.139362e+00 1.742956e+00 3.634191e+00 62 51 45
-1.339114e+00 1.773814e+00 2.134122e+00 72 62 52
-1.076926e+00 1.783245e+00 2.097502e+00 158 146 128
-5.562780e+00 2.021691e+00 3.357460e+00 185 182 175
-5.562780e+00 2.021691e+00 3.357460e+00 185 182 175
-3.093160e+00 1.900202e+00 2.634057e+00 168 163 152
-2.562741e-01 1.809449e+00 1.995879e+00 173 160 137
1.886973e+00 1.832259e+00 2.822211e+00 71 61 46
1.429209e+00 1.826720e+00 2.530090e+00 168 155 143
1.205203e+00 1.838116e+00 2.335987e+00 92 80 71
-3.027191e-01 1.845299e+00 1.971945e+00 107 95 76
-1.125358e+00 1.909033e+00 2.130786e+00 163 156 148
2.359665e+00 1.897851e+00 3.113856e+00 183 176 161
1.420989e+00 1.871863e+00 2.487064e+00 73 56 49
-3.393264e+00 2.033808e+00 2.739913e+00 192 191 187
-5.240608e+00 2.140702e+00 3.264058e+00 55 45 46
-5.157062e+00 2.184786e+00 3.249166e+00 191 190 187
-4.177352e+00 2.135279e+00 2.979248e+00 56 48 36
2.913890e+00 1.977311e+00 3.508233e+00 86 75 66
2.913885e+00 1.977248e+00 3.507957e+00 86 75 66
1.182985e+00 1.958133e+00 2.360128e+00 91 75 61
-1.601282e+00 2.046809e+00 2.263250e+00 172 166 153
1.751513e+00 1.997564e+00 2.739753e+00 180 170 159
1.751513e+00 1.997564e+00 2.739753e+00 180 170 159
-1.880390e+00 2.067162e+00 2.295052e+00 170 164 150
4.015061e+00 2.093715e+00 4.312271e+00 191 190 185
-5.041413e+00 2.330147e+00 3.191973e+00 98 89 81
1.048551e+00 2.045527e+00 2.315229e+00 90 76 67
-1.793727e+00 2.135124e+00 2.271700e+00 169 162 143
-6.526568e+00 2.422912e+00 3.523536e+00 174 171 164
-6.526568e+00 2.422912e+00 3.523536e+00 174 171 164
1.651124e+00 2.086266e+00 2.677723e+00 182 182 178
1.646841e+00 2.090282e+00 2.700151e+00 182 182 178
2.256456e+00 2.120256e+00 3.084904e+00 72 60 44
2.255461e+00 2.121862e+00 3.092391e+00 72 60 44
-2.249993e+00 2.215608e+00 2.439624e+00 180 179 174
-3.717258e-01 2.115328e+00 2.009416e+00 94 78 61
-3.717258e-01 2.115328e+00 2.009416e+00 94 78 61
3.922808e+00 2.202890e+00 4.249990e+00 68 56 42
1.566745e+00 2.180889e+00 2.649269e+00 142 131 124
-1.148851e+00 2.220114e+00 2.157745e+00 181 172 157
4.177296e+00 2.268961e+00 4.365495e+00 191 186 180
-1.385017e+00 2.259146e+00 2.240266e+00 135 125 99
2.392091e+00 2.218631e+00 3.098742e+00 185 177 166
-3.184177e+00 2.410010e+00 2.667148e+00 126 123 116
-3.993558e+00 2.472919e+00 2.906593e+00 192 189 182
-2.830070e+00 2.458271e+00 2.591145e+00 59 49 39
-3.928811e+00 2.525472e+00 2.880655e+00 89 78 73
-3.928811e+00 2.525472e+00 2.880655e+00 89 78 73
-6.233938e-02 2.283439e+00 1.992883e+00 115 94 73
-1.892369e+00 2.421695e+00 2.386007e+00 170 166 157
2.528740e+00 2.355531e+00 3.282566e+00 169 162 152
-1.489227e-01 2.314327e+00 2.049001e+00 163 152 136
2.044710e+00 2.363870e+00 2.967607e+00 190 182 171
-3.367728e-01 2.366195e+00 2.096846e+00 161 145 123
5.672393e-01 2.342342e+00 2.139184e+00 151 135 119
-2.567748e+00 2.522966e+00 2.429369e+00 185 176 167
4.519255e+00 2.458242e+00 4.560058e+00 85 72 61
-1.121700e+00 2.443893e+00 2.211115e+00 164 158 136
-2.926902e-01 2.404033e+00 2.096690e+00 77 60 41
-2.926902e-01 2.404033e+00 2.096690e+00 77 60 41
2.130453e+00 2.422450e+00 2.972235e+00 93 86 67
2.592572e+00 2.469349e+00 3.331205e+00 180 175 168
-1.131636e+00 2.494175e+00 2.211574e+00 69 55 40
2.175560e+00 2.462747e+00 3.026308e+00 188 183 164
9.434112e-02 2.430137e+00 2.071436e+00 148 135 118
5.181976e-01 2.441711e+00 2.170582e+00 115 104 85
4.489984e-01 2.446336e+00 2.148545e+00 81 65 50
2.546677e+00 2.515170e+00 3.305339e+00 192 188 185
1.218028e+00 2.468719e+00 2.504572e+00 173 172 164
-1.751722e+00 2.585490e+00 2.362349e+00 62 48 38
-1.892207e+00 2.600240e+00 2.329564e+00 194 194 194
1.347830e+00 2.482973e+00 2.572519e+00 78 67 58
-3.579558e+00 2.779466e+00 2.792112e+00 55 48 41
-8.822675e-01 2.582743e+00 2.200033e+00 159 151 123
-3.866942e-02 2.529050e+00 2.110658e+00 162 149 121
-4.706371e+00 2.956594e+00 3.091595e+00 87 77 76
4.377541e+00 2.673844e+00 4.400999e+00 98 86 72
2.972110e+00 2.682273e+00 3.584459e+00 198 194 191
-1.634662e+00 2.752126e+00 2.371489e+00 57 51 45
-5.606935e+00 3.075131e+00 3.231100e+00 71 59 58
-5.606935e+00 3.075131e+00 3.231100e+00 71 59 58
-5.876906e+00 3.141722e+00 3.302361e+00 166 162 154
-5.876906e+00 3.141722e+00 3.302361e+00 166 162 154
1.929105e+00 2.683120e+00 2.875862e+00 181 175 163
-1.519844e+00 2.801246e+00 2.370417e+00 172 166 157
-3.100534e+00 2.930662e+00 2.672881e+00 67 53 40
-6.312609e-01 2.749337e+00 2.207060e+00 166 151 132
-1.351085e+00 2.819776e+00 2.326147e+00 82 69 58
1.551208e+00 2.734890e+00 2.739378e+00 47 37 28
7.578370e-01 2.721416e+00 2.348916e+00 178 169 152
3.506624e+00 2.825241e+00 3.943402e+00 75 61 38
2.795592e+00 2.787763e+00 3.462284e+00 74 59 45
7.496221e-01 2.790114e+00 2.330666e+00 76 67 59
4.218705e+00 2.936776e+00 4.352499e+00 187 180 174
4.138177e+00 2.961774e+00 4.289501e+00 84 72 56
2.721132e+00 2.908158e+00 3.418811e+00 73 57 44
3.439129e+00 2.972334e+00 3.911239e+00 184 177 167
4.113876e+00 3.012927e+00 4.279463e+00 181 168 159
3.192934e+00 2.963811e+00 3.702710e+00 73 61 49
-1.980356e+00 3.110839e+00 2.478326e+00 61 52 44
-5.316958e+00 3.430090e+00 3.156448e+00 182 175 169
3.972212e+00 3.045423e+00 4.170408e+00 67 55 43
-8.137593e-02 3.003271e+00 2.263886e+00 66 52 33
1.472370e+00 3.056209e+00 2.704883e+00 170 165 145
-1.230936e+00 3.179459e+00 2.321192e+00 170 162 147
2.603483e+00 3.160733e+00 3.405469e+00 211 207 204
2.601382e+00 3.165334e+00 3.420088e+00 211 207 204
2.483148e+00 3.155407e+00 3.311295e+00 117 111 98
4.131381e+00 3.245220e+00 4.275136e+00 213 215 219
-1.372282e+00 3.305554e+00 2.416573e+00 92 79 63
3.999165e+00 3.299008e+00 4.194827e+00 89 83 79
3.653538e+00 3.274578e+00 3.985809e+00 174 165 148
-3.863333e+00 3.575442e+00 2.885973e+00 63 55 53
3.006189e+00 3.291117e+00 3.617460e+00 68 54 41
2.099493e-01 3.215880e+00 2.290970e+00 113 97 74
-2.883930e+00 3.510759e+00 2.639450e+00 176 170 156
-4.665287e+00 3.700547e+00 3.009961e+00 180 177 168
3.080485e+00 3.308041e+00 3.685187e+00 198 195 186
8.273116e-01 3.237753e+00 2.515633e+00 52 41 31
2.864163e-01 3.225963e+00 2.296668e+00 161 148 134
2.479802e+00 3.335083e+00 3.306145e+00 129 123 107
2.479802e+00 3.335083e+00 3.306145e+00 129 123 107
7.111913e-01 3.297708e+00 2.504194e+00 153 146 128
5.693332e-01 3.305296e+00 2.454079e+00 161 151 134
-4.533692e+00 3.801041e+00 2.983265e+00 175 170 166
2.305612e+00 3.373554e+00 3.246131e+00 67 52 38
8.878191e-01 3.345049e+00 2.550207e+00 41 31 19
-3.473211e+00 3.750823e+00 2.833950e+00 197 195 181
8.837089e-01 3.404713e+00 2.553540e+00 165 154 131
3.650932e+00 3.522337e+00 3.989188e+00 92 79 62
-4.284701e+00 3.912953e+00 2.933664e+00 163 156 138
-4.296816e+00 3.915878e+00 2.927476e+00 163 156 138
3.400205e+00 3.575870e+00 3.856328e+00 79 74 63
2.122707e+00 3.541163e+00 3.205838e+00 196 192 191
-1.224627e-02 3.529759e+00 2.418214e+00 169 163 151
5.855634e-01 3.518740e+00 2.489946e+00 120 112 100
-9.383214e-02 3.586200e+00 2.426725e+00 180 175 170
9.583758e-01 3.559479e+00 2.646020e+00 156 150 134
-1.043437e+00 3.720055e+00 2.465785e+00 158 154 142
1.668367e+00 3.668282e+00 2.975198e+00 123 113 103
-4.460471e+00 4.172488e+00 2.971368e+00 115 109 111
3.423474e+00 3.734693e+00 3.854336e+00 90 76 65
1.782507e+00 3.694340e+00 3.054634e+00 87 77 56
3.258771e+00 3.746981e+00 3.790063e+00 93 75 61
3.260278e+00 3.740123e+00 3.765192e+00 93 75 61
-3.977705e+00 4.150616e+00 2.877060e+00 169 167 159
-3.979003e+00 4.152363e+00 2.874970e+00 169 167 159
-3.057300e+00 4.080247e+00 2.763478e+00 197 201 200
-4.040559e+00 4.239160e+00 2.924450e+00 99 86 74
3.014652e+00 3.849180e+00 3.630517e+00 196 188 184
2.391418e+00 3.852665e+00 3.379022e+00 92 83 76
5.180735e-01 3.841026e+00 2.594388e+00 181 176 162
3.670721e-01 3.832110e+00 2.510287e+00 73 61 45
3.670721e-01 3.832110e+00 2.510287e+00 73 61 45
7.546552e-01 3.884210e+00 2.694477e+00 156 149 139
2.460612e+00 3.944219e+00 3.391423e+00 139 130 121
-1.152128e+00 4.078421e+00 2.531764e+00 68 57 50
2.759153e+00 4.040589e+00 3.515391e+00 180 175 161
2.773761e+00 4.090878e+00 3.523603e+00 110 94 78
4.323866e-01 4.050470e+00 2.591496e+00 96 89 73
-2.421957e+00 4.384098e+00 2.709563e+00 188 188 186
-2.133027e+00 4.390783e+00 2.692658e+00 88 78 72
-3.439277e+00 4.590761e+00 2.835771e+00 81 64 52
-3.272381e+00 4.593903e+00 2.795315e+00 78 64 52
-9.414981e-01 4.335350e+00 2.596696e+00 161 157 154
1.808020e+00 4.266724e+00 3.175635e+00 204 203 197
-3.323078e+00 4.749130e+00 2.814059e+00 93 81 75
-1.725983e+00 4.563660e+00 2.684889e+00 111 94 81
-1.380485e+00 4.569462e+00 2.653843e+00 155 144 126
1.492795e+00 4.405337e+00 3.065129e+00 191 187 176
2.210593e+00 4.441476e+00 3.303636e+00 96 86 73
-4.202880e-01 4.501406e+00 2.611796e+00 118 110 99
-1.662045e+00 4.681461e+00 2.697083e+00 195 195 195
2.404005e+00 4.476509e+00 3.406894e+00 173 164 149
5.111201e-01 4.475913e+00 2.745464e+00 181 172 164
3.890837e-01 4.540603e+00 2.711250e+00 87 77 65
-1.607701e+00 4.765249e+00 2.700154e+00 199 200 191
-2.888993e+00 4.922688e+00 2.776436e+00 137 127 125
1.544575e+00 4.697668e+00 3.087196e+00 182 174 163
1.816837e+00 4.733098e+00 3.198698e+00 177 171 152
1.816837e+00 4.733098e+00 3.198698e+00 177 171 152
7.488223e-01 4.794273e+00 2.910656e+00 165 152 136
-7.034695e-02 4.843939e+00 2.727939e+00 162 158 146
4.165792e-01 4.828075e+00 2.802012e+00 171 164 152
-1.633121e+00 5.065668e+00 2.666124e+00 74 63 61
1.610386e+00 4.963618e+00 3.181267e+00 98 80 69
1.252160e+00 4.952386e+00 3.027459e+00 73 61 59
-3.717418e-01 5.034086e+00 2.726301e+00 155 150 144
1.660689e+00 4.980605e+00 3.186877e+00 201 196 189
-1.173672e+00 5.187266e+00 2.695413e+00 101 87 74
1.372717e+00 5.130985e+00 3.073949e+00 88 78 77
7.973716e-01 5.146582e+00 2.920305e+00 102 93 87
-1.885461e-01 5.356279e+00 2.747459e+00 94 78 61
4.318936e-01 -1.914471e+00 3.415568e+00 58 54 51
-5.703904e-01 -1.862871e+00 3.312873e+00 114 114 113
1.873634e+00 -1.706077e+00 3.738785e+00 145 144 140
1.873634e+00 -1.706077e+00 3.738785e+00 145 144 140
-2.805423e+00 -2.235404e+00 4.558560e+00 127 124 118
-3.218232e+00 -2.247202e+00 4.643153e+00 151 154 154
-7.620614e+00 -2.532130e+00 5.208369e+00 83 79 76
-3.166686e+00 -2.178497e+00 4.617496e+00 90 92 90
-6.063944e-01 -1.682443e+00 3.204381e+00 145 146 140
3.181199e-01 -1.624312e+00 3.341421e+00 43 42 39
3.181199e-01 -1.624312e+00 3.341421e+00 43 42 39
-7.300827e-02 -1.634151e+00 3.264366e+00 44 40 37
-3.354569e+00 -2.186876e+00 4.637119e+00 152 154 153
2.133026e+00 -1.588364e+00 3.803694e+00 95 93 94
-7.546691e+00 -2.439746e+00 5.146511e+00 135 136 131
1.856814e+00 -1.491567e+00 3.630402e+00 166 161 156
1.339940e+00 -1.330425e+00 3.347431e+00 176 176 174
1.115021e+00 -1.317788e+00 3.281492e+00 164 161 154
6.216366e-02 -1.218585e+00 2.815610e+00 186 185 181
3.360675e+00 -1.331507e+00 4.625007e+00 135 135 136
-1.632951e+00 -1.409667e+00 3.391224e+00 169 170 165
2.552036e+00 -1.075358e+00 3.858218e+00 175 173 161
1.878073e+00 -1.042825e+00 3.380609e+00 91 88 71
-2.761868e+00 -1.450744e+00 4.232590e+00 173 172 169
-2.761868e+00 -1.450744e+00 4.232590e+00 173 172 169
1.832221e+00 -1.011890e+00 3.335669e+00 92 85 75
-2.822506e+00 -1.429965e+00 4.222632e+00 77 72 69
-4.210503e+00 -1.395121e+00 3.957345e+00 29 25 26
2.441466e+00 -9.489967e-01 3.768947e+00 153 146 136
4.369881e+00 -1.037076e+00 5.380349e+00 168 167 163
3.440229e+00 -9.433416e-01 4.529590e+00 164 160 157
1.098282e+00 -8.605341e-01 3.054890e+00 178 177 173
2.747324e+00 -8.751238e-01 3.881447e+00 122 119 114
4.389144e-01 -8.330379e-01 2.864434e+00 184 180 175
6.616644e-01 -8.087631e-01 2.932104e+00 71 68 50
7.357989e-01 -8.073535e-01 2.997736e+00 106 99 91
5.537711e-01 -7.971671e-01 2.906694e+00 169 162 152
1.817425e+00 -7.848562e-01 3.245009e+00 171 172 169
-4.156046e+00 -1.117986e+00 3.769979e+00 159 155 143
3.802007e-01 -7.601297e-01 2.857692e+00 99 96 91
3.511889e+00 -8.338612e-01 4.536873e+00 42 37 40
3.511889e+00 -8.338612e-01 4.536873e+00 42 37 40
-2.704747e+00 -1.119691e+00 4.115736e+00 45 36 33
2.156916e+00 -7.397455e-01 3.367435e+00 79 71 56
2.156916e+00 -7.397455e-01 3.367435e+00 79 71 56
-4.443166e+00 -1.060124e+00 3.758992e+00 152 148 144
2.674144e-01 -7.353958e-01 2.829068e+00 107 98 80
-2.787261e+00 -1.072527e+00 4.053482e+00 101 102 97
5.946091e-01 -7.175684e-01 2.992780e+00 178 175 170
1.884049e-01 -7.270128e-01 2.952817e+00 170 168 154
-3.423401e-01 -7.289601e-01 2.877026e+00 127 120 110
-5.858289e-02 -7.374113e-01 3.033833e+00 175 174 169
3.651638e+00 -7.398749e-01 4.616236e+00 57 52 51
-2.713737e+00 -9.446964e-01 3.853373e+00 117 117 119
-3.921117e+00 -8.418944e-01 3.570933e+00 89 72 65
2.701881e+00 -5.723979e-01 3.719371e+00 102 99 90
2.707132e+00 -5.581178e-01 3.645708e+00 102 99 90
2.490970e+00 -5.603700e-01 3.599776e+00 176 173 166
-2.684936e+00 -7.958958e-01 3.613816e+00 161 159 148
-2.684936e+00 -7.958958e-01 3.613816e+00 161 159 148
-3.365943e+00 -7.168483e-01 3.333014e+00 63 56 46
-3.479385e+00 -7.097118e-01 3.332391e+00 150 150 148
3.599418e+00 -5.728400e-01 4.497286e+00 176 175 159
-2.956922e+00 -6.948048e-01 3.309080e+00 136 133 128
4.585668e+00 -6.056662e-01 5.382546e+00 111 106 102
4.585668e+00 -6.056662e-01 5.382546e+00 111 106 102
-3.563157e+00 -6.273254e-01 3.322165e+00 122 109 99
-7.482105e+00 -8.574791e-01 4.499834e+00 168 169 173
1.240573e+00 -4.132480e-01 2.989462e+00 101 96 88
3.966341e-01 -4.210959e-01 2.855994e+00 122 117 106
-6.979988e-01 -3.937524e-01 2.418953e+00 112 110 103
5.759992e-01 -3.965549e-01 2.834275e+00 124 118 108
-4.968977e-01 -3.934271e-01 2.796290e+00 100 89 77
3.494354e+00 -3.885914e-01 4.339299e+00 169 165 164
-6.512932e+00 -6.865785e-01 4.199368e+00 104 97 91
9.849816e-01 -3.247636e-01 2.817059e+00 185 186 180
3.427985e+00 -3.446618e-01 4.309879e+00 162 160 156
-3.970102e+00 -4.982526e-01 3.392708e+00 133 127 113
3.473310e+00 -3.392987e-01 4.310711e+00 49 45 44
3.473310e+00 -3.392987e-01 4.310711e+00 49 45 44
4.664975e+00 -3.801640e-01 5.356436e+00 130 122 111
4.541463e+00 -3.149879e-01 5.239475e+00 179 175 173
3.265086e+00 -2.362228e-01 4.083384e+00 53 47 32
2.437037e+00 -1.677611e-01 3.385540e+00 161 157 148
2.944591e+00 -1.531600e-01 3.736345e+00 73 69 60
7.270456e-01 -1.182530e-01 2.648587e+00 175 176 168
3.339698e+00 -1.217564e-01 4.125965e+00 55 54 51
1.668773e+00 -5.939871e-02 2.870917e+00 126 123 112
3.857086e+00 -1.063560e-01 4.565267e+00 99 91 80
-1.975951e+00 -1.298962e-01 2.630762e+00 165 161 153
3.458662e+00 -7.013420e-02 4.209723e+00 92 88 79
1.895073e+00 -2.397535e-02 3.017629e+00 189 179 170
-2.606388e+00 -1.065738e-01 2.850560e+00 148 141 133
-1.046996e+00 1.073132e-02 2.252137e+00 103 93 86
2.766804e+00 4.760782e-02 3.566509e+00 86 78 60
2.354827e-01 6.489374e-02 2.649804e+00 188 183 180
-7.036746e+00 -1.091788e-01 4.169070e+00 171 171 173
-5.661757e+00 -6.001509e-02 3.755428e+00 71 64 61
2.326962e+00 1.216144e-01 3.247772e+00 163 156 140
-6.843757e+00 -7.263061e-02 4.068029e+00 42 37 40
-3.501356e+00 4.430426e-02 3.055501e+00 172 166 154
-1.830835e-01 1.624577e-01 2.586438e+00 93 90 84
-6.839267e+00 -3.320221e-03 4.077356e+00 180 179 185
1.501384e+00 2.138068e-01 2.790340e+00 172 163 142
-6.986826e+00 1.725698e-02 4.117057e+00 184 184 190
-7.155236e+00 2.746724e-02 4.156671e+00 176 179 191
-4.271599e+00 1.160213e-01 3.268841e+00 115 112 104
-7.335896e+00 2.596028e-02 4.217773e+00 179 183 186
-1.630794e+00 2.365582e-01 2.088493e+00 186 178 166
-6.093883e+00 8.409874e-02 3.862805e+00 98 85 71
-5.498694e+00 1.911086e-01 3.650741e+00 169 169 168
-6.817200e-01 3.606640e-01 2.296812e+00 190 186 184
-2.296350e+00 3.443923e-01 2.565961e+00 173 170 165
2.755956e-01 3.971186e-01 2.518127e+00 116 112 108
3.396615e-01 4.021621e-01 2.501988e+00 63 60 55
-7.199396e+00 2.986583e-01 4.135123e+00 86 73 67
2.860918e-01 4.441936e-01 2.557918e+00 173 169 160
1.564168e+00 4.799044e-01 2.703368e+00 179 172 163
1.557000e+00 4.769260e-01 2.733521e+00 179 172 163
-3.225326e+00 4.591842e-01 2.832717e+00 179 175 163
-1.396630e+00 5.141534e-01 2.123759e+00 116 100 82
-1.735404e+00 5.175433e-01 2.234480e+00 64 49 43
3.530828e+00 5.314343e-01 3.990632e+00 73 61 52
2.700318e+00 5.447176e-01 3.439502e+00 92 84 68
1.712556e+00 5.513939e-01 2.783664e+00 182 176 161
-5.687208e-01 5.621991e-01 2.283515e+00 149 145 133
1.835817e+00 5.673817e-01 2.760915e+00 171 165 153
1.618151e+00 5.706235e-01 2.755019e+00 191 183 169
3.126821e+00 6.031587e-01 3.761844e+00 161 154 136
-2.074827e+00 6.013272e-01 2.399211e+00 170 163 153
-2.021451e+00 6.357509e-01 2.380264e+00 95 91 81
-2.021451e+00 6.357509e-01 2.380264e+00 95 91 81
-2.381103e+00 6.393646e-01 2.486643e+00 184 178 164
-5.221162e+00 6.321886e-01 3.459890e+00 101 91 78
-3.548352e-01 6.772157e-01 2.376797e+00 119 116 110
2.215168e+00 6.801929e-01 3.009740e+00 51 41 32
3.085116e+00 6.871132e-01 3.676523e+00 94 86 73
2.492385e+00 7.051373e-01 3.197428e+00 160 148 133
7.390033e-01 7.288289e-01 2.524273e+00 172 168 162
-2.114901e+00 7.321041e-01 2.377767e+00 59 45 33
-2.273714e+00 7.287884e-01 2.467343e+00 69 60 53
-2.305457e+00 7.450832e-01 2.440613e+00 190 184 169
-4.534905e+00 7.810945e-01 3.291676e+00 89 73 59
-4.534905e+00 7.810945e-01 3.291676e+00 89 73 59
-3.225361e+00 8.012149e-01 2.778705e+00 178 172 157
-3.452622e+00 8.043427e-01 2.856845e+00 175 169 158
-5.096680e+00 8.729615e-01 3.368211e+00 190 188 184
2.544845e+00 8.743444e-01 3.247837e+00 109 98 95
-3.148005e+00 8.857176e-01 2.748040e+00 160 155 134
-6.026358e+00 9.725881e-01 3.628618e+00 96 88 86
4.065872e+00 9.698349e-01 4.518974e+00 189 186 181
-3.341838e+00 1.004161e+00 2.738381e+00 63 45 30
3.096854e+00 1.015259e+00 3.663451e+00 73 63 59
-5.117121e+00 1.078092e+00 3.338444e+00 179 177 177
-1.617919e+00 1.047964e+00 2.186434e+00 166 159 149
-3.930333e+00 1.120406e+00 2.956961e+00 55 42 30
-3.930333e+00 1.120406e+00 2.956961e+00 55 42 30
1.882316e+00 1.088691e+00 2.753501e+00 150 141 126
2.086350e+00 1.128645e+00 2.893119e+00 109 92 78
1.850309e+00 1.159476e+00 2.687134e+00 50 39 35
-4.008889e+00 1.224947e+00 2.976325e+00 179 172 154
4.863454e-01 1.186704e+00 2.359721e+00 169 155 137
-4.148417e+00 1.260535e+00 3.015642e+00 172 166 153
-2.969431e+00 1.256884e+00 2.671514e+00 172 167 161
2.830326e+00 1.241881e+00 3.481963e+00 184 179 175
1.817991e+00 1.241046e+00 2.709823e+00 78 71 63
-3.610372e+00 1.313659e+00 2.825921e+00 167 163 150
3.914278e+00 1.313383e+00 4.294071e+00 69 60 44
1.729578e+00 1.287609e+00 2.608497e+00 177 164 147
4.515677e+00 1.346323e+00 4.786801e+00 90 79 71
2.301386e+00 1.324345e+00 3.038712e+00 171 163 143
-2.130387e+00 1.361100e+00 2.350473e+00 135 127 110
-2.130387e+00 1.361100e+00 2.350473e+00 135 127 110
-1.543109e+00 1.355743e+00 2.155868e+00 142 134 115
2.254102e-01 1.364613e+00 2.268282e+00 187 180 172
-3.606832e+00 1.462395e+00 2.773688e+00 177 176 171
-7.085857e+00 1.554458e+00 3.783291e+00 113 105 99
-7.085857e+00 1.554458e+00 3.783291e+00 113 105 99
-7.306386e-01 1.405215e+00 2.069608e+00 180 172 158
-7.306386e-01 1.405215e+00 2.069608e+00 180 172 158
3.245512e+00 1.425252e+00 3.773257e+00 91 80 73
1.090510e+00 1.406769e+00 2.303654e+00 180 176 173
-4.782285e+00 1.562300e+00 3.176963e+00 167 165 158
-1.480335e+00 1.508456e+00 2.151203e+00 51 36 30
-3.629727e+00 1.600864e+00 2.830381e+00 168 161 154
-3.629727e+00 1.600864e+00 2.830381e+00 168 161 154
2.643967e+00 1.512846e+00 3.335442e+00 192 188 181
-7.095146e+00 1.733233e+00 3.751873e+00 178 177 172
-1.195804e+00 1.539751e+00 2.091861e+00 166 161 133
4.364990e+00 1.562189e+00 4.642851e+00 171 162 148
4.364990e+00 1.562189e+00 4.642851e+00 171 162 148
-1.527812e+00 1.559886e+00 2.178222e+00 62 49 33
2.151982e+00 1.551049e+00 2.946735e+00 161 150 128
4.446682e+00 1.603254e+00 4.693505e+00 184 176 173
1.086277e+00 1.574397e+00 2.297381e+00 101 98 93
3.769364e+00 1.630232e+00 4.182088e+00 203 203 200
2.088969e+00 1.599993e+00 2.929029e+00 164 160 156
4.395985e+00 1.661347e+00 4.649656e+00 193 190 181
-1.041043e+00 1.661095e+00 2.035081e+00 166 152 128
-6.870106e+00 1.921508e+00 3.676153e+00 176 173 157
2.159106e+00 1.683653e+00 2.959157e+00 203 196 188
-1.213338e+00 1.698906e+00 2.058761e+00 139 132 104
-6.711274e+00 1.987562e+00 3.627480e+00 183 187 190
3.089702e+00 1.749224e+00 3.601930e+00 67 57 50
-5.498808e+00 1.973964e+00 3.342400e+00 127 124 119
-5.498808e+00 1.973964e+00 3.342400e+00 127 124 119
3.049375e+00 1.777393e+00 3.586019e+00 165 159 145
-4.284150e+00 1.926550e+00 2.993962e+00 83 68 49
-6.835879e+00 2.047484e+00 3.647021e+00 170 171 172
3.132039e+00 1.788793e+00 3.635894e+00 188 182 170
2.392049e+00 1.783919e+00 3.153737e+00 53 43 41
2.988880e+00 1.820960e+00 3.547552e+00 167 160 140
1.993168e+00 1.805705e+00 2.855630e+00 147 133 107
-1.006960e+00 1.834519e+00 2.077189e+00 101 89 73
-1.888755e-01 1.813541e+00 1.980697e+00 101 86 71
2.174308e+00 1.827310e+00 2.924776e+00 180 173 163
-2.300415e+00 1.924156e+00 2.415533e+00 85 76 67
3.565475e+00 1.873138e+00 3.911037e+00 202 195 187
1.285812e+00 1.843298e+00 2.448602e+00 97 85 74
1.285812e+00 1.843298e+00 2.448602e+00 97 85 74
-8.120537e-01 1.862003e+00 2.022580e+00 165 154 123
-1.899668e+00 1.929368e+00 2.327931e+00 194 189 183
-1.899668e+00 1.929368e+00 2.327931e+00 194 189 183
3.528412e+00 1.902365e+00 3.889484e+00 61 48 40
-2.348229e+00 1.958696e+00 2.441155e+00 159 157 158
2.137318e+00 1.873208e+00 2.937723e+00 173 164 149
1.419147e+00 1.871824e+00 2.491901e+00 77 60 52
-5.047659e+00 2.143162e+00 3.197366e+00 135 130 126
1.166087e+00 1.908357e+00 2.365492e+00 149 135 109
-4.177540e+00 2.186109e+00 2.956058e+00 154 154 146
4.027700e+00 2.034216e+00 4.307748e+00 84 73 68
2.287897e+00 1.996263e+00 3.056701e+00 53 42 28
-3.135142e+00 2.138509e+00 2.658051e+00 80 68 59
-1.351836e+00 2.045972e+00 2.166021e+00 166 154 130
-1.027405e+00 2.066317e+00 2.109244e+00 95 79 65
1.170060e+00 2.052298e+00 2.431562e+00 149 136 120
1.181416e+00 2.046461e+00 2.392547e+00 149 136 120
-3.041835e+00 2.214388e+00 2.547583e+00 73 61 62
-3.151087e+00 2.231128e+00 2.573655e+00 113 101 94
-3.151087e+00 2.231128e+00 2.573655e+00 113 101 94
-4.765522e+00 2.331415e+00 3.099627e+00 181 180 174
-1.016815e+00 2.111290e+00 2.099365e+00 167 150 119
-1.768551e+00 2.175302e+00 2.290942e+00 168 163 160
