ply
format ascii 1.0
element face 0
property list uchar int vertex_indices
element vertex 940
property float x
property float y
property float z
property uchar diffuse_red
property uchar diffuse_green
property uchar diffuse_blue
end_header
-2.031013e+00 4.039320e+00 2.715868e+00 197 195 189
-4.623716e+00 4.343690e+00 3.271756e+00 140 132 121
1.036075e+00 3.875960e+00 2.688480e+00 183 182 174
2.219883e+00 4.150413e+00 3.268728e+00 88 79 62
-1.368522e+00 4.331968e+00 2.710368e+00 169 163 163
-3.940184e+00 4.724239e+00 3.155046e+00 64 55 48
3.389089e+00 4.333385e+00 3.778666e+00 216 220 223
2.080201e+00 4.414665e+00 3.278485e+00 173 168 164
3.015097e+00 4.466008e+00 3.629192e+00 147 137 127
-2.660345e+00 5.103252e+00 3.014304e+00 185 181 169
-2.660345e+00 5.103252e+00 3.014304e+00 185 181 169
2.937451e-01 5.476629e+00 2.982561e+00 193 189 185
-6.839898e+00 -2.987204e+00 5.002275e+00 153 154 158
1.208819e+00 -1.561551e+00 2.906023e+00 96 92 83
1.014280e+00 -1.456224e+00 2.874216e+00 189 191 190
-4.772742e+00 -1.932696e+00 4.099816e+00 179 179 171
-4.772742e+00 -1.932696e+00 4.099816e+00 179 179 171
1.911450e+00 -1.224857e+00 2.932847e+00 186 185 181
8.518425e-01 -1.241242e+00 2.803850e+00 191 190 185
1.589468e+00 -1.051918e+00 2.856036e+00 158 151 145
4.562616e-01 -1.046287e+00 2.697215e+00 99 96 88
-3.910934e+00 -1.319546e+00 3.449513e+00 86 77 61
3.411636e+00 -8.895315e-01 3.772718e+00 85 82 77
5.265459e-01 -7.405652e-01 2.640335e+00 180 180 180
2.419170e+00 -6.974453e-01 2.955987e+00 145 144 139
-5.236749e+00 -1.117387e+00 3.827673e+00 169 167 156
3.330676e+00 -7.419343e-01 3.679075e+00 174 171 166
3.802927e+00 -7.626554e-01 4.098787e+00 176 170 158
2.313412e+00 -6.117050e-01 2.881329e+00 187 186 181
-6.890108e+00 -1.193008e+00 4.335060e+00 178 176 172
2.490828e+00 -5.303988e-01 2.936744e+00 180 179 177
4.952275e+00 -6.455650e-01 4.970610e+00 172 168 158
4.415980e+00 -5.262489e-01 4.507058e+00 190 183 167
3.137223e+00 -3.397242e-01 3.369481e+00 51 46 42
-3.246090e+00 -2.535481e-01 2.886113e+00 159 155 144
4.697212e+00 -1.105061e-01 4.557595e+00 81 78 73
2.314029e+00 1.528053e-01 2.674956e+00 158 151 133
-2.559593e+00 1.526706e-01 2.456246e+00 167 166 162
-6.113318e+00 -1.198521e-02 3.820781e+00 171 166 170
-1.216399e+00 3.396364e-01 2.180434e+00 165 159 145
-6.177538e-01 3.797062e-01 2.193932e+00 180 179 177
-6.024614e+00 1.464888e-01 3.765957e+00 56 51 41
-6.024614e+00 1.464888e-01 3.765957e+00 56 51 41
4.978255e+00 2.781017e-01 4.721323e+00 186 183 176
1.663491e+00 5.312753e-01 2.411513e+00 184 177 168
6.770378e-01 6.518828e-01 2.343846e+00 101 88 82
4.742790e+00 6.046273e-01 4.524536e+00 111 95 71
-9.696906e-01 8.365870e-01 1.914213e+00 174 162 138
4.594450e+00 6.861418e-01 4.441461e+00 176 169 161
3.244381e+00 7.745433e-01 3.315259e+00 78 64 55
-4.698731e+00 7.738367e-01 3.202188e+00 188 188 190
-5.833631e+00 7.308667e-01 3.629165e+00 180 180 178
2.182585e+00 8.483787e-01 2.553593e+00 174 168 149
2.971611e+00 9.852886e-01 3.093988e+00 155 151 139
2.613142e-01 1.044781e+00 2.265839e+00 194 182 168
-3.861178e-01 1.090634e+00 1.986388e+00 177 160 135
3.914053e+00 9.977318e-01 3.828273e+00 65 56 47
-6.838053e+00 1.078401e+00 3.942944e+00 184 191 194
2.682321e+00 1.114162e+00 2.933382e+00 197 192 191
-1.586268e-01 1.297117e+00 1.913013e+00 155 152 144
9.375738e-01 1.426284e+00 2.077375e+00 177 164 149
4.940166e+00 1.308418e+00 4.634911e+00 187 181 162
-1.624371e+00 1.531284e+00 2.069193e+00 74 59 53
-8.353714e-01 1.555637e+00 1.929040e+00 172 168 165
3.033145e+00 1.537395e+00 3.198894e+00 68 64 55
3.030147e+00 1.539181e+00 3.195119e+00 68 64 55
-6.489579e+00 1.665425e+00 3.765857e+00 71 61 52
-6.489579e+00 1.665425e+00 3.765857e+00 71 61 52
-4.018732e+00 1.677661e+00 2.934446e+00 197 206 210
2.281308e+00 1.626385e+00 2.701616e+00 180 176 177
1.224309e+00 1.664473e+00 2.124772e+00 196 192 189
3.519468e+00 1.693288e+00 3.519476e+00 76 69 59
-4.808076e+00 1.847605e+00 3.214271e+00 185 182 172
-4.808076e+00 1.847605e+00 3.214271e+00 185 182 172
-5.796864e+00 1.877061e+00 3.572689e+00 158 157 152
-5.796864e+00 1.877061e+00 3.572689e+00 158 157 152
2.589551e+00 2.160937e+00 2.964955e+00 66 57 48
3.427585e+00 2.348479e+00 3.529449e+00 75 63 57
1.625393e+00 2.384871e+00 2.486364e+00 164 155 143
-4.095551e+00 2.650938e+00 3.019090e+00 190 191 194
3.583408e+00 2.485607e+00 3.652651e+00 70 61 54
1.997073e+00 2.505872e+00 2.700638e+00 67 54 47
-4.019490e+00 2.827054e+00 3.012660e+00 54 46 43
2.690609e+00 2.642148e+00 3.128186e+00 196 191 187
-6.335756e+00 3.019109e+00 3.665084e+00 171 168 161
3.021905e+00 2.806474e+00 3.385759e+00 81 67 54
6.695206e-01 2.825369e+00 2.218468e+00 61 51 42
2.574914e+00 2.817186e+00 3.087959e+00 74 67 59
2.574914e+00 2.817186e+00 3.087959e+00 74 67 59
-4.400796e+00 3.130413e+00 3.130834e+00 69 56 47
1.867045e+00 2.979736e+00 2.732516e+00 176 169 152
2.057396e+00 3.088915e+00 2.881370e+00 67 55 41
-2.807360e+00 3.450361e+00 2.797810e+00 177 174 167
-5.908732e+00 3.719247e+00 3.522396e+00 207 210 215
-1.869358e+00 3.542385e+00 2.567395e+00 54 45 37
3.126857e+00 3.399484e+00 3.565101e+00 102 90 74
5.580459e-01 3.417122e+00 2.381611e+00 74 57 36
-4.877500e+00 3.924922e+00 3.289368e+00 179 174 167
-5.512990e+00 4.004623e+00 3.458525e+00 202 206 209
-7.078455e-01 3.633875e+00 2.414356e+00 164 157 140
-2.582044e+00 3.838916e+00 2.781302e+00 68 61 52
9.881209e-02 3.874216e+00 2.460155e+00 160 148 132
-4.797316e+00 4.451427e+00 3.313441e+00 211 219 224
-2.564981e+00 4.270397e+00 2.892390e+00 86 72 63
7.497883e-01 4.037380e+00 2.658659e+00 207 202 196
-9.135773e-01 4.304199e+00 2.655118e+00 89 76 62
-2.263335e+00 4.467509e+00 2.873082e+00 151 144 136
-9.230226e-01 4.415104e+00 2.725423e+00 178 161 143
-1.202664e+00 4.453622e+00 2.749293e+00 61 50 46
3.061964e+00 4.562205e+00 3.666235e+00 222 225 230
1.595249e+00 4.622878e+00 3.159117e+00 178 171 150
2.689691e+00 4.704754e+00 3.544140e+00 122 112 100
1.612588e+00 4.718627e+00 3.135027e+00 108 100 89
-2.830163e+00 5.097547e+00 3.048634e+00 101 87 69
1.775358e-01 5.100696e+00 2.904002e+00 133 132 128
9.464145e-01 5.226942e+00 3.081821e+00 192 184 173
2.137473e+00 -2.160693e+00 3.412899e+00 163 162 160
-7.417904e+00 -3.338536e+00 5.267254e+00 99 100 95
7.274927e-01 -2.080194e+00 2.962722e+00 144 143 138
-8.513707e+00 -3.402259e+00 5.571611e+00 146 145 143
-3.180766e+00 -2.737432e+00 4.435202e+00 163 167 168
-2.705182e-01 -2.017136e+00 2.883915e+00 160 159 155
2.748027e-01 -2.056097e+00 3.173936e+00 148 148 148
2.034924e-02 -2.067112e+00 3.166676e+00 159 158 153
7.591446e-01 -1.831496e+00 2.894286e+00 168 165 160
-4.603451e+00 -2.364680e+00 4.083341e+00 33 28 26
-4.082936e+00 -2.294112e+00 3.996870e+00 89 89 89
-6.652518e-01 -1.563068e+00 2.769816e+00 169 169 169
6.675859e-01 -1.488013e+00 2.870095e+00 191 190 186
4.187234e+00 -1.656870e+00 4.696641e+00 24 20 18
4.187234e+00 -1.656870e+00 4.696641e+00 24 20 18
-1.237301e-01 -1.359708e+00 2.517620e+00 133 129 118
-7.848063e+00 -2.139166e+00 4.899880e+00 30 26 26
-8.129406e+00 -2.177932e+00 5.029069e+00 124 124 124
2.231268e+00 -1.161896e+00 3.004730e+00 183 183 181
-2.765971e+00 -1.672074e+00 3.903295e+00 179 179 179
3.446055e+00 -1.227446e+00 3.926846e+00 161 158 151
-4.789693e+00 -1.616679e+00 3.878170e+00 183 177 165
3.966178e+00 -1.268658e+00 4.330750e+00 160 159 159
1.666426e+00 -1.055062e+00 2.846020e+00 111 105 91
-3.493866e+00 -1.504656e+00 3.789007e+00 96 89 79
-8.113024e+00 -1.872678e+00 4.943730e+00 82 82 84
-5.737461e-01 -1.032027e+00 2.624152e+00 140 133 116
-6.009956e+00 -1.464709e+00 4.160630e+00 156 156 145
-8.105505e+00 -1.689429e+00 4.874031e+00 147 149 148
-3.772805e+00 -1.191539e+00 3.311056e+00 159 154 149
6.862303e-01 -8.442691e-01 2.673997e+00 185 186 184
-3.436501e+00 -1.167153e+00 3.406440e+00 147 141 128
-1.596141e-01 -7.261678e-01 2.540905e+00 191 190 185
-3.549316e+00 -9.956469e-01 3.306063e+00 180 180 171
-5.010459e+00 -1.035640e+00 3.717957e+00 101 94 86
2.198427e+00 -6.143205e-01 2.873407e+00 168 165 159
2.289595e-01 -5.839853e-01 2.584275e+00 179 178 181
-6.639350e+00 -1.101904e+00 4.246074e+00 105 93 84
-2.890851e+00 -8.011009e-01 3.174316e+00 179 178 176
-1.102579e+00 -4.941035e-01 2.459832e+00 185 183 184
-3.887911e+00 -6.963477e-01 3.190529e+00 181 184 188
-5.556532e-01 -5.400699e-01 2.872540e+00 204 205 202
-1.728855e+00 -4.132983e-01 2.162497e+00 176 170 164
-2.420950e+00 -5.474114e-01 2.637423e+00 176 175 170
-7.935509e+00 -9.715668e-01 4.633138e+00 168 170 165
-6.995104e+00 -8.836093e-01 4.301667e+00 182 181 182
1.675323e+00 -3.109350e-01 2.650399e+00 155 152 138
-5.513686e+00 -5.860011e-01 3.735642e+00 92 82 70
2.683681e+00 -2.366672e-01 3.073898e+00 181 173 160
2.433560e+00 -2.216572e-01 2.839318e+00 161 157 154
-4.776839e+00 -5.013801e-01 3.495865e+00 97 89 76
3.215083e+00 -2.654314e-01 3.484896e+00 164 158 144
-4.013932e+00 -4.071599e-01 3.141530e+00 175 173 160
-6.760207e+00 -5.866096e-01 4.157722e+00 171 173 177
-3.539871e+00 -2.851675e-01 3.024915e+00 46 37 27
1.431994e+00 3.507971e-02 2.493658e+00 187 184 177
4.252741e-01 1.642163e-02 2.487337e+00 30 29 26
1.995083e+00 8.220302e-02 2.563988e+00 190 186 175
-5.192015e+00 -1.587888e-01 3.533570e+00 168 162 143
4.150755e+00 2.690983e-02 4.160991e+00 84 68 45
4.906841e+00 -3.340199e-02 4.771687e+00 82 77 81
3.201371e-01 1.990349e-01 2.294637e+00 161 160 159
-4.374514e-01 2.082656e-01 2.282198e+00 184 180 177
-4.374514e-01 2.082656e-01 2.282198e+00 184 180 177
-3.187566e+00 1.333909e-01 2.751024e+00 77 63 51
2.962375e+00 2.056212e-01 3.137633e+00 83 70 53
-4.907640e+00 4.807763e-02 3.358361e+00 58 49 40
-6.458103e+00 -7.597004e-03 3.950990e+00 175 175 177
-5.878476e+00 5.455357e-02 3.735903e+00 71 58 48
-5.878476e+00 5.455357e-02 3.735903e+00 71 58 48
-5.512064e+00 1.491560e-01 3.682203e+00 178 174 163
4.894420e+00 1.997262e-01 4.683518e+00 91 81 65
-8.291189e-01 4.155337e-01 2.193887e+00 177 176 174
-4.733211e-01 4.089708e-01 2.312955e+00 172 170 166
-2.476873e+00 4.297586e-01 2.445399e+00 157 152 145
-5.068289e+00 3.050577e-01 3.408821e+00 174 169 151
-1.252177e+00 5.115926e-01 2.185081e+00 184 177 160
-1.775260e+00 5.143323e-01 2.025023e+00 162 152 140
-7.574256e+00 2.289369e-01 4.276756e+00 168 165 160
-9.555119e-01 5.580430e-01 2.002374e+00 162 158 147
2.023867e+00 5.441372e-01 2.414809e+00 157 150 145
-5.946530e-01 5.761424e-01 2.121682e+00 177 177 169
-3.859629e+00 4.512429e-01 2.920342e+00 177 171 160
4.925397e+00 3.863922e-01 4.652292e+00 194 191 184
-4.944134e+00 5.046945e-01 3.426010e+00 192 188 179
-2.297912e+00 6.785993e-01 2.292345e+00 95 80 63
-3.768881e+00 8.809126e-01 2.842018e+00 71 56 45
3.835006e+00 8.962298e-01 3.808406e+00 188 177 168
3.719510e+00 9.128764e-01 3.656847e+00 75 63 49
3.158489e+00 1.018571e+00 3.318870e+00 182 173 165
-2.462527e+00 1.093896e+00 2.352084e+00 90 85 82
2.124226e+00 1.335926e+00 2.557928e+00 126 116 104
-8.723959e-02 1.458882e+00 1.936480e+00 101 103 96
2.948947e+00 1.451170e+00 3.161419e+00 155 150 140
-4.469352e-01 1.563102e+00 1.804294e+00 49 39 30
7.602853e-01 1.579210e+00 2.029895e+00 182 175 159
3.412772e+00 1.610700e+00 3.475004e+00 182 174 154
7.054183e-02 1.724591e+00 1.819780e+00 177 174 169
7.054183e-02 1.724591e+00 1.819780e+00 177 174 169
-4.624063e+00 1.862418e+00 3.157708e+00 102 89 69
2.756295e+00 1.763817e+00 3.084475e+00 67 58 43
-1.248629e+00 1.871774e+00 2.012763e+00 100 88 65
1.059919e+00 1.908054e+00 1.976283e+00 84 68 53
2.064524e+00 1.912508e+00 2.659096e+00 181 181 179
-2.846573e+00 2.039667e+00 2.535835e+00 128 120 112
4.526172e+00 1.933190e+00 4.287680e+00 200 196 195
2.681660e+00 1.979214e+00 3.034874e+00 186 183 172
-4.359833e+00 2.201354e+00 3.088895e+00 138 131 121
3.941542e+00 2.064933e+00 3.861954e+00 141 132 124
1.847884e+00 2.154740e+00 2.569949e+00 182 180 175
3.010897e+00 2.223862e+00 3.275508e+00 172 167 149
-1.219466e+00 2.368425e+00 2.091410e+00 66 49 30
3.523487e+00 2.390582e+00 3.627317e+00 189 180 173
3.525273e+00 2.390420e+00 3.634474e+00 189 180 173
-2.294155e+00 2.657891e+00 2.439906e+00 180 175 155
2.049846e+00 2.571210e+00 2.747561e+00 172 159 136
1.390795e+00 2.584735e+00 2.445803e+00 176 176 175
-4.783926e+00 2.876117e+00 3.275838e+00 82 72 62
4.883660e+00 2.576583e+00 4.409989e+00 171 161 149
4.893595e+00 2.585698e+00 4.476553e+00 171 161 149
-2.563181e+00 2.871776e+00 2.595670e+00 98 89 74
2.543296e+00 2.719079e+00 3.054762e+00 177 167 157
-6.647540e+00 3.157612e+00 3.718481e+00 190 198 200
1.763819e+00 2.800508e+00 2.685988e+00 197 187 175
3.412206e-01 2.827608e+00 2.108054e+00 65 52 37
2.353137e+00 2.852964e+00 3.005634e+00 161 152 147
-2.389613e+00 3.027123e+00 2.584422e+00 58 48 38
-3.849925e+00 3.142710e+00 2.957254e+00 186 184 174
3.036435e+00 2.905443e+00 3.429297e+00 180 171 159
3.036435e+00 2.905443e+00 3.429297e+00 180 171 159
9.626207e-01 2.953083e+00 2.372267e+00 176 167 150
-3.445103e+00 3.235484e+00 2.895081e+00 187 187 187
-4.125336e+00 3.298817e+00 3.100308e+00 83 72 64
4.618586e+00 3.086997e+00 4.323495e+00 129 120 112
3.700731e+00 3.096479e+00 3.852921e+00 189 185 176
-2.988723e+00 3.355317e+00 2.812054e+00 143 137 122
-5.921833e+00 3.583657e+00 3.546304e+00 127 120 111
2.186404e+00 3.135188e+00 2.955574e+00 191 186 181
4.374972e+00 3.136958e+00 4.157869e+00 165 155 147
2.466323e-01 3.159902e+00 2.203370e+00 71 59 43
2.050248e+00 3.201914e+00 2.920707e+00 191 184 174
2.050248e+00 3.201914e+00 2.920707e+00 191 184 174
2.275194e-01 3.307540e+00 2.283461e+00 165 155 139
2.062575e+00 3.292397e+00 2.933508e+00 69 60 54
2.556689e+00 3.400098e+00 3.266299e+00 183 172 151
9.682907e-01 3.405782e+00 2.524281e+00 161 147 124
4.071810e+00 3.440936e+00 4.036120e+00 166 157 142
4.071810e+00 3.440936e+00 4.036120e+00 166 157 142
-5.978098e-01 3.552870e+00 2.377448e+00 64 55 46
-2.223952e+00 3.709383e+00 2.690765e+00 79 68 50
-2.223952e+00 3.709383e+00 2.690765e+00 79 68 50
-5.035944e+00 4.041938e+00 3.360177e+00 188 187 186
2.213320e+00 3.580490e+00 3.115954e+00 60 52 43
2.213320e+00 3.580490e+00 3.115954e+00 60 52 43
-1.183912e+00 3.776365e+00 2.546263e+00 179 173 154
3.539132e-01 3.657976e+00 2.406641e+00 182 176 160
-2.379416e+00 3.988907e+00 2.770409e+00 130 124 106
-2.379416e+00 3.988907e+00 2.770409e+00 130 124 106
2.181587e+00 3.760518e+00 3.154224e+00 179 175 173
2.050064e+00 3.880852e+00 3.097228e+00 82 74 53
2.844700e+00 3.933003e+00 3.491722e+00 65 57 47
8.952745e-01 4.006709e+00 2.713776e+00 79 70 54
1.475785e+00 4.117814e+00 2.956831e+00 179 169 158
-1.180785e+00 4.336077e+00 2.710945e+00 201 192 176
-7.401818e-01 4.373980e+00 2.668204e+00 106 88 74
-3.980293e+00 4.744315e+00 3.185286e+00 96 86 76
2.969442e+00 4.376878e+00 3.575716e+00 111 94 78
9.012605e-01 4.419014e+00 2.871016e+00 182 175 158
1.893913e+00 4.527817e+00 3.251375e+00 195 194 192
1.652958e+00 4.516614e+00 3.118642e+00 62 52 42
1.786285e+00 4.596824e+00 3.189765e+00 210 208 209
1.214317e+00 4.748673e+00 3.096982e+00 160 149 140
-1.356348e+00 4.953136e+00 2.909798e+00 144 136 128
1.771726e+00 5.148049e+00 3.307085e+00 88 71 53
-1.489527e+00 5.653166e+00 3.013233e+00 113 99 86
-1.224099e+00 5.799056e+00 3.027711e+00 214 215 215
-5.185737e+00 -3.239435e+00 4.760921e+00 146 146 148
2.002005e+00 -1.973113e+00 3.233381e+00 134 130 129
2.093851e+00 -1.983528e+00 3.321291e+00 58 54 51
-2.897032e+00 -2.690355e+00 4.408938e+00 67 62 58
-8.753466e+00 -3.354041e+00 5.639332e+00 94 95 90
3.641659e+00 -1.790716e+00 4.312246e+00 156 152 151
3.386184e+00 -1.742336e+00 4.135746e+00 47 46 41
-5.332481e+00 -2.214436e+00 4.160275e+00 148 148 148
3.549944e+00 -1.735107e+00 4.232037e+00 39 35 34
1.566391e+00 -1.533170e+00 3.000418e+00 181 181 179
3.323185e+00 -1.652107e+00 4.071080e+00 163 163 161
-1.656187e+00 -1.715946e+00 3.185979e+00 83 75 61
-1.733968e+00 -1.681350e+00 3.194658e+00 175 173 168
1.537851e+00 -1.347045e+00 2.922238e+00 195 195 193
4.253385e+00 -1.576877e+00 4.704969e+00 161 160 158
-7.256770e+00 -2.139072e+00 4.705370e+00 123 119 116
1.047978e+00 -1.265131e+00 2.838271e+00 160 159 155
-5.913328e-01 -1.228726e+00 2.426709e+00 127 124 115
-2.687016e+00 -1.788296e+00 4.088405e+00 89 82 77
4.818844e+00 -1.564530e+00 5.146520e+00 33 29 26
4.818844e+00 -1.564530e+00 5.146520e+00 33 29 26
3.499678e+00 -1.326684e+00 3.964054e+00 114 114 103
1.320700e+00 -1.192031e+00 2.858676e+00 136 133 124
2.886016e+00 -1.246238e+00 3.525184e+00 190 183 165
-8.241774e+00 -2.087437e+00 5.053914e+00 66 65 65
1.112792e+00 -1.090166e+00 2.792076e+00 169 170 165
6.457451e-01 -1.081984e+00 2.685923e+00 171 168 155
2.153879e+00 -1.048263e+00 2.917788e+00 62 54 47
-2.843125e+00 -1.495974e+00 3.855328e+00 181 182 176
3.281018e+00 -1.111667e+00 3.767422e+00 164 158 136
3.281018e+00 -1.111667e+00 3.767422e+00 164 158 136
2.285386e+00 -9.918120e-01 2.982147e+00 170 169 165
8.487602e-01 -8.849978e-01 2.713656e+00 194 193 189
8.554701e-01 -8.761968e-01 2.681016e+00 194 193 189
-4.061304e+00 -1.225943e+00 3.462464e+00 177 171 160
-4.061304e+00 -1.225943e+00 3.462464e+00 177 171 160
-4.891716e+00 -1.209091e+00 3.695740e+00 167 160 145
3.903694e+00 -9.404524e-01 4.185904e+00 172 166 157
-2.925846e+00 -9.788507e-01 3.337707e+00 113 112 110
-2.167212e+00 -7.154300e-01 2.637516e+00 184 184 182
-4.781642e+00 -9.526756e-01 3.603691e+00 175 169 155
-7.302589e+00 -1.131972e+00 4.474115e+00 113 106 88
-4.749404e+00 -8.149487e-01 3.540410e+00 76 67 50
1.244023e+00 -4.162128e-01 2.610940e+00 192 192 190
4.240713e-01 -4.333576e-01 2.565311e+00 188 189 187
3.323663e-01 -4.371739e-01 2.549153e+00 191 192 190
2.844710e+00 -4.146497e-01 3.183703e+00 169 166 159
2.507039e+00 -3.123282e-01 2.897111e+00 127 123 120
8.548547e-01 -2.960075e-01 2.537958e+00 89 79 69
-3.604284e+00 -4.918931e-01 3.042600e+00 160 156 147
3.186371e+00 -3.284966e-01 3.411460e+00 49 45 41
-6.509495e+00 -7.120283e-01 4.122546e+00 45 41 38
5.036463e+00 -5.253149e-01 4.986731e+00 57 54 42
4.348668e+00 -4.286636e-01 4.455251e+00 101 94 87
3.299789e+00 -2.858519e-01 3.456705e+00 75 70 65
7.996447e-01 -2.154099e-01 2.504782e+00 179 178 174
4.706631e-01 -2.055488e-01 2.509889e+00 186 181 175
3.418837e-01 -1.941872e-01 2.419738e+00 181 178 169
-6.353831e+00 -5.773789e-01 3.984281e+00 180 180 187
3.665086e+00 -2.598282e-01 3.828654e+00 162 158 154
3.460171e-01 -1.421785e-01 2.440065e+00 169 165 154
3.818237e+00 -2.376357e-01 3.916616e+00 175 176 171
2.213773e+00 -1.142510e-01 2.681140e+00 66 57 52
2.131818e+00 -1.111348e-01 2.668662e+00 176 170 158
3.133133e+00 -1.326104e-01 3.329397e+00 60 49 40
2.057666e-01 -4.636943e-02 2.411113e+00 74 62 53
2.238079e+00 -2.173498e-02 2.655632e+00 158 150 138
-5.466365e+00 -3.034505e-01 3.663190e+00 159 163 166
-6.263276e+00 -3.496576e-01 3.936781e+00 173 175 174
3.326512e+00 -5.346501e-02 3.420972e+00 185 182 175
-3.418177e+00 -1.376040e-01 2.893011e+00 181 175 150
2.243155e+00 6.886038e-02 2.643313e+00 75 68 60
-6.476550e+00 -2.813199e-01 4.007284e+00 170 166 158
3.181516e+00 7.839774e-02 3.372651e+00 180 176 167
4.319339e-01 1.584160e-01 2.346671e+00 171 170 167
-6.245821e+00 -1.462072e-01 3.907533e+00 171 167 163
-1.582067e+00 1.799281e-01 2.150869e+00 170 167 158
4.311764e+00 4.825087e-02 4.262759e+00 92 85 69
3.186995e+00 1.855043e-01 3.341141e+00 109 105 93
2.979885e+00 3.116595e-01 3.208821e+00 170 159 137
2.979885e+00 3.116595e-01 3.208821e+00 170 159 137
4.966400e-01 3.804905e-01 2.340448e+00 175 171 168
-3.109956e+00 3.220582e-01 2.667049e+00 177 173 161
4.701931e+00 2.462926e-01 4.562640e+00 172 167 163
4.701931e+00 2.462926e-01 4.562640e+00 172 167 163
4.701931e+00 2.462926e-01 4.562640e+00 172 167 163
-6.161816e+00 2.342388e-01 3.805048e+00 180 180 180
4.826203e+00 2.694228e-01 4.658147e+00 154 149 134
4.607977e+00 3.052377e-01 4.494786e+00 46 39 40
-8.278841e-01 5.046643e-01 2.002964e+00 83 76 70
-2.980757e-01 5.102662e-01 2.133655e+00 87 82 71
4.729387e+00 3.408133e-01 4.575556e+00 45 41 39
-1.414995e+00 5.211681e-01 2.146733e+00 184 169 149
3.678159e+00 4.570371e-01 3.667696e+00 192 189 177
1.907559e+00 5.641311e-01 2.415082e+00 195 188 177
2.563654e+00 5.465783e-01 2.867571e+00 85 74 64
-2.483875e-01 5.964142e-01 2.206587e+00 171 167 164
5.235628e-01 6.084665e-01 2.345092e+00 150 143 133
-2.228124e+00 6.087962e-01 2.261039e+00 168 164 152
-3.950778e+00 5.433068e-01 2.923415e+00 178 180 175
-4.720968e+00 5.166772e-01 3.321238e+00 96 76 58
-4.720968e+00 5.166772e-01 3.321238e+00 96 76 58
-6.866836e+00 5.042079e-01 4.011913e+00 95 77 71
3.786174e-01 7.399355e-01 2.356004e+00 178 173 167
-4.596252e+00 6.245511e-01 3.238550e+00 163 159 146
2.833236e+00 7.063680e-01 3.096278e+00 165 155 146
2.406117e+00 7.892061e-01 2.796998e+00 177 171 160
-2.799847e+00 8.212580e-01 2.515776e+00 172 176 175
7.372966e-01 8.985780e-01 2.171776e+00 103 93 80
2.818754e+00 8.392604e-01 3.010435e+00 192 193 189
2.162880e+00 9.529592e-01 2.530754e+00 86 75 64
3.476841e+00 9.160254e-01 3.447442e+00 190 183 175
2.355583e+00 9.882151e-01 2.706581e+00 109 100 88
2.280870e+00 9.911288e-01 2.650613e+00 152 144 126
-2.017108e+00 1.041618e+00 2.204359e+00 65 53 41
2.162904e+00 1.023498e+00 2.577808e+00 161 152 137
3.791595e+00 9.910368e-01 3.712004e+00 66 52 39
2.539400e+00 1.063754e+00 2.816154e+00 135 125 115
-4.654646e-01 1.158508e+00 1.926074e+00 83 70 61
3.832401e+00 1.052880e+00 3.749746e+00 186 180 167
-2.524777e+00 1.183904e+00 2.364671e+00 181 185 189
1.192229e+00 1.259147e+00 2.073600e+00 104 97 91
2.152271e+00 1.244804e+00 2.579659e+00 190 183 177
4.363944e+00 1.174654e+00 4.193909e+00 67 57 48
4.363944e+00 1.174654e+00 4.193909e+00 67 57 48
-7.505926e-01 1.362946e+00 1.893273e+00 169 160 145
-2.471095e+00 1.345198e+00 2.307645e+00 146 135 117
-4.287962e+00 1.348408e+00 3.053492e+00 179 173 159
-4.287962e+00 1.348408e+00 3.053492e+00 179 173 159
-5.218698e+00 1.331744e+00 3.459036e+00 172 159 144
-3.142096e+00 1.362789e+00 2.627751e+00 164 162 150
2.726453e+00 1.324993e+00 2.929319e+00 180 174 162
1.862859e+00 1.390431e+00 2.364702e+00 78 65 48
-5.913028e+00 1.453945e+00 3.595341e+00 159 153 139
-1.532659e-01 1.497877e+00 1.890071e+00 164 160 148
2.867506e+00 1.424338e+00 3.118284e+00 61 51 42
1.985334e+00 1.479205e+00 2.463048e+00 134 121 104
1.984970e+00 1.479368e+00 2.458686e+00 134 121 104
-1.012021e+00 1.549462e+00 1.833806e+00 122 109 92
1.213405e+00 1.536376e+00 2.092473e+00 97 94 87
2.851892e+00 1.541570e+00 3.114719e+00 143 136 125
2.504516e+00 1.559183e+00 2.857077e+00 100 85 67
2.948331e+00 1.590040e+00 3.115434e+00 164 157 149
4.013674e+00 1.579017e+00 3.916804e+00 164 156 144
-2.786433e+00 1.793346e+00 2.498657e+00 72 64 60
-2.019993e+00 1.797069e+00 2.249165e+00 158 146 129
3.621582e+00 1.706768e+00 3.569293e+00 183 179 168
3.279461e+00 1.752261e+00 3.401960e+00 172 164 153
2.322664e+00 1.813194e+00 2.730259e+00 75 62 45
1.698747e+00 1.881718e+00 2.362230e+00 81 68 55
4.723441e+00 1.821390e+00 4.434989e+00 82 74 63
1.775067e+00 1.888513e+00 2.400317e+00 166 157 143
3.818619e+00 1.856520e+00 3.749545e+00 165 158 155
3.177919e+00 1.881680e+00 3.361502e+00 169 162 152
-2.223004e-01 1.953959e+00 1.859306e+00 183 175 164
-4.824046e+00 2.037381e+00 3.210324e+00 180 180 181
5.383863e-01 1.995500e+00 1.838275e+00 175 163 151
-2.611259e+00 2.142277e+00 2.482360e+00 185 185 182
2.511933e+00 2.066321e+00 2.959790e+00 186 177 163
-5.586737e+00 2.295700e+00 3.468604e+00 189 191 192
2.130285e+00 2.135579e+00 2.675792e+00 158 152 140
-1.744957e+00 2.227468e+00 2.256679e+00 180 180 178
-1.744957e+00 2.227468e+00 2.256679e+00 180 180 178
1.227721e+00 2.221765e+00 2.311441e+00 89 75 60
-5.600190e+00 2.481579e+00 3.468500e+00 167 166 164
9.819185e-01 2.260804e+00 2.097882e+00 69 58 40
3.608214e+00 2.233530e+00 3.662333e+00 170 163 157
4.315174e+00 2.283885e+00 4.172261e+00 113 104 100
4.315174e+00 2.283885e+00 4.172261e+00 113 104 100
3.011340e+00 2.309841e+00 3.304579e+00 62 54 44
2.851007e+00 2.316306e+00 3.219057e+00 168 159 153
3.699186e+00 2.306349e+00 3.722856e+00 210 208 211
3.698350e+00 2.307397e+00 3.725257e+00 210 208 211
4.138899e+00 2.342620e+00 4.077155e+00 183 176 165
4.868266e+00 2.318566e+00 4.366727e+00 178 181 180
-5.632533e+00 2.679817e+00 3.475496e+00 175 174 169
3.109529e+00 2.395846e+00 3.309393e+00 180 173 165
-3.057672e+00 2.619103e+00 2.588684e+00 169 165 159
-5.236121e+00 2.725298e+00 3.394659e+00 162 159 154
2.183810e+00 2.471693e+00 2.837182e+00 187 181 169
-2.235077e-01 2.512646e+00 1.987332e+00 155 143 127
-2.235077e-01 2.512646e+00 1.987332e+00 155 143 127
7.694415e-01 2.498418e+00 2.150562e+00 180 177 170
3.504924e+00 2.475306e+00 3.624742e+00 55 45 36
-1.441070e+00 2.581655e+00 2.216306e+00 170 163 153
-3.295929e+00 2.669859e+00 2.741135e+00 191 187 184
8.921522e-01 2.530904e+00 2.206881e+00 171 164 154
7.282102e-01 2.548589e+00 2.088359e+00 75 65 47
3.738267e-01 2.579135e+00 1.987953e+00 127 114 97
3.738267e-01 2.579135e+00 1.987953e+00 127 114 97
-1.948783e+00 2.714388e+00 2.391606e+00 188 188 185
-3.052913e+00 2.764833e+00 2.695179e+00 98 93 81
3.969048e+00 2.647197e+00 3.859963e+00 88 69 58
9.707495e-01 2.675854e+00 2.230969e+00 108 95 76
4.988957e+00 2.670196e+00 4.541308e+00 124 115 107
2.460704e+00 2.690483e+00 3.007491e+00 80 67 56
2.175631e+00 2.713644e+00 2.805565e+00 180 173 163
5.382433e-01 2.760015e+00 2.203629e+00 176 166 157
-6.135930e+00 3.173386e+00 3.589423e+00 180 176 169
-3.822849e+00 3.051586e+00 2.949651e+00 109 104 100
4.857044e+00 2.810421e+00 4.457382e+00 112 105 94
-4.159572e+00 3.149330e+00 3.067413e+00 145 138 130
-2.141718e+00 3.036155e+00 2.525352e+00 124 117 101
-6.210965e+00 3.372036e+00 3.612276e+00 115 102 109
2.238619e+00 2.933635e+00 2.944527e+00 182 173 165
1.690092e+00 2.945550e+00 2.674816e+00 195 185 175
4.727636e+00 2.946492e+00 4.383069e+00 110 101 91
4.368637e+00 2.948404e+00 4.120643e+00 166 167 171
-4.413975e+00 3.306141e+00 3.196558e+00 151 143 123
-4.534663e+00 3.309436e+00 3.219832e+00 62 54 52
-6.274150e+00 3.445949e+00 3.614108e+00 201 206 210
-1.363651e+00 3.131422e+00 2.403709e+00 183 181 181
2.330858e+00 3.035767e+00 3.048673e+00 201 196 192
2.436500e+00 3.026533e+00 3.050741e+00 131 125 113
-3.115170e+00 3.301668e+00 2.837501e+00 52 41 30
3.051156e+00 3.065176e+00 3.473602e+00 178 174 165
6.949919e-01 3.095670e+00 2.330800e+00 178 176 171
-4.717789e+00 3.435620e+00 3.231331e+00 194 191 186
-1.158871e-03 3.138905e+00 2.269742e+00 178 173 166
1.232942e+00 3.174679e+00 2.567823e+00 184 171 148
4.138373e-01 3.231089e+00 2.304178e+00 169 166 158
-5.302279e+00 3.641964e+00 3.391772e+00 170 163 153
1.860216e+00 3.315409e+00 2.890234e+00 107 93 81
3.076438e-01 3.317475e+00 2.284824e+00 80 68 53
-1.707958e+00 3.488749e+00 2.436630e+00 59 50 35
3.226072e+00 3.392011e+00 3.620089e+00 156 151 138
-2.301487e+00 3.580859e+00 2.654608e+00 147 141 124
3.359930e+00 3.413623e+00 3.681402e+00 80 67 52
3.358384e+00 3.417521e+00 3.696041e+00 80 67 52
-5.402395e-01 3.528174e+00 2.409512e+00 51 43 30
-4.072008e+00 3.826496e+00 3.125245e+00 130 125 119
-3.500492e+00 3.810781e+00 3.011149e+00 149 140 125
1.753950e+00 3.517370e+00 2.911142e+00 194 189 186
-2.235117e+00 3.804253e+00 2.737076e+00 182 176 162
-3.649582e+00 3.935851e+00 3.069554e+00 173 165 163
-2.105975e+00 3.848952e+00 2.727979e+00 187 182 176
-2.105975e+00 3.848952e+00 2.727979e+00 187 182 176
-3.324364e+00 3.988983e+00 3.016122e+00 166 159 144
-3.324364e+00 3.988983e+00 3.016122e+00 166 159 144
3.678141e+00 3.672974e+00 3.828435e+00 182 175 159
3.678141e+00 3.672974e+00 3.828435e+00 182 175 159
-1.379878e+00 3.846252e+00 2.583229e+00 134 128 116
-3.282934e+00 4.054176e+00 3.003235e+00 103 96 87
-4.611646e+00 4.185816e+00 3.245546e+00 165 157 148
-1.026424e+00 3.853670e+00 2.548149e+00 140 127 110
3.685827e+00 3.755477e+00 3.850040e+00 113 95 75
6.680497e-02 3.781712e+00 2.446204e+00 57 44 36
-3.342006e+00 4.135120e+00 3.039039e+00 183 181 176
-9.988249e-01 3.949657e+00 2.577137e+00 178 173 167
-9.988249e-01 3.949657e+00 2.577137e+00 178 173 167
-4.485544e+00 4.384738e+00 3.272581e+00 162 154 148
-4.560531e+00 4.472167e+00 3.275921e+00 109 98 92
-2.179512e-01 4.067230e+00 2.590206e+00 146 129 112
3.632534e+00 4.041960e+00 3.869262e+00 119 110 100
3.278939e+00 4.035791e+00 3.676277e+00 78 72 67
-4.309920e+00 4.528533e+00 3.236297e+00 168 165 158
-1.985104e-01 4.147230e+00 2.615565e+00 76 66 54
-3.812277e+00 4.535609e+00 3.095572e+00 69 60 54
-3.713906e+00 4.535709e+00 3.090972e+00 176 161 141
8.484411e-02 4.215659e+00 2.630851e+00 175 172 167
-2.811303e+00 4.522314e+00 2.964537e+00 134 128 113
1.477163e+00 4.218075e+00 2.984888e+00 54 42 30
-1.109806e+00 4.369685e+00 2.722833e+00 78 66 49
-2.534230e+00 4.548521e+00 2.966701e+00 190 190 185
1.408916e-01 4.315573e+00 2.656317e+00 163 157 142
3.232579e+00 4.357510e+00 3.727624e+00 127 117 102
3.054725e+00 4.358895e+00 3.645059e+00 172 164 157
1.982010e+00 4.363279e+00 3.239097e+00 77 64 51
-2.327980e+00 4.643318e+00 2.926405e+00 196 198 197
-2.354075e+00 4.714405e+00 2.930549e+00 144 136 126
1.858691e+00 4.455145e+00 3.204952e+00 81 69 58
-5.505659e-01 4.575463e+00 2.749308e+00 180 175 162
2.617079e+00 4.513447e+00 3.455176e+00 88 78 70
4.047511e-01 4.593303e+00 2.817590e+00 127 123 111
-3.476869e+00 5.017084e+00 3.138338e+00 122 113 97
7.834262e-01 4.600003e+00 2.871917e+00 101 86 76
2.528686e+00 4.631512e+00 3.454347e+00 194 186 167
2.398381e+00 4.682225e+00 3.420726e+00 162 152 138
4.317019e-01 4.700660e+00 2.821030e+00 195 190 186
4.813609e-02 4.746768e+00 2.802690e+00 181 178 173
1.377214e+00 4.755568e+00 3.146941e+00 116 106 96
-1.359816e+00 5.042679e+00 2.907318e+00 72 65 47
2.080558e+00 4.840409e+00 3.335819e+00 157 150 135
1.005843e+00 4.883651e+00 3.057024e+00 60 47 38
2.011512e+00 4.869062e+00 3.296158e+00 83 78 72
4.071735e-01 5.026787e+00 2.910553e+00 71 57 44
-2.210337e+00 5.408082e+00 3.023564e+00 82 66 58
1.603983e+00 5.230071e+00 3.277112e+00 174 164 147
-1.298108e+00 5.578051e+00 3.010809e+00 115 99 83
-1.261635e+00 5.722771e+00 3.017946e+00 106 91 84
-7.213083e+00 -3.455757e+00 5.291340e+00 166 165 163
-3.202889e+00 -2.985485e+00 4.523786e+00 151 151 152
-6.556853e+00 -3.107341e+00 5.105531e+00 142 139 134
4.307519e+00 -2.307095e+00 4.999205e+00 111 110 108
-7.155212e+00 -3.078279e+00 5.111437e+00 149 154 157
-4.866282e-01 -1.994799e+00 2.849604e+00 35 30 24
1.959383e-01 -1.948460e+00 3.017707e+00 42 41 40
1.959383e-01 -1.948460e+00 3.017707e+00 42 41 40
2.035711e+00 -1.784016e+00 3.212278e+00 52 48 49
2.035711e+00 -1.784016e+00 3.212278e+00 52 48 49
-4.399998e+00 -2.332449e+00 3.961971e+00 147 146 144
-4.399998e+00 -2.332449e+00 3.961971e+00 147 146 144
9.344630e-01 -1.611739e+00 2.811689e+00 143 144 138
-7.093944e-02 -1.664349e+00 2.756333e+00 162 163 149
-8.409334e-01 -1.636580e+00 2.744592e+00 182 180 177
-5.764642e-01 -1.597347e+00 2.694255e+00 177 175 176
-1.325965e+00 -1.707958e+00 2.956847e+00 183 182 180
-5.505424e+00 -2.206009e+00 4.233185e+00 17 15 20
-6.025130e-02 -1.481360e+00 2.569527e+00 183 182 177
-1.701379e-01 -1.510743e+00 2.680560e+00 188 188 186
-6.867257e+00 -2.313493e+00 4.686257e+00 133 128 124
-5.308855e+00 -2.064792e+00 4.077519e+00 160 159 164
1.152161e+00 -1.283087e+00 2.735688e+00 110 109 105
-2.578461e+00 -1.875099e+00 4.090737e+00 48 43 38
-3.987821e+00 -1.869534e+00 3.986535e+00 133 128 109
4.754302e+00 -1.605036e+00 5.142489e+00 163 159 157
-7.638349e+00 -2.138148e+00 4.819892e+00 148 156 158
-4.589287e-01 -1.220149e+00 2.461697e+00 148 144 127
4.763897e+00 -1.483056e+00 5.107733e+00 166 165 163
4.776598e-01 -1.134890e+00 2.603938e+00 111 109 96
-1.238854e+00 -1.262192e+00 2.758243e+00 66 62 59
-3.204368e+00 -1.688979e+00 4.043612e+00 183 182 178
8.779474e-01 -1.130904e+00 2.806785e+00 84 81 72
2.314495e-02 -1.119084e+00 2.683884e+00 116 113 106
4.981346e-01 -1.048355e+00 2.738222e+00 82 72 65
2.117740e+00 -9.922048e-01 2.925998e+00 172 171 167
6.529512e-01 -9.901845e-01 2.660023e+00 91 87 73
6.632941e-01 -9.788104e-01 2.619270e+00 91 87 73
-6.797547e+00 -1.670970e+00 4.483741e+00 159 158 153
1.635709e+00 -9.226547e-01 2.824715e+00 185 181 177
-4.391058e+00 -1.360917e+00 3.678864e+00 167 162 153
-7.819132e+00 -1.708576e+00 4.763060e+00 153 167 171
-8.091352e+00 -1.740334e+00 4.880006e+00 140 142 146
5.842259e-01 -8.695861e-01 2.672761e+00 109 103 92
8.195784e-02 -8.960726e-01 2.681164e+00 156 154 146
3.992407e+00 -1.033119e+00 4.289627e+00 177 172 161
-3.275472e+00 -1.188005e+00 3.411699e+00 166 159 149
-4.337600e+00 -1.259023e+00 3.618043e+00 174 168 153
-6.842394e+00 -1.443858e+00 4.393347e+00 173 173 171
-8.645534e-01 -9.361721e-01 2.916645e+00 173 172 168
-8.083310e+00 -1.594975e+00 4.863064e+00 150 150 141
-5.627196e+00 -1.291466e+00 3.967514e+00 107 98 88
-5.627196e+00 -1.291466e+00 3.967514e+00 107 98 88
-7.124493e+00 -1.438686e+00 4.482122e+00 181 182 187
4.467819e+00 -9.865237e-01 4.672676e+00 54 44 43
4.467819e+00 -9.865237e-01 4.672676e+00 54 44 43
9.247354e-01 -7.064349e-01 2.669190e+00 184 183 178
2.963403e-01 -6.940386e-01 2.498524e+00 189 189 189
-4.500673e+00 -1.061768e+00 3.551845e+00 150 154 158
2.326385e+00 -6.640809e-01 2.894255e+00 187 186 181
2.799073e+00 -6.768398e-01 3.281458e+00 48 44 44
2.799073e+00 -6.768398e-01 3.281458e+00 48 44 44
1.210309e+00 -6.038969e-01 2.536573e+00 192 193 188
1.302866e+00 -5.744236e-01 2.668082e+00 110 106 95
-7.007077e+00 -1.158977e+00 4.360083e+00 177 178 180
2.389921e+00 -5.582267e-01 2.867021e+00 176 174 162
-2.533252e+00 -7.853713e-01 3.008432e+00 163 165 164
1.677125e+00 -5.402190e-01 2.709786e+00 184 183 179
1.363685e+00 -5.309183e-01 2.677096e+00 176 173 164
4.859658e-01 -5.395941e-01 2.580502e+00 182 179 174
1.491840e-01 -4.541788e-01 2.587296e+00 195 195 193
-7.231783e+00 -9.359393e-01 4.399346e+00 129 125 122
3.192016e+00 -4.073294e-01 3.421980e+00 151 150 148
-6.304418e+00 -7.965841e-01 4.043692e+00 56 49 46
-7.744122e+00 -9.185589e-01 4.563608e+00 86 73 54
4.312209e+00 -4.846023e-01 4.429245e+00 179 174 165
-1.827959e+00 -2.663306e-01 2.132245e+00 167 159 142
2.071501e-01 -2.387677e-01 2.495817e+00 171 169 170
-4.355204e+00 -4.580165e-01 3.300902e+00 161 150 131
-4.355204e+00 -4.580165e-01 3.300902e+00 161 150 131
-3.493511e+00 -3.735916e-01 2.987298e+00 172 166 165
4.033830e-01 -1.903838e-01 2.510696e+00 45 40 35
2.296323e+00 -1.315407e-01 2.705001e+00 171 164 150
7.195410e-01 -7.680178e-02 2.493064e+00 182 181 177
3.126737e+00 -5.523312e-02 3.324683e+00 180 170 146
-7.592085e+00 -4.144743e-01 4.382159e+00 36 31 36
-7.592085e+00 -4.144743e-01 4.382159e+00 36 31 36
4.839511e+00 -1.911600e-01 4.764745e+00 180 179 176
2.363157e-01 4.193478e-02 2.401965e+00 180 177 171
-6.315390e+00 -2.756511e-01 3.985957e+00 59 50 40
4.934327e-01 1.051820e-01 2.410775e+00 176 175 172
-3.468617e+00 6.166201e-02 2.864937e+00 166 165 162
4.249496e+00 4.109479e-02 4.250035e+00 183 177 163
1.140394e+00 2.119866e-01 2.450143e+00 132 123 115
-1.951604e-01 2.405737e-01 2.293905e+00 180 175 167
7.987228e-01 2.701322e-01 2.393359e+00 182 177 171
-7.285091e+00 -6.956221e-02 4.231097e+00 80 69 63
-2.359137e+00 2.396925e-01 2.371875e+00 174 168 159
-2.489738e+00 2.598847e-01 2.412876e+00 76 71 67
-5.120649e+00 1.090142e-01 3.394581e+00 63 57 48
-5.419191e+00 6.592788e-02 3.681264e+00 78 71 62
4.687213e+00 1.485243e-01 4.544065e+00 61 51 42
2.908676e+00 3.072493e-01 3.154829e+00 108 99 84
2.908676e+00 3.072493e-01 3.154829e+00 108 99 84
4.493297e+00 2.465735e-01 4.378165e+00 163 157 141
-4.937782e+00 2.181160e-01 3.482434e+00 180 171 150
8.772281e-01 4.464018e-01 2.358123e+00 164 160 158
1.558593e+00 4.734979e-01 2.378949e+00 172 168 156
-1.602841e+00 5.094715e-01 1.973979e+00 181 172 160
-7.060263e+00 2.320412e-01 4.122477e+00 157 155 148
4.859573e+00 3.452820e-01 4.648989e+00 50 46 41
4.647882e+00 3.650709e-01 4.530720e+00 184 179 175
4.647882e+00 3.650709e-01 4.530720e+00 184 179 175
-7.038323e+00 3.086369e-01 4.095044e+00 49 43 42
-7.038323e+00 3.086369e-01 4.095044e+00 49 43 42
-2.288336e+00 5.346223e-01 2.257826e+00 49 42 34
-5.285704e+00 3.594155e-01 3.591807e+00 131 113 101
-6.010194e+00 3.645671e-01 3.742890e+00 183 182 177
-6.010194e+00 3.645671e-01 3.742890e+00 183 182 177
2.440230e-01 5.870342e-01 2.190454e+00 170 166 157
2.393333e+00 5.475480e-01 2.773097e+00 167 158 142
-4.639975e+00 4.479332e-01 3.240391e+00 188 185 176
-1.761711e+00 5.941446e-01 2.107058e+00 116 108 95
3.106021e+00 5.655690e-01 3.186294e+00 189 185 175
-2.738591e+00 5.937125e-01 2.482208e+00 156 147 137
2.405450e+00 6.459503e-01 2.769648e+00 143 132 114
2.403738e+00 6.410950e-01 2.802183e+00 143 132 114
-2.793374e+00 6.564480e-01 2.486227e+00 65 57 47
3.390591e+00 6.333351e-01 3.488091e+00 176 169 151
-2.887659e+00 6.743290e-01 2.530498e+00 165 154 132
1.629532e-01 7.542350e-01 2.346417e+00 179 176 169
-7.427174e+00 5.591554e-01 4.182429e+00 113 106 100
-7.283523e+00 5.867053e-01 4.142297e+00 167 160 142
-4.548135e+00 6.775794e-01 3.205977e+00 177 174 169
-2.232676e+00 8.403829e-01 2.274049e+00 69 60 53
-5.580984e+00 7.776304e-01 3.616862e+00 168 165 156
-3.559317e+00 8.723805e-01 2.774535e+00 161 155 143
3.261284e+00 8.686055e-01 3.394205e+00 175 168 149
-2.162233e+00 1.002129e+00 2.198342e+00 58 49 42
3.234172e+00 9.582382e-01 3.365851e+00 71 61 51
3.176639e+00 9.779092e-01 3.325486e+00 176 169 153
3.176639e+00 9.779092e-01 3.325486e+00 176 169 153
-4.315278e+00 1.049797e+00 3.046423e+00 56 46 31
-4.325463e+00 1.052574e+00 3.060632e+00 56 46 31
-6.550312e+00 1.007555e+00 3.855882e+00 194 196 195
4.003140e+00 1.005197e+00 3.791718e+00 188 181 171
-3.280891e+00 1.111620e+00 2.644725e+00 187 182 178
2.169417e+00 1.102572e+00 2.603095e+00 176 167 149
-4.770711e+00 1.084682e+00 3.207409e+00 171 167 158
-6.587235e+00 1.091948e+00 3.873303e+00 125 121 109
-6.728358e+00 1.093640e+00 3.908581e+00 193 203 205
-6.728358e+00 1.093640e+00 3.908581e+00 193 203 205
1.972570e+00 1.162675e+00 2.432224e+00 151 142 129
2.142062e+00 1.159056e+00 2.579442e+00 87 70 63
-4.123575e+00 1.212339e+00 2.945236e+00 150 138 116
-5.132420e+00 1.254803e+00 3.351298e+00 53 39 25
3.541557e+00 1.264599e+00 3.558718e+00 169 163 155
1.848497e+00 1.333690e+00 2.370282e+00 159 146 120
-5.422662e+00 1.384129e+00 3.509831e+00 181 177 166
-6.809468e+00 1.409671e+00 3.898238e+00 118 113 109
3.652451e+00 1.323967e+00 3.696837e+00 190 185 180
-2.345499e+00 1.434285e+00 2.325812e+00 146 134 111
2.447740e+00 1.388095e+00 2.808937e+00 193 190 184
2.535457e+00 1.419124e+00 2.873146e+00 201 192 186
-3.198123e+00 1.507169e+00 2.665545e+00 178 169 160
4.081819e+00 1.402374e+00 3.997760e+00 185 178 166
-1.189412e+00 1.555734e+00 1.883568e+00 112 98 72
4.188868e+00 1.473331e+00 4.060095e+00 116 108 103
-1.350031e+00 1.620562e+00 1.955911e+00 158 150 128
3.521218e+00 1.527928e+00 3.528658e+00 201 201 201
3.130137e+00 1.563534e+00 3.241918e+00 182 176 161
1.924555e+00 1.625635e+00 2.493706e+00 50 41 34
1.723503e+00 1.628794e+00 2.358032e+00 54 48 36
-2.843991e+00 1.698798e+00 2.526288e+00 179 171 158
-6.039797e+00 1.728160e+00 3.640823e+00 168 169 164
4.751380e+00 1.550497e+00 4.480423e+00 91 81 79
-2.421884e+00 1.718720e+00 2.352253e+00 180 176 173
7.670771e-01 1.696353e+00 1.987092e+00 179 175 166
-7.434997e+00 1.851851e+00 4.018569e+00 59 51 52
3.457391e+00 1.680108e+00 3.497241e+00 62 51 45
-1.448582e+00 1.805557e+00 2.042135e+00 72 62 52
-1.164413e+00 1.821372e+00 1.989817e+00 158 146 128
-6.058497e+00 1.928563e+00 3.642429e+00 185 182 175
-6.058497e+00 1.928563e+00 3.642429e+00 185 182 175
-3.355490e+00 1.882115e+00 2.700504e+00 168 163 152
-2.755606e-01 1.866127e+00 1.839375e+00 173 160 137
2.071421e+00 1.837071e+00 2.659490e+00 71 61 46
1.566221e+00 1.852766e+00 2.355463e+00 168 155 143
1.316771e+00 1.879534e+00 2.151481e+00 92 80 71
-3.267172e-01 1.906498e+00 1.817867e+00 107 95 76
-1.217161e+00 1.953847e+00 2.040403e+00 163 156 148
2.593245e+00 1.885809e+00 2.969734e+00 183 176 161
1.556115e+00 1.905283e+00 2.311734e+00 73 56 49
-3.684004e+00 2.015044e+00 2.846772e+00 192 191 187
-5.705737e+00 2.069242e+00 3.532752e+00 55 45 46
-5.614699e+00 2.119268e+00 3.516537e+00 191 190 187
-4.516376e+00 2.098174e+00 3.127113e+00 56 48 36
3.206919e+00 1.942536e+00 3.389369e+00 86 75 66
3.206900e+00 1.941389e+00 3.393961e+00 86 75 66
1.294001e+00 2.007346e+00 2.188968e+00 91 75 61
-1.733544e+00 2.086847e+00 2.224152e+00 172 166 153
1.922932e+00 2.020615e+00 2.578630e+00 180 170 159
1.922932e+00 2.020615e+00 2.578630e+00 180 170 159
-2.037021e+00 2.103626e+00 2.274662e+00 170 164 150
4.430729e+00 2.008163e+00 4.245341e+00 191 190 185
-5.488280e+00 2.283618e+00 3.458190e+00 98 89 81
1.146545e+00 2.104321e+00 2.152926e+00 90 76 67
-1.943408e+00 2.179946e+00 2.250188e+00 169 162 143
-7.113009e+00 2.344031e+00 3.896694e+00 174 171 164
-7.113009e+00 2.344031e+00 3.896694e+00 174 171 164
1.810050e+00 2.121849e+00 2.532352e+00 182 182 178
1.805759e+00 2.124195e+00 2.558857e+00 182 182 178
2.479819e+00 2.127265e+00 2.961344e+00 72 60 44
2.478228e+00 2.128578e+00 2.971826e+00 72 60 44
-2.439126e+00 2.248424e+00 2.468857e+00 180 179 174
-4.021401e-01 2.193884e+00 1.886013e+00 94 78 61
-4.021401e-01 2.193884e+00 1.886013e+00 94 78 61
4.327629e+00 2.130883e+00 4.189736e+00 68 56 42
1.719220e+00 2.224449e+00 2.500652e+00 142 131 124
-1.243894e+00 2.287332e+00 2.098471e+00 181 172 157
4.607876e+00 2.194730e+00 4.309765e+00 191 186 180
-1.499690e+00 2.320308e+00 2.206254e+00 135 125 99
2.625785e+00 2.234512e+00 2.978354e+00 185 177 166
-3.457794e+00 2.431486e+00 2.786438e+00 126 123 116
-4.342313e+00 2.472396e+00 3.100865e+00 192 189 182
-3.072126e+00 2.493352e+00 2.688608e+00 59 49 39
-4.271705e+00 2.532290e+00 3.072738e+00 89 78 73
-4.271705e+00 2.532290e+00 3.072738e+00 89 78 73
-6.774743e-02 2.379327e+00 1.866999e+00 115 94 73
-2.051089e+00 2.479221e+00 2.409177e+00 170 166 157
2.779598e+00 2.366684e+00 3.193459e+00 169 162 152
-1.605292e-01 2.407040e+00 1.936734e+00 163 152 136
2.245648e+00 2.398428e+00 2.857235e+00 190 182 171
-3.636096e-01 2.457270e+00 2.003901e+00 161 145 123
6.183676e-01 2.435519e+00 2.005096e+00 151 135 119
-2.792129e+00 2.580068e+00 2.506002e+00 185 176 167
4.985694e+00 2.385933e+00 4.522720e+00 85 72 61
-1.214737e+00 2.524734e+00 2.176743e+00 164 158 136
-3.159539e-01 2.498487e+00 2.004815e+00 77 60 41
-3.159539e-01 2.498487e+00 2.004815e+00 77 60 41
2.336944e+00 2.463242e+00 2.867356e+00 93 86 67
2.849744e+00 2.485935e+00 3.255988e+00 180 175 168
-1.225893e+00 2.578960e+00 2.182217e+00 69 55 40
2.388742e+00 2.501183e+00 2.925800e+00 188 183 164
1.033261e-01 2.532069e+00 1.959920e+00 148 135 118
5.654862e-01 2.539546e+00 2.051170e+00 115 104 85
4.898355e-01 2.545856e+00 2.030338e+00 81 65 50
2.799562e+00 2.537276e+00 3.234845e+00 192 188 185
1.333314e+00 2.545766e+00 2.392981e+00 173 172 164
-1.899012e+00 2.659675e+00 2.389720e+00 62 48 38
-2.054732e+00 2.678479e+00 2.365459e+00 194 194 194
1.475932e+00 2.556384e+00 2.463866e+00 78 67 58
-3.891865e+00 2.819057e+00 2.979898e+00 55 48 41
-9.553067e-01 2.677682e+00 2.164662e+00 159 151 123
-4.057320e-02 2.634290e+00 2.018802e+00 162 149 121
-5.124984e+00 2.976747e+00 3.385496e+00 87 77 76
4.824728e+00 2.632894e+00 4.373669e+00 98 86 72
3.268959e+00 2.698452e+00 3.533589e+00 198 194 191
-1.773183e+00 2.841672e+00 2.411944e+00 57 51 45
-6.107204e+00 3.087389e+00 3.581737e+00 71 59 58
-6.107204e+00 3.087389e+00 3.581737e+00 71 59 58
-6.402418e+00 3.151911e+00 3.677698e+00 166 162 154
-6.402418e+00 3.151911e+00 3.677698e+00 166 162 154
2.114199e+00 2.751221e+00 2.791800e+00 181 175 163
-1.647444e+00 2.894288e+00 2.406291e+00 172 166 157
-3.369107e+00 2.996610e+00 2.833482e+00 67 53 40
-6.831754e-01 2.859052e+00 2.174626e+00 166 151 132
-1.464482e+00 2.919414e+00 2.349787e+00 82 69 58
1.700025e+00 2.815646e+00 2.662443e+00 47 37 28
8.285748e-01 2.827944e+00 2.263136e+00 178 169 152
3.861176e+00 2.826924e+00 3.919865e+00 75 61 38
3.072420e+00 2.821828e+00 3.416901e+00 74 59 45
8.187959e-01 2.903547e+00 2.248924e+00 76 67 59
4.648956e+00 2.918889e+00 4.346285e+00 187 180 174
4.558962e+00 2.950592e+00 4.282265e+00 84 72 56
2.989787e+00 2.954600e+00 3.379659e+00 73 57 44
3.786035e+00 2.988181e+00 3.899642e+00 184 177 167
4.531970e+00 3.006578e+00 4.276591e+00 181 168 159
3.511295e+00 2.994581e+00 3.677753e+00 73 61 49
-2.149337e+00 3.216783e+00 2.576386e+00 61 52 44
-5.790587e+00 3.482359e+00 3.513724e+00 182 175 169
4.373837e+00 3.049760e+00 4.164962e+00 67 55 43
-8.585389e-02 3.132755e+00 2.233300e+00 66 52 33
1.611794e+00 3.164791e+00 2.654998e+00 170 165 145
-1.336114e+00 3.311217e+00 2.370993e+00 170 162 147
2.860480e+00 3.227746e+00 3.392271e+00 211 207 204
2.858215e+00 3.231972e+00 3.411182e+00 211 207 204
2.726772e+00 3.228937e+00 3.292248e+00 117 111 98
4.549716e+00 3.258395e+00 4.288478e+00 213 215 219
-1.488434e+00 3.437151e+00 2.493846e+00 92 79 63
4.402887e+00 3.322236e+00 4.210658e+00 89 83 79
4.018713e+00 3.307225e+00 3.972505e+00 174 165 148
-4.203429e+00 3.672467e+00 3.161663e+00 63 55 53
3.291719e+00 3.351727e+00 3.653329e+00 68 54 41
2.313227e-01 3.361829e+00 2.264235e+00 113 97 74
-3.134105e+00 3.629925e+00 2.831509e+00 176 170 156
-5.078690e+00 3.791839e+00 3.344671e+00 180 177 168
3.387057e+00 3.367323e+00 3.692768e+00 198 195 186
9.057313e-01 3.371711e+00 2.490712e+00 52 41 31
3.142613e-01 3.372897e+00 2.268356e+00 161 148 134
2.722097e+00 3.423491e+00 3.301428e+00 129 123 107
2.722097e+00 3.423491e+00 3.301428e+00 129 123 107
7.797582e-01 3.436301e+00 2.487179e+00 153 146 128
6.246406e-01 3.447518e+00 2.438032e+00 161 151 134
-4.934787e+00 3.904099e+00 3.316170e+00 175 170 166
2.530964e+00 3.468737e+00 3.246637e+00 67 52 38
9.717947e-01 3.485125e+00 2.535494e+00 41 31 19
-3.777921e+00 3.870797e+00 3.099804e+00 197 195 181
9.671330e-01 3.549235e+00 2.544424e+00 165 154 131
4.016205e+00 3.578164e+00 4.018066e+00 92 79 62
-4.663432e+00 4.033144e+00 3.257775e+00 163 156 138
-4.663432e+00 4.033144e+00 3.257775e+00 163 156 138
3.739361e+00 3.640778e+00 3.861962e+00 79 74 63
2.330000e+00 3.652151e+00 3.226387e+00 196 192 191
-1.164497e-02 3.692348e+00 2.455431e+00 169 163 151
6.412758e-01 3.675471e+00 2.497600e+00 120 112 100
-1.002525e-01 3.751891e+00 2.473006e+00 180 175 170
1.049951e+00 3.709291e+00 2.657587e+00 156 150 134
-1.132018e+00 3.885280e+00 2.569507e+00 158 154 142
1.829557e+00 3.804868e+00 3.000062e+00 123 113 103
-4.854841e+00 4.310896e+00 3.326266e+00 115 109 111
3.763481e+00 3.817194e+00 3.896327e+00 90 76 65
1.951215e+00 3.827131e+00 3.092015e+00 87 77 56
3.583116e+00 3.829190e+00 3.806249e+00 93 75 61
3.583116e+00 3.829190e+00 3.806249e+00 93 75 61
-4.328395e+00 4.297934e+00 3.198947e+00 169 167 159
-4.328461e+00 4.297930e+00 3.194837e+00 169 167 159
-3.323744e+00 4.235566e+00 3.024545e+00 197 201 200
-4.383153e+00 4.385191e+00 3.236474e+00 99 86 74
3.311315e+00 3.956331e+00 3.677523e+00 196 188 184
2.626326e+00 3.976260e+00 3.430666e+00 92 83 76
5.692109e-01 4.014599e+00 2.645215e+00 181 176 162
4.031298e-01 4.010748e+00 2.557324e+00 73 61 45
4.031298e-01 4.010748e+00 2.557324e+00 73 61 45
8.433880e-01 4.047878e+00 2.718668e+00 156 149 139
2.701460e+00 4.074668e+00 3.447808e+00 139 130 121
-1.249847e+00 4.265534e+00 2.676821e+00 68 57 50
3.029291e+00 4.170796e+00 3.577573e+00 180 175 161
3.045242e+00 4.224578e+00 3.589772e+00 110 94 78
4.751899e-01 4.240539e+00 2.663257e+00 96 89 73
-2.632337e+00 4.574606e+00 2.961406e+00 188 188 186
-2.317409e+00 4.584958e+00 2.929772e+00 88 78 72
-3.740765e+00 4.782387e+00 3.162673e+00 81 64 52
-3.558943e+00 4.789983e+00 3.109963e+00 78 64 52
-1.020764e+00 4.540839e+00 2.760970e+00 161 157 154
1.984822e+00 4.436323e+00 3.266443e+00 204 203 197
-3.613761e+00 4.956504e+00 3.144116e+00 93 81 75
-1.873570e+00 4.774818e+00 2.912695e+00 111 94 81
-1.497858e+00 4.785949e+00 2.864305e+00 155 144 126
1.638654e+00 4.592955e+00 3.169813e+00 191 187 176
2.425394e+00 4.617435e+00 3.401037e+00 96 86 73
-4.529213e-01 4.721134e+00 2.764720e+00 118 110 99
-1.803935e+00 4.901788e+00 2.932470e+00 195 195 195
2.638641e+00 4.648298e+00 3.508902e+00 173 164 149
5.630958e-01 4.688531e+00 2.866519e+00 181 172 164
4.294135e-01 4.760403e+00 2.839137e+00 87 77 65
-1.744836e+00 4.992604e+00 2.939763e+00 199 200 191
-3.145900e+00 5.148222e+00 3.075421e+00 137 127 125
