ply
format ascii 1.0
element face 0
property list uchar int vertex_indices
element vertex 949
property float x
property float y
property float z
property uchar diffuse_red
property uchar diffuse_green
property uchar diffuse_blue
end_header
6.544200e-01 -8.663309e-01 4.167503e+00 46 41 39
2.183730e+00 -4.716467e-03 4.707190e+00 121 112 108
1.902878e+00 -8.711193e-03 4.605292e+00 131 124 118
2.090196e+00 1.672949e-01 4.568875e+00 119 111 98
6.925987e-01 -5.681322e-02 6.107100e+00 123 120 113
1.173517e+00 1.306719e-01 5.445977e+00 117 116 112
6.834661e-01 3.279505e-01 6.683397e+00 61 59 63
5.521082e-01 3.591101e-01 6.949934e+00 127 127 125
5.547503e-01 3.855267e-01 6.961086e+00 132 131 127
3.048439e+00 -3.071724e-01 1.112341e+01 31 35 43
1.425023e+00 7.225603e-01 5.725571e+00 116 116 126
1.050293e+00 6.679645e-01 6.163924e+00 107 105 104
2.899350e+00 1.223144e+00 4.988922e+00 240 249 255
2.522409e+00 2.294173e+00 5.732946e+00 63 67 79
1.293215e+00 -3.475238e-01 5.437188e+00 29 21 23
1.472294e+00 -2.496460e-01 5.302172e+00 129 130 131
1.460627e+00 -2.478599e-01 5.358679e+00 17 20 39
2.239404e+00 -7.693713e-02 4.579267e+00 143 138 135
2.189308e+00 -2.555325e-02 4.592454e+00 124 117 115
2.218878e+00 -1.873715e-02 4.653525e+00 118 114 105
1.929161e+00 5.999606e-02 4.575721e+00 73 65 62
1.239887e+00 2.475363e-01 5.584561e+00 130 126 133
8.523705e-01 5.215987e-01 6.081021e+00 59 63 64
8.000750e-01 4.556717e-01 6.535471e+00 115 111 108
1.301092e+00 6.557959e-01 5.856565e+00 55 54 68
1.250585e+00 6.886427e-01 5.941137e+00 52 53 55
1.353033e+00 7.166869e-01 5.832840e+00 55 56 58
1.542275e+00 7.729610e-01 5.605018e+00 48 49 51
1.334286e+00 7.185338e-01 5.883798e+00 125 124 129
2.811770e+00 -1.677423e-01 1.048887e+01 132 128 129
1.204447e+00 6.760308e-01 6.058029e+00 118 116 124
3.030776e+00 -2.301455e-01 1.085731e+01 109 111 109
7.487418e-01 6.502153e-01 7.115629e+00 64 64 77
2.857989e+00 1.324362e+00 4.685930e+00 236 246 255
1.761963e+00 1.754264e+00 6.325532e+00 100 99 115
1.473342e+00 -2.283018e-01 5.476067e+00 32 39 48
1.399868e+00 -2.342069e-01 5.442907e+00 116 112 106
2.204463e+00 8.655055e-02 4.766977e+00 91 87 78
1.912900e+00 1.430679e-01 4.673331e+00 118 113 109
1.753733e+00 8.263785e-01 4.958003e+00 89 84 88
1.685824e+00 8.347433e-01 5.001758e+00 141 137 128
1.685824e+00 8.347433e-01 5.001758e+00 141 137 128
6.152280e-01 4.469125e-01 6.889243e+00 101 101 104
1.130642e+00 6.544749e-01 6.134069e+00 119 117 123
1.988948e+00 -5.764057e-01 4.067929e+00 77 76 71
8.446704e-01 7.794801e-02 5.667865e+00 147 124 108
9.041606e-01 1.481347e-01 6.895006e+00 71 39 16
9.895533e-01 1.577816e-01 6.087190e+00 165 150 136
2.395260e+00 -6.584772e-01 1.424054e+00 143 118 97
1.516709e+00 -4.678682e-01 4.545835e+00 160 139 118
1.609535e+00 -2.440134e-01 3.790197e+00 199 187 170
7.265329e-01 5.004017e-01 7.329586e+00 152 130 110
8.004826e-01 6.529329e-01 6.440219e+00 106 94 71
1.009743e+00 6.688196e-01 6.367387e+00 109 95 77
2.254243e+00 -7.171485e-01 1.928737e+00 114 107 99
9.875238e-01 5.945577e-02 5.589748e+00 190 174 158
9.875238e-01 5.945577e-02 5.589748e+00 190 174 158
1.030129e+00 1.269915e-01 5.648783e+00 130 115 92
1.030129e+00 1.269915e-01 5.648783e+00 130 115 92
7.160025e-01 8.472342e-02 6.309309e+00 184 171 156
1.041252e+00 1.738172e-01 5.794470e+00 175 160 144
1.973970e+00 1.705871e+00 6.021686e+00 176 160 144
1.973462e+00 1.833932e+00 5.966887e+00 170 153 132
1.494247e+00 -3.600091e-01 3.571140e+00 196 179 162
4.928905e-01 -2.683973e-01 6.360938e+00 175 154 135
1.873448e+00 4.971484e-01 4.710750e+00 177 152 129
9.581749e-01 6.222850e-01 6.402174e+00 195 179 164
1.677055e+00 8.845390e-01 5.323574e+00 192 179 160
6.167947e-01 6.206707e-01 7.325379e+00 166 154 140
1.893714e+00 1.896191e+00 5.965020e+00 179 164 140
2.272818e+00 -9.381181e-01 1.441395e+00 169 147 120
2.040170e+00 -6.364054e-01 3.918598e+00 73 76 65
2.081694e+00 -3.132251e-01 4.101570e+00 140 125 109
1.434275e+00 -2.949465e-01 5.400177e+00 53 53 43
7.170290e-01 -2.405680e-01 5.587337e+00 204 191 176
2.364424e+00 2.769435e-01 4.106773e+00 181 160 126
9.674748e-01 4.547511e-01 6.292226e+00 131 110 89
1.160574e+00 4.776870e-01 6.434398e+00 78 74 57
1.175156e+00 8.145473e-01 6.691541e+00 180 161 140
9.480353e-01 8.677165e-01 6.609412e+00 197 181 166
2.339441e+00 1.751658e+00 5.934925e+00 98 98 96
1.717379e+00 -1.036879e+00 2.631721e+00 97 82 55
1.584654e+00 -9.967455e-01 2.594811e+00 173 153 128
1.618277e+00 -9.887974e-01 2.839898e+00 173 153 128
2.176238e+00 -9.885899e-01 1.763618e+00 93 76 54
1.729081e+00 -9.845716e-01 2.493636e+00 175 156 134
2.002823e+00 -9.596885e-01 2.077319e+00 166 150 122
2.138114e+00 -9.492239e-01 1.831121e+00 165 146 120
1.441144e+00 -9.290363e-01 2.841135e+00 134 116 92
2.470447e+00 -9.148391e-01 9.892172e-01 73 56 27
1.865389e+00 -8.922930e-01 2.538467e+00 122 105 80
2.467237e+00 -6.797320e-01 1.525301e+00 197 183 162
2.066021e+00 -5.731067e-01 4.099789e+00 71 71 65
2.031939e+00 -3.242693e-01 3.339320e+00 129 118 96
1.208901e+00 -2.838261e-01 5.635092e+00 191 176 161
1.208901e+00 -2.838261e-01 5.635092e+00 191 176 161
1.424282e+00 -2.489085e-01 5.406596e+00 194 177 159
1.286355e+00 -2.272943e-01 5.612140e+00 195 174 151
1.286355e+00 -2.272943e-01 5.612140e+00 195 174 151
1.834541e+00 1.317950e-01 4.280123e+00 193 178 155
2.406021e+00 2.116543e-01 4.021139e+00 184 166 144
1.934172e+00 1.886680e-01 4.680514e+00 183 165 141
1.219455e+00 6.269493e-01 6.226583e+00 51 50 34
1.538211e+00 7.721364e-01 5.787244e+00 139 128 109
2.472195e+00 1.277947e+00 4.598654e+00 171 160 141
2.366220e+00 1.654510e+00 5.857230e+00 92 91 86
2.159100e+00 1.602256e+00 6.360797e+00 94 94 92
1.903910e+00 1.822662e+00 6.031064e+00 175 161 142
2.198488e+00 1.854796e+00 5.820580e+00 115 106 82
6.167994e-01 1.699980e+00 7.086208e+00 152 138 129
2.570001e+00 2.139821e+00 5.578535e+00 180 170 155
2.399590e+00 2.214272e+00 5.906891e+00 143 125 110
1.470643e+00 -1.086145e+00 2.895888e+00 176 155 130
1.551002e+00 -1.040891e+00 2.615321e+00 85 70 44
1.392905e+00 -1.012898e+00 2.990441e+00 164 147 131
1.392905e+00 -1.012898e+00 2.990441e+00 164 147 131
1.743013e+00 -9.956511e-01 2.040140e+00 161 146 122
1.784465e+00 -9.891550e-01 2.303944e+00 161 146 122
2.328822e+00 -9.181065e-01 1.569716e+00 66 46 16
1.342351e+00 -4.384471e-01 5.398433e+00 191 176 154
1.341554e+00 -4.296732e-01 5.265498e+00 45 29 20
7.000039e-01 -4.008940e-01 5.265151e+00 113 98 77
1.165626e+00 -3.180583e-01 5.663868e+00 192 181 169
1.009891e+00 -1.137856e-01 5.854301e+00 178 159 137
9.672744e-01 -7.558842e-02 5.646131e+00 176 155 129
2.429133e+00 2.482065e-01 3.973978e+00 111 96 69
7.992280e-01 1.223585e-01 6.218542e+00 205 190 175
9.688695e-01 4.441760e-01 6.380752e+00 202 184 162
6.905975e-01 4.456736e-01 6.940896e+00 43 34 16
1.742015e+00 8.056325e-01 5.315823e+00 202 190 170
1.467884e+00 7.422315e-01 5.920309e+00 149 130 113
5.867463e-01 1.653968e+00 7.058140e+00 157 144 127
1.905250e+00 1.918602e+00 6.030127e+00 184 170 148
1.905250e+00 1.918602e+00 6.030127e+00 184 170 148
2.159116e+00 1.977382e+00 5.808142e+00 103 91 78
2.476219e+00 2.213253e+00 5.888300e+00 116 105 95
1.962612e+00 -1.059713e+00 1.663503e+00 171 156 132
2.412373e+00 -1.010425e+00 9.272936e-01 167 158 138
1.534613e+00 -7.641908e-01 3.314815e+00 126 112 90
1.504437e+00 -6.964764e-01 3.349096e+00 195 180 165
1.394249e+00 -4.948596e-01 5.100960e+00 196 181 161
2.171802e+00 -4.270938e-01 3.913024e+00 195 178 150
2.130571e+00 -3.601260e-01 3.913246e+00 198 189 174
1.576256e+00 -3.551737e-01 5.070778e+00 165 150 133
1.356110e+00 -3.454139e-01 5.353914e+00 60 40 23
1.281920e+00 -3.146862e-01 5.284329e+00 194 184 166
1.184169e+00 -3.039910e-01 5.633096e+00 195 183 170
1.590170e+00 -2.683018e-01 5.215609e+00 157 141 114
1.468345e+00 -2.734980e-01 5.258515e+00 58 25 5
1.438170e+00 -2.614422e-01 5.351139e+00 199 185 169
2.439306e+00 -1.609901e-01 3.760321e+00 107 94 79
5.560573e-01 -2.687829e-01 6.368362e+00 171 157 137
2.064918e+00 -8.129329e-02 4.404007e+00 194 177 153
2.420668e+00 3.214309e-02 3.808094e+00 118 101 83
2.111528e+00 9.479012e-02 4.521175e+00 153 141 119
1.004427e+00 2.911455e-02 6.031018e+00 183 164 146
8.715293e-01 4.655542e-01 6.412162e+00 139 121 100
1.102892e+00 5.558913e-01 6.362977e+00 173 154 132
9.821386e-01 6.615530e-01 6.452658e+00 109 97 79
1.918171e+00 8.618062e-01 5.400650e+00 154 141 123
2.177573e+00 1.294706e+00 5.450362e+00 182 169 150
2.179013e+00 1.310840e+00 5.482045e+00 185 175 158
2.178593e+00 1.456934e+00 5.571258e+00 181 171 156
2.181090e+00 1.731343e+00 5.779796e+00 183 173 155
2.178200e+00 1.762791e+00 5.772024e+00 180 172 153
5.475325e-01 1.621855e+00 7.134291e+00 95 81 71
5.475325e-01 1.621855e+00 7.134291e+00 95 81 71
7.007722e-01 1.666985e+00 7.045301e+00 103 92 80
1.958897e+00 1.903124e+00 6.172153e+00 187 176 159
2.249088e+00 2.142433e+00 5.925217e+00 97 82 71
2.218303e+00 2.186206e+00 5.930628e+00 87 78 63
2.459302e+00 2.167046e+00 5.894277e+00 101 83 75
2.170272e+00 -1.063071e+00 1.624537e+00 165 158 146
2.196063e+00 -1.011288e+00 1.823177e+00 150 149 137
1.473408e+00 -9.694974e-01 2.589259e+00 128 111 80
1.572442e+00 -7.360197e-01 3.193603e+00 183 173 153
1.321511e+00 -7.331384e-01 4.926821e+00 189 171 154
2.514199e+00 -6.104615e-01 1.618616e+00 183 169 146
2.570707e+00 -6.062081e-01 1.554915e+00 179 167 145
2.457245e+00 -5.773853e-01 1.749122e+00 195 193 180
1.495662e+00 -5.279426e-01 4.964757e+00 158 150 133
1.801159e+00 -4.799952e-01 4.184526e+00 189 167 141
1.482008e+00 -3.062098e-01 5.341749e+00 67 28 11
6.718309e-01 -3.329225e-01 5.978420e+00 135 116 94
1.199269e+00 -3.083581e-01 5.596092e+00 42 33 18
1.588410e+00 -2.820251e-01 5.141310e+00 149 134 114
5.179976e-01 -3.338120e-01 6.338737e+00 99 83 57
1.237755e+00 -2.835935e-01 5.648370e+00 58 28 6
5.490687e-01 -3.052131e-01 6.387254e+00 122 106 89
1.283126e+00 -2.418520e-01 5.575041e+00 179 161 138
1.572081e+00 -2.019752e-01 5.229258e+00 145 137 116
6.473900e-01 -2.396919e-01 6.177872e+00 128 110 89
1.822958e+00 -1.041914e-01 4.539858e+00 140 114 93
5.578834e-01 -2.210687e-01 6.504110e+00 162 145 123
1.537882e+00 -1.339069e-01 5.343332e+00 138 122 98
2.396574e+00 6.604012e-02 3.889453e+00 126 105 88
1.308948e+00 -3.129395e-02 5.701047e+00 138 123 104
2.383067e+00 1.091052e-01 3.911600e+00 173 157 133
1.937217e+00 6.993786e-02 4.638699e+00 196 180 158
2.342784e+00 1.422209e-01 4.013007e+00 176 160 129
1.982563e+00 1.023501e-01 4.611391e+00 129 107 83
2.136493e+00 1.122416e-01 4.448081e+00 97 80 52
1.996607e+00 1.353457e-01 4.514395e+00 126 103 78
1.469151e+00 9.715937e-02 5.383124e+00 108 96 79
2.110891e+00 1.831934e-01 4.522849e+00 176 156 131
2.060385e+00 1.914637e-01 4.530000e+00 198 183 162
6.593103e-01 3.272384e-01 6.818874e+00 124 110 93
1.976293e+00 5.612506e-01 5.197096e+00 87 53 17
1.987414e+00 5.829535e-01 5.272668e+00 68 28 3
1.079797e+00 4.912763e-01 6.430707e+00 116 108 89
1.112827e+00 5.235289e-01 6.330164e+00 167 156 136
8.263079e-01 4.787595e-01 6.772960e+00 181 166 147
1.920466e+00 6.991192e-01 5.183058e+00 187 172 149
1.140518e+00 5.640949e-01 6.378779e+00 175 160 137
1.672105e+00 7.863215e-01 5.381298e+00 187 186 170
8.659862e-01 6.420555e-01 6.637024e+00 136 120 108
1.240058e+00 6.833301e-01 6.250163e+00 113 99 77
8.642221e-01 6.618843e-01 6.611731e+00 78 74 61
2.030739e+00 8.491334e-01 5.170530e+00 109 81 62
1.593277e+00 8.005861e-01 5.797123e+00 101 84 65
1.628721e+00 9.055041e-01 5.288457e+00 91 83 63
1.868908e+00 9.028125e-01 5.304212e+00 149 139 118
6.811363e-01 7.141610e-01 7.361261e+00 85 91 87
1.677253e+00 1.015590e+00 5.517060e+00 185 164 142
2.618519e+00 1.224052e+00 4.336391e+00 87 78 57
2.618519e+00 1.224052e+00 4.336391e+00 87 78 57
7.682617e-01 8.217851e-01 7.158572e+00 190 181 167
5.782477e-01 8.603963e-01 7.340190e+00 177 165 147
6.308918e-01 9.008063e-01 7.347416e+00 175 162 145
5.780132e-01 1.241154e+00 7.256474e+00 178 161 143
4.997808e-01 1.484704e+00 7.247275e+00 111 105 87
5.234195e-01 1.516185e+00 7.229064e+00 106 96 84
4.328582e-01 1.528195e+00 7.262954e+00 182 162 140
6.407636e-01 1.564115e+00 7.118223e+00 118 111 105
5.241822e-01 1.559959e+00 7.183528e+00 179 162 144
5.122657e-01 1.611831e+00 7.164408e+00 104 94 82
8.547428e-01 1.650116e+00 6.931884e+00 115 110 102
5.933540e-01 1.630080e+00 7.134341e+00 98 90 82
5.933540e-01 1.630080e+00 7.134341e+00 98 90 82
7.394273e-01 1.679450e+00 7.022798e+00 96 89 76
7.747116e-01 1.691472e+00 6.991047e+00 97 84 76
8.869592e-01 1.732236e+00 6.903273e+00 102 91 79
2.186513e+00 1.842468e+00 5.995038e+00 166 157 138
9.952503e-01 1.846818e+00 6.779173e+00 175 160 141
1.984690e+00 1.990069e+00 5.972495e+00 184 176 155
1.943168e+00 1.973756e+00 6.045455e+00 125 107 97
2.167783e+00 1.997660e+00 5.874706e+00 111 99 86
2.150183e+00 1.992199e+00 5.900256e+00 185 172 150
2.150183e+00 1.992199e+00 5.900256e+00 185 172 150
1.948970e+00 1.996866e+00 5.979350e+00 180 170 151
2.201946e+00 1.954010e+00 5.997441e+00 169 167 150
2.568272e+00 2.101218e+00 5.498714e+00 171 158 138
2.510548e+00 2.108546e+00 5.499009e+00 104 91 79
1.991693e+00 2.027454e+00 6.002793e+00 129 117 101
2.242652e+00 1.980684e+00 6.031967e+00 191 177 152
2.258622e+00 2.063674e+00 5.886182e+00 180 168 152
2.294706e+00 2.081608e+00 5.888409e+00 180 168 145
1.885929e+00 2.098074e+00 6.116064e+00 105 105 100
2.073485e+00 2.155161e+00 5.994875e+00 95 85 75
2.073485e+00 2.155161e+00 5.994875e+00 95 85 75
2.403780e+00 2.161329e+00 5.899371e+00 99 87 75
2.325664e+00 2.191763e+00 5.943637e+00 96 83 71
2.363361e+00 2.227330e+00 5.990866e+00 171 168 153
2.617374e+00 2.237480e+00 5.920567e+00 101 95 83
1.866439e+00 -1.074247e+00 2.062623e+00 96 72 41
1.866439e+00 -1.074247e+00 2.062623e+00 96 72 41
2.156933e+00 -1.048391e+00 1.696541e+00 102 71 43
2.156933e+00 -1.048391e+00 1.696541e+00 102 71 43
2.552806e+00 -9.766374e-01 9.161480e-01 165 136 110
1.370679e+00 -8.781044e-01 3.223641e+00 205 197 184
1.531197e+00 -5.473851e-01 4.949977e+00 85 58 35
1.796934e+00 -4.959467e-01 4.234411e+00 160 132 105
1.796934e+00 -4.959467e-01 4.234411e+00 160 132 105
1.875266e+00 -3.864982e-01 4.400639e+00 109 94 65
2.191117e+00 -3.368711e-01 4.007233e+00 104 91 68
8.317342e-01 -4.028634e-01 5.512739e+00 143 122 95
4.667901e-01 -4.200361e-01 6.239011e+00 142 125 115
1.099543e+00 -3.187248e-01 4.646655e+00 134 116 90
1.099543e+00 -3.187248e-01 4.646655e+00 134 116 90
2.160265e+00 -1.896660e-01 3.970321e+00 197 175 152
4.905647e-01 -3.089470e-01 6.404088e+00 141 125 109
5.356415e-01 -2.706354e-01 6.525649e+00 136 119 101
6.422324e-01 -2.307709e-01 6.103455e+00 181 162 139
6.422324e-01 -2.307709e-01 6.103455e+00 181 162 139
1.807595e+00 -1.341046e-01 4.505454e+00 140 117 94
9.702693e-01 -1.816802e-01 5.758390e+00 118 101 81
2.046871e+00 -9.211148e-02 4.344530e+00 141 128 110
5.516020e-01 -1.936195e-01 6.423073e+00 103 85 61
1.011022e+00 -1.338669e-01 5.781587e+00 111 95 76
4.640957e-01 -1.680688e-01 6.513758e+00 123 106 90
1.033332e+00 -1.114565e-01 5.794481e+00 113 96 75
5.197361e-01 -1.530671e-01 6.479548e+00 173 151 130
2.455923e+00 3.567126e-02 3.694401e+00 137 118 102
5.205910e-01 -1.387126e-01 6.487038e+00 119 110 91
2.187191e+00 1.847548e-02 4.297547e+00 144 116 94
2.183225e+00 2.121685e-02 4.368359e+00 170 160 145
2.421537e+00 8.464271e-02 3.751750e+00 130 114 97
2.124888e+00 6.140857e-02 4.483009e+00 128 112 90
1.509486e+00 6.013266e-02 5.271552e+00 176 158 136
9.465184e-01 9.591234e-03 6.053080e+00 108 88 71
1.039521e+00 3.256014e-02 5.925182e+00 106 101 96
2.431569e+00 1.798189e-01 3.976975e+00 144 131 112
9.706198e-01 3.516415e-02 6.023018e+00 156 141 124
1.279271e+00 9.628383e-02 5.628515e+00 171 151 128
1.375459e+00 1.141801e-01 5.542818e+00 110 96 77
1.340247e+00 1.158974e-01 5.536709e+00 113 96 78
2.145025e+00 1.938040e-01 4.538465e+00 171 151 123
2.448088e+00 2.512885e-01 4.021377e+00 161 159 142
1.776516e+00 3.540167e-01 4.754049e+00 171 152 126
5.967367e-01 3.198986e-01 6.986860e+00 37 41 27
7.201581e-01 4.442561e-01 6.911943e+00 137 115 95
1.128973e+00 5.462978e-01 6.198783e+00 126 114 100
1.129548e+00 5.521028e-01 6.370110e+00 49 37 24
1.217619e+00 5.748238e-01 6.252634e+00 179 169 156
6.630505e-01 4.950472e-01 6.967461e+00 112 99 80
1.116144e+00 5.879392e-01 6.330130e+00 107 97 79
7.910221e-01 5.388722e-01 6.816559e+00 106 90 74
1.039262e+00 6.103357e-01 6.454393e+00 158 145 128
2.045108e+00 7.779167e-01 5.209269e+00 74 41 10
1.351729e+00 6.648098e-01 6.184065e+00 169 157 141
1.608298e+00 7.242849e-01 5.775475e+00 103 105 93
1.161890e+00 6.637821e-01 6.318795e+00 110 93 73
1.304502e+00 7.073914e-01 6.149228e+00 111 90 74
8.847220e-01 7.014362e-01 6.595447e+00 163 143 129
1.811003e+00 1.043803e+00 5.321539e+00 163 143 131
1.105943e+00 1.011559e+00 6.718938e+00 155 137 120
9.893928e-01 1.091802e+00 6.664359e+00 155 135 126
1.103348e+00 1.102790e+00 6.730469e+00 134 123 105
1.064530e+00 1.138331e+00 6.732110e+00 147 127 111
1.027322e+00 1.171876e+00 6.686741e+00 155 138 117
1.060635e+00 1.187659e+00 6.729842e+00 154 135 110
2.194524e+00 1.423082e+00 5.531936e+00 124 110 94
4.631301e-01 1.263040e+00 7.292816e+00 121 110 96
4.631301e-01 1.263040e+00 7.292816e+00 121 110 96
5.291725e-01 1.268682e+00 7.294963e+00 104 94 79
4.247225e-01 1.444552e+00 7.254949e+00 131 121 106
4.248426e-01 1.453572e+00 7.272597e+00 188 184 168
1.956283e+00 1.608190e+00 6.114494e+00 136 121 104
5.458004e-01 1.543730e+00 7.200475e+00 119 107 95
5.728837e-01 1.571905e+00 7.157965e+00 111 97 83
7.895516e-01 1.604772e+00 7.053674e+00 171 161 146
8.447653e-01 1.635012e+00 6.965317e+00 169 161 144
8.282508e-01 1.629392e+00 7.006572e+00 170 161 146
2.179129e+00 1.764432e+00 5.986988e+00 174 156 136
1.070036e+00 1.730227e+00 6.828386e+00 173 170 153
7.166286e-01 1.738540e+00 7.016126e+00 164 149 128
9.329765e-01 1.803445e+00 6.838120e+00 110 105 96
2.525003e+00 2.048202e+00 5.429090e+00 174 175 161
7.238207e-01 1.817515e+00 7.010752e+00 194 177 159
2.731597e+00 1.965916e+00 5.794561e+00 106 102 88
1.727003e+00 -9.936403e-01 2.313720e+00 157 130 99
1.326406e+00 -4.182757e-01 5.342741e+00 72 61 44
2.127095e+00 -3.381694e-01 3.928021e+00 161 151 132
1.340621e+00 -3.930097e-01 5.376089e+00 64 62 50
8.119497e-01 -3.828019e-01 5.629674e+00 160 137 113
8.119497e-01 -3.828019e-01 5.629674e+00 160 137 113
1.024089e+00 -3.483639e-01 5.739844e+00 111 85 57
8.262635e-01 -3.185154e-01 5.651073e+00 144 123 100
6.187339e-01 -2.621668e-01 6.360299e+00 141 127 110
1.122014e+00 -2.257131e-02 5.741749e+00 141 128 108
2.020062e+00 9.858605e-02 4.547156e+00 166 145 119
9.877251e-01 1.136653e-02 5.999629e+00 109 97 81
9.941038e-01 1.632572e-02 5.965262e+00 115 98 74
1.314685e+00 6.035015e-02 5.630376e+00 135 126 108
1.027686e+00 4.057146e-02 6.000127e+00 154 141 128
1.937565e+00 1.532535e-01 4.750304e+00 188 176 151
9.666401e-01 7.880530e-02 6.045274e+00 109 98 82
9.513587e-01 8.765425e-02 6.059656e+00 148 135 116
9.700095e-01 8.857431e-02 6.055972e+00 165 149 131
2.396435e+00 3.143550e-01 4.113546e+00 131 119 99
2.396435e+00 3.143550e-01 4.113546e+00 131 119 99
5.712213e-01 3.278016e-01 7.050884e+00 146 128 107
7.013367e-01 3.687147e-01 6.876651e+00 89 71 49
7.727167e-01 3.803961e-01 6.850259e+00 84 73 49
9.233622e-01 4.567408e-01 6.432534e+00 158 142 120
2.092581e+00 6.167053e-01 5.128329e+00 129 138 129
8.612534e-01 5.143373e-01 6.456771e+00 151 138 122
6.793818e-01 4.469573e-01 6.984787e+00 114 96 76
7.636504e-01 4.713005e-01 6.816051e+00 157 147 129
1.097079e+00 5.863529e-01 6.327530e+00 126 113 97
9.593945e-01 6.372265e-01 6.406382e+00 200 176 154
1.983655e+00 7.774056e-01 5.205264e+00 65 59 53
1.983655e+00 7.774056e-01 5.205264e+00 65 59 53
1.934542e+00 7.727881e-01 5.309478e+00 117 99 81
2.095339e+00 8.210362e-01 5.121365e+00 113 98 86
8.866809e-01 7.295569e-01 6.442373e+00 184 177 163
1.690686e+00 8.887695e-01 5.248316e+00 191 169 147
1.677685e+00 8.694429e-01 5.440039e+00 167 161 137
2.014290e+00 8.881307e-01 5.283707e+00 111 103 83
1.678986e+00 8.947329e-01 5.505208e+00 90 79 58
2.583426e+00 1.157468e+00 4.210734e+00 128 125 112
2.572774e+00 1.132939e+00 4.381553e+00 186 176 155
9.665350e-01 7.798846e-01 6.910472e+00 141 129 115
2.483839e+00 1.295655e+00 4.600860e+00 108 83 66
5.377334e-01 1.492297e+00 7.217059e+00 180 161 142
6.404157e-01 1.536728e+00 7.127135e+00 137 126 106
5.972963e-01 1.530546e+00 7.191373e+00 168 152 130
5.991701e-01 1.549049e+00 7.158390e+00 120 110 93
5.832102e-01 1.554995e+00 7.174177e+00 174 157 139
1.692704e+00 1.826425e+00 6.087318e+00 150 139 123
1.692704e+00 1.826425e+00 6.087318e+00 150 139 123
7.996720e-01 1.677731e+00 6.978046e+00 157 147 132
7.316919e-01 1.821460e+00 6.989451e+00 144 136 126
2.986603e-01 -2.690446e+00 3.594498e+00 156 163 171
4.759061e-01 -1.187412e+00 4.012387e+00 168 160 144
2.677943e-01 -1.272851e+00 4.440600e+00 88 73 59
5.141580e-01 -1.190910e+00 3.978516e+00 33 30 19
2.501087e-01 -1.255936e+00 4.934338e+00 144 140 148
3.087546e-01 -1.248377e+00 4.346632e+00 161 150 138
4.981159e-01 -1.233221e+00 3.983754e+00 124 123 103
5.246194e-01 -1.249916e+00 3.789690e+00 151 140 142
3.055770e-01 -1.268006e+00 4.345510e+00 113 105 94
3.028593e-01 -1.243427e+00 4.490028e+00 169 156 163
5.037407e-01 -1.216636e+00 3.986949e+00 131 123 122
1.729807e+00 -7.652064e-01 7.897464e+00 111 110 91
2.391604e+00 1.724642e+00 6.179611e+00 10 11 13
5.937570e-01 1.026969e-02 6.296429e+00 100 87 91
2.079281e+00 4.045914e-01 4.745973e+00 183 169 166
1.465733e+00 2.381990e-01 5.616108e+00 167 157 156
4.934745e-01 -1.188306e+00 4.068168e+00 190 170 146
-1.422415e-01 -1.084638e+00 6.656688e+00 148 152 182
1.648369e+00 -4.042622e-01 5.473382e+00 47 51 62
5.297767e-01 -1.450174e-01 5.863025e+00 169 164 168
2.290905e+00 4.572963e-01 4.419971e+00 155 152 161
1.978281e+00 4.102144e-01 5.054855e+00 44 45 60
1.052567e+00 -1.618096e+00 9.413822e+00 16 16 18
1.148771e+00 -1.398601e+00 9.535446e+00 26 25 36
2.377815e+00 1.651372e+00 6.234766e+00 45 52 66
2.339580e+00 1.774529e+00 6.162130e+00 6 7 12
2.394463e+00 1.814819e+00 6.048951e+00 8 11 15
1.274691e+00 -2.280008e-01 5.577321e+00 171 156 137
1.274691e+00 -2.280008e-01 5.577321e+00 171 156 137
2.328842e+00 5.128483e-01 4.756694e+00 120 115 122
2.346933e+00 8.090780e-01 4.721706e+00 157 154 149
-4.532147e-01 -1.210486e+00 5.773058e+00 83 75 86
1.451834e+00 -4.828377e-01 5.228078e+00 155 153 150
1.509007e+00 -4.481830e-01 5.386905e+00 33 20 49
1.407728e+00 -3.908814e-01 5.506078e+00 33 21 47
1.394751e+00 -3.750319e-01 5.523999e+00 162 159 154
1.391653e+00 -3.757278e-01 5.515192e+00 162 159 154
1.253098e+00 -3.896564e-01 5.532696e+00 172 163 158
1.162112e+00 -3.192151e-01 5.655535e+00 181 170 168
1.168784e+00 -3.196565e-01 5.674198e+00 181 170 168
3.408551e-01 -2.289469e-01 6.282241e+00 165 152 135
1.611881e+00 1.915458e-01 4.735198e+00 210 201 199
2.412922e+00 4.708452e-01 4.318851e+00 142 139 148
2.473512e+00 5.261299e-01 4.369825e+00 31 27 52
1.976060e+00 6.602140e-01 5.339933e+00 41 29 41
2.046637e+00 6.969714e-01 5.213253e+00 26 17 35
2.196076e+00 9.150360e-01 4.999223e+00 160 147 137
2.366162e+00 9.653863e-01 4.813947e+00 145 140 127
2.387861e+00 9.923223e-01 4.827327e+00 140 127 118
2.854503e+00 1.371399e+00 4.440832e+00 98 108 205
1.733644e+00 1.661659e+00 6.579779e+00 97 99 184
6.886476e-01 -8.596391e-01 4.207537e+00 163 157 145
-1.128139e-01 -7.705538e-01 6.794191e+00 221 248 253
1.109871e+00 -4.892640e-01 5.491162e+00 36 14 31
1.520129e+00 -4.017811e-01 5.498457e+00 142 137 136
1.681816e+00 -3.838068e-01 5.497664e+00 130 130 118
1.561930e+00 -3.904110e-01 5.521749e+00 29 21 40
1.125006e+00 -4.070157e-01 5.579820e+00 190 181 171
1.544944e+00 -3.617762e-01 5.556975e+00 164 160 150
1.132169e+00 -3.870307e-01 5.617359e+00 55 24 49
1.550184e+00 -3.439541e-01 5.576424e+00 32 15 41
1.185857e+00 -3.285831e-01 5.661100e+00 42 16 49
1.491304e+00 -2.844342e-01 5.654093e+00 30 11 33
1.190724e+00 -3.069593e-01 5.656409e+00 174 168 168
1.190724e+00 -3.069593e-01 5.656409e+00 174 168 168
1.196790e+00 -2.891528e-01 5.690897e+00 49 23 52
1.224613e+00 -2.652887e-01 5.707844e+00 56 43 62
1.204504e+00 -2.617265e-01 5.643857e+00 56 43 62
1.265483e+00 -2.566885e-01 5.704381e+00 33 19 42
1.269937e+00 -2.174880e-01 5.644878e+00 50 34 56
1.267137e+00 -1.188485e-01 5.880737e+00 32 21 29
1.281065e+00 -1.095576e-01 5.859637e+00 140 124 101
2.306407e+00 4.663959e-01 4.743224e+00 40 32 66
2.323789e+00 4.805192e-01 4.769376e+00 132 133 135
2.322037e+00 5.359740e-01 4.813637e+00 129 129 131
2.269136e+00 7.393567e-01 5.008886e+00 30 24 56
2.350928e+00 7.713407e-01 4.910859e+00 25 25 43
2.211597e+00 1.460416e+00 5.819387e+00 156 150 142
-7.356509e-01 -2.231020e+00 4.879371e+00 149 142 134
1.582557e+00 -5.488319e-01 5.311879e+00 25 6 24
1.032865e+00 -5.918572e-01 5.504100e+00 174 170 161
1.587239e+00 -5.267301e-01 5.353732e+00 142 137 144
1.620051e+00 -5.171555e-01 5.339394e+00 130 129 134
1.516903e+00 -4.271758e-01 5.454372e+00 173 166 174
1.170632e+00 -4.580716e-01 5.555686e+00 177 168 161
1.499576e+00 -4.106831e-01 5.495811e+00 53 35 62
1.018417e+00 -4.546017e-01 5.666259e+00 36 13 31
1.225181e+00 -3.005889e-01 5.642503e+00 176 170 164
1.402408e+00 -2.410295e-01 5.685477e+00 166 156 147
1.314718e+00 -2.506392e-01 5.694183e+00 163 154 139
1.340164e+00 -2.423597e-01 5.722637e+00 34 17 35
1.386892e+00 -1.901883e-01 5.760459e+00 46 33 52
4.929186e-01 -1.569950e-01 6.005641e+00 159 150 140
1.109717e+00 1.387409e-01 5.628512e+00 67 51 54
1.211390e+00 1.567496e-01 5.521684e+00 60 44 47
1.318213e+00 1.823419e-01 5.405858e+00 71 50 57
1.377717e+00 1.926070e-01 5.375170e+00 79 65 66
1.964479e+00 4.475989e-01 5.175017e+00 157 144 136
2.091426e+00 5.629262e-01 5.117364e+00 133 129 135
2.243889e+00 6.739244e-01 4.905956e+00 100 85 91
2.155909e+00 7.805532e-01 4.924458e+00 71 59 69
2.284611e+00 9.115085e-01 4.869476e+00 152 145 135
1.435671e+00 -6.965512e-01 5.108251e+00 22 5 23
1.545325e+00 -6.224426e-01 5.255489e+00 18 2 32
1.622092e+00 -5.426976e-01 5.351051e+00 28 8 36
1.226242e+00 -3.630465e-01 5.319657e+00 159 141 127
1.334298e+00 -3.547504e-01 5.576010e+00 47 22 34
4.800246e-01 -1.430066e-01 5.940977e+00 68 56 63
2.325520e+00 4.680037e-01 4.405272e+00 113 109 126
2.276595e+00 5.402254e-01 4.847362e+00 25 19 49
2.043386e+00 5.452863e-01 5.119796e+00 29 10 29
2.286119e+00 6.972562e-01 5.041344e+00 90 80 91
1.150472e+00 6.003725e-01 6.165067e+00 154 140 131
2.340862e+00 9.425480e-01 4.774453e+00 35 21 42
1.306497e+00 6.813706e-01 6.070861e+00 51 33 45
2.220334e+00 9.403290e-01 4.968697e+00 133 126 116
1.260533e+00 7.318268e-01 6.088497e+00 190 178 163
2.229157e+00 1.471096e+00 5.835857e+00 88 82 90
2.459079e+00 1.715226e+00 5.677210e+00 72 70 84
2.460237e+00 1.828479e+00 5.793455e+00 74 74 87
2.138096e+00 1.876536e+00 6.275887e+00 67 62 67
1.303816e+00 -4.420804e-01 5.481655e+00 183 173 176
4.640338e-02 -5.886924e-01 7.017111e+00 160 165 211
1.276891e+00 -4.167438e-01 5.514388e+00 189 179 185
1.322010e+00 -3.621238e-01 5.574415e+00 114 107 93
1.322010e+00 -3.621238e-01 5.574415e+00 114 107 93
1.557691e+00 -3.266722e-01 5.592882e+00 184 175 186
1.150297e+00 -3.039257e-01 5.659206e+00 48 24 48
1.203729e+00 -3.128334e-02 5.734635e+00 152 133 109
3.184696e-01 -1.472787e-01 6.530636e+00 87 61 62
2.404625e+00 2.992408e-01 4.188644e+00 146 138 142
2.544608e+00 3.399780e-01 3.957031e+00 195 195 197
1.346838e+00 1.409751e-01 5.367775e+00 184 174 170
1.620375e+00 6.525568e-01 5.578482e+00 137 136 138
2.428458e+00 8.959311e-01 4.609573e+00 124 120 121
2.157606e+00 8.345232e-01 4.979063e+00 52 46 61
2.553133e+00 1.044586e+00 4.236660e+00 78 74 85
1.183383e+00 6.784214e-01 6.167492e+00 188 170 158
1.183383e+00 6.784214e-01 6.167492e+00 188 170 158
1.941899e+00 8.679643e-01 5.334781e+00 157 149 136
2.625403e+00 1.101260e+00 4.145881e+00 100 98 111
2.071487e+00 9.459340e-01 5.172108e+00 157 143 128
2.339892e+00 1.017944e+00 4.838832e+00 129 124 118
2.585748e+00 1.131885e+00 4.257396e+00 62 54 67
2.747665e+00 1.113289e+00 4.457045e+00 89 72 60
2.421853e+00 1.815197e+00 5.948787e+00 95 94 99
2.464017e+00 1.879408e+00 5.756830e+00 121 116 118
1.841120e+00 1.823913e+00 6.247403e+00 149 134 138
2.170643e+00 1.846938e+00 6.220772e+00 61 55 65
2.168667e+00 1.854883e+00 6.230948e+00 122 122 126
2.158581e+00 1.854954e+00 6.238862e+00 52 46 58
2.418704e+00 1.964453e+00 5.903785e+00 109 106 115
2.109493e+00 1.862688e+00 6.341776e+00 150 142 145
1.482766e+00 -6.611219e-01 5.235115e+00 153 149 161
1.474736e+00 -6.615055e-01 5.212904e+00 153 149 161
1.369017e+00 6.580345e-02 5.387305e+00 140 125 118
2.441367e+00 5.123984e-01 4.235946e+00 80 77 89
1.988329e+00 7.878747e-01 5.117231e+00 176 166 168
2.151264e+00 8.278974e-01 4.954670e+00 148 138 149
2.198237e+00 8.536969e-01 4.931262e+00 150 141 131
2.424951e+00 9.315538e-01 4.679484e+00 46 39 46
2.147965e+00 8.695402e-01 5.024379e+00 152 139 146
1.526188e+00 7.551909e-01 5.833047e+00 150 138 140
2.067891e+00 9.193265e-01 5.203575e+00 71 54 53
1.964356e+00 8.939669e-01 5.321148e+00 157 144 126
1.935148e+00 8.932132e-01 5.339930e+00 116 100 85
2.250250e+00 9.860700e-01 4.966196e+00 155 141 134
2.811587e+00 1.179010e+00 4.365074e+00 184 177 168
2.057889e+00 1.642813e+00 6.389910e+00 133 118 111
2.167598e+00 1.898633e+00 6.227027e+00 118 107 108
2.167598e+00 1.898633e+00 6.227027e+00 118 107 108
1.643095e+00 -4.404228e-01 5.475829e+00 38 32 51
1.132917e+00 -4.559428e-01 5.485337e+00 184 165 170
1.399685e+00 -3.699147e-01 5.527191e+00 179 166 175
1.352107e+00 -3.387581e-01 5.596144e+00 100 89 85
1.413983e+00 -2.118881e-01 5.731679e+00 138 117 125
2.335932e+00 8.600899e-01 4.680972e+00 133 127 129
1.425638e+00 7.367453e-01 5.919804e+00 110 95 90
2.254694e+00 9.637331e-01 4.953013e+00 98 92 96
2.254694e+00 9.637331e-01 4.953013e+00 98 92 96
1.485940e+00 7.876973e-01 5.863766e+00 151 144 137
2.237478e+00 9.752626e-01 4.976129e+00 152 139 133
2.276498e+00 9.851794e-01 4.944553e+00 147 137 130
2.236429e+00 9.913465e-01 4.972307e+00 89 81 70
2.441791e+00 1.860201e+00 5.855352e+00 57 56 61
2.185887e+00 1.847926e+00 6.231090e+00 83 82 87
-2.689099e-01 -5.385642e-01 5.834227e+00 127 132 138
6.202401e-01 -9.558000e-02 5.292110e+00 140 144 145
1.011824e+00 -3.887043e-01 5.632423e+00 23 24 30
-1.062417e-02 -3.480701e-01 6.887791e+00 255 255 253
1.096595e+00 -4.520155e-01 5.536706e+00 21 22 27
4.417693e-01 -4.295651e-01 5.980628e+00 67 59 48
2.029817e-01 -2.318665e-01 6.426080e+00 111 113 110
1.022161e+00 -1.054062e+00 3.348067e+00 109 106 99
3.110271e+00 -6.145071e-01 7.368587e+00 32 24 21
1.544457e+00 -3.757871e-01 5.509470e+00 112 113 109
1.247972e+00 -4.081796e-01 5.559591e+00 19 19 27
1.237363e+00 -4.089650e-01 5.534443e+00 19 19 27
1.265061e+00 -3.889394e-01 5.565274e+00 123 123 125
1.252400e+00 -3.893920e-01 5.531588e+00 123 123 125
1.276541e+00 -3.671505e-01 5.625889e+00 18 18 26
1.351251e+00 -1.181250e-01 5.974481e+00 100 96 85
1.422213e+00 -9.757613e-02 5.946637e+00 110 106 95
3.831480e-01 -2.587773e-01 6.299897e+00 105 103 91
1.806155e-01 -2.655613e-01 6.315514e+00 123 128 131
1.688725e-01 -2.449344e-01 6.250252e+00 117 118 120
5.026055e-01 -1.729958e-01 6.048732e+00 72 62 54
5.026055e-01 -1.729958e-01 6.048732e+00 72 62 54
1.591449e+00 -5.599375e-01 5.295717e+00 108 109 112
1.580971e+00 -3.162775e-01 5.703460e+00 26 25 33
1.475550e+00 -2.298394e-01 5.799636e+00 134 137 131
1.317216e+00 -2.434169e-01 5.791520e+00 129 129 125
1.248624e+00 -2.397056e-01 5.748138e+00 19 18 23
1.437023e+00 -2.094510e-01 5.719543e+00 27 25 37
5.534683e-01 -3.164135e-01 5.661317e+00 67 60 52
5.201240e-01 -2.879843e-01 5.642277e+00 73 66 55
5.079301e-01 -2.889448e-01 5.613135e+00 73 66 55
5.299770e-01 -2.807717e-01 5.617424e+00 128 127 123
4.072847e-01 -3.180166e-01 6.162661e+00 34 31 24
1.209471e+00 -1.556014e-01 5.867853e+00 94 88 71
5.224156e-01 -2.174812e-01 5.849937e+00 77 72 66
1.460238e+00 -8.933208e-02 5.932586e+00 13 11 16
9.230939e-01 -1.196081e-01 5.627223e+00 123 122 118
1.933115e-01 -2.618120e-01 6.433399e+00 79 80 82
9.810404e-01 -4.900417e-01 5.608531e+00 106 106 107
1.142724e+00 -4.556800e-01 5.467889e+00 105 108 102
1.138630e+00 -4.435408e-01 5.511547e+00 24 24 35
1.666926e+00 -1.810233e-01 5.891481e+00 16 11 12
1.808027e+00 -1.379714e-01 5.651105e+00 59 59 56
1.764119e+00 -8.737662e-02 5.653385e+00 55 55 57
1.678367e+00 -5.926874e-02 5.464260e+00 55 54 52
5.317745e-01 -1.823067e-01 5.863420e+00 28 27 25
5.224993e-01 -1.683720e-01 5.905037e+00 49 47 42
1.066250e+00 -1.985701e-02 5.765152e+00 62 61 59
-2.632721e-01 -1.409712e+00 5.888794e+00 24 23 30
1.540353e+00 -6.235372e-01 5.285268e+00 111 110 115
1.681239e+00 -4.362695e-01 5.541820e+00 15 16 21
1.336737e+00 -3.584683e-01 5.576594e+00 8 6 11
1.069699e+00 -2.756020e-01 5.773883e+00 97 92 86
1.165216e+00 -1.936561e-01 5.900261e+00 10 1 6
1.069479e+00 -5.359267e-01 5.387506e+00 129 130 133
1.451011e+00 -2.125479e-01 5.692212e+00 20 19 27
4.781007e-01 -9.883242e-02 5.998748e+00 42 42 45
2.688302e+00 -1.019316e+00 5.093499e+00 56 57 62
3.116835e+00 -7.309906e-01 6.363763e+00 68 67 72
3.512510e+00 -3.721082e-01 1.095292e+01 63 63 63
1.330443e+00 -6.989516e-01 8.205354e+00 74 71 62
1.771467e+00 -6.781614e-01 4.236059e+00 41 38 40
1.651772e+00 -6.626469e-01 5.665049e+00 91 94 99
1.537810e+00 -3.040502e-01 5.656006e+00 134 135 131
1.552987e+00 -2.722303e-01 5.672019e+00 107 109 108
6.709884e-01 -6.905638e-01 4.716956e+00 192 191 203
2.609089e-01 -3.539476e-01 6.231565e+00 194 194 202
-5.045382e-01 -9.972126e-01 5.390658e+00 141 138 145
2.035903e+00 3.704319e-01 5.052852e+00 181 183 198
8.468640e-01 -1.161917e+00 3.161425e+00 162 157 161
8.925297e-01 -3.138737e-01 3.327853e+00 70 68 81
1.334107e+00 4.781352e-01 6.356763e+00 217 238 255
-2.359483e-01 -1.471735e+00 4.646028e+00 177 180 189
-5.738230e-02 -1.465948e+00 4.383269e+00 167 166 176
2.127702e+00 -1.322063e+00 1.319942e+00 191 192 204
2.208790e-02 -1.157209e+00 3.861847e+00 154 144 148
-1.068423e-01 -1.210356e+00 4.350873e+00 87 78 81
9.144848e-02 -1.191524e+00 4.125482e+00 61 53 55
-2.027731e-02 -1.198220e+00 4.222792e+00 79 73 76
1.984246e+00 -1.054038e+00 1.986736e+00 81 75 79
-4.746683e-02 -1.172755e+00 4.229740e+00 172 163 166
-1.496998e-01 -1.171510e+00 4.426157e+00 54 48 48
1.374643e+00 -4.079084e-01 5.445833e+00 172 172 180
2.244582e+00 9.093654e-01 5.181908e+00 157 156 164
1.338602e+00 -7.313881e-02 5.754715e+00 167 162 169
8.534324e-02 2.852827e-01 7.139789e+00 138 156 172
4.409441e-01 4.347910e-01 6.838899e+00 178 178 188
-4.869393e-01 -1.492287e+00 4.933234e+00 178 178 186
-1.547324e-01 -1.342832e+00 4.377118e+00 164 158 162
2.433892e+00 5.024793e-01 4.481281e+00 91 95 107
1.278284e-01 2.960285e-01 7.176903e+00 235 245 253
2.938552e-01 -1.239430e+00 3.487525e+00 112 107 113
1.151384e-02 -1.161826e+00 3.893566e+00 158 148 155
2.023948e+00 8.032893e-01 5.345241e+00 181 181 189
1.151567e+00 6.437778e-01 6.247824e+00 172 171 177
2.083765e+00 8.771991e-01 5.381178e+00 66 64 69
2.250501e+00 9.239358e-01 5.214993e+00 71 70 78
2.578556e+00 1.127337e+00 4.406810e+00 185 185 195
2.101792e+00 -1.299523e+00 1.492234e+00 176 174 184
1.643808e+00 6.416055e-01 5.703783e+00 99 97 108
1.782120e+00 8.770525e-01 5.340518e+00 184 181 188
2.022160e+00 1.544622e+00 6.416745e+00 94 96 108
1.684300e+00 7.506690e-01 5.294902e+00 170 169 176
2.169973e+00 8.588750e-01 5.219194e+00 162 161 169
2.574366e+00 1.010886e+00 4.262827e+00 172 172 184
2.338964e+00 9.506648e-01 5.095371e+00 163 162 168
1.757720e+00 8.796499e-01 5.382771e+00 109 107 112
2.493410e+00 1.065658e+00 4.353377e+00 121 121 131
2.553615e+00 1.128393e+00 4.450593e+00 132 132 144
2.443389e+00 8.431535e-01 4.825318e+00 128 127 133
2.254088e+00 9.166013e-01 5.203858e+00 164 163 171
2.570373e+00 1.125963e+00 4.443564e+00 118 118 130
-5.188904e-01 -1.889339e+00 5.370854e+00 132 123 124
5.458620e-01 1.888177e-01 6.539247e+00 127 120 127
5.458620e-01 1.888177e-01 6.539247e+00 127 120 127
1.861995e+00 1.183996e+00 5.628580e+00 107 104 110
2.322395e+00 2.391449e+00 6.084877e+00 239 246 254
4.559840e-01 -7.586043e-01 6.132408e+00 119 113 117
4.559840e-01 -7.586043e-01 6.132408e+00 119 113 117
-4.737840e-03 -8.222389e-01 6.396120e+00 143 138 134
3.442517e-01 -6.990057e-02 7.600150e+00 227 235 255
1.973711e+00 1.277891e+00 5.291133e+00 13 21 45
1.973711e+00 1.277891e+00 5.291133e+00 13 21 45
1.561252e+00 9.673852e-01 5.140437e+00 44 44 56
7.136084e-01 1.243395e+00 8.217950e+00 234 243 254
4.090453e-01 -9.143514e-02 7.028637e+00 65 64 66
5.496569e-01 3.184349e-01 6.902536e+00 22 25 43
1.604748e+00 1.076799e+00 4.787764e+00 66 63 67
1.940224e+00 1.106329e+00 5.245717e+00 28 34 51
2.454575e+00 2.138249e+00 5.227541e+00 57 61 73
1.777287e+00 1.044875e+00 4.950411e+00 38 41 47
3.929254e-01 4.226525e-01 7.688660e+00 91 97 116
1.969811e+00 1.360099e+00 5.587208e+00 19 27 51
2.200926e+00 1.855849e+00 5.349328e+00 21 34 54
2.020836e+00 1.789403e+00 5.572068e+00 19 30 62
1.074127e+00 1.678684e+00 7.403623e+00 67 76 93
9.576303e-02 -7.249519e-01 6.469845e+00 141 142 137
1.475638e-01 -1.313727e-01 6.872341e+00 148 149 156
5.851083e-01 3.332655e-01 6.971930e+00 27 28 48
5.851083e-01 3.332655e-01 6.971930e+00 27 28 48
8.246125e-01 6.952021e-01 6.010641e+00 137 133 135
7.346931e-01 5.945329e-01 7.228508e+00 27 33 52
1.669355e+00 1.198438e+00 4.795360e+00 70 70 79
1.529209e+00 1.202289e+00 4.759754e+00 66 70 81
2.068087e+00 1.265952e+00 5.235029e+00 108 110 107
2.063141e+00 1.673385e+00 5.469210e+00 100 100 102
1.923798e+00 1.756602e+00 5.853168e+00 116 114 119
1.749379e+00 1.765913e+00 6.094063e+00 48 53 72
7.254422e-01 1.180187e+00 8.203064e+00 144 154 164
9.121746e-01 1.516599e+00 8.277588e+00 130 133 147
2.456947e+00 2.576774e+00 5.818837e+00 105 115 142
1.255738e+00 -1.437678e+00 9.654945e+00 93 97 99
1.180663e+00 6.936800e-01 5.770517e+00 33 39 54
3.266653e-01 3.928528e-01 7.154196e+00 82 77 80
1.697771e+00 1.155119e+00 4.752572e+00 116 111 115
1.565642e+00 1.216192e+00 4.445081e+00 106 106 106
2.066811e+00 1.183321e+00 5.417420e+00 22 35 52
1.938589e+00 1.191429e+00 5.402510e+00 29 41 66
2.012353e+00 1.304365e+00 5.179605e+00 17 25 42
2.159567e+00 1.701966e+00 5.052488e+00 11 23 49
2.043869e+00 1.835352e+00 5.677171e+00 18 27 54
9.835807e-01 1.264676e+00 7.543772e+00 107 106 110
8.823033e-01 1.411151e+00 8.343703e+00 232 245 252
1.436341e+00 -1.381896e+00 9.716994e+00 29 27 39
7.337419e-01 8.960457e-02 5.605150e+00 156 155 150
1.556304e+00 6.807988e-01 5.256523e+00 70 71 69
3.464984e-01 3.371338e-01 7.141147e+00 53 53 65
1.253533e+00 7.802970e-01 5.652628e+00 97 97 95
1.709960e+00 1.181977e+00 4.789321e+00 125 124 129
1.927281e+00 1.252857e+00 5.405627e+00 16 24 50
2.641563e+00 2.148627e+00 5.326383e+00 107 108 116
1.258738e+00 1.729319e+00 7.411097e+00 70 87 127
1.919159e+00 2.216418e+00 6.284442e+00 227 243 249
1.839518e+00 2.210928e+00 6.312571e+00 229 245 252
1.526315e+00 -1.460601e+00 9.782777e+00 73 74 67
1.552340e+00 -1.448869e+00 9.799945e+00 29 28 36
2.654240e-01 -6.323042e-01 7.374755e+00 210 222 241
2.654240e-01 -6.323042e-01 7.374755e+00 210 222 241
2.953106e-01 -6.083548e-01 7.466984e+00 89 91 132
1.265571e-01 -5.049266e-01 6.705642e+00 87 86 102
5.864046e-01 -3.112103e-01 6.323016e+00 54 48 42
7.385306e-01 4.994026e-01 6.635509e+00 129 126 131
1.209590e+00 7.239342e-01 5.735252e+00 132 130 133
1.665575e+00 1.207193e+00 4.920853e+00 118 117 117
1.630428e+00 1.162468e+00 5.114519e+00 129 124 128
1.675562e+00 1.672031e+00 6.273537e+00 248 248 255
2.122956e+00 2.020348e+00 5.655215e+00 43 46 61
1.665109e+00 1.891508e+00 6.277328e+00 243 251 255
7.271558e-01 1.210497e+00 8.181092e+00 65 71 107
1.810678e+00 2.170909e+00 6.376364e+00 238 252 255
2.528157e+00 2.504619e+00 5.678097e+00 231 247 246
1.500250e+00 -1.212845e+00 9.785834e+00 88 103 119
1.348967e-01 -5.344089e-01 6.715185e+00 79 76 87
4.491372e-01 -2.921798e-01 6.448186e+00 51 47 44
1.263524e+00 -9.957580e-02 5.798437e+00 81 75 63
1.233438e+00 8.776876e-02 5.392795e+00 60 54 54
1.115822e+00 1.036496e-01 5.523238e+00 136 133 128
1.115822e+00 1.036496e-01 5.523238e+00 136 133 128
1.193059e+00 6.053131e-01 5.806794e+00 134 135 145
1.513747e+00 9.085621e-01 4.691951e+00 133 133 133
1.519348e+00 8.186216e-01 5.459144e+00 34 30 40
1.409983e+00 8.799717e-01 5.421479e+00 101 99 98
1.674375e+00 1.174162e+00 4.786545e+00 23 20 40
2.742611e+00 2.126536e+00 5.389154e+00 237 250 249
2.171269e+00 2.047788e+00 5.805692e+00 67 67 76
1.739320e+00 2.097250e+00 6.261916e+00 237 250 254
2.582196e+00 2.527293e+00 5.344119e+00 238 249 253
8.067181e-01 1.358659e+00 8.321613e+00 236 251 255
2.349894e+00 2.432174e+00 5.772076e+00 181 199 209
9.542431e-01 1.518142e+00 8.363371e+00 79 88 131
9.519186e-01 1.536646e+00 8.363116e+00 95 108 139
1.371286e+00 -1.496021e+00 9.689719e+00 69 74 75
-5.435555e-02 -2.105986e+00 6.201614e+00 131 131 122
1.293506e+00 -1.459779e+00 9.619134e+00 27 30 39
1.665989e-01 -7.522742e-01 7.294973e+00 74 82 101
6.823430e-01 -6.479573e-02 6.251238e+00 148 145 138
1.225842e+00 5.786652e-01 6.063254e+00 249 252 255
1.417451e+00 7.012842e-01 5.529303e+00 55 53 66
1.510391e+00 8.904268e-01 4.680396e+00 72 67 72
1.801210e+00 9.181996e-01 4.967886e+00 102 97 102
1.544760e+00 9.233378e-01 4.901478e+00 82 76 76
1.082812e+00 7.076863e-01 6.066632e+00 58 57 62
1.081674e+00 7.281071e-01 5.988053e+00 61 56 63
1.298119e+00 8.386897e-01 5.584920e+00 121 113 124
1.266992e+00 8.283716e-01 5.626586e+00 106 106 105
1.466020e+00 8.826179e-01 5.423567e+00 98 99 104
1.466020e+00 8.826179e-01 5.423567e+00 98 99 104
1.562102e+00 1.049106e+00 4.789560e+00 45 42 51
1.611452e+00 1.241721e+00 5.047784e+00 82 84 91
2.065705e+00 1.599636e+00 5.148461e+00 83 85 87
1.717205e+00 1.755104e+00 5.805115e+00 135 133 143
2.577035e+00 2.185993e+00 5.346624e+00 117 115 125
2.538793e+00 2.205998e+00 5.287286e+00 65 65 69
2.517774e+00 2.184129e+00 5.344406e+00 109 113 124
1.338995e+00 1.589827e+00 7.324894e+00 99 102 145
1.338995e+00 1.589827e+00 7.324894e+00 99 102 145
7.862379e-01 1.354464e+00 8.302766e+00 92 110 137
8.529436e-01 1.395257e+00 8.259423e+00 222 230 245
1.832207e+00 2.208208e+00 6.399188e+00 135 149 176
2.892753e-01 -1.585245e-01 7.453200e+00 203 216 232
1.166260e+00 1.895181e-01 5.362620e+00 111 108 106
1.124274e+00 1.907621e-01 5.338790e+00 120 116 123
1.129228e+00 1.745513e-01 5.461994e+00 106 107 109
1.384601e+00 2.515659e-01 5.020486e+00 111 110 106
1.360348e+00 2.288021e-01 5.185117e+00 120 115 119
1.324555e+00 2.260317e-01 5.185092e+00 119 115 116
1.215199e+00 6.791492e-01 5.775270e+00 111 115 125
1.310654e+00 7.793540e-01 5.499154e+00 59 57 60
4.054842e-01 4.283642e-01 7.751552e+00 218 234 240
1.872309e+00 1.162260e+00 4.751309e+00 93 90 97
1.656128e+00 1.247229e+00 4.906441e+00 83 82 85
1.689381e+00 1.294290e+00 5.088889e+00 93 90 94
1.660029e+00 1.523662e+00 5.391444e+00 99 97 105
2.700342e+00 2.329011e+00 4.743878e+00 239 250 255
1.802350e+00 1.945178e+00 5.931797e+00 101 105 116
1.032342e-02 -1.371836e+00 6.218194e+00 55 53 56
9.667584e-01 -1.053006e+00 9.501361e+00 179 196 244
3.785673e-01 2.038025e-01 7.647188e+00 204 212 233
6.118702e-01 4.863622e-01 6.832633e+00 119 115 107
1.546574e+00 1.151536e+00 4.941774e+00 59 57 72
6.393488e-01 1.087343e+00 8.161695e+00 220 238 249
9.900896e-01 1.451170e+00 7.443274e+00 91 90 96
1.607890e+00 2.152935e-01 4.356134e+00 199 183 167
7.773082e-01 7.866295e-01 7.494173e+00 31 36 33
2.102539e+00 1.125579e+00 5.897042e+00 27 31 30
1.450819e+00 1.447177e-01 5.064941e+00 190 174 158
2.548056e+00 -6.206799e-01 1.473077e+00 145 122 100
9.040902e-01 -1.027581e+00 3.478553e+00 77 60 35
1.111174e+00 -1.011508e+00 3.090773e+00 66 41 8
8.455319e-01 -9.402989e-01 3.908261e+00 176 160 145
3.217849e-01 -5.237779e-01 4.548137e+00 197 182 168
2.266981e+00 1.665749e+00 5.985238e+00 166 148 130
-1.458770e-01 -1.469226e+00 4.525510e+00 195 178 164
7.508772e-01 -1.155078e+00 3.436846e+00 171 156 133
1.656279e+00 2.874808e-01 4.559338e+00 205 189 177
-2.048902e-01 -1.467334e+00 4.720408e+00 204 188 173
4.795542e-01 -1.439597e+00 3.266442e+00 188 170 155
9.277935e-01 -1.103238e+00 3.374430e+00 106 90 68
1.083240e+00 -1.045343e+00 3.277307e+00 171 154 129
5.782858e-01 -5.473404e-01 5.162327e+00 206 190 177
1.766481e+00 7.684983e-01 5.099445e+00 119 106 89
1.658676e+00 1.059817e+00 5.033457e+00 96 83 68
2.443521e+00 1.254371e+00 4.336192e+00 89 82 63
1.129385e+00 -1.047204e+00 3.173683e+00 171 157 132
1.261196e+00 -1.006786e+00 3.009245e+00 55 41 18
6.598139e-01 -6.055513e-01 5.131122e+00 116 98 72
6.091559e-01 -5.251595e-01 5.184880e+00 159 145 125
5.934056e-01 -5.255141e-01 5.727113e+00 154 136 117
1.366863e+00 -4.429360e-01 5.481833e+00 191 176 154
2.163085e+00 1.312893e-02 4.381474e+00 97 78 57
1.731764e+00 8.315516e-01 5.101248e+00 119 102 83
2.480480e+00 1.038890e+00 4.156010e+00 156 145 128
1.703085e+00 1.891839e+00 6.339426e+00 160 149 138
-8.061806e-01 -2.579022e+00 4.728872e+00 114 95 77
8.089698e-01 -1.233543e+00 3.239829e+00 108 89 66
5.166631e-01 -1.186695e+00 3.837509e+00 90 71 39
1.077216e+00 -1.120237e+00 3.216094e+00 173 148 126
7.593218e-01 -1.035815e+00 3.631774e+00 137 116 90
9.566453e-01 -8.930434e-01 3.971067e+00 146 127 112
9.854037e-01 -5.200232e-01 5.512805e+00 190 168 154
6.485722e-01 -4.216827e-01 6.005261e+00 119 104 82
1.865515e+00 1.806954e-01 4.925536e+00 116 94 69
1.612307e+00 2.701150e-01 4.759098e+00 200 190 173
2.459791e+00 5.818263e-01 4.418517e+00 76 56 36
2.128423e+00 9.238253e-01 5.067457e+00 180 173 151
2.197975e+00 1.074037e+00 5.482834e+00 173 168 154
2.234545e+00 1.066974e+00 5.521260e+00 169 159 143
1.496020e+00 -1.390070e+00 1.561036e+00 172 170 155
-2.714108e-01 -1.295933e+00 5.156879e+00 99 82 65
-2.714108e-01 -1.295933e+00 5.156879e+00 99 82 65
5.913468e-02 -1.276577e+00 4.752006e+00 118 99 77
1.147523e+00 -1.180312e+00 2.719458e+00 111 96 74
9.323237e-01 -1.132097e+00 3.251068e+00 175 157 130
9.079740e-01 -1.078169e+00 3.369332e+00 97 72 34
8.650378e-01 -9.235132e-01 4.012243e+00 209 195 176
1.044099e+00 -6.751007e-01 5.300967e+00 61 25 3
8.878403e-02 -6.324282e-01 7.093019e+00 158 144 133
6.558569e-01 -4.405953e-01 5.964294e+00 116 101 78
1.296572e+00 -3.589435e-01 5.636095e+00 199 186 171
2.036318e+00 4.736362e-02 4.445940e+00 126 101 74
1.077703e+00 3.070259e-02 5.672830e+00 118 100 85
2.456492e+00 5.028252e-01 4.263703e+00 128 108 101
1.715682e+00 8.016052e-01 5.153029e+00 192 180 161
2.211091e+00 8.241065e-01 5.027831e+00 104 89 68
2.211091e+00 8.241065e-01 5.027831e+00 104 89 68
1.263729e+00 7.167572e-01 6.095112e+00 104 93 75
1.297401e+00 7.317963e-01 6.030517e+00 109 98 76
1.297401e+00 7.317963e-01 6.030517e+00 109 98 76
1.341834e+00 7.385087e-01 6.011339e+00 106 93 76
1.447100e+00 7.628798e-01 5.926720e+00 107 96 80
2.379915e+00 8.954114e-01 4.821760e+00 151 135 117
2.360811e+00 9.197159e-01 4.772775e+00 111 80 56
1.558429e+00 8.021858e-01 5.774892e+00 99 83 67
2.330197e+00 9.312287e-01 4.806694e+00 174 168 143
2.620846e+00 1.092862e+00 4.108839e+00 174 169 149
2.604773e+00 1.104498e+00 4.160410e+00 194 185 165
2.170068e+00 1.012204e+00 5.745730e+00 139 146 133
2.186229e+00 1.073987e+00 5.525717e+00 127 118 106
2.199940e+00 1.111056e+00 5.516974e+00 177 168 152
2.215169e+00 1.430064e+00 5.714856e+00 142 122 106
2.146839e+00 1.963507e+00 6.043188e+00 188 165 148
2.744948e+00 1.959305e+00 5.839579e+00 153 150 135
2.568674e+00 2.109667e+00 5.506722e+00 124 108 93
1.754078e+00 -3.783915e+00 -1.440531e+00 187 182 175
-4.301332e-01 -1.458449e+00 5.278163e+00 110 93 77
-4.301332e-01 -1.458449e+00 5.278163e+00 110 93 77
7.574709e-01 -1.440595e+00 2.966135e+00 126 106 90
9.135302e-01 -1.152657e+00 3.242089e+00 106 75 47
1.267850e+00 -9.378743e-01 3.019191e+00 111 92 77
7.336730e-01 -9.368961e-01 4.011389e+00 206 192 179
8.750630e-01 -9.220512e-01 3.859291e+00 198 182 162
9.741238e-01 -8.131987e-01 3.950925e+00 97 81 55
8.378989e-01 -4.635275e-01 5.656364e+00 138 116 93
5.591564e-01 -4.476524e-01 5.244007e+00 144 125 110
1.629015e+00 -2.673250e-01 5.306343e+00 84 62 40
2.915909e-01 -2.826117e-01 6.489892e+00 125 110 90
3.331015e-01 -1.511709e-01 6.565359e+00 130 116 95
1.923359e+00 2.814695e-02 4.647736e+00 127 105 88
1.637937e+00 9.362379e-02 5.219326e+00 173 157 136
1.257099e+00 1.023740e-01 5.613504e+00 123 106 88
