ply
format ascii 1.0
element face 0
property list uchar int vertex_indices
element vertex 941
property float x
property float y
property float z
property uchar diffuse_red
property uchar diffuse_green
property uchar diffuse_blue
end_header
-2.066262e+00 2.207807e+00 1.991617e+00 159 155 146
-1.875665e+00 2.253156e+00 2.018970e+00 79 69 57
4.510601e+00 1.761633e+00 5.748786e+00 185 175 165
-2.732812e+00 2.104016e+00 2.030944e+00 117 108 102
-2.732812e+00 2.104016e+00 2.030944e+00 117 108 102
-3.202924e-01 2.533967e+00 2.106389e+00 79 68 51
-1.920435e+00 2.291933e+00 2.056791e+00 169 163 151
-1.815636e+00 2.313337e+00 2.063633e+00 48 36 36
-7.176118e-01 2.518008e+00 2.083638e+00 150 138 113
-2.430056e+00 2.214309e+00 2.060782e+00 184 175 166
2.783332e+00 2.274097e+00 4.115685e+00 102 95 85
3.234440e+00 2.164255e+00 4.557020e+00 189 183 170
1.048430e+00 2.647101e+00 2.587466e+00 110 95 84
-6.214830e+00 1.562238e+00 2.036146e+00 106 97 90
3.352551e+00 2.143302e+00 4.658760e+00 133 129 121
-2.572944e+00 2.209153e+00 2.088357e+00 178 175 160
-3.972164e-02 2.637384e+00 2.188809e+00 163 147 123
-2.639424e+00 2.208490e+00 2.093457e+00 104 98 84
-3.685082e+00 2.016109e+00 2.095907e+00 142 141 139
-2.605126e+00 2.235372e+00 2.086446e+00 175 167 151
-2.605126e+00 2.235372e+00 2.086446e+00 175 167 151
-4.501600e+00 1.888895e+00 2.110073e+00 181 174 171
3.649384e+00 2.079535e+00 5.020379e+00 110 101 96
3.220600e+00 2.205129e+00 4.568544e+00 202 193 184
2.673183e+00 2.350761e+00 4.036745e+00 166 160 145
-2.654417e+00 2.250022e+00 2.096240e+00 176 167 151
-2.654417e+00 2.250022e+00 2.096240e+00 176 167 151
-5.933114e+00 1.677647e+00 2.062988e+00 121 117 105
-5.933114e+00 1.677647e+00 2.062988e+00 121 117 105
-1.699090e+00 2.423470e+00 2.128451e+00 60 52 42
-5.842791e+00 1.694059e+00 2.063318e+00 76 70 71
3.125248e+00 2.252771e+00 4.501088e+00 62 49 40
3.125248e+00 2.252771e+00 4.501088e+00 62 49 40
1.744413e+00 2.584497e+00 3.210533e+00 90 78 67
-2.830645e+00 2.242164e+00 2.082941e+00 91 88 87
-2.330476e+00 2.336664e+00 2.132571e+00 167 157 148
3.108194e+00 2.270636e+00 4.504928e+00 134 126 115
4.424226e+00 1.937961e+00 5.777212e+00 151 144 125
-1.899686e+00 2.428555e+00 2.122934e+00 172 168 160
1.498241e+00 2.682260e+00 3.073499e+00 174 170 169
3.038605e+00 2.344991e+00 4.486346e+00 69 58 52
-8.456520e-01 2.644836e+00 2.235959e+00 179 172 152
-5.010239e-01 2.699409e+00 2.240083e+00 146 130 107
2.540519e+00 2.475151e+00 4.038248e+00 97 86 77
-3.361294e+00 2.244823e+00 2.177291e+00 44 40 37
4.313754e+00 2.052413e+00 5.717610e+00 157 149 136
4.188384e+00 2.084671e+00 5.596579e+00 173 167 155
4.172128e+00 2.094895e+00 5.565189e+00 72 63 58
1.934475e+00 2.636764e+00 3.480752e+00 172 165 151
-3.266283e+00 2.286073e+00 2.188100e+00 83 75 73
-2.104034e+00 2.496124e+00 2.191295e+00 84 76 71
2.646503e-01 2.816513e+00 2.408052e+00 150 136 110
-4.654417e+00 2.058841e+00 2.202130e+00 134 130 128
1.514202e+00 2.736162e+00 3.147117e+00 94 89 83
1.514202e+00 2.736162e+00 3.147117e+00 94 89 83
-3.414513e+00 2.278934e+00 2.201039e+00 166 161 155
3.016446e+00 2.398688e+00 4.544126e+00 102 94 89
-1.740012e+00 2.585001e+00 2.201096e+00 127 125 114
-3.469416e+00 2.284919e+00 2.213426e+00 182 177 173
2.589052e+00 2.538433e+00 4.099461e+00 148 145 140
4.209541e+00 2.150961e+00 5.664796e+00 89 77 65
1.973476e+00 2.696198e+00 3.582416e+00 193 184 177
1.899620e+00 2.709712e+00 3.527397e+00 95 88 72
4.095898e+00 2.203513e+00 5.573963e+00 190 180 151
-6.248229e-01 2.790871e+00 2.363004e+00 176 164 145
-1.552571e+00 2.672690e+00 2.246369e+00 122 115 96
-3.279026e+00 2.385902e+00 2.265124e+00 99 88 74
3.022889e+00 2.469304e+00 4.599490e+00 90 83 79
3.022889e+00 2.469304e+00 4.599490e+00 90 83 79
1.922592e+00 2.725440e+00 3.573233e+00 113 107 93
-1.340758e+00 2.705308e+00 2.326883e+00 60 51 44
4.159156e+00 2.221749e+00 5.677366e+00 185 176 151
1.807248e+00 2.761802e+00 3.508609e+00 170 158 133
1.914925e+00 2.750030e+00 3.581218e+00 187 180 162
1.127015e+00 2.888224e+00 2.941462e+00 148 141 130
-5.449986e+00 2.097500e+00 2.224469e+00 123 109 100
4.133140e+00 2.250155e+00 5.666641e+00 176 167 157
-3.424771e+00 2.418432e+00 2.283383e+00 161 159 147
-2.165425e+00 2.647763e+00 2.315345e+00 126 119 108
-5.389123e+00 2.139055e+00 2.250440e+00 133 124 117
-3.142748e+00 2.499142e+00 2.324159e+00 78 71 66
-2.685071e-01 2.919156e+00 2.459400e+00 134 122 107
-2.167351e+00 2.663877e+00 2.334248e+00 187 180 172
2.299625e+00 2.717764e+00 3.990579e+00 169 165 156
-2.275868e+00 2.653913e+00 2.311661e+00 79 75 64
-5.904960e+00 2.092612e+00 2.256500e+00 129 122 128
1.602130e-01 2.967416e+00 2.520105e+00 96 80 64
3.986379e+00 2.337779e+00 5.553762e+00 167 156 138
9.286694e-01 2.958494e+00 2.887846e+00 150 142 129
4.030120e+00 2.337966e+00 5.602707e+00 179 170 155
9.883787e-01 2.948439e+00 2.963706e+00 154 144 135
2.864457e+00 2.607520e+00 4.555315e+00 200 197 195
3.976234e+00 2.368862e+00 5.565048e+00 176 168 148
4.042157e+00 2.371971e+00 5.601530e+00 159 149 137
3.316491e-01 3.015451e+00 2.586884e+00 152 139 118
-4.177072e+00 2.390708e+00 2.343990e+00 116 111 105
-6.550042e-02 2.973487e+00 2.571777e+00 51 35 20
3.380150e+00 2.500453e+00 5.091825e+00 172 165 146
2.742425e+00 2.660007e+00 4.481654e+00 187 178 166
-2.052287e+00 2.741831e+00 2.390460e+00 62 49 43
2.254507e+00 2.789274e+00 4.000932e+00 97 89 78
-5.086595e+00 2.295118e+00 2.303003e+00 131 127 124
2.789196e+00 2.665490e+00 4.518005e+00 64 54 53
-4.400411e-01 2.965153e+00 2.515960e+00 119 106 87
-5.120759e+00 2.298596e+00 2.309148e+00 189 185 176
-2.152998e+00 2.762472e+00 2.416840e+00 181 175 162
2.211002e+00 2.820092e+00 4.007023e+00 151 144 125
-1.965050e+00 2.803898e+00 2.437420e+00 175 169 146
-3.920153e+00 2.512699e+00 2.394385e+00 64 55 52
2.603856e+00 2.735182e+00 4.423941e+00 75 67 64
2.229858e+00 2.831962e+00 4.042643e+00 190 183 179
-3.979074e+00 2.516787e+00 2.406292e+00 151 144 129
-1.965528e+00 2.826747e+00 2.449049e+00 85 74 68
-1.752335e+00 2.860119e+00 2.453400e+00 67 57 47
-2.026174e+00 2.830205e+00 2.439173e+00 93 84 75
-2.029387e+00 2.827073e+00 2.444462e+00 93 84 75
-1.994782e+00 2.838337e+00 2.442065e+00 164 157 140
-1.994782e+00 2.838337e+00 2.442065e+00 164 157 140
3.244106e+00 2.620356e+00 5.039947e+00 150 142 129
-9.436276e-01 2.981399e+00 2.547340e+00 152 140 114
-3.802957e-01 3.048660e+00 2.583027e+00 176 171 164
-2.940955e+00 2.714315e+00 2.443300e+00 187 179 166
2.563319e+00 2.782351e+00 4.431433e+00 79 69 59
-1.695951e-01 3.064264e+00 2.675556e+00 170 161 142
-7.958611e-01 3.014716e+00 2.572421e+00 170 162 150
1.922930e+00 2.948341e+00 3.791925e+00 114 101 83
-1.036692e+00 2.994034e+00 2.538258e+00 76 69 64
-2.090007e+00 2.862094e+00 2.483690e+00 191 188 183
1.480302e+00 3.028036e+00 3.476044e+00 114 102 88
2.138144e-01 3.121705e+00 2.733515e+00 86 74 62
2.700473e+00 2.791894e+00 4.559214e+00 193 189 180
1.374515e+00 3.040233e+00 3.425685e+00 159 150 137
-7.623091e-01 3.040306e+00 2.594781e+00 176 164 144
3.788867e+00 2.569590e+00 5.512746e+00 156 148 128
1.321880e+00 3.060220e+00 3.389910e+00 71 62 51
2.475933e+00 2.844345e+00 4.409097e+00 180 171 164
-1.869292e+00 2.931999e+00 2.526418e+00 182 181 177
-5.036872e+00 2.488005e+00 2.400864e+00 162 150 128
3.724980e-02 3.155595e+00 2.678319e+00 122 109 86
-1.910689e+00 2.930241e+00 2.534646e+00 115 108 106
-1.910689e+00 2.930241e+00 2.534646e+00 115 108 106
-8.673983e-01 3.065893e+00 2.621858e+00 148 135 122
-2.655238e+00 2.842539e+00 2.511789e+00 108 100 90
-2.655238e+00 2.842539e+00 2.511789e+00 108 100 90
2.486191e+00 2.880447e+00 4.424529e+00 179 171 156
7.456863e-01 3.148253e+00 3.056749e+00 186 184 167
-5.158238e+00 2.504995e+00 2.422391e+00 158 150 131
1.969125e+00 3.001660e+00 3.926066e+00 98 90 78
1.239629e+00 3.108801e+00 3.405148e+00 71 60 54
-1.956124e+00 2.965607e+00 2.550283e+00 128 128 126
1.424680e+00 3.096044e+00 3.523868e+00 68 58 56
4.215893e-01 3.191520e+00 2.862704e+00 83 74 60
-1.009514e+00 3.086401e+00 2.609369e+00 60 51 47
1.962400e+00 3.016759e+00 3.939401e+00 167 160 149
1.239197e+00 3.123126e+00 3.419344e+00 177 170 148
1.239197e+00 3.123126e+00 3.419344e+00 177 170 148
1.287466e+00 3.120848e+00 3.449427e+00 183 172 150
-4.046257e+00 2.704842e+00 2.525243e+00 67 61 60
-7.374011e-01 3.127957e+00 2.712613e+00 170 161 146
-8.918435e-01 3.121784e+00 2.671712e+00 100 92 89
-4.001234e+00 2.725312e+00 2.538231e+00 121 113 109
-4.001234e+00 2.725312e+00 2.538231e+00 121 113 109
1.712134e+00 3.086586e+00 3.803610e+00 186 182 174
-2.974465e+00 2.877830e+00 2.547902e+00 184 181 176
3.605444e+00 2.724286e+00 5.420463e+00 168 159 142
1.674907e+00 3.110408e+00 3.795209e+00 173 166 146
-1.636868e+00 3.072836e+00 2.630026e+00 179 175 163
-6.745806e-01 3.180480e+00 2.723581e+00 181 173 163
1.773546e+00 3.107495e+00 3.893883e+00 81 68 61
3.837680e+00 2.704610e+00 5.701678e+00 142 142 145
1.779891e+00 3.123263e+00 3.923675e+00 183 175 164
1.735191e+00 3.136013e+00 3.891159e+00 157 146 125
-7.577116e-01 3.208530e+00 2.763252e+00 95 88 80
-9.722378e-01 3.202570e+00 2.681340e+00 124 112 96
-4.967081e+00 2.698233e+00 2.520470e+00 119 109 103
-1.530510e+00 3.141605e+00 2.682948e+00 177 169 151
-1.530510e+00 3.141605e+00 2.682948e+00 177 169 151
2.984159e+00 2.917001e+00 5.005923e+00 98 83 84
-4.937477e+00 2.724488e+00 2.522495e+00 179 171 166
1.086031e+00 3.250887e+00 3.432278e+00 156 144 130
-1.570051e+00 3.163206e+00 2.704520e+00 192 188 177
-1.569610e+00 3.164385e+00 2.703428e+00 192 188 177
-1.506849e+00 3.186912e+00 2.718937e+00 173 163 141
1.693267e+00 3.191896e+00 3.936410e+00 204 199 193
3.738706e+00 2.821505e+00 5.684478e+00 213 214 218
1.861370e+00 3.192192e+00 4.024614e+00 168 161 151
-3.725702e+00 2.945451e+00 2.644970e+00 131 130 127
1.674613e+00 3.217752e+00 3.948184e+00 148 142 130
-1.643648e+00 3.205151e+00 2.736223e+00 181 174 164
-1.643648e+00 3.205151e+00 2.736223e+00 181 174 164
-2.988534e-01 3.328215e+00 2.906000e+00 152 144 127
-3.564767e-01 3.323947e+00 2.886863e+00 147 135 121
3.424736e+00 2.912673e+00 5.408191e+00 148 140 121
3.475765e+00 2.902381e+00 5.479928e+00 101 88 70
9.057352e-01 3.330378e+00 3.399177e+00 185 173 151
9.057352e-01 3.330378e+00 3.399177e+00 185 173 151
-3.498562e-01 3.341188e+00 2.902499e+00 75 66 52
3.455448e+00 2.912760e+00 5.451915e+00 179 172 154
-1.687889e+00 3.222236e+00 2.742936e+00 173 166 156
-1.692019e+00 3.225102e+00 2.748160e+00 173 166 156
-4.845380e+00 2.838641e+00 2.595216e+00 108 99 93
-3.659858e+00 2.996477e+00 2.669456e+00 171 158 133
-1.768843e-01 3.365196e+00 2.966527e+00 76 66 64
-4.810116e+00 2.865033e+00 2.599275e+00 192 190 177
-2.136199e+00 3.203932e+00 2.731827e+00 103 88 72
-3.519705e+00 3.032884e+00 2.693660e+00 112 105 99
-4.762147e+00 2.889754e+00 2.618526e+00 148 140 128
-4.243753e-01 3.368985e+00 2.946525e+00 161 152 142
2.678499e+00 3.089190e+00 4.882065e+00 197 194 180
2.158395e+00 3.194224e+00 4.412186e+00 160 154 138
4.189442e+00 2.861136e+00 6.005275e+00 169 170 172
-3.518348e+00 3.048954e+00 2.710496e+00 191 187 177
2.135957e+00 3.207315e+00 4.399722e+00 99 92 88
2.135957e+00 3.207315e+00 4.399722e+00 99 92 88
-2.412759e+00 3.198806e+00 2.756662e+00 89 80 83
5.596719e-01 3.417650e+00 3.235565e+00 28 21 13
3.294462e+00 3.015763e+00 5.349963e+00 170 159 137
-2.382407e+00 3.208081e+00 2.765616e+00 88 83 85
2.127188e+00 3.221747e+00 4.412323e+00 193 189 180
6.579621e-01 3.412615e+00 3.344603e+00 166 155 133
-1.596844e-01 3.418123e+00 3.018479e+00 52 44 38
-4.775455e+00 2.952622e+00 2.648888e+00 69 61 66
-4.775455e+00 2.952622e+00 2.648888e+00 69 61 66
2.103501e+00 3.245639e+00 4.403222e+00 115 105 97
6.136776e-01 3.430390e+00 3.329275e+00 100 87 70
-3.381438e+00 3.111843e+00 2.743092e+00 63 52 48
-3.388890e+00 3.114790e+00 2.752938e+00 63 52 48
-5.215584e-01 3.423126e+00 2.944790e+00 64 57 51
-3.845595e+00 3.074908e+00 2.701086e+00 199 196 189
-1.375961e+00 3.354490e+00 2.862270e+00 52 48 50
-1.375961e+00 3.354490e+00 2.862270e+00 52 48 50
-3.434658e+00 3.122860e+00 2.747584e+00 62 52 50
3.420485e+00 3.026017e+00 5.520076e+00 164 152 136
-2.247064e+00 3.276216e+00 2.816924e+00 128 121 111
-3.452692e+00 3.139280e+00 2.759071e+00 184 177 173
2.034390e+00 3.274767e+00 4.420499e+00 178 171 148
2.290172e+00 3.258825e+00 4.535417e+00 140 131 116
2.290172e+00 3.258825e+00 4.535417e+00 140 131 116
1.502777e+00 3.374469e+00 3.943268e+00 207 202 198
-1.233667e+00 3.402120e+00 2.910648e+00 155 152 139
2.017933e+00 3.297367e+00 4.433216e+00 121 114 109
1.383675e+00 3.409700e+00 3.867827e+00 190 186 175
2.584730e+00 3.210213e+00 4.882148e+00 143 136 125
2.030094e+00 3.317854e+00 4.421237e+00 198 195 187
-2.392669e+00 3.310657e+00 2.848308e+00 186 185 179
-2.144803e+00 3.340244e+00 2.861485e+00 180 173 144
-1.108116e+00 3.442531e+00 2.952091e+00 103 93 84
-1.206275e+00 3.435767e+00 2.925825e+00 183 179 176
-4.217330e+00 3.124447e+00 2.715134e+00 114 105 96
1.203377e+00 3.451418e+00 3.800457e+00 75 59 45
1.203377e+00 3.451418e+00 3.800457e+00 75 59 45
-2.151622e+00 3.357290e+00 2.866155e+00 79 71 62
1.068638e+00 3.471684e+00 3.743392e+00 77 68 61
-4.616892e+00 3.101459e+00 2.735610e+00 95 83 79
-4.893455e-02 3.535756e+00 3.156242e+00 128 123 117
2.487501e+00 3.275965e+00 4.857702e+00 98 88 82
1.845226e+00 3.381550e+00 4.341749e+00 79 72 66
1.914171e-01 3.550410e+00 3.216148e+00 68 51 42
-6.568729e-02 3.547565e+00 3.155079e+00 178 175 170
1.894750e+00 3.387747e+00 4.355213e+00 145 142 133
2.480402e+00 3.289260e+00 4.873675e+00 184 174 162
-8.881673e-01 3.508850e+00 3.024045e+00 177 166 147
1.036715e+00 3.503973e+00 3.759316e+00 182 174 151
-9.570242e-01 3.509575e+00 3.011808e+00 183 174 158
-1.984564e+00 3.420262e+00 2.918089e+00 169 162 152
-3.084870e+00 3.297980e+00 2.865373e+00 90 80 79
1.372064e+00 3.490900e+00 3.925110e+00 113 106 100
8.944020e-01 3.541904e+00 3.635150e+00 169 163 149
-4.544393e+00 3.178166e+00 2.772838e+00 146 138 126
-4.287286e+00 3.207305e+00 2.769775e+00 79 69 70
9.333811e-01 3.549371e+00 3.710476e+00 182 176 173
-2.083921e+00 3.453278e+00 2.962308e+00 189 184 178
-9.024276e-01 3.562857e+00 3.081734e+00 122 115 96
2.518623e+00 3.347101e+00 4.940178e+00 132 128 127
1.603326e+00 3.491581e+00 4.281150e+00 193 186 165
2.937620e+00 3.316024e+00 5.268043e+00 189 177 166
2.477165e+00 3.381363e+00 4.940777e+00 205 203 198
-4.511672e+00 3.266690e+00 2.827754e+00 199 196 184
-9.549649e-01 3.602718e+00 3.103759e+00 127 121 113
-3.082314e+00 3.420323e+00 2.934019e+00 184 181 174
-9.082052e-01 3.616785e+00 3.135106e+00 174 166 154
1.485588e+00 3.550366e+00 4.188949e+00 95 86 81
-1.146465e+00 3.609541e+00 3.072099e+00 131 125 113
-4.624948e+00 3.284156e+00 2.845723e+00 180 180 170
9.307367e-01 3.629596e+00 3.808750e+00 126 122 110
9.762127e-01 3.631081e+00 3.831275e+00 110 104 99
-4.328495e+00 3.337828e+00 2.862743e+00 172 163 148
1.421777e+00 3.594097e+00 4.184498e+00 166 156 144
-8.609177e-01 3.668807e+00 3.192127e+00 192 188 179
-1.625396e+00 3.627988e+00 3.104945e+00 94 81 73
2.133613e+00 3.511428e+00 4.773961e+00 67 60 51
2.133613e+00 3.511428e+00 4.773961e+00 67 60 51
2.166372e+00 3.510678e+00 4.798053e+00 113 106 95
-2.993884e+00 3.512441e+00 3.001221e+00 159 152 130
2.084797e+00 3.528036e+00 4.727557e+00 187 183 170
1.479146e+00 3.614975e+00 4.284974e+00 196 190 175
-8.963970e-01 3.700523e+00 3.204816e+00 183 180 174
-3.005108e+00 3.544227e+00 3.016837e+00 175 172 161
2.134773e+00 3.550253e+00 4.790307e+00 47 40 34
-1.752002e+00 3.661239e+00 3.133998e+00 104 99 94
4.719521e-01 3.743787e+00 3.651962e+00 96 86 81
-7.402200e-01 3.743527e+00 3.251078e+00 204 201 195
-1.533304e+00 3.691341e+00 3.170431e+00 83 72 70
-3.874139e+00 3.495829e+00 2.946340e+00 160 151 138
3.572439e-01 3.764647e+00 3.584096e+00 71 58 42
-1.787043e+00 3.680835e+00 3.140900e+00 133 131 127
2.171203e+00 3.566363e+00 4.871961e+00 197 192 177
-3.598347e-01 3.771148e+00 3.363943e+00 78 62 57
5.022491e-01 3.781793e+00 3.654925e+00 109 99 90
2.938226e-01 3.788903e+00 3.582056e+00 81 67 56
-1.655298e-01 3.793571e+00 3.410619e+00 156 144 135
2.638900e+00 3.544070e+00 5.182791e+00 79 71 66
2.638900e+00 3.544070e+00 5.182791e+00 79 71 66
-1.816749e+00 3.717402e+00 3.165750e+00 178 175 166
-4.208449e+00 3.516182e+00 2.981698e+00 134 130 124
4.711688e-01 3.790898e+00 3.714789e+00 186 182 170
1.271775e+00 3.734186e+00 4.194341e+00 118 109 100
-5.276925e-01 3.800919e+00 3.358471e+00 77 68 66
-1.510332e+00 3.746028e+00 3.214609e+00 71 58 52
-3.957248e+00 3.549905e+00 2.994340e+00 78 71 66
-5.069585e-01 3.805330e+00 3.378104e+00 193 190 183
-5.847970e-01 3.836787e+00 3.368640e+00 146 139 130
-2.549512e+00 3.718122e+00 3.183750e+00 121 112 110
-2.893125e-01 3.854734e+00 3.482129e+00 192 188 180
-3.733305e+00 3.633902e+00 3.032390e+00 162 150 131
4.843502e-01 3.854453e+00 3.764803e+00 166 158 139
2.105438e+00 3.680723e+00 4.882798e+00 205 196 187
2.697322e+00 3.605338e+00 5.323502e+00 77 66 63
-1.660205e+00 3.806261e+00 3.266936e+00 125 121 118
-1.182605e-01 3.881961e+00 3.536757e+00 179 176 168
-3.105881e+00 3.708038e+00 3.115493e+00 137 127 117
5.463926e-03 3.887961e+00 3.565049e+00 66 58 51
-3.810060e+00 3.658438e+00 3.050940e+00 61 50 55
-1.260814e+00 3.858054e+00 3.335809e+00 197 188 176
-1.313000e+00 3.873429e+00 3.339374e+00 104 95 91
-1.313000e+00 3.873429e+00 3.339374e+00 104 95 91
-3.449027e+00 3.729536e+00 3.087579e+00 176 168 156
8.090151e-01 3.885840e+00 4.036592e+00 34 28 16
3.351305e-02 3.939626e+00 3.627043e+00 173 168 163
2.583288e+00 3.702121e+00 5.309153e+00 95 84 81
2.583288e+00 3.702121e+00 5.309153e+00 95 84 81
-4.009540e+00 3.724045e+00 3.105120e+00 188 186 178
3.801559e-02 3.956353e+00 3.642989e+00 177 169 156
2.350635e+00 3.756501e+00 5.130908e+00 181 171 158
-2.433476e+00 3.861316e+00 3.270679e+00 179 172 154
1.431842e+00 3.879268e+00 4.495820e+00 71 59 45
-2.448358e+00 3.874170e+00 3.300188e+00 67 54 54
2.309908e+00 3.785609e+00 5.126217e+00 173 161 139
2.578140e+00 3.760697e+00 5.325965e+00 215 209 195
2.578140e+00 3.760697e+00 5.325965e+00 215 209 195
2.537449e+00 3.757802e+00 5.331979e+00 200 195 180
2.537449e+00 3.757802e+00 5.331979e+00 200 195 180
-9.998294e-01 3.981492e+00 3.495139e+00 171 165 140
-3.212283e+00 3.853105e+00 3.178233e+00 115 106 99
9.705088e-02 4.013541e+00 3.705884e+00 149 141 122
3.492424e-02 4.017162e+00 3.685560e+00 94 76 72
-1.301710e+00 3.981996e+00 3.441213e+00 194 190 180
-3.440196e+00 3.855513e+00 3.195208e+00 89 79 78
-1.228485e+00 3.998363e+00 3.469374e+00 190 185 165
1.527253e+00 3.925822e+00 4.676295e+00 108 101 94
-1.218119e+00 4.015816e+00 3.477343e+00 110 102 94
5.604532e-01 4.037178e+00 4.060893e+00 182 176 160
2.400257e+00 3.855514e+00 5.280241e+00 183 176 160
1.462462e+00 3.963366e+00 4.675035e+00 126 121 117
-2.121132e+00 4.019492e+00 3.422315e+00 82 73 63
2.378596e+00 3.893440e+00 5.312045e+00 109 99 94
1.713204e+00 3.990800e+00 4.846699e+00 155 151 149
4.131814e-01 4.102733e+00 4.057398e+00 73 63 54
-1.915902e+00 4.073293e+00 3.491002e+00 175 168 150
1.712457e+00 4.003411e+00 4.859330e+00 212 209 202
-4.514453e-01 4.127299e+00 3.740480e+00 116 108 106
-3.105911e+00 4.015133e+00 3.300459e+00 108 103 101
-3.539408e+00 4.003463e+00 3.295907e+00 164 158 142
1.781050e-01 4.145545e+00 3.955314e+00 129 116 108
-3.237087e+00 4.045955e+00 3.331633e+00 184 179 170
-1.209484e-01 4.183724e+00 3.856187e+00 69 60 45
-2.399893e+00 4.112562e+00 3.435504e+00 143 136 133
1.253503e+00 4.103699e+00 4.614717e+00 141 138 132
2.102285e+00 4.026499e+00 5.202596e+00 191 183 163
-1.410232e-01 4.205509e+00 3.888112e+00 186 181 162
-7.637820e-01 4.204930e+00 3.710877e+00 162 154 140
7.997191e-02 4.205052e+00 3.970227e+00 83 69 60
1.424908e+00 4.114207e+00 4.741404e+00 203 199 189
-3.527518e+00 4.103225e+00 3.357317e+00 220 225 228
-3.271990e+00 4.120933e+00 3.393078e+00 172 162 146
-3.068117e+00 4.132752e+00 3.402922e+00 86 76 75
1.796672e+00 4.100571e+00 5.006169e+00 183 178 167
2.030113e-01 4.229922e+00 4.076910e+00 194 185 182
9.490587e-01 4.178835e+00 4.533203e+00 202 197 179
9.490587e-01 4.178835e+00 4.533203e+00 202 197 179
6.529956e-02 4.235369e+00 4.016008e+00 86 82 82
1.031524e+00 4.201703e+00 4.613810e+00 68 58 54
9.080459e-01 4.218586e+00 4.549902e+00 68 59 53
-1.596023e+00 4.250841e+00 3.678170e+00 118 112 100
-3.269190e+00 4.181156e+00 3.431983e+00 111 101 89
-1.899506e+00 4.248609e+00 3.624070e+00 183 181 169
-1.586800e+00 4.266304e+00 3.684185e+00 203 199 184
-2.147385e-01 4.294883e+00 3.957874e+00 201 194 179
-1.761850e+00 4.267822e+00 3.642689e+00 199 196 191
-1.407942e+00 4.277479e+00 3.719214e+00 72 57 57
7.774345e-01 4.252050e+00 4.500670e+00 170 159 142
7.774345e-01 4.252050e+00 4.500670e+00 170 159 142
-1.760937e+00 4.278610e+00 3.661346e+00 136 128 126
9.544892e-01 4.243789e+00 4.612844e+00 203 199 192
8.662816e-01 4.257455e+00 4.575320e+00 170 164 152
8.662816e-01 4.257455e+00 4.575320e+00 170 164 152
9.309066e-01 4.255597e+00 4.603372e+00 121 116 110
9.786961e-01 4.256028e+00 4.623180e+00 116 109 102
1.528906e+00 4.220587e+00 4.888129e+00 160 154 133
3.904839e+00 4.056443e+00 6.264223e+00 198 197 194
-3.403431e-01 4.338279e+00 3.929700e+00 105 96 89
1.528064e+00 4.235645e+00 4.907739e+00 83 73 74
-2.732455e+00 4.293098e+00 3.528298e+00 169 163 141
-1.267275e+00 4.360183e+00 3.828163e+00 73 63 52
-1.267275e+00 4.360183e+00 3.828163e+00 73 63 52
-2.409204e+00 4.353567e+00 3.615459e+00 91 80 80
-2.804878e+00 4.340786e+00 3.566772e+00 71 62 51
1.535871e+00 4.309209e+00 5.032921e+00 196 186 153
1.749931e+00 4.298991e+00 5.190192e+00 120 117 128
-2.812589e+00 4.388442e+00 3.613999e+00 181 178 162
-9.747775e-01 4.436886e+00 3.930948e+00 127 116 113
5.093257e-01 4.406984e+00 4.474128e+00 196 189 168
-2.864314e+00 4.401947e+00 3.619643e+00 192 189 174
-7.410242e-01 4.448991e+00 3.982577e+00 79 68 68
1.429715e+00 4.359158e+00 4.996540e+00 94 87 79
-9.337356e-01 4.455078e+00 3.952570e+00 195 191 175
-1.038664e+00 4.464376e+00 3.939717e+00 190 184 170
1.212429e+00 4.403874e+00 4.867822e+00 175 170 150
-7.530351e-01 4.498643e+00 4.043138e+00 118 109 89
-7.502463e-01 4.515269e+00 4.061067e+00 162 151 133
1.064301e+00 4.453001e+00 4.813710e+00 110 99 82
4.481193e-04 4.511526e+00 4.267755e+00 129 117 99
-7.681531e-01 4.529710e+00 4.068644e+00 122 109 99
-8.772123e-01 4.531913e+00 4.054517e+00 192 187 175
1.600491e+00 4.424755e+00 5.160579e+00 229 229 231
-5.156537e-01 4.538839e+00 4.120224e+00 74 61 53
1.234741e+00 4.457164e+00 4.961436e+00 68 58 54
-2.032403e+00 4.526450e+00 3.778662e+00 169 162 146
-2.419194e+00 4.529973e+00 3.754855e+00 176 164 148
-4.938865e-01 4.558012e+00 4.149185e+00 174 166 148
-5.463163e-01 4.563265e+00 4.137161e+00 115 107 86
-5.463163e-01 4.563265e+00 4.137161e+00 115 107 86
-6.056149e-01 4.568178e+00 4.135388e+00 175 167 155
2.074317e-02 4.557431e+00 4.349075e+00 146 138 114
-7.817225e-01 4.570210e+00 4.085851e+00 216 212 200
1.488685e+00 4.474110e+00 5.145134e+00 226 228 227
-1.709651e+00 4.598692e+00 3.876583e+00 153 142 117
-2.140210e+00 4.595865e+00 3.844490e+00 63 53 44
7.372658e-01 4.568749e+00 4.713817e+00 155 141 121
-1.971519e+00 4.620139e+00 3.880103e+00 161 146 125
-1.700312e+00 4.634331e+00 3.915465e+00 158 146 127
7.706887e-01 4.591927e+00 4.775898e+00 170 164 156
-1.287869e-01 4.634384e+00 4.348797e+00 95 84 83
-1.810648e+00 4.646407e+00 3.919986e+00 61 49 50
8.427345e-01 4.618632e+00 4.847434e+00 81 68 64
9.633527e-01 4.611424e+00 4.936130e+00 113 101 90
7.738384e-01 4.663772e+00 4.864343e+00 163 147 126
7.738384e-01 4.663772e+00 4.864343e+00 163 147 126
7.580907e-01 4.681655e+00 4.860095e+00 101 79 60
7.426976e-01 4.696026e+00 4.876446e+00 148 132 111
-1.929650e+00 4.761493e+00 4.000836e+00 137 123 110
-1.087140e+00 4.785725e+00 4.155108e+00 158 142 109
-1.477468e+00 4.787163e+00 4.099751e+00 78 67 66
1.350694e-01 4.782060e+00 4.583153e+00 154 138 114
3.688500e-01 4.773761e+00 4.709864e+00 145 134 109
-1.385616e+00 4.825598e+00 4.146811e+00 180 173 154
-1.307075e+00 4.831494e+00 4.157886e+00 172 163 141
-1.292402e+00 4.835067e+00 4.171230e+00 57 35 40
-1.249264e+00 4.845275e+00 4.195892e+00 196 194 182
-4.609080e-03 4.842143e+00 4.567210e+00 60 41 34
5.838171e-01 4.829302e+00 4.908821e+00 111 101 120
-5.870011e-01 4.919326e+00 4.391287e+00 101 85 63
-2.518372e-01 4.917043e+00 4.508518e+00 138 120 99
-7.653254e-01 4.940413e+00 4.372742e+00 84 66 46
-6.965343e+00 -4.844421e+00 5.138182e-01 176 174 178
-4.626794e+00 -4.027803e+00 7.963377e-01 155 151 148
3.995225e+00 -2.184363e+00 3.228969e+00 165 165 160
7.561990e-01 -1.773875e+00 1.111420e+00 73 67 74
3.032505e+00 -1.750770e+00 2.284237e+00 176 175 170
9.066200e-01 -1.687096e+00 1.167843e+00 50 46 43
2.998155e+00 -1.674852e+00 2.260773e+00 117 114 109
2.998155e+00 -1.674852e+00 2.260773e+00 117 114 109
4.499182e+00 -2.290762e+00 3.858535e+00 173 172 168
4.462896e+00 -2.270290e+00 3.844410e+00 168 164 160
4.612879e+00 -2.289508e+00 3.948947e+00 87 86 84
-1.756433e+00 -3.006670e+00 1.456536e+00 133 130 126
2.792619e+00 -1.495507e+00 2.066978e+00 147 146 143
4.564518e+00 -2.236646e+00 3.930491e+00 75 75 68
4.593910e+00 -2.236429e+00 3.948217e+00 97 98 93
2.950290e+00 -1.462293e+00 2.222020e+00 149 149 148
2.929033e+00 -1.462824e+00 2.213227e+00 86 86 86
1.239668e+00 -1.513248e+00 1.432820e+00 158 158 158
4.496576e+00 -2.174271e+00 3.899396e+00 162 158 155
1.092492e+00 -1.464449e+00 1.331789e+00 117 116 111
2.921448e+00 -1.445933e+00 2.225932e+00 163 161 164
3.258323e+00 -1.477402e+00 2.449225e+00 84 84 80
3.228227e+00 -1.462381e+00 2.419370e+00 82 84 81
4.503024e+00 -2.120353e+00 3.909065e+00 177 178 180
3.237240e+00 -1.444288e+00 2.439747e+00 88 87 85
1.744899e+00 -1.265294e+00 1.488552e+00 156 151 145
1.727715e+00 -1.228938e+00 1.490664e+00 170 167 160
-2.310851e+00 -2.458473e+00 9.817443e-01 75 73 78
5.718670e-01 -1.266822e+00 1.050103e+00 218 218 218
2.799083e+00 -1.242557e+00 2.149052e+00 190 188 185
2.219863e+00 -1.098273e+00 1.768753e+00 98 99 93
3.543571e+00 -1.461499e+00 2.919701e+00 103 98 93
-1.692574e-01 -1.462441e+00 1.030410e+00 99 97 87
-1.692574e-01 -1.462441e+00 1.030410e+00 99 97 87
2.180447e+00 -1.074364e+00 1.755412e+00 194 194 195
2.147276e+00 -1.071068e+00 1.741256e+00 195 196 191
3.079507e+00 -1.164629e+00 2.333145e+00 116 116 116
2.105982e+00 -1.066747e+00 1.722142e+00 195 196 191
7.887957e-01 -1.126889e+00 1.141187e+00 167 163 150
-1.634514e-01 -1.429114e+00 1.030080e+00 184 184 179
2.125008e+00 -1.057139e+00 1.733299e+00 111 110 106
-1.733834e-01 -1.400878e+00 1.003290e+00 99 96 91
5.689866e-01 -1.114766e+00 1.063428e+00 149 143 134
2.072219e+00 -1.026750e+00 1.704855e+00 109 102 96
2.891328e+00 -1.038520e+00 2.208772e+00 126 127 123
2.891328e+00 -1.038520e+00 2.208772e+00 126 127 123
3.739067e-01 -1.091811e+00 1.022535e+00 66 65 60
2.025207e+00 -9.655688e-01 1.708775e+00 163 158 155
7.911154e-01 -1.016971e+00 1.155248e+00 173 173 162
1.811415e+00 -9.349801e-01 1.573720e+00 180 180 176
1.745566e+00 -9.052114e-01 1.522722e+00 177 178 172
1.862358e+00 -9.310874e-01 1.619960e+00 187 189 185
1.135486e+00 -9.521571e-01 1.297733e+00 115 114 97
-3.875378e-02 -1.196338e+00 1.020504e+00 124 123 119
1.053869e+00 -9.429477e-01 1.288693e+00 127 126 122
1.053869e+00 -9.429477e-01 1.288693e+00 127 126 122
1.242818e+00 -9.236877e-01 1.368499e+00 192 189 175
9.902560e-01 -8.895081e-01 1.209476e+00 132 132 122
4.468090e+00 -1.670242e+00 3.984673e+00 177 173 171
1.058902e+00 -8.920189e-01 1.258936e+00 195 194 192
1.714571e+00 -8.748634e-01 1.571269e+00 141 140 135
9.939554e-01 -9.065573e-01 1.266953e+00 196 197 192
9.444914e-01 -8.662720e-01 1.203920e+00 128 126 114
9.444914e-01 -8.662720e-01 1.203920e+00 128 126 114
1.709919e+00 -8.327784e-01 1.542113e+00 135 132 125
2.547152e+00 -8.469999e-01 2.007927e+00 143 144 139
3.312325e+00 -1.044510e+00 2.684267e+00 142 137 133
1.782967e+00 -8.146279e-01 1.609009e+00 140 141 136
1.753484e+00 -8.236099e-01 1.602474e+00 177 177 175
4.303586e+00 -1.543383e+00 3.868581e+00 166 165 164
3.415005e+00 -1.008971e+00 2.827083e+00 162 156 150
4.183496e+00 -1.390445e+00 3.751016e+00 159 156 152
3.422456e+00 -9.954775e-01 2.839148e+00 127 122 114
3.455380e+00 -9.919368e-01 2.866562e+00 133 129 120
5.816340e-01 -7.742518e-01 1.150296e+00 139 140 135
5.816340e-01 -7.742518e-01 1.150296e+00 139 140 135
3.251075e+00 -9.157807e-01 2.682329e+00 119 112 104
-3.371844e+00 -2.108973e+00 9.768440e-01 142 138 135
1.911583e-01 -7.572801e-01 1.004136e+00 191 188 175
4.656053e+00 -1.547235e+00 4.310746e+00 111 107 97
2.206773e-01 -6.694723e-01 9.337810e-01 180 177 161
1.623660e+00 -6.515052e-01 1.597352e+00 174 172 160
2.768123e+00 -6.652167e-01 2.205449e+00 131 130 126
2.665454e+00 -5.728507e-01 2.114155e+00 166 165 160
3.152276e-01 -6.168552e-01 1.058874e+00 152 149 139
2.324822e+00 -5.205648e-01 1.931326e+00 167 162 158
4.627803e+00 -1.424634e+00 4.327048e+00 165 164 160
4.639502e+00 -1.412741e+00 4.335858e+00 116 115 113
3.233637e+00 -7.469706e-01 2.730118e+00 162 159 152
7.926421e-01 -6.170000e-01 1.338593e+00 107 101 97
-2.228921e+00 -1.896392e+00 1.481352e+00 173 172 167
7.538896e-01 -5.952002e-01 1.328637e+00 76 73 64
4.564963e+00 -1.323273e+00 4.249430e+00 166 165 162
4.539638e+00 -1.317511e+00 4.228677e+00 172 171 166
1.628744e+00 -4.876192e-01 1.644003e+00 157 153 142
2.528238e+00 -4.270094e-01 2.041150e+00 113 113 101
1.643711e+00 -4.635519e-01 1.664578e+00 87 83 74
1.339104e+00 -4.610925e-01 1.560308e+00 100 93 82
1.339104e+00 -4.610925e-01 1.560308e+00 100 93 82
7.211451e-01 -5.562437e-01 1.382344e+00 174 174 163
1.634518e+00 -4.325153e-01 1.680476e+00 110 108 96
7.218715e-01 -5.454112e-01 1.435361e+00 110 110 99
2.877129e+00 -3.965785e-01 2.311169e+00 152 146 130
3.214229e+00 -5.693131e-01 2.738622e+00 123 115 102
3.261754e+00 -5.505014e-01 2.786685e+00 152 146 138
1.880171e+00 -2.851771e-01 1.761231e+00 189 188 183
3.233653e-01 -5.562751e-01 1.363200e+00 137 133 121
4.537693e+00 -1.057097e+00 4.254132e+00 153 147 137
3.255515e+00 -4.577472e-01 2.796873e+00 92 91 86
-2.837508e+00 -1.274276e+00 9.792380e-01 185 180 174
3.675897e+00 -5.783290e-01 3.259417e+00 111 110 106
4.083386e+00 -7.470979e-01 3.745655e+00 175 170 151
4.053681e+00 -7.438153e-01 3.733842e+00 100 94 79
9.529929e-01 -2.507916e-01 1.503875e+00 185 183 172
4.525202e+00 -9.554486e-01 4.291649e+00 88 82 77
4.072421e+00 -7.338476e-01 3.755849e+00 105 102 88
1.829142e+00 -1.344541e-01 1.815065e+00 172 171 167
4.134585e+00 -7.248339e-01 3.806383e+00 95 91 82
4.075137e+00 -7.135831e-01 3.765286e+00 150 144 133
4.075137e+00 -7.135831e-01 3.765286e+00 150 144 133
2.562761e+00 -1.363459e-01 2.204520e+00 168 165 156
2.398821e+00 -7.357939e-02 2.097844e+00 113 108 99
1.701925e+00 -4.766520e-02 1.799334e+00 183 178 172
3.344480e+00 -2.576963e-01 2.916098e+00 128 126 113
3.299968e+00 -2.405536e-01 2.883130e+00 118 114 105
3.299968e+00 -2.405536e-01 2.883130e+00 118 114 105
3.587919e+00 -3.761514e-01 3.232438e+00 155 150 146
-2.527157e+00 -8.539436e-01 9.752115e-01 147 142 138
3.351929e+00 -2.395802e-01 2.930815e+00 125 121 110
2.014061e+00 1.310395e-02 1.924957e+00 92 87 81
8.334282e-01 -1.686409e-01 1.612003e+00 151 150 146
3.241283e+00 -1.924877e-01 2.846233e+00 124 119 113
1.505619e+00 4.353326e-02 1.703722e+00 115 116 110
1.337734e+00 1.945803e-02 1.672770e+00 173 173 173
7.289939e-01 -9.307907e-02 1.531482e+00 106 107 105
4.050582e+00 -4.974546e-01 3.787280e+00 157 153 150
4.889659e+00 -8.636569e-01 4.782934e+00 155 151 141
3.659800e+00 -2.842760e-01 3.340832e+00 161 158 151
3.682286e+00 -2.774529e-01 3.364891e+00 151 148 144
3.110043e+00 -2.749661e-02 2.736491e+00 172 164 146
3.134155e+00 -1.725267e-02 2.772538e+00 163 156 146
3.927598e+00 -3.461063e-01 3.727000e+00 114 109 103
3.847791e+00 -2.736450e-01 3.606952e+00 157 154 147
2.498583e+00 2.332049e-01 2.205148e+00 89 84 78
-1.097331e+00 -1.379443e-01 1.011529e+00 79 75 78
-2.514229e+00 -5.051836e-01 9.843296e-01 170 163 156
3.291964e+00 4.115294e-02 2.940107e+00 144 140 129
2.824373e+00 2.431963e-01 2.421541e+00 175 168 157
3.843630e+00 -2.091891e-01 3.612517e+00 122 115 104
1.460815e+00 2.885654e-01 1.708294e+00 173 172 167
2.202991e-01 2.600663e-01 1.170486e+00 98 86 77
-1.141914e+00 -5.126052e-02 9.749032e-01 80 76 73
2.012733e+00 3.296690e-01 1.958020e+00 129 126 119
1.572020e+00 3.067256e-01 1.781745e+00 192 191 186
-1.731520e-01 2.497324e-01 1.056645e+00 122 117 114
2.364131e+00 2.813249e-01 2.210928e+00 210 207 197
-8.519107e-01 1.079496e-01 9.409661e-01 124 117 107
-1.918327e+00 -2.875302e-01 1.035995e+00 162 157 151
3.938031e+00 -2.101742e-01 3.765412e+00 121 117 113
3.938031e+00 -2.101742e-01 3.765412e+00 121 117 113
2.173956e+00 3.581480e-01 2.050395e+00 129 120 106
-3.391392e+00 -7.150554e-01 1.031423e+00 92 85 70
3.437102e+00 6.449172e-03 3.208105e+00 158 151 148
-3.788896e-01 3.446092e-01 8.798760e-01 75 67 55
-3.788896e-01 3.446092e-01 8.798760e-01 75 67 55
1.932547e+00 3.778209e-01 1.931633e+00 111 107 104
2.874487e-01 1.827638e-01 1.444662e+00 139 136 129
-1.442476e-01 3.848498e-01 9.627361e-01 160 144 128
2.169366e+00 3.292984e-01 2.126835e+00 122 114 109
-1.537827e-01 3.401187e-01 1.037631e+00 66 61 54
1.953909e+00 4.065917e-01 1.940323e+00 148 145 138
-1.607529e-01 4.029095e-01 9.560826e-01 74 60 48
-9.035239e-01 1.849307e-01 9.195352e-01 133 125 105
3.822505e+00 -1.177978e-01 3.672947e+00 170 167 156
1.798414e+00 4.176999e-01 1.885504e+00 188 183 177
1.344101e+00 3.804164e-01 1.726943e+00 127 125 119
1.344101e+00 3.804164e-01 1.726943e+00 127 125 119
1.113585e+00 3.334801e-01 1.697972e+00 86 80 73
-9.687747e-01 1.910834e-01 9.402489e-01 193 187 172
-2.239092e-01 4.075333e-01 9.945557e-01 74 66 64
-3.380949e+00 -5.990984e-01 1.049169e+00 152 141 123
1.187479e+00 3.817965e-01 1.709051e+00 180 176 167
-1.812080e+00 -1.064556e-01 1.031426e+00 59 53 42
-6.246326e+00 -1.429042e+00 1.035760e+00 158 154 144
2.751679e+00 4.240450e-01 2.431433e+00 98 89 82
-1.353573e+00 6.485664e-02 1.009418e+00 109 101 90
2.501698e+00 4.548775e-01 2.274651e+00 93 85 72
1.385141e+00 4.461138e-01 1.764671e+00 33 28 29
1.385141e+00 4.461138e-01 1.764671e+00 33 28 29
-1.885388e+00 -9.605929e-02 1.034485e+00 92 83 74
3.023765e+00 3.008829e-01 2.768118e+00 99 93 81
-3.291151e+00 -5.015616e-01 1.053621e+00 152 144 124
1.265983e+00 4.392605e-01 1.756533e+00 172 169 157
2.819400e+00 4.516691e-01 2.481498e+00 105 102 97
3.030236e+00 3.252863e-01 2.807783e+00 172 166 153
3.054483e+00 3.237930e-01 2.834487e+00 167 161 145
5.388740e-01 4.140535e-01 1.530392e+00 187 183 174
2.542550e+00 5.204288e-01 2.339503e+00 125 120 114
2.542550e+00 5.204288e-01 2.339503e+00 125 120 114
5.826010e-01 4.874378e-01 1.507178e+00 86 82 70
2.458089e-01 3.869359e-01 1.501781e+00 112 108 97
2.458089e-01 3.869359e-01 1.501781e+00 112 108 97
-1.875704e+00 3.737456e-02 1.043769e+00 117 114 109
-7.808417e-01 4.521439e-01 9.363872e-01 133 124 109
-3.572699e+00 -4.813145e-01 1.102136e+00 178 170 163
2.740503e+00 5.781813e-01 2.435183e+00 124 117 107
2.963278e+00 4.120114e-01 2.817529e+00 171 161 151
-1.381729e+00 2.503019e-01 1.001478e+00 103 94 86
-2.358149e+00 -7.312694e-02 1.077765e+00 81 70 66
1.075102e+00 5.644778e-01 1.701635e+00 177 173 163
8.336191e-02 4.657661e-01 1.413774e+00 186 182 169
1.820689e+00 6.372438e-01 1.986617e+00 171 165 152
4.630959e+00 -2.353666e-01 4.697341e+00 138 131 119
-3.234989e+00 -2.943759e-01 1.096133e+00 142 131 111
2.574447e+00 6.177311e-01 2.387582e+00 114 107 88
4.584565e+00 -2.150158e-01 4.670667e+00 162 154 153
1.829910e+00 6.421423e-01 2.009949e+00 81 74 66
1.821012e+00 5.638928e-01 2.128592e+00 114 109 105
1.259086e+00 5.883474e-01 1.848168e+00 112 109 98
1.104248e+00 5.762939e-01 1.793050e+00 178 177 173
4.586087e+00 -1.914804e-01 4.679155e+00 67 62 59
1.641599e+00 6.645240e-01 1.931978e+00 88 82 70
2.300329e+00 6.812093e-01 2.217629e+00 170 157 143
1.474979e+00 6.784351e-01 1.833102e+00 87 84 75
2.254675e+00 6.847882e-01 2.203492e+00 74 64 58
9.052099e-01 5.854873e-01 1.727834e+00 120 118 114
-8.845654e-01 5.390544e-01 9.581285e-01 193 186 178
-2.238951e+00 5.494571e-02 1.090057e+00 90 87 81
1.645007e+00 6.894595e-01 1.933530e+00 187 180 172
4.410837e-01 5.460960e-01 1.579039e+00 126 123 114
6.729174e-02 5.668010e-01 1.371808e+00 163 158 151
-9.041919e-01 5.400248e-01 9.570935e-01 92 88 84
2.319056e-02 5.826645e-01 1.338380e+00 174 170 158
-7.668099e-01 5.819302e-01 9.794984e-01 112 105 95
2.384475e+00 6.974591e-01 2.285759e+00 93 86 66
2.132328e+00 7.074877e-01 2.152557e+00 114 106 96
2.957586e+00 5.355845e-01 2.822666e+00 122 114 100
-1.039450e+00 5.069915e-01 9.899253e-01 161 157 146
-1.127713e+00 4.815146e-01 9.871373e-01 164 161 152
3.685133e+00 2.509935e-01 3.643602e+00 109 102 90
3.685133e+00 2.509935e-01 3.643602e+00 109 102 90
-3.359104e+00 -2.443328e-01 1.130373e+00 169 161 153
4.219485e-01 6.285319e-01 1.509482e+00 176 172 160
1.415844e+00 7.264812e-01 1.842169e+00 116 110 98
-1.373737e-01 6.846747e-01 1.193373e+00 124 117 101
-4.552860e+00 -5.809852e-01 1.155986e+00 174 171 166
-2.113862e-01 6.815025e-01 1.172175e+00 174 167 153
3.697273e+00 2.766676e-01 3.674331e+00 79 75 60
3.654857e+00 2.946788e-01 3.627506e+00 79 71 65
4.534729e+00 -9.155408e-02 4.665194e+00 89 80 71
-5.169574e-01 7.033120e-01 1.054085e+00 185 177 167
-5.610083e-01 7.473528e-01 9.975692e-01 167 162 152
1.404821e+00 7.809552e-01 1.870596e+00 103 100 95
8.495904e-01 7.109396e-01 1.729307e+00 101 98 92
8.490467e-01 7.141255e-01 1.723942e+00 101 98 92
-1.947307e-01 7.554655e-01 1.184845e+00 125 116 106
1.132029e+00 7.770011e-01 1.795410e+00 112 107 101
3.739945e+00 3.169254e-01 3.775266e+00 96 89 75
2.119954e+00 8.289522e-01 2.190534e+00 178 169 153
3.209840e+00 5.604265e-01 3.154897e+00 153 142 137
3.209840e+00 5.604265e-01 3.154897e+00 153 142 137
1.483231e+00 8.170426e-01 1.937176e+00 127 121 112
1.058935e+00 8.090957e-01 1.772921e+00 171 163 147
1.434193e+00 8.265768e-01 1.950046e+00 95 85 77
3.370306e+00 5.380758e-01 3.335256e+00 106 97 87
1.025360e+00 8.194570e-01 1.786990e+00 178 174 163
1.101928e+00 8.362183e-01 1.810037e+00 178 175 170
4.008722e+00 2.608774e-01 4.131298e+00 189 180 171
4.008722e+00 2.608774e-01 4.131298e+00 189 180 171
3.699352e-01 8.223447e-01 1.530949e+00 91 90 85
2.855527e+00 7.533708e-01 2.800454e+00 110 98 83
1.796407e+00 9.324682e-01 2.071525e+00 167 164 155
1.402775e+00 9.226343e-01 1.910687e+00 161 160 143
9.859823e-01 8.893683e-01 1.790485e+00 194 189 183
-5.875850e+00 -6.758169e-01 1.232536e+00 92 87 85
2.324265e+00 9.187114e-01 2.371649e+00 174 166 152
1.993502e+00 9.638123e-01 2.162865e+00 175 169 157
4.118293e+00 2.859429e-01 4.282108e+00 98 92 79
4.118293e+00 2.859429e-01 4.282108e+00 98 92 79
2.621620e+00 9.240852e-01 2.512447e+00 112 104 93
1.794405e+00 9.648427e-01 2.087187e+00 171 166 160
4.555019e+00 1.097408e-01 4.790922e+00 181 176 170
-6.559939e-01 8.924859e-01 1.066768e+00 185 176 157
-8.008841e-01 8.650610e-01 1.049017e+00 184 176 163
2.552786e+00 9.439983e-01 2.473277e+00 74 68 62
1.408351e+00 9.485336e-01 1.958852e+00 175 172 166
1.686176e+00 9.831002e-01 2.041403e+00 161 156 153
1.556321e+00 9.746574e-01 2.000761e+00 165 160 145
1.728174e+00 9.879868e-01 2.059199e+00 97 91 83
4.466706e+00 1.578261e-01 4.713502e+00 167 163 152
4.466706e+00 1.578261e-01 4.713502e+00 167 163 152
-5.086333e-01 9.463860e-01 1.097833e+00 192 178 159
-5.673409e-01 9.421881e-01 1.074354e+00 141 131 104
-9.884834e-01 8.513702e-01 1.054489e+00 178 172 156
3.205118e+00 7.029414e-01 3.294209e+00 121 118 113
4.565376e+00 1.589229e-01 4.834656e+00 171 167 155
4.414849e+00 2.113145e-01 4.680168e+00 66 60 55
3.987387e+00 3.837444e-01 4.192307e+00 178 170 154
1.680655e+00 1.022827e+00 2.063873e+00 179 177 166
1.586139e+00 1.018116e+00 2.028994e+00 125 117 109
6.929437e-01 9.609577e-01 1.710351e+00 57 56 52
1.872091e-01 9.515869e-01 1.487697e+00 167 162 156
1.461586e+00 1.015141e+00 1.988729e+00 87 82 77
1.165180e+00 9.571827e-01 1.939377e+00 165 158 147
3.992548e+00 3.947738e-01 4.206688e+00 143 132 114
1.361810e+00 1.008963e+00 1.971316e+00 97 91 82
1.446461e+00 1.030253e+00 1.985173e+00 167 164 157
-3.257858e+00 1.861286e-01 1.231308e+00 104 97 82
7.944680e-01 1.002014e+00 1.741189e+00 102 95 81
1.327472e+00 1.054379e+00 1.954319e+00 165 160 154
-4.259240e-01 1.027983e+00 1.183223e+00 99 93 79
1.192579e+00 1.017790e+00 1.955400e+00 168 160 146
-8.791673e-01 9.639049e-01 1.085076e+00 91 83 72
-3.096361e+00 2.861691e-01 1.229588e+00 172 170 165
-1.651823e+00 7.394057e-01 1.149557e+00 154 148 148
3.867215e-01 1.028212e+00 1.627375e+00 93 90 86
-1.657961e-01 1.082002e+00 1.286381e+00 117 113 99
1.987676e+00 1.121705e+00 2.222399e+00 186 178 163
3.235886e+00 8.287671e-01 3.345555e+00 163 156 146
2.741103e+00 9.976125e-01 2.827040e+00 117 106 92
-1.947586e+00 6.869605e-01 1.218249e+00 98 89 71
1.140255e+00 1.119403e+00 1.922140e+00 75 71 61
1.239293e+00 1.121622e+00 1.984639e+00 148 139 119
1.205580e+00 1.085720e+00 2.023561e+00 148 139 119
1.089355e+00 1.094695e+00 1.964560e+00 193 187 173
1.089355e+00 1.094695e+00 1.964560e+00 193 187 173
3.439859e+00 7.828511e-01 3.620433e+00 87 80 63
1.083426e+00 1.152153e+00 1.916741e+00 171 162 153
1.308603e+00 1.151279e+00 2.023962e+00 95 87 84
1.308603e+00 1.151279e+00 2.023962e+00 95 87 84
-3.768935e+00 2.150822e-01 1.297680e+00 142 132 122
3.904141e+00 6.022102e-01 4.169687e+00 157 151 137
5.554825e-01 1.162585e+00 1.683847e+00 179 174 163
5.734743e-01 1.131731e+00 1.767147e+00 120 114 102
1.382086e+00 1.208209e+00 2.018608e+00 198 193 189
7.977264e-01 1.156167e+00 1.839417e+00 196 192 184
5.195184e-01 1.136626e+00 1.748738e+00 112 109 99
-2.014820e-01 1.182043e+00 1.344848e+00 124 111 94
3.454286e+00 8.026103e-01 3.685615e+00 144 136 125
-1.858604e+00 8.256318e-01 1.239632e+00 85 79 71
-2.941853e+00 5.157333e-01 1.295706e+00 80 69 65
2.015720e+00 1.251167e+00 2.295743e+00 121 113 105
-4.990627e-01 1.207636e+00 1.231001e+00 147 143 138
-2.249119e-01 1.188115e+00 1.404388e+00 178 169 152
1.075254e+00 1.220753e+00 1.951464e+00 131 127 116
1.075254e+00 1.220753e+00 1.951464e+00 131 127 116
-5.297848e-02 1.253142e+00 1.372146e+00 175 168 158
-5.297848e-02 1.253142e+00 1.372146e+00 175 168 158
-2.938719e+00 5.399280e-01 1.299515e+00 174 169 167
-5.713894e-01 1.222982e+00 1.207614e+00 174 174 166
3.163902e+00 9.704084e-01 3.363701e+00 149 142 135
4.275073e+00 5.151646e-01 4.671097e+00 122 112 100
-4.768136e-01 1.238762e+00 1.244856e+00 144 139 136
1.589585e+00 1.281907e+00 2.136373e+00 83 77 73
1.201933e+00 1.243524e+00 2.025195e+00 178 175 166
1.201933e+00 1.243524e+00 2.025195e+00 178 175 166
5.332877e-01 1.210797e+00 1.793843e+00 178 173 170
5.587514e-01 1.240631e+00 1.788246e+00 116 110 106
-2.584186e+00 6.963568e-01 1.319282e+00 164 158 141
-4.549938e-01 1.278977e+00 1.282929e+00 44 39 36
3.832632e+00 7.638381e-01 4.161783e+00 155 148 129
1.925017e+00 1.342414e+00 2.292661e+00 177 162 142
-2.574254e+00 7.415075e-01 1.323216e+00 179 173 161
1.055567e+00 1.288872e+00 2.033149e+00 123 118 107
2.522525e+00 1.287753e+00 2.697353e+00 180 169 153
3.048390e+00 1.089340e+00 3.304062e+00 88 86 82
3.805170e+00 7.996041e-01 4.165813e+00 173 162 146
2.531905e-01 1.367780e+00 1.556961e+00 132 117 91
1.466029e+00 1.382992e+00 2.095668e+00 155 144 124
2.991962e+00 1.122018e+00 3.248359e+00 180 177 168
1.056963e+00 1.358687e+00 1.988305e+00 135 131 120
9.895257e-01 1.357841e+00 1.967797e+00 116 113 106
3.278682e+00 1.016484e+00 3.604236e+00 174 169 158
-2.112867e+00 9.138145e-01 1.344427e+00 151 141 124
9.551335e-01 1.373176e+00 1.947747e+00 185 180 173
2.795534e-01 1.404972e+00 1.574837e+00 113 92 67
-1.065939e+00 1.229015e+00 1.262633e+00 155 147 136
3.528951e+00 9.696010e-01 3.827454e+00 182 173 166
-2.944908e+00 7.291065e-01 1.374510e+00 164 154 148
5.783601e-01 1.419400e+00 1.756419e+00 189 186 177
7.037453e-01 1.406126e+00 1.844956e+00 114 101 93
-2.710874e+00 8.102077e-01 1.372811e+00 148 132 112
-4.612015e+00 3.078662e-01 1.432238e+00 126 125 123
-2.619919e+00 8.512917e-01 1.370998e+00 166 153 136
2.543484e+00 1.398785e+00 2.820655e+00 135 123 103
2.689601e+00 1.360634e+00 2.972129e+00 145 133 116
3.692417e+00 9.724330e-01 4.139322e+00 72 62 53
2.408172e+00 1.446824e+00 2.707255e+00 146 138 118
2.366436e+00 1.470440e+00 2.663940e+00 123 113 103
3.275533e+00 1.137420e+00 3.699411e+00 131 119 105
-2.051950e+00 1.091724e+00 1.394893e+00 163 155 152
-1.763460e+00 1.173349e+00 1.385015e+00 165 162 150
3.319242e+00 1.133446e+00 3.765755e+00 157 149 133
-3.425284e+00 7.485460e-01 1.441912e+00 162 152 139
6.636628e-01 1.539765e+00 1.859493e+00 185 181 178
3.328736e+00 1.159548e+00 3.767520e+00 104 94 84
2.564887e+00 1.446726e+00 2.907232e+00 166 157 142
1.728781e+00 1.593306e+00 2.273624e+00 71 61 52
1.728781e+00 1.593306e+00 2.273624e+00 71 61 52
6.366237e-01 1.563590e+00 1.864824e+00 118 109 99
3.311654e+00 1.165890e+00 3.774794e+00 175 167 156
3.610373e+00 1.068855e+00 4.105075e+00 103 95 83
1.021884e+00 1.585278e+00 2.046198e+00 162 144 120
3.334079e-01 1.605090e+00 1.691847e+00 67 53 41
2.736350e+00 1.429229e+00 3.080954e+00 68 56 40
5.698285e-01 1.635992e+00 1.748278e+00 116 114 106
-2.571574e+00 1.037763e+00 1.431420e+00 168 164 154
2.787072e+00 1.388850e+00 3.213227e+00 181 175 162
2.358714e+00 1.538714e+00 2.764781e+00 90 81 73
9.994659e-01 1.613847e+00 2.063404e+00 162 153 141
4.096388e+00 9.346503e-01 4.718343e+00 133 128 122
-3.332211e+00 8.880475e-01 1.487008e+00 119 104 84
3.572824e+00 1.147434e+00 4.116321e+00 113 100 94
-3.216482e+00 9.324765e-01 1.489844e+00 153 141 120
1.236121e+00 1.704480e+00 2.065960e+00 66 61 57
2.706656e+00 1.484951e+00 3.150277e+00 97 84 66
-4.401349e+00 6.699832e-01 1.540790e+00 157 155 143
3.090562e+00 1.353011e+00 3.616345e+00 141 132 124
2.335547e+00 1.628451e+00 2.789794e+00 77 70 60
-4.257187e+00 7.347307e-01 1.542644e+00 90 77 70
-1.386965e+00 1.478792e+00 1.437860e+00 162 160 149
-3.358968e+00 9.793610e-01 1.527788e+00 173 157 142
-2.994562e-01 1.700742e+00 1.535731e+00 179 171 153
7.312094e-01 1.751996e+00 1.959862e+00 118 110 103
3.663542e+00 1.221247e+00 4.263834e+00 114 105 92
1.639855e+00 1.775320e+00 2.338588e+00 134 129 126
-2.745110e+00 1.181504e+00 1.532633e+00 111 107 99
2.216756e+00 1.729341e+00 2.683451e+00 86 73 54
2.216756e+00 1.729341e+00 2.683451e+00 86 73 54
2.789485e-01 1.785256e+00 1.742673e+00 174 162 146
-3.314861e+00 1.039497e+00 1.552277e+00 107 102 93
7.294243e-01 1.781120e+00 1.963621e+00 177 169 164
8.431750e-01 1.794652e+00 2.018368e+00 129 121 108
2.207526e+00 1.744711e+00 2.701476e+00 147 130 110
2.207526e+00 1.744711e+00 2.701476e+00 147 130 110
4.022351e+00 1.122821e+00 4.701400e+00 99 92 85
4.022351e+00 1.122821e+00 4.701400e+00 99 92 85
2.708627e+00 1.579416e+00 3.278934e+00 144 134 121
-7.790442e-01 1.712331e+00 1.485854e+00 170 161 144
3.016238e+00 1.489059e+00 3.640148e+00 181 172 164
2.267970e-01 1.855804e+00 1.744558e+00 126 114 92
-2.498311e+00 1.330414e+00 1.587630e+00 174 164 155
3.466606e+00 1.363429e+00 4.155427e+00 173 165 154
2.183605e-01 1.869159e+00 1.759537e+00 66 58 53
-7.739449e-01 1.764446e+00 1.521941e+00 165 154 132
-3.193787e+00 1.179855e+00 1.602781e+00 108 99 86
-3.193787e+00 1.179855e+00 1.602781e+00 108 99 86
3.451047e+00 1.379249e+00 4.143507e+00 122 113 101
3.451047e+00 1.379249e+00 4.143507e+00 122 113 101
1.329239e+00 1.913266e+00 2.192903e+00 166 148 123
2.041147e-01 1.876814e+00 1.774218e+00 178 174 163
2.970930e+00 1.546796e+00 3.632350e+00 131 122 121
3.001515e+00 1.544382e+00 3.667651e+00 191 187 174
1.934080e-01 1.916997e+00 1.756765e+00 79 74 65
-3.268685e-02 1.953590e+00 1.573208e+00 145 136 121
1.256405e+00 1.939491e+00 2.198752e+00 159 156 148
2.465313e+00 1.758428e+00 3.104449e+00 136 124 102
-1.019785e+00 1.759973e+00 1.577690e+00 72 57 38
-2.298760e+00 1.458442e+00 1.606923e+00 154 138 123
-2.334927e+00 1.457322e+00 1.622239e+00 101 86 73
-3.297308e+00 1.230771e+00 1.638493e+00 163 158 153
4.338173e+00 1.139225e+00 5.157480e+00 180 174 169
8.664545e-01 1.976631e+00 2.034735e+00 187 185 175
-2.426720e+00 1.440691e+00 1.630007e+00 128 114 97
2.421432e+00 1.809810e+00 3.100788e+00 161 157 149
-1.113297e-01 1.978385e+00 1.667496e+00 100 90 81
2.373700e+00 1.846231e+00 3.013748e+00 110 97 88
