ply
format ascii 1.0
element face 0
property list uchar int vertex_indices
element vertex 940
property float x
property float y
property float z
property uchar diffuse_red
property uchar diffuse_green
property uchar diffuse_blue
end_header
-1.518100e+01 1.483328e+01 1.113892e+00 72 72 61
-1.440551e+01 1.884378e+01 2.374908e+00 158 153 124
-1.000184e+01 2.674361e+01 4.908427e+00 153 150 135
-7.588409e+00 7.839210e+00 -3.879335e+00 115 123 136
-1.602594e+01 -2.152828e+00 -2.792287e-01 122 129 145
-1.200414e+01 -1.344837e+00 1.379466e+00 167 166 172
-1.451298e+01 -1.288998e+00 2.483313e-01 127 130 139
-8.880362e+00 -5.132323e-02 8.425174e-01 201 204 211
-8.969587e+00 7.313695e+00 -4.753355e+00 209 215 227
-9.959222e+00 8.596581e+00 -7.025208e+00 176 191 204
-8.116324e+00 8.820239e+00 -5.370029e+00 184 188 200
-9.415111e+00 4.267974e+00 -2.069359e+00 171 174 179
9.157562e+00 -1.489604e+00 6.537533e-01 190 189 194
-1.286067e+01 -1.733779e+00 1.058781e+00 77 71 45
4.205032e+00 9.691591e+00 1.770751e+00 89 90 76
-1.087537e+01 2.085074e+01 6.663243e+00 198 186 171
-5.208810e+00 1.543116e+01 4.817753e+00 149 133 109
6.017555e+00 1.112093e+01 -3.199134e+00 192 175 153
-9.333424e+00 5.292974e-01 1.027460e+00 161 143 117
-7.450951e+00 2.039838e+01 5.531005e+00 202 184 160
-8.064408e+00 2.558033e+01 7.409810e+00 171 158 142
-1.561865e+01 8.887783e-02 5.656963e-01 125 117 105
-5.141664e+00 1.939614e+01 5.827840e+00 106 91 71
-7.947079e+00 2.490521e+01 7.168596e+00 195 182 164
-9.488706e+00 1.770588e+01 5.404812e+00 120 105 83
-2.753719e+00 2.732603e+01 8.173228e+00 167 162 145
-1.382383e+01 1.245314e+00 8.840386e-01 114 87 62
4.480390e+00 1.158864e+01 -1.564203e+00 65 54 29
2.240622e+00 1.302197e+01 4.971060e+00 42 47 34
3.425143e+00 1.473993e+01 5.155488e+00 52 62 54
1.605563e+00 1.557497e+01 5.544018e+00 62 61 48
4.487805e-01 1.745877e+01 5.243352e+00 38 12 4
-1.452232e+00 1.755006e+01 5.957717e+00 72 54 36
-1.046247e+01 1.816995e+01 5.520797e+00 117 104 85
-1.291387e+01 1.823616e+01 5.558297e+00 200 189 170
-3.375188e+00 1.927547e+01 4.533550e+00 113 97 73
-5.288608e+00 2.190968e+01 6.577627e+00 157 142 123
-9.889082e+00 2.520574e+01 7.728368e+00 120 106 83
-3.487523e+00 2.680753e+01 8.091695e+00 48 18 11
-5.188689e+00 2.718359e+01 8.125224e+00 176 156 137
-4.186319e+00 2.757866e+01 8.239841e+00 104 91 75
-3.092327e+00 2.773957e+01 8.275317e+00 109 98 76
-1.297093e+01 1.960913e+00 1.012202e+00 110 94 74
-1.526260e+01 6.535266e+00 1.976154e+00 110 93 77
-8.984203e-01 1.620494e+01 5.885445e+00 70 50 35
-5.308960e+00 1.724108e+01 5.141577e+00 144 125 101
-9.891246e+00 1.816718e+01 5.473848e+00 178 159 136
-2.856044e+00 1.961639e+01 4.689832e+00 107 92 71
-4.469890e+00 2.040392e+01 6.051349e+00 101 95 79
7.682835e-02 2.123806e+01 6.055656e+00 178 162 146
-1.508095e+00 2.153099e+01 6.167867e+00 167 153 135
-1.031491e+01 2.517709e+01 7.729450e+00 124 110 96
-7.843911e+00 2.603980e+01 7.604490e+00 201 189 172
-5.134431e+00 2.668262e+01 7.998278e+00 184 171 150
-4.200165e+00 2.772625e+01 8.287701e+00 169 154 137
-1.008447e+01 -2.525576e+00 3.315855e-01 98 77 56
-9.284817e+00 -1.865411e+00 4.996016e-01 98 75 56
-8.193970e+00 6.368184e-01 7.937671e-01 93 72 46
-1.338631e+01 1.243437e+00 1.260730e+00 140 122 101
-1.147383e+01 3.338828e+00 1.215786e+00 105 88 60
-1.037470e+01 1.328917e+01 3.766871e+00 187 169 145
-1.017079e+01 1.876333e+01 5.689625e+00 161 142 128
-4.829231e+00 2.003973e+01 5.965446e+00 160 148 128
-6.329589e+00 2.120052e+01 5.762022e+00 112 100 84
-8.748348e+00 2.114739e+01 6.398014e+00 150 132 117
-7.853513e+00 2.549445e+01 7.438394e+00 177 158 136
-3.012579e+00 2.733221e+01 8.098617e+00 81 56 39
-2.119939e+00 2.741227e+01 8.090917e+00 172 155 134
3.788061e+00 2.886437e+01 4.722786e+00 119 119 119
-4.212880e+00 7.437633e+00 3.743595e+00 50 50 53
8.735302e+00 1.056234e+01 5.334970e+00 89 87 90
-4.006564e-01 2.188483e+01 3.702849e+00 148 147 144
-8.015091e+00 7.580611e+00 3.510056e+00 138 136 121
-9.000629e+00 7.991105e+00 3.541053e+00 102 99 94
-8.073003e+00 9.376913e+00 3.455053e+00 63 61 64
8.862129e+00 1.235794e+01 5.689767e+00 175 175 167
-8.837092e+00 1.818500e+01 3.186913e+00 111 106 104
-1.487446e+01 1.895809e+01 3.624872e+00 126 125 127
-1.487446e+01 1.895809e+01 3.624872e+00 126 125 127
-3.710374e+00 7.553321e+00 3.187145e+00 58 57 53
4.398115e+00 9.092702e+00 5.360401e+00 164 160 156
-1.014734e+01 -1.962729e+00 2.585994e+00 124 120 108
-1.014734e+01 -1.962729e+00 2.585994e+00 124 120 108
-2.799128e+00 1.465353e+01 1.178353e+00 176 175 174
8.995712e+00 1.785064e+01 2.795980e+00 115 111 108
8.193726e-01 1.858801e+01 1.636682e+00 166 168 166
8.193726e-01 1.858801e+01 1.636682e+00 166 168 166
-7.679434e+00 1.700832e+01 3.169793e+00 159 160 155
-1.345875e+01 1.838614e+01 3.497482e+00 165 163 158
6.139428e-02 2.976304e+01 4.818048e+00 116 116 118
9.779847e-01 2.981963e+01 4.926107e+00 163 163 163
-7.412592e-01 7.382067e+00 4.244755e+00 55 56 50
-9.017007e+00 8.539664e+00 3.384043e+00 71 66 63
-9.017007e+00 8.539664e+00 3.384043e+00 71 66 63
-5.562693e+00 8.700597e+00 3.854986e+00 155 151 148
-8.330160e+00 8.533666e+00 3.770434e+00 122 118 109
4.468692e+00 9.640327e+00 5.026041e+00 142 138 137
-1.066379e+00 1.898982e+01 2.010257e+00 171 175 175
-1.470795e+01 1.715439e+01 3.512803e+00 169 169 167
-7.425433e+00 2.006679e+01 3.519842e+00 124 118 118
-1.474166e-01 2.225985e+01 3.823181e+00 159 158 158
-2.556229e+00 3.450012e+01 -9.071856e+00 120 119 120
-5.905916e+00 2.297269e+01 5.165015e+00 125 125 125
-2.201130e+00 2.880602e+01 3.502154e+00 90 93 103
-2.201130e+00 2.880602e+01 3.502154e+00 90 93 103
-1.861215e-01 2.986840e+01 4.887706e+00 93 92 98
2.624569e+00 8.931107e+00 4.767599e+00 124 119 116
2.604306e+00 1.804546e+01 1.512648e+00 162 157 152
1.206912e+00 1.931047e+01 1.643207e+00 69 72 79
1.753308e-01 -4.428699e+00 3.319068e+00 184 184 176
1.753308e-01 -4.428699e+00 3.319068e+00 184 184 176
-1.498227e-01 -3.688558e+00 2.594005e+00 59 54 59
-1.208651e+00 -4.155849e+00 2.318230e+00 52 50 46
-2.400543e-01 -4.076734e+00 3.068721e+00 64 61 62
-2.799353e+00 -3.081493e+00 2.826203e+00 102 96 87
-1.462913e+00 -5.668012e+00 2.733092e+00 165 166 177
5.518051e-01 -3.713218e+00 3.247266e+00 70 63 63
-1.090189e+00 -5.733843e+00 2.986624e+00 60 62 76
-1.090189e+00 -5.733843e+00 2.986624e+00 60 62 76
-1.167291e+00 -5.671154e+00 2.916213e+00 129 137 146
-1.016339e+00 -5.649591e+00 3.044125e+00 129 132 144
-1.609939e+00 -5.655079e+00 2.622834e+00 163 163 172
-1.373263e+00 -5.456173e+00 2.751157e+00 56 55 64
-1.344823e+00 -5.218423e+00 2.407585e+00 158 145 139
3.192121e-01 -3.778136e+00 3.135890e+00 168 164 160
2.476958e-01 -3.700862e+00 3.052872e+00 87 74 68
-1.322383e+00 -5.678925e+00 2.849134e+00 132 133 140
-5.999813e-01 -5.643654e+00 3.286399e+00 123 124 134
5.623013e-01 -4.059843e+00 3.335732e+00 53 43 52
-1.313553e+00 -4.104713e+00 2.052406e+00 178 171 164
9.834837e-02 -3.743100e+00 3.021707e+00 95 82 78
9.834837e-02 -3.743100e+00 3.021707e+00 95 82 78
4.814372e-01 -3.691984e+00 3.105077e+00 96 83 80
5.512478e+00 2.862972e-02 6.109957e+00 128 120 121
-9.383336e-01 -5.575846e+00 3.061099e+00 63 62 80
-9.383336e-01 -5.575846e+00 3.061099e+00 63 62 80
1.238794e-02 -4.476098e+00 3.238988e+00 171 168 161
-1.368288e+00 -4.284954e+00 2.235367e+00 183 175 163
4.146468e-01 -4.205155e+00 3.366472e+00 172 172 169
4.956833e-01 -3.784725e+00 3.137185e+00 165 165 161
3.793498e-01 -3.772253e+00 3.152761e+00 179 172 163
2.444170e-01 -3.770527e+00 3.171804e+00 179 174 166
5.104189e-01 -3.739125e+00 3.264912e+00 66 55 56
-1.041693e+00 -5.605317e+00 3.019331e+00 132 135 139
-1.737252e+00 -5.268441e+00 2.333737e+00 163 161 158
-1.245680e+00 -5.079401e+00 2.404651e+00 60 57 63
-1.437578e+00 -5.061412e+00 2.393342e+00 55 53 75
-1.487218e+00 -4.874359e+00 2.160445e+00 171 161 141
-1.487218e+00 -4.874359e+00 2.160445e+00 171 161 141
-1.703632e+00 -4.709809e+00 2.192124e+00 184 186 182
-1.453010e+00 -4.512133e+00 2.236547e+00 125 107 100
-1.453010e+00 -4.512133e+00 2.236547e+00 125 107 100
1.573514e-01 -4.429300e+00 3.308343e+00 188 188 181
1.927044e-01 -4.241875e+00 3.331939e+00 126 115 112
4.721880e-01 -4.064341e+00 3.342611e+00 184 185 172
4.257740e-01 -3.909047e+00 3.243554e+00 189 186 177
1.618431e-01 -3.792744e+00 3.044488e+00 162 152 141
5.306498e-01 -3.609184e+00 3.187948e+00 171 169 164
-1.057602e+00 -5.784512e+00 3.047598e+00 144 143 146
-1.216590e+00 -5.750420e+00 2.966522e+00 85 80 96
-1.271268e+00 -5.582881e+00 2.803440e+00 115 117 117
-9.818554e-01 -5.575664e+00 3.004123e+00 68 64 80
-1.704208e+00 -5.107326e+00 2.119432e+00 65 56 80
-1.752275e+00 -4.840644e+00 2.235219e+00 94 90 103
-1.473771e+00 -4.819595e+00 2.231060e+00 111 91 82
-1.291457e+00 -4.722530e+00 2.314651e+00 179 173 149
1.812278e-01 -4.553784e+00 3.341997e+00 200 199 204
1.339906e-01 -4.444009e+00 3.246542e+00 147 138 140
-1.355773e+00 -4.451288e+00 2.291481e+00 111 92 84
-1.355773e+00 -4.451288e+00 2.291481e+00 111 92 84
4.455138e-01 -4.263881e+00 3.434684e+00 77 61 62
-1.415666e-01 -4.154686e+00 3.036847e+00 73 63 68
3.413211e-01 -4.115406e+00 3.303978e+00 118 109 109
3.758852e-01 -3.878741e+00 3.169915e+00 181 182 183
3.875736e-01 -3.833032e+00 3.191663e+00 117 111 117
4.261590e-01 -3.670292e+00 3.134150e+00 110 101 95
4.554441e-01 -3.627884e+00 3.115894e+00 181 180 175
6.427463e+00 -2.768151e+00 3.404597e+00 121 106 107
-1.255957e+00 -5.788689e+00 2.954631e+00 143 147 149
-1.155072e+00 -5.789097e+00 2.983983e+00 139 141 133
-6.442403e-01 -5.757404e+00 3.268041e+00 147 148 141
-1.732612e+00 -5.721244e+00 2.773310e+00 172 173 187
-1.240049e+00 -5.712507e+00 2.920330e+00 140 144 158
-1.288642e+00 -5.620442e+00 2.816583e+00 66 64 76
-1.198367e+00 -5.482221e+00 2.822933e+00 103 101 112
-1.793098e+00 -5.429001e+00 2.448725e+00 154 154 157
-1.098340e+00 -5.396016e+00 2.764019e+00 101 103 102
-1.146410e+00 -5.385552e+00 2.785331e+00 59 58 65
-1.775049e+00 -5.311401e+00 2.391190e+00 159 157 165
-8.297839e-01 -5.212489e+00 2.927225e+00 53 45 59
-9.563374e-01 -5.212173e+00 2.826783e+00 96 95 89
-1.358946e+00 -5.007106e+00 2.494051e+00 175 179 169
-1.539819e+00 -4.970581e+00 2.410316e+00 105 95 106
1.574664e-02 -4.761916e+00 3.102320e+00 107 99 105
-5.299058e-02 -4.583222e+00 3.282245e+00 174 165 156
-1.716454e+00 -4.395998e+00 2.012565e+00 173 166 154
2.486147e-01 -4.169928e+00 3.282703e+00 168 167 163
7.181505e-02 -4.132689e+00 3.165205e+00 122 113 112
2.200891e-01 -4.075649e+00 3.153076e+00 190 183 178
2.200891e-01 -4.075649e+00 3.153076e+00 190 183 178
-1.358266e+00 -4.059320e+00 2.104877e+00 187 184 177
3.198614e-01 -3.993419e+00 3.285723e+00 182 172 168
-1.320683e+00 -4.022459e+00 2.132172e+00 181 173 165
5.236130e-01 -3.912400e+00 3.266168e+00 179 181 167
2.858364e-01 -3.831555e+00 3.130843e+00 149 137 139
1.374091e-01 -3.685692e+00 3.021907e+00 145 142 135
4.231752e-01 -3.595099e+00 3.067683e+00 194 193 189
3.915422e-01 -3.564949e+00 3.089266e+00 52 44 52
5.243149e+00 -2.215222e+00 3.006374e+00 89 74 72
4.819810e+00 1.241034e+00 7.037598e+00 123 109 108
-5.481082e-01 -1.354129e+00 1.782018e+00 21 17 16
1.609079e+00 2.483416e+00 1.737383e+00 152 141 115
-2.936872e+00 -1.805990e+00 1.927548e+00 155 152 131
5.847242e-01 -3.434343e+00 2.040401e+00 44 35 29
-1.588190e+01 1.272423e+01 2.212554e+01 226 230 234
-1.843663e+01 2.398321e+01 6.786404e+00 58 59 50
-9.769534e+00 -3.180976e+00 5.201845e+00 21 20 21
-1.010084e+01 -1.469912e+00 1.824736e+00 55 47 42
1.005699e+01 -8.992570e-01 2.128254e+00 179 180 184
-6.815302e-01 -3.823861e+00 1.255605e+00 66 65 72
-1.050416e+01 8.658432e+00 -7.736357e+00 191 203 219
-1.107939e+01 9.021449e+00 -8.480122e+00 24 28 54
-1.682780e+01 -2.174600e+00 -5.291345e-01 102 111 126
3.223084e+00 -4.486416e-01 1.889077e+00 114 115 119
-1.566109e+01 8.042110e-01 -2.906382e+00 71 77 93
1.227699e+01 -1.150610e+00 2.343320e+00 70 70 70
-9.889422e+00 -2.202988e+00 8.551230e-01 119 122 127
3.160443e+00 -3.356997e-01 1.790864e+00 182 183 187
-1.243066e+01 8.886197e+00 -1.004766e+01 176 187 205
-1.243066e+01 8.886197e+00 -1.004766e+01 176 187 205
-2.111500e+00 -4.674193e-01 1.109434e+00 192 192 192
-1.233764e+01 7.389698e+00 1.171856e-01 189 201 217
-4.716547e+00 7.018785e+00 2.146904e+00 81 70 81
-9.795229e+00 9.626077e+00 2.309201e+00 84 70 57
-8.373597e-01 1.051652e+01 2.093744e+00 35 35 31
-9.212074e-01 1.132602e+01 2.453546e+00 177 178 172
-2.617413e+00 -2.476728e+00 6.937402e-01 112 102 88
-2.979000e+00 6.818873e+00 2.209318e+00 92 82 73
-3.203282e+00 9.514803e+00 1.432105e+00 168 160 144
1.884118e+00 9.784925e+00 1.799623e+00 163 159 146
3.922166e-02 7.969051e+00 9.468953e-01 178 174 170
-7.917059e+00 -2.984543e+00 1.962408e+00 131 123 117
-1.092025e+01 6.869277e+00 2.232594e+00 175 168 169
-6.322743e+00 7.157659e+00 2.204822e+00 175 171 166
1.076369e+00 1.043078e+01 2.031117e+00 138 115 100
-5.976250e+00 -1.598449e+00 2.834504e+00 160 149 136
3.343375e+00 -5.313668e-01 1.430485e+01 149 155 151
-4.135210e+00 1.551800e+00 3.798835e-01 86 84 70
5.064134e+00 5.446977e+00 -1.279533e+00 170 163 160
-5.244348e+00 7.567159e+00 2.215003e+00 69 56 48
2.839044e+00 8.339840e+00 1.235517e+00 52 41 35
4.461302e-01 1.026540e+01 2.053926e+00 139 121 108
-8.788762e+00 9.768344e+00 2.381106e+00 120 108 93
-4.971078e+00 1.157326e+01 2.379442e+00 171 163 153
-1.652943e+00 -2.251977e+00 8.536741e-01 129 119 108
-4.116329e+00 -2.183626e+00 3.894748e-01 79 71 56
-3.869483e+00 -1.998749e+00 3.811386e-01 112 103 92
-8.576226e+00 -6.457377e-01 8.540699e-01 41 50 34
-1.072246e+01 -6.657139e-01 1.599024e+00 58 52 43
-1.463246e+01 6.830159e-01 1.126656e+01 195 184 183
4.384836e+00 5.644615e+00 -1.142747e+00 89 72 62
-1.494617e+01 4.327424e+00 1.115292e+01 175 171 167
-4.676870e+00 6.628414e+00 2.307647e+00 76 65 59
-1.715271e+00 7.615864e+00 2.103152e+00 33 26 34
1.676551e+00 9.875251e+00 1.240143e+00 153 141 141
-2.725362e+00 1.156361e+01 2.480293e+00 159 162 153
-2.725362e+00 1.156361e+01 2.480293e+00 159 162 153
-5.202545e+00 1.167664e+01 2.530183e+00 92 85 67
-3.166605e+00 -2.563572e+00 2.723047e+00 64 57 54
-3.477265e+00 -1.510624e+00 2.780427e+00 26 26 22
-1.785669e+01 -2.892554e+00 5.561264e+00 106 98 85
-1.785669e+01 -2.892554e+00 5.561264e+00 106 98 85
-1.468526e+01 -1.217024e+00 4.610260e+00 120 104 89
-7.294948e+00 -6.540576e-01 1.337346e+00 59 47 33
-1.182687e+01 -6.878003e-01 1.394311e+01 109 96 79
-1.824384e+01 -1.628037e+00 6.170545e+00 168 167 162
-7.240948e+00 1.658538e-01 1.285456e+00 65 49 42
-8.351299e+00 1.506414e+00 7.749882e-01 60 52 46
-7.062314e-01 8.097617e+00 1.159490e+00 80 80 72
-5.577776e+00 8.988448e+00 1.245413e+00 161 150 138
-2.942839e+00 9.218544e+00 1.121133e+00 124 123 103
-5.270752e+00 9.079613e+00 2.320412e+00 64 61 59
1.171361e+00 1.028965e+01 7.977414e-01 72 54 50
-2.929077e+00 1.122359e+01 2.313363e+00 172 166 163
-1.623238e+00 1.131931e+01 2.332175e+00 184 175 179
-1.443998e+01 -2.094080e+00 4.995817e+00 147 142 151
-6.501125e+00 -1.611222e+00 2.362019e+00 93 90 74
-1.001355e+01 -1.829509e+00 1.878022e+00 39 32 24
-3.722927e+00 -1.389750e+00 4.152771e-01 109 91 81
-5.131510e+00 -1.331135e+00 1.643091e-01 108 104 108
-6.581277e+00 -7.531724e-01 2.334699e+00 89 71 57
-6.744402e+00 -6.689992e-01 2.187954e+00 139 125 114
-7.604912e+00 -7.000162e-01 1.137650e+00 61 49 45
-7.039939e+00 5.205184e-01 1.578374e+00 75 60 48
7.839507e+00 1.036241e+00 4.315010e+00 57 52 32
7.899660e+00 1.811733e+00 4.713507e+00 65 56 34
-9.267369e+00 2.985063e+00 4.970561e-01 60 51 43
-1.000335e+01 3.542147e+00 4.639572e-01 57 47 47
-1.228818e+01 3.848121e+00 2.322514e+00 163 154 145
-4.433225e-01 5.750384e+00 6.946822e-01 129 121 119
1.049488e+00 6.843747e+00 1.184886e+00 153 142 135
-8.970415e-01 7.448536e+00 1.947412e+00 69 72 81
-5.563866e+00 7.258955e+00 2.206224e+00 165 163 161
-5.563866e+00 7.258955e+00 2.206224e+00 165 163 161
-7.208557e+00 7.656115e+00 1.180467e+00 150 137 127
3.414038e+00 8.207179e+00 9.826364e-01 69 67 51
-8.942190e-01 8.110936e+00 8.556007e-01 174 164 166
3.345113e+00 1.157215e+01 -5.071626e+00 168 154 149
-2.210071e+00 9.134787e+00 1.126708e+00 151 140 142
-4.662773e+00 8.839648e+00 2.193481e+00 85 83 76
2.246933e+00 9.637897e+00 1.253985e+00 86 72 62
-5.813413e+00 9.166626e+00 1.548232e+00 113 112 103
-4.383212e+00 9.314840e+00 1.381627e+00 125 112 113
1.931173e+00 9.634329e+00 1.787645e+00 184 174 167
-1.436438e+01 -5.384432e+00 1.736590e+00 134 121 121
-4.296846e-01 -1.044298e+00 2.736192e+00 107 107 90
-1.369710e+00 -5.158162e-01 1.898820e+00 79 78 66
-4.590291e+00 -4.870426e-01 3.368043e+00 135 122 113
7.469094e+00 3.210024e-01 4.904511e+00 48 49 34
-5.555668e+00 3.316824e-01 3.104947e+00 62 53 54
-5.506832e+00 9.422803e-01 2.941914e+00 134 130 114
-5.705945e+00 9.326974e-01 1.575825e-01 134 130 114
-5.525702e+00 1.309449e+00 1.509907e-01 157 156 158
4.553929e+00 4.683632e+00 -9.164393e-01 56 56 50
3.361180e+00 8.094617e+00 9.706639e-01 144 142 133
-9.977569e-01 8.057895e+00 7.829090e-01 77 73 74
-5.608051e+00 8.832772e+00 1.179686e+00 113 105 94
-5.537959e+00 8.484825e+00 2.206734e+00 113 105 94
-6.065953e+00 8.963705e+00 1.287797e+00 169 156 163
-2.897403e+00 9.365015e+00 1.118793e+00 131 123 122
2.121465e+00 9.702272e+00 1.231337e+00 95 97 88
-3.549396e+00 9.416215e+00 1.317763e+00 115 108 100
8.756771e-01 1.015091e+01 1.438301e+00 109 99 103
-1.436826e+01 -4.999021e+00 1.655185e+00 100 87 75
-1.741237e+00 -3.289541e+00 2.834805e+00 53 47 38
-8.154708e-01 -1.296478e+00 2.198388e+00 80 80 76
-2.928845e+00 2.415682e+00 4.118221e+00 84 74 67
-3.403495e+00 -1.416244e+00 2.965623e+00 99 90 83
7.426732e+00 3.478736e+01 1.017247e+01 38 44 41
7.426732e+00 3.478736e+01 1.017247e+01 38 44 41
6.962993e+00 3.801978e+01 1.150183e+01 37 42 35
6.962993e+00 3.801978e+01 1.150183e+01 37 42 35
-5.033251e+00 2.074885e+01 5.194438e+00 147 124 108
-9.506849e+00 2.215307e+01 7.173389e+00 71 39 16
-5.361680e+00 2.166859e+01 6.568474e+00 165 150 136
-1.623244e+01 4.146895e+01 1.426865e+01 255 255 255
1.497276e+01 2.042525e+01 4.516320e+00 130 114 97
-1.355075e+01 2.674570e+01 8.152379e+00 152 130 110
-8.748546e+00 2.725605e+01 7.684867e+00 106 94 71
-6.233972e+00 2.748759e+01 7.913191e+00 109 95 77
-3.472999e+00 2.097766e+01 6.370401e+00 130 115 92
-9.005618e+00 2.096503e+01 6.253947e+00 184 171 156
-3.852796e+00 2.157245e+01 6.502303e+00 175 160 144
7.060944e+00 2.273581e+01 5.880072e+00 100 91 74
5.930690e+00 4.089878e+01 1.175674e+01 170 153 132
5.040218e+00 8.124492e+00 -1.579343e+00 124 108 91
6.455875e+00 1.609838e+01 3.825428e+00 196 179 162
7.834963e+00 2.453354e+01 6.416606e+00 177 152 129
-6.870932e+00 2.704086e+01 7.605820e+00 195 179 164
6.517065e+00 3.270866e+01 9.369822e+00 178 166 151
4.968177e+00 4.143930e+01 1.185510e+01 179 164 140
-1.764037e+01 4.195547e+01 1.442113e+01 201 189 176
-1.764037e+01 4.195547e+01 1.442113e+01 201 189 176
-1.592912e+01 -1.394007e-01 -5.747284e-01 199 186 170
1.939343e+00 1.255703e+01 4.645004e+00 169 152 137
-1.573056e+01 1.279416e+01 3.213932e+00 200 185 172
-9.758826e-01 1.358671e+01 3.348135e+00 201 184 168
1.134514e+01 1.690077e+01 3.934056e+00 140 125 109
-1.873512e+01 1.569346e+01 5.189294e+00 196 185 173
1.596942e+00 1.697695e+01 5.013051e+00 53 53 43
1.390693e+01 2.217125e+01 6.258663e+00 181 160 126
-6.285013e+00 2.506826e+01 7.215209e+00 131 110 89
-4.662327e+00 2.575327e+01 7.163603e+00 78 74 57
-3.947939e+00 2.570929e+01 7.943589e+00 73 66 49
1.049573e+01 2.863991e+01 7.902548e+00 194 183 162
-5.578672e+00 2.992275e+01 8.528440e+00 180 161 140
-7.868724e+00 3.006287e+01 8.536487e+00 197 181 166
1.069002e+01 4.072967e+01 1.143310e+01 98 98 96
1.711136e+01 1.515349e+00 3.742191e+00 121 104 84
1.673419e+01 1.118697e+01 5.706084e+00 73 56 27
-5.917245e+00 1.461450e+01 3.233672e+00 206 190 177
1.165852e+01 1.654455e+01 4.068118e+00 129 118 96
2.028727e+00 1.658587e+01 4.725117e+00 191 171 144
1.139929e+00 1.720109e+01 5.702920e+00 194 177 159
1.076826e+01 1.820309e+01 4.283500e+00 107 93 68
-6.697085e-01 1.757816e+01 5.518781e+00 195 174 151
-6.697085e-01 1.757816e+01 5.518781e+00 195 174 151
8.194112e+00 2.072248e+01 5.444282e+00 193 178 155
1.450701e+01 2.157119e+01 5.964617e+00 184 166 144
1.495223e+00 2.824627e+01 8.120244e+00 139 128 109
3.161564e-01 2.897480e+01 8.607086e+00 177 164 147
1.417644e+01 3.231027e+01 9.572023e+00 171 160 141
1.120274e+01 3.944270e+01 1.104635e+01 92 91 86
7.544899e+00 4.002315e+01 1.131932e+01 94 94 92
4.960682e+00 4.087265e+01 1.165556e+01 175 161 142
-1.383110e+01 4.041615e+01 1.110991e+01 152 138 129
1.390949e+01 4.414851e+01 1.282910e+01 180 170 155
1.127358e+01 4.589543e+01 1.316257e+01 143 125 110
1.876746e+01 1.057169e+00 3.642378e+00 127 113 96
-5.329197e+00 1.383401e+01 4.135614e+00 116 98 72
-5.763127e+00 1.476631e+01 3.505280e+00 159 145 125
4.877054e-01 1.539817e+01 5.172651e+00 191 176 154
8.380875e-01 1.548055e+01 5.114693e+00 45 29 20
7.890702e+00 2.106194e+01 5.284438e+00 122 101 81
-7.732234e+00 2.141998e+01 5.961293e+00 205 190 175
1.527873e+01 2.434849e+01 6.494673e+00 170 158 139
-1.651790e+01 2.404497e+01 7.370121e+00 181 161 149
-6.629351e+00 2.509421e+01 7.086038e+00 202 184 162
-9.919632e+00 2.604254e+01 7.426339e+00 48 34 18
3.497892e-01 2.808366e+01 8.025531e+00 149 130 113
1.623423e+01 2.974828e+01 8.746605e+00 110 94 75
-1.403904e+01 3.968494e+01 1.100490e+01 157 144 127
4.961047e+00 4.195244e+01 1.194847e+01 184 170 148
4.961047e+00 4.195244e+01 1.194847e+01 184 170 148
8.529004e+00 4.236425e+01 1.213797e+01 103 91 78
1.227236e+01 4.597428e+01 1.321777e+01 116 105 95
1.615214e+01 1.000756e+01 5.357909e+00 74 35 27
7.220203e+00 1.357798e+01 2.307774e+00 195 180 165
-3.532547e+00 1.452827e+01 5.067454e+00 190 168 154
1.989701e-01 1.523618e+01 5.076989e+00 201 185 166
1.212778e+01 1.645720e+01 3.789970e+00 198 189 174
-8.420532e+00 1.565468e+01 4.757356e+00 119 104 82
7.913791e-01 1.635384e+01 5.193477e+00 60 40 23
-1.413736e+01 1.639487e+01 5.097362e+00 135 115 91
-1.842541e+00 1.674645e+01 5.466859e+00 195 183 170
1.743436e+00 1.727569e+01 5.132780e+00 199 185 169
1.533743e+01 1.819721e+01 4.646726e+00 107 94 79
-1.357773e+00 1.725230e+01 5.420528e+00 184 165 146
-1.077758e+01 1.730656e+01 5.134882e+00 171 157 137
2.615242e+00 1.871291e+01 4.870457e+00 148 128 103
1.491079e+01 1.981594e+01 5.497721e+00 118 101 83
9.634729e+00 2.058472e+01 4.229593e+00 133 112 90
1.084969e+01 2.078016e+01 5.334701e+00 153 141 119
1.357792e+01 2.174441e+01 5.095105e+00 202 191 179
7.139359e+00 2.320443e+01 6.092591e+00 189 182 166
-7.807205e+00 2.528607e+01 7.101602e+00 139 121 100
-5.132706e+00 2.638171e+01 7.532519e+00 173 154 132
9.401632e+00 2.821350e+01 7.797513e+00 179 170 153
-6.819444e+00 2.755892e+01 7.802316e+00 109 97 79
6.785299e+00 2.903747e+01 8.189258e+00 154 141 123
8.621400e+00 2.920020e+01 8.185816e+00 173 162 141
9.593007e+00 3.398273e+01 9.740882e+00 182 169 150
9.559388e+00 3.424032e+01 9.785621e+00 185 175 158
9.359539e+00 3.602375e+01 1.029494e+01 181 171 156
9.060327e+00 3.637876e+01 1.091185e+01 186 178 163
8.952696e+00 3.963612e+01 1.125846e+01 183 173 155
8.911884e+00 3.993968e+01 1.138270e+01 180 172 153
-1.482031e+01 3.950596e+01 1.088084e+01 95 81 71
-1.269457e+01 4.004329e+01 1.106477e+01 103 92 80
5.307969e+00 4.241052e+01 1.204014e+01 187 176 159
-1.032739e+01 4.197261e+01 1.398758e+01 254 252 247
-9.626893e+00 4.220218e+01 1.404149e+01 250 253 251
9.379883e+00 4.483589e+01 1.280446e+01 97 82 71
8.960941e+00 4.526764e+01 1.295189e+01 87 78 63
1.057567e+01 4.764364e+01 1.524437e+01 156 146 150
1.700676e+01 -1.106136e+00 2.435510e+00 152 138 114
-5.006678e+00 1.633756e+00 -3.856479e-01 129 111 95
6.609998e+00 9.108509e+00 -1.566053e+00 161 147 128
-1.379569e+01 8.749193e+00 1.755446e+00 92 76 60
2.264545e+00 1.241968e+01 2.362443e+00 120 100 80
1.271324e+00 1.243234e+01 5.160702e+00 189 171 154
8.348196e+00 1.532788e+01 3.558206e+00 189 167 141
-2.226499e+00 1.479426e+01 5.243938e+00 31 30 24
-1.480540e+01 1.475184e+01 4.602826e+00 128 106 83
-8.220523e+00 1.543374e+01 4.806840e+00 116 101 78
2.274207e+00 1.580876e+01 5.488063e+00 36 26 9
-1.431202e+01 1.612050e+01 5.002718e+00 135 112 91
2.241413e+00 1.685240e+01 5.028174e+00 67 28 11
-1.598580e+00 1.667592e+01 5.525217e+00 42 33 18
-1.103493e+01 1.660954e+01 4.996935e+00 99 83 57
-1.092470e+01 1.692623e+01 5.089634e+00 122 106 89
3.562578e+00 1.794371e+01 4.990243e+00 145 137 116
-9.110523e+00 1.754757e+01 5.185814e+00 128 110 89
2.864435e+00 1.861263e+01 5.307130e+00 138 122 98
1.147841e+01 1.959292e+01 4.925383e+00 99 86 64
8.726355e+00 1.992681e+01 4.216532e+00 189 178 155
1.459301e+01 2.017302e+01 5.524897e+00 126 105 88
-6.582634e-01 1.965330e+01 5.856065e+00 138 123 104
1.437397e+01 2.053174e+01 5.746035e+00 173 157 133
8.759222e+00 2.048501e+01 5.327924e+00 196 180 158
-3.493433e+00 2.000341e+01 5.531779e+00 187 174 158
-3.198548e+00 2.004031e+01 5.550097e+00 118 99 76
1.386859e+01 2.090350e+01 5.741757e+00 176 160 129
1.119776e+01 2.088492e+01 5.445726e+00 97 80 52
9.539436e+00 2.101834e+01 5.623905e+00 126 103 78
1.335306e+01 2.140743e+01 4.755893e+00 116 101 79
1.035255e+01 2.158172e+01 5.103676e+00 122 104 83
1.078496e+01 2.158129e+01 5.669951e+00 176 156 131
1.065384e+01 2.175441e+01 5.141482e+00 124 104 80
1.020101e+01 2.160901e+01 5.750877e+00 198 183 162
1.099967e+01 2.191367e+01 5.146940e+00 126 108 85
7.970421e+00 2.578121e+01 7.102784e+00 87 53 17
7.964046e+00 2.612926e+01 7.149792e+00 68 28 3
-5.602276e+00 2.577232e+01 7.306643e+00 116 108 89
-4.870548e+00 2.602303e+01 7.334523e+00 167 156 136
7.250963e+00 2.700915e+01 7.715618e+00 187 172 149
3.259129e+00 2.688583e+01 7.630824e+00 95 87 70
-3.693555e+00 2.656060e+01 7.601702e+00 65 52 38
-4.767973e+00 2.653524e+01 7.574698e+00 175 160 137
-8.494897e+00 2.681722e+01 7.900636e+00 112 102 80
5.072274e+00 2.778063e+01 7.953934e+00 192 180 161
4.055457e+00 2.793411e+01 7.904225e+00 187 186 170
8.605587e+00 2.824877e+01 7.792804e+00 174 154 127
-8.816586e+00 2.752470e+01 7.781341e+00 136 120 108
-3.234909e+00 2.773542e+01 7.916656e+00 113 99 77
-8.734069e+00 2.770687e+01 7.806842e+00 78 74 61
8.501669e+00 2.863305e+01 8.156787e+00 109 81 62
-5.516086e-01 2.817544e+01 8.274572e+00 101 89 71
2.106656e+00 2.845427e+01 8.238153e+00 160 146 127
-5.470008e-01 2.834799e+01 8.338864e+00 168 152 135
1.414939e+00 2.848897e+01 8.322842e+00 103 83 62
5.124487e-01 2.852739e+01 8.360086e+00 162 149 134
3.733799e+00 2.892922e+01 8.242126e+00 91 83 63
6.375552e+00 2.919139e+01 8.359884e+00 149 139 118
1.036412e+01 3.014762e+01 8.565454e+00 105 90 72
-1.420115e+01 2.945158e+01 8.409988e+00 85 91 87
3.701648e+00 3.047274e+01 8.758625e+00 185 164 142
1.687089e+01 3.113181e+01 9.376179e+00 175 156 137
-1.255802e+01 2.981867e+01 9.642006e+00 188 179 165
1.604785e+01 3.141785e+01 9.499964e+00 87 78 57
-1.223078e+01 3.046023e+01 8.556376e+00 190 181 167
1.209297e+01 3.156907e+01 9.143456e+00 174 165 142
-1.527287e+01 3.108203e+01 8.641781e+00 177 165 147
-1.474306e+01 3.163091e+01 8.870194e+00 175 162 145
1.899017e+01 3.333467e+01 9.810682e+00 240 254 254
1.868589e+01 3.355192e+01 9.919846e+00 254 253 254
8.891062e+00 3.629258e+01 1.082293e+01 135 123 107
-1.500255e+01 3.536787e+01 9.911436e+00 178 161 143
-1.586459e+01 3.817205e+01 1.045943e+01 111 105 87
-1.667871e+01 3.864966e+01 1.047776e+01 182 162 140
-1.368668e+01 3.894952e+01 1.075484e+01 118 111 105
-1.529637e+01 3.890542e+01 1.067074e+01 179 162 144
-1.534978e+01 3.943095e+01 1.081836e+01 104 94 82
-1.044573e+01 3.974958e+01 1.108656e+01 115 110 102
-1.430614e+01 3.970523e+01 1.091108e+01 98 90 82
-1.430614e+01 3.970523e+01 1.091108e+01 98 90 82
-1.215272e+01 4.019943e+01 1.109665e+01 96 89 76
-1.161662e+01 4.029611e+01 1.115554e+01 97 84 76
8.555314e+00 4.159306e+01 1.188533e+01 166 157 138
-8.247360e+00 4.180270e+01 1.172407e+01 175 160 141
8.508941e+00 4.285287e+01 1.223829e+01 111 99 86
8.243190e+00 4.284738e+01 1.222615e+01 185 172 150
5.590373e+00 4.273841e+01 1.219443e+01 180 170 151
8.693715e+00 4.289719e+01 1.229889e+01 169 167 150
1.399378e+01 4.342301e+01 1.267133e+01 171 158 138
1.327160e+01 4.337887e+01 1.267129e+01 104 91 79
8.375560e+00 4.297423e+01 1.360005e+01 114 102 91
9.605376e+00 4.383599e+01 1.250299e+01 180 168 152
1.005071e+01 4.412702e+01 1.258126e+01 180 168 145
1.076166e+01 4.420950e+01 1.262852e+01 182 170 152
4.478540e+00 4.425048e+01 1.255880e+01 105 105 100
7.044314e+00 4.484664e+01 1.279077e+01 95 85 75
7.044314e+00 4.484664e+01 1.279077e+01 95 85 75
1.137692e+01 4.529955e+01 1.294197e+01 99 87 75
1.029739e+01 4.563938e+01 1.302650e+01 96 83 71
1.067822e+01 4.631671e+01 1.321643e+01 171 168 153
1.403639e+01 4.670239e+01 1.342089e+01 101 95 83
1.151213e+01 4.996011e+01 1.609780e+01 253 241 241
-1.588817e+01 -1.403896e+00 -8.679430e-01 196 179 159
-4.831044e+00 1.551216e+00 -3.950825e-01 182 169 151
1.839931e+01 2.125602e+00 4.160237e+00 180 173 158
1.839931e+01 2.125602e+00 4.160237e+00 180 173 158
4.118273e+00 4.633174e+00 4.102451e-01 109 89 68
1.753556e+01 8.735278e+00 5.252968e+00 116 100 77
1.721645e+01 8.768376e+00 5.385605e+00 179 161 142
1.327797e+01 1.010969e+01 6.283800e+00 102 71 43
1.327797e+01 1.010969e+01 6.283800e+00 102 71 43
1.072799e+00 1.241648e+01 2.496402e+00 97 81 55
-2.664432e+00 1.320385e+01 4.989761e+00 65 53 40
-5.284663e+00 1.523562e+01 4.542105e+00 138 116 93
8.881685e+00 1.634567e+01 3.375259e+00 109 94 65
-1.471627e+01 1.514178e+01 4.712306e+00 135 114 88
1.271148e+01 1.676934e+01 3.643406e+00 104 91 68
-4.935922e+00 1.575322e+01 4.786936e+00 143 122 95
-1.108367e+01 1.579372e+01 4.263262e+00 142 125 115
6.506425e+00 1.687964e+01 3.268897e+00 148 127 103
3.181530e-01 1.657498e+01 4.184482e+00 134 116 90
1.220754e+01 1.790937e+01 4.523446e+00 197 175 152
-1.156612e+01 1.690332e+01 4.985960e+00 141 125 109
-1.494062e+01 1.714580e+01 5.346970e+00 159 139 115
8.327764e+00 1.855575e+01 3.595361e+00 131 106 84
-8.903182e+00 1.758370e+01 5.259138e+00 181 162 139
1.610642e+01 1.918610e+01 3.935084e+00 121 107 90
-4.380652e+00 1.801543e+01 5.435024e+00 118 101 81
1.053303e+01 1.895157e+01 4.630728e+00 141 128 110
1.163199e+01 1.944955e+01 3.538657e+00 186 171 148
-1.104436e+01 1.813257e+01 5.243282e+00 103 85 61
8.061743e+00 1.920191e+01 4.281788e+00 140 116 94
-1.229978e+01 1.844671e+01 5.205532e+00 123 106 90
1.195996e+01 1.999698e+01 3.993714e+00 174 156 139
1.535780e+01 1.977458e+01 5.582500e+00 137 118 102
-1.162171e+01 1.875320e+01 5.303735e+00 119 110 91
1.200322e+01 1.996660e+01 5.113227e+00 144 116 94
1.192052e+01 2.007828e+01 4.979687e+00 170 160 145
1.491614e+01 2.020787e+01 5.751051e+00 130 114 97
1.107818e+01 2.046410e+01 5.191211e+00 128 112 90
-1.636536e+01 1.977641e+01 5.763909e+00 172 159 142
-4.205977e+00 2.033962e+01 5.905065e+00 106 101 96
1.483203e+01 2.126571e+01 5.880831e+00 144 131 112
-5.263617e+00 2.039984e+01 5.923171e+00 156 141 124
1.336273e+01 2.168802e+01 5.104849e+00 119 110 96
-7.218704e-01 2.093385e+01 5.939946e+00 171 151 128
5.669780e-01 2.112573e+01 5.923409e+00 110 96 77
1.493055e+01 2.194705e+01 6.122233e+00 161 159 142
5.912909e+00 2.284971e+01 6.119574e+00 99 83 66
1.080135e+01 2.320157e+01 6.455744e+00 107 95 71
6.667189e+00 2.306782e+01 6.372699e+00 171 152 126
-1.958992e+01 2.331866e+01 7.682638e+00 161 148 142
-1.317580e+01 2.420822e+01 6.831706e+00 37 41 27
-1.373075e+01 2.513163e+01 7.894722e+00 138 120 97
-4.278542e+00 2.610180e+01 7.425989e+00 126 114 100
-4.850366e+00 2.638813e+01 7.506473e+00 49 37 24
-3.448162e+00 2.656394e+01 7.512234e+00 179 169 156
-1.241170e+01 2.622606e+01 7.341840e+00 112 99 80
-4.878264e+00 2.669141e+01 7.624176e+00 107 97 79
-1.035308e+01 2.660000e+01 7.487602e+00 106 90 74
-1.988361e+01 2.606310e+01 8.629216e+00 249 249 246
-6.171301e+00 2.707096e+01 7.650948e+00 158 145 128
8.624681e+00 2.802908e+01 7.935540e+00 74 41 10
-1.708948e+00 2.759548e+01 7.750173e+00 169 157 141
2.385738e+00 2.785990e+01 7.841902e+00 103 105 93
-1.354778e+01 2.722472e+01 8.539342e+00 172 151 131
4.375005e+00 2.807951e+01 8.045942e+00 204 192 181
8.199811e+00 2.860827e+01 7.965380e+00 105 85 64
1.174609e+01 2.894908e+01 8.000089e+00 187 173 153
3.859008e+00 2.866276e+01 8.338189e+00 111 101 89
1.497381e+01 2.929964e+01 8.608313e+00 169 159 138
1.315820e+01 3.014971e+01 8.552103e+00 77 57 31
5.625650e+00 3.055057e+01 8.847407e+00 163 143 131
-1.239504e+01 2.962282e+01 9.583712e+00 144 133 117
1.590760e+01 3.126105e+01 9.414810e+00 102 90 72
-1.223431e+01 3.063862e+01 9.973781e+00 137 123 109
1.548121e+01 3.292882e+01 9.726956e+00 79 77 60
9.846069e+00 3.281304e+01 9.399460e+00 142 123 106
-6.530536e+00 3.215087e+01 9.107909e+00 155 137 120
1.487145e+01 3.328695e+01 1.000196e+01 129 118 99
-7.648062e+00 3.279865e+01 9.175317e+00 155 135 126
-6.627563e+00 3.322409e+01 9.400905e+00 134 123 105
-7.078069e+00 3.359482e+01 9.443952e+00 147 127 111
-7.353175e+00 3.378352e+01 9.562103e+00 155 138 117
1.324217e+01 3.481437e+01 9.885276e+00 134 121 105
-7.132976e+00 3.414151e+01 9.619689e+00 154 135 110
-1.616489e+01 3.378388e+01 1.130307e+01 186 172 156
9.637383e+00 3.559232e+01 1.015476e+01 124 110 94
-1.643487e+01 3.560524e+01 9.766550e+00 121 110 96
-1.643487e+01 3.560524e+01 9.766550e+00 121 110 96
-1.572724e+01 3.576642e+01 9.887243e+00 104 94 79
8.829408e+00 3.679600e+01 1.102643e+01 129 113 97
-1.670971e+01 3.759990e+01 1.024176e+01 131 121 106
-1.679591e+01 3.777407e+01 1.025351e+01 188 184 168
-1.630989e+01 3.781717e+01 1.273548e+01 180 164 146
-1.513669e+01 3.880761e+01 1.065134e+01 119 107 95
3.258685e+00 3.954689e+01 1.136477e+01 178 174 162
-1.463639e+01 3.904903e+01 1.074250e+01 111 97 83
-1.170934e+01 3.951135e+01 1.093914e+01 171 161 146
-1.070014e+01 3.966725e+01 1.104809e+01 169 161 144
-1.106294e+01 3.971844e+01 1.102019e+01 170 161 146
3.211269e+00 4.036238e+01 1.151431e+01 178 173 157
8.507755e+00 4.067321e+01 1.159888e+01 174 156 136
1.364064e+01 4.108952e+01 1.306211e+01 141 128 115
-7.533887e+00 4.079343e+01 1.138824e+01 173 170 153
-1.239978e+01 4.081940e+01 1.128059e+01 164 149 128
1.354822e+01 4.258388e+01 1.244082e+01 174 175 161
-1.231349e+01 4.174836e+01 1.152852e+01 194 177 159
-1.579226e+01 -1.300125e+00 -8.023933e-01 152 129 111
-2.156107e+00 9.122467e+00 8.925056e-01 172 161 145
-8.092540e-01 1.317716e+01 3.148780e+00 166 144 121
-7.237392e+00 1.409490e+01 3.528576e+00 107 91 70
-1.638716e+01 1.401066e+01 3.668864e+00 196 180 164
-5.102134e-01 1.547149e+01 5.217816e+00 89 45 14
4.999726e-01 1.562012e+01 5.081321e+00 72 61 44
1.206531e+01 1.665078e+01 3.852214e+00 161 151 132
5.771779e-01 1.589299e+01 5.084649e+00 64 62 50
-5.490780e+00 1.598838e+01 4.775609e+00 160 137 113
-5.490780e+00 1.598838e+01 4.775609e+00 160 137 113
-3.831094e+00 1.628583e+01 5.373589e+00 111 85 57
-5.439239e+00 1.661155e+01 4.959337e+00 144 123 100
3.292803e+00 1.723476e+01 5.360615e+00 80 77 65
-1.007823e+01 1.741877e+01 5.057960e+00 141 127 110
8.068228e+00 2.026505e+01 4.700454e+00 152 134 114
-2.760435e+00 1.967949e+01 5.802168e+00 141 128 108
-1.380000e+01 1.964572e+01 5.986976e+00 119 112 93
9.782435e+00 2.074476e+01 5.435615e+00 166 145 119
-1.455524e+01 1.964516e+01 5.996267e+00 176 164 146
-4.993668e+00 2.015259e+01 5.844555e+00 109 97 81
-4.812788e+00 2.018093e+01 5.852935e+00 115 98 74
-3.311027e-01 2.060498e+01 5.825847e+00 135 126 108
-4.567661e+00 2.048501e+01 5.897068e+00 154 141 128
8.570203e+00 2.138636e+01 5.514305e+00 188 176 151
-5.382452e+00 2.087297e+01 6.010325e+00 109 98 82
-5.587606e+00 2.097539e+01 6.004770e+00 148 135 116
-5.383425e+00 2.098668e+01 6.032256e+00 165 149 131
1.424888e+01 2.255291e+01 6.332851e+00 131 119 99
1.424888e+01 2.255291e+01 6.332851e+00 131 119 99
7.551371e+00 2.358185e+01 6.132134e+00 204 186 163
1.032190e+01 2.403680e+01 6.094626e+00 208 197 177
-1.373046e+01 2.439610e+01 6.764757e+00 146 128 107
-1.947942e+01 2.402374e+01 7.960590e+00 169 155 158
-1.065966e+01 2.484447e+01 7.047109e+00 84 73 49
-7.300392e+00 2.528720e+01 7.039116e+00 158 142 120
9.435891e+00 2.638696e+01 7.208043e+00 129 138 129
-7.008966e+00 2.609097e+01 5.969300e+00 179 162 141
-1.063967e+01 2.580634e+01 7.298254e+00 157 147 129
-3.148383e+00 2.612813e+01 7.413607e+00 126 106 93
-5.048181e+00 2.668821e+01 7.499081e+00 126 113 97
-6.849534e+00 2.724422e+01 7.554468e+00 200 176 154
7.940794e+00 2.793265e+01 7.878422e+00 65 59 53
7.940794e+00 2.793265e+01 7.878422e+00 65 59 53
9.368554e+00 2.837739e+01 7.983127e+00 113 98 86
2.021344e+00 2.812057e+01 8.159411e+00 152 129 112
-7.792693e+00 2.824513e+01 7.762604e+00 184 177 163
7.494935e+00 2.889706e+01 8.077122e+00 136 145 131
4.494606e+00 2.874324e+01 8.258137e+00 191 169 147
3.939972e+00 2.885802e+01 8.236696e+00 167 161 137
7.411408e+00 2.910843e+01 8.201160e+00 157 145 117
8.104878e+00 2.921240e+01 8.282809e+00 111 103 83
3.808110e+00 2.924365e+01 8.302378e+00 90 79 58
1.580913e+01 3.055015e+01 9.174478e+00 128 125 112
-8.860620e+00 2.968991e+01 8.444919e+00 141 129 115
4.245218e+00 3.151453e+01 9.014064e+00 125 110 93
-1.452104e+01 3.870386e+01 1.067684e+01 168 152 130
-1.460265e+01 3.890945e+01 1.073725e+01 174 157 139
2.257768e+00 4.065114e+01 1.161330e+01 150 139 123
2.257768e+00 4.065114e+01 1.161330e+01 150 139 123
-1.127258e+01 4.013798e+01 1.112571e+01 157 147 132
-1.213337e+01 4.172630e+01 1.154964e+01 144 136 126
-2.263293e-01 8.327075e+00 3.271534e+00 156 155 150
-1.338570e+01 9.750851e+00 1.199794e+00 69 68 73
-9.943794e+00 4.255321e+01 4.441134e+00 157 159 164
-7.297040e+00 1.008111e+01 2.252515e+00 89 89 86
-1.190181e+01 3.883557e+01 3.405947e+00 51 67 82
-1.478733e+01 1.381528e+01 3.125890e+00 138 134 133
-3.292700e+00 1.625122e+01 1.244657e+00 61 71 84
-2.424218e+00 -1.535744e+00 2.525407e+00 50 49 45
-1.363415e+01 2.856473e-01 2.994366e+00 97 93 84
1.581951e+00 9.335710e+00 4.272638e+00 163 160 157
-7.882094e+00 9.594377e+00 2.337301e+00 149 148 144
1.066539e+01 1.118278e+01 5.368760e+00 127 122 112
9.167752e+00 2.890566e+01 4.931861e+00 76 86 95
-1.043206e+01 4.528003e+01 6.070394e+00 168 168 170
1.349544e+01 9.166632e+00 4.898704e+00 110 105 112
-2.019377e+00 1.674438e+01 1.493907e+00 175 174 171
-2.019377e+00 1.674438e+01 1.493907e+00 175 174 171
1.285549e+01 2.037310e+01 4.319538e+00 110 109 108
-1.711761e+01 1.974836e+01 4.884207e+00 114 112 112
1.266910e+01 2.795202e+01 5.317255e+00 91 97 105
-1.925540e+00 -1.912486e+00 2.010476e+00 61 61 51
-3.213509e+00 -1.571330e+00 2.394639e+00 53 52 48
-6.386538e+00 9.092114e+00 2.296790e+00 92 91 87
2.026106e+00 9.549617e+00 4.204884e+00 159 153 147
6.932965e+00 9.719761e+00 5.166107e+00 169 163 160
-1.409584e+01 1.129515e+01 1.247841e+00 137 139 135
-8.731188e+00 1.150878e+01 2.544616e+00 74 73 79
1.570658e+00 1.860226e+01 2.290977e+00 170 169 166
4.291202e+00 -1.374919e+00 2.552052e+00 113 115 102
-8.006576e+00 -1.627277e+00 2.142768e+00 77 77 70
5.539734e+00 1.272844e+00 3.831198e+00 88 84 72
-7.240959e+00 1.011780e+00 2.506765e+00 97 92 89
-1.271894e+01 1.553482e+00 2.912091e+00 136 132 127
-1.433096e+01 6.828715e+00 1.275493e+00 110 104 104
1.285995e+00 7.570485e+00 3.647133e+00 168 166 162
-1.319303e+01 6.699727e+00 3.546227e+00 140 137 131
8.833900e+00 7.990860e+00 4.681451e+00 150 155 149
7.784263e+00 8.004237e+00 4.540388e+00 93 89 86
7.328468e+00 8.209552e+00 4.654758e+00 74 75 79
-1.326369e+01 7.520909e+00 3.576042e+00 150 145 139
-1.329598e+01 8.037091e+00 3.750213e+00 138 135 126
-1.018350e+01 8.906322e+00 2.027935e+00 136 133 124
-8.129176e+00 9.076508e+00 2.303941e+00 134 133 129
3.650370e+00 1.462285e+01 1.882454e+00 64 65 67
-1.535253e+01 1.289956e+01 4.557390e+00 72 73 76
2.713914e+00 1.654401e+01 1.983624e+00 70 71 83
4.288273e+00 1.755077e+01 2.285466e+00 75 73 75
-1.649460e+01 1.439216e+01 4.564533e+00 173 174 179
-2.888237e+00 1.847746e+01 1.644688e+00 134 129 133
-1.110880e+01 1.942042e+01 1.598302e+00 87 82 79
1.509076e+01 2.068587e+01 4.638377e+00 129 128 126
-1.103629e+00 2.039702e+01 2.229015e+00 147 144 133
1.460451e+01 2.062799e+01 5.045616e+00 132 130 132
-2.091306e+00 2.097667e+01 4.559775e+00 110 108 109
-8.858959e+00 2.364033e+01 5.405427e+00 148 146 147
1.335268e+01 2.902118e+01 5.329337e+00 132 135 143
9.803527e+00 2.959094e+01 6.176012e+00 166 168 173
-6.003030e-01 2.806732e+01 6.133020e+00 173 173 173
7.673458e+00 5.298977e+01 6.324256e+00 113 116 125
-1.066860e+01 -3.013975e+00 8.242273e+00 66 69 61
-1.156664e+01 -2.142027e+00 6.850369e+00 61 57 53
4.663657e-01 -1.320218e+00 4.304545e+00 59 56 51
-6.702891e+00 -4.537530e-01 2.606255e+00 92 86 81
4.013704e+00 1.796491e-01 4.581371e+00 87 81 71
-4.875382e+00 1.028096e+00 2.766439e+00 163 167 170
-5.578986e-01 6.920185e+00 3.815993e+00 97 94 86
-1.634911e+01 6.513707e+00 1.605820e+00 174 174 180
-1.407414e+01 6.858126e+00 1.090722e+00 90 90 91
-1.663643e+01 6.648813e+00 1.603131e+00 80 81 85
-1.239363e+01 7.180201e+00 1.068587e+00 82 81 83
1.125137e+01 8.020271e+00 5.651555e+00 110 109 108
1.385253e+01 1.026919e+01 5.389233e+00 152 151 147
-1.616953e+01 1.387994e+01 4.490910e+00 124 127 131
-1.616953e+01 1.387994e+01 4.490910e+00 124 127 131
-1.504347e+01 1.483550e+01 3.117499e+00 108 104 102
-1.551711e+01 1.742217e+01 1.666340e+00 106 106 105
-8.551413e+00 1.788963e+01 4.285189e+00 109 109 109
-1.197121e+01 1.855000e+01 4.710910e+00 161 159 152
-6.264954e-01 2.159312e+01 4.649739e+00 155 154 152
8.186525e+00 3.007831e+01 4.977680e+00 164 162 164
1.191759e+00 2.945210e+01 5.078977e+00 170 173 180
1.395393e+01 3.037460e+01 6.208221e+00 176 175 181
-1.159425e+01 2.627697e+01 6.546116e+00 164 162 165
-1.281106e+01 2.638911e+01 6.795128e+00 105 105 105
7.798801e+00 2.997531e+01 6.356224e+00 112 112 112
1.635715e+01 3.227529e+01 7.566780e+00 126 125 133
8.198643e+00 -1.168138e-01 3.379132e+00 98 93 84
-5.669123e+00 1.348045e-02 3.114622e+00 92 88 92
-5.146812e+00 1.123796e+00 2.143040e+00 150 149 154
-5.946358e+00 1.091670e+00 2.043949e+00 150 152 151
2.968175e+00 7.814593e+00 4.112384e+00 154 150 149
6.952439e+00 8.009777e+00 4.659159e+00 171 171 168
-1.341921e+01 8.143249e+00 1.478622e+00 164 165 167
-9.729579e+00 9.505822e+00 2.557283e+00 67 62 63
6.350194e+00 9.994292e+00 6.006413e+00 122 117 111
-7.696337e+00 1.388579e+01 8.086835e-01 151 150 146
-7.803066e+00 1.521127e+01 8.318488e-01 142 143 137
3.857547e+00 1.602340e+01 1.994429e+00 78 77 82
4.192473e+00 1.618496e+01 1.961757e+00 150 152 152
7.442733e-01 1.680294e+01 2.674642e+00 123 121 115
4.257628e+00 1.809274e+01 2.357614e+00 77 73 72
2.196290e+00 1.824783e+01 2.169290e+00 181 180 184
2.430088e+00 2.130040e+01 4.272918e+00 160 157 156
-9.878951e+00 2.049659e+01 5.031964e+00 101 101 101
-8.209706e+00 2.076096e+01 4.998422e+00 100 100 98
-8.264384e+00 2.089995e+01 4.984368e+00 146 146 144
-1.338793e+01 2.529164e+01 3.803742e+00 126 125 128
-1.316350e+01 2.570187e+01 3.992188e+00 104 105 105
-1.411708e+01 2.594729e+01 4.606143e+00 156 156 154
-2.864718e+00 2.870381e+01 4.677449e+00 95 96 101
8.256646e+00 2.942221e+01 5.708263e+00 175 173 174
8.436875e+00 2.965492e+01 5.706805e+00 164 164 166
1.496219e+01 3.134121e+01 5.447032e+00 123 124 126
1.931752e+00 3.047596e+01 5.595862e+00 162 163 165
-1.414021e+01 2.730158e+01 7.155633e+00 97 97 101
1.576014e+01 3.398008e+01 7.825825e+00 144 143 151
-1.655551e+01 3.419597e+01 3.702871e+00 113 113 121
-9.575551e+00 3.652504e+01 4.614594e+00 113 111 120
-9.650396e+00 3.722688e+01 4.774778e+00 117 117 125
-9.422173e+00 3.725602e+01 5.041236e+00 121 121 128
-9.493168e+00 3.827656e+01 5.161058e+00 116 115 121
8.152326e+00 3.854717e-01 3.504861e+00 104 100 90
-1.676286e+01 6.753970e+00 1.620851e+00 177 177 176
-9.625908e+00 7.655237e+00 3.519230e+00 154 154 146
6.519519e+00 9.841263e+00 6.010782e+00 116 112 106
-1.453483e+01 9.580454e+00 1.723896e+00 117 115 118
-1.584871e+01 1.908098e+01 3.786197e+00 72 71 76
-1.036623e+01 2.110688e+01 5.130911e+00 197 197 199
-1.299505e+01 2.114186e+01 5.184858e+00 134 135 146
-1.570291e+01 2.655503e+01 3.606669e+00 131 130 131
-1.350318e+01 2.534180e+01 6.504479e+00 163 163 163
-1.133455e+01 4.008568e+01 1.002114e+01 116 115 120
1.232389e+01 6.180749e+00 1.417316e+01 106 108 105
1.149514e+01 5.147382e+00 1.548382e+01 194 194 196
1.276796e+01 1.831948e+00 9.742305e+00 81 75 63
-8.077781e+00 2.608829e+01 8.320459e+00 141 131 129
-1.314062e+01 7.134621e+00 3.672353e+00 87 79 72
-1.419378e+00 2.340305e+01 3.539177e+00 114 109 109
-3.233390e+00 1.710410e+01 6.300299e+00 26 37 50
7.793081e+00 3.732531e+01 1.195982e+01 100 100 102
-8.264312e+00 1.873239e+01 4.712922e+00 129 118 116
-8.750119e+00 1.942769e+01 4.803575e+00 126 120 118
-1.073260e+01 2.562655e+01 8.538077e+00 113 107 107
-8.860241e+00 1.626202e+00 4.049478e+01 36 30 31
3.462607e+00 1.080642e+01 1.741906e+00 40 31 36
-4.886318e+00 1.912344e+01 5.820121e+00 126 117 108
4.007625e+00 2.842309e+01 4.690118e+00 70 71 69
1.715153e+01 3.284573e+01 2.475397e+00 111 109 109
5.378717e+00 2.972864e+01 8.811151e+00 84 81 85
-9.969943e+00 3.399727e+01 3.959001e+00 20 25 46
-9.890716e+00 3.036973e+01 1.131102e+01 110 110 114
4.836741e+00 4.160759e+01 1.488002e+01 122 117 129
-1.294340e+01 6.646884e+00 4.015352e+00 43 37 39
3.787694e+00 1.111355e+01 -2.991719e+00 123 115 103
9.084144e-01 1.718094e+01 6.353933e+00 40 39 61
-3.135317e+00 1.748005e+01 6.564764e+00 97 87 76
9.315482e+00 2.029166e+01 3.339322e+00 78 75 71
-3.555504e+00 1.911853e+01 5.971899e+00 66 58 53
1.236576e+01 3.156363e+01 9.156587e+00 30 26 36
-1.246535e+01 2.777430e+01 1.040606e+01 132 131 136
3.860552e+00 -1.745277e+00 2.356240e+00 35 35 27
3.277922e+00 1.475237e+01 5.618478e+00 114 108 97
1.648734e+00 1.636645e+01 6.137928e+00 34 33 45
9.011580e+00 2.027263e+01 3.485139e+00 131 124 118
9.893829e+00 2.158537e+01 2.930349e+00 75 68 68
1.112774e+01 2.209487e+01 3.968287e+00 119 111 98
-1.044614e+01 2.441964e+01 4.561661e+00 114 115 115
-1.100150e+01 2.397143e+01 6.974173e+00 61 59 63
-1.729988e+01 2.494841e+01 6.344306e+00 133 133 132
2.511467e-01 2.736076e+01 8.270676e+00 116 116 126
-5.250814e+00 2.689167e+01 8.551121e+00 107 105 104
1.735164e+01 4.057518e+01 2.526211e+00 72 72 79
-5.849608e-01 1.573275e+01 6.570659e+00 29 21 23
1.757839e+00 1.690590e+01 6.130868e+00 129 130 131
1.496329e+00 1.695245e+01 6.113782e+00 17 20 39
1.333280e+01 2.021775e+01 2.095411e+00 143 138 135
5.447521e+00 1.933644e+01 3.129493e+00 69 66 68
1.259907e+01 2.060087e+01 2.554700e+00 124 117 115
1.284077e+01 2.073602e+01 2.556737e+00 118 114 105
-4.789796e+00 1.869953e+01 4.144323e+00 80 73 70
4.838052e+00 2.026290e+01 3.329431e+00 63 57 56
-1.250889e+00 2.213697e+01 6.869788e+00 130 126 133
-6.903582e+00 2.523601e+01 7.704464e+00 59 63 64
-9.321490e+00 2.475139e+01 8.354014e+00 115 111 108
-1.509274e+00 2.666136e+01 8.230056e+00 55 54 68
1.009186e+00 2.984833e+01 4.449315e+00 58 58 56
1.906042e+00 2.790226e+01 8.257664e+00 48 49 51
-1.230545e+00 2.732215e+01 8.567257e+00 125 124 129
-3.270565e+00 2.692281e+01 8.644880e+00 118 116 124
-1.255700e+01 2.727160e+01 1.010445e+01 64 64 77
-6.452382e+00 1.618284e+01 5.098828e+00 158 151 150
1.405808e+00 1.732488e+01 5.828822e+00 32 39 48
5.865571e-01 1.701942e+01 6.384380e+00 116 112 106
-8.065893e+00 1.738070e+01 4.444304e+00 76 71 68
1.224058e+01 2.167392e+01 3.403632e+00 91 87 78
8.823154e+00 2.164800e+01 4.349641e+00 118 113 109
1.005409e+01 2.817113e+01 2.280284e+00 63 70 72
9.460147e+00 2.986819e+01 2.708709e+00 75 73 81
-1.519352e+01 2.532810e+01 5.473790e+00 121 119 113
5.966246e+00 2.779402e+01 7.907002e+00 89 84 88
5.144409e+00 2.796558e+01 7.828184e+00 141 137 128
1.619201e+01 3.307871e+01 3.192077e+00 51 53 56
-1.280466e+01 2.481414e+01 8.775409e+00 101 101 104
-4.502819e+00 2.722772e+01 7.453611e+00 103 106 112
-4.295562e+00 2.672082e+01 8.647470e+00 119 117 123
1.517749e+01 3.629390e+01 1.170679e+01 136 133 141
-6.447296e+00 1.623490e+01 4.035769e+00 117 105 97
-3.716367e-01 1.779875e+01 4.894456e+00 173 162 142
2.505545e+00 1.869817e+01 4.409067e+00 135 115 100
1.695325e+00 1.883750e+01 4.850838e+00 41 35 27
2.766655e+00 1.370748e+01 4.559895e+00 52 55 52
1.525251e+01 2.364278e+01 3.948895e+00 109 96 79
8.127945e+00 2.990868e+01 6.765992e+00 70 61 44
-2.914522e+00 1.804862e+01 5.130406e+00 73 58 40
