ply
format ascii 1.0
element face 0
property list uchar int vertex_indices
element vertex 945
property float x
property float y
property float z
property uchar diffuse_red
property uchar diffuse_green
property uchar diffuse_blue
end_header
-4.789032e-01 -3.279272e-01 1.909034e+00 141 135 114
1.012619e+00 -3.808417e-01 2.605076e+00 193 194 189
1.155777e+00 -3.759885e-01 2.657641e+00 121 121 113
1.155777e+00 -3.759885e-01 2.657641e+00 121 121 113
-5.238437e-01 -4.992725e-01 2.383313e+00 122 122 115
-2.425615e+00 -1.318114e+00 3.907026e+00 105 102 95
2.085128e+00 -4.092096e-01 3.374329e+00 107 99 97
1.215559e+00 1.041359e+00 -6.594258e-01 90 83 76
-8.913184e+00 -2.985144e+00 6.533155e+00 165 165 172
2.033569e+00 -3.689751e-01 3.378333e+00 163 156 145
2.033569e+00 -3.689751e-01 3.378333e+00 163 156 145
-1.365177e+00 -5.326001e-01 2.547967e+00 140 133 122
-4.593168e+00 -1.636143e+00 4.392087e+00 156 155 153
2.057671e+00 -3.483521e-01 3.362252e+00 99 89 81
2.057671e+00 -3.483521e-01 3.362252e+00 99 89 81
-4.107922e-01 8.521394e-02 1.391732e+00 177 178 173
-4.347946e-01 -3.694235e-01 2.560182e+00 189 183 170
2.219133e+00 -3.060903e-01 3.459002e+00 184 181 172
-9.264686e-01 -5.438394e-01 2.899258e+00 63 60 55
-5.965284e-01 -1.027058e-01 1.917988e+00 86 81 70
2.055541e+00 -2.409832e-01 3.279496e+00 168 162 146
1.166456e+00 -5.741987e-02 2.426658e+00 79 78 74
-8.665873e+00 -2.698223e+00 6.344084e+00 155 157 157
2.131816e+00 -2.426278e-01 3.345913e+00 184 179 150
-8.834421e-01 -1.007026e-01 1.877839e+00 191 184 176
2.047304e+00 -2.173253e-01 3.267280e+00 91 87 77
2.047304e+00 -2.173253e-01 3.267280e+00 91 87 77
-7.384040e-01 -4.686366e-01 2.931157e+00 105 98 82
-7.867894e-01 -1.615708e-01 2.142913e+00 174 173 168
2.366000e+00 -3.457453e-01 3.870258e+00 161 156 153
2.366000e+00 -3.457453e-01 3.870258e+00 161 156 153
-2.202858e+00 -6.877108e-01 3.119484e+00 184 183 172
2.429209e+00 -3.329998e-01 3.942704e+00 173 169 156
8.887318e-01 -3.853123e-02 2.510776e+00 188 188 174
1.298022e+00 5.072574e-02 2.419514e+00 122 118 109
1.298022e+00 5.072574e-02 2.419514e+00 122 118 109
1.500313e+00 6.005106e-02 2.514306e+00 186 183 176
-7.083552e-01 8.276901e-02 1.682599e+00 118 119 119
-1.448727e+01 -4.108966e+00 9.151898e+00 188 201 205
-5.776564e-01 -2.599015e-01 2.751679e+00 189 189 182
-1.272359e+01 -3.573130e+00 8.328447e+00 142 146 149
-9.406170e+00 -2.582990e+00 6.642166e+00 123 120 112
7.703959e-01 5.222879e-02 2.448939e+00 178 177 172
-4.245487e-01 -2.667398e-01 2.933277e+00 183 179 167
-7.347922e+00 -1.882083e+00 5.510252e+00 172 168 148
2.900454e+00 -4.964977e-01 4.996977e+00 140 134 121
2.373921e-01 3.880475e-02 2.534118e+00 195 194 190
-3.775821e+00 -7.677478e-01 3.615731e+00 123 113 98
2.708965e+00 -2.586054e-01 4.442695e+00 57 50 47
2.708965e+00 -2.586054e-01 4.442695e+00 57 50 47
2.609994e+00 -2.290358e-01 4.315570e+00 168 161 146
-6.420052e+00 -1.449030e+00 4.970259e+00 155 150 146
-9.253048e+00 -2.210078e+00 6.423160e+00 92 86 91
-2.935540e+00 -3.981888e-01 3.003183e+00 82 70 64
-3.305467e+00 -5.232342e-01 3.303922e+00 75 67 61
-6.884204e-01 8.863746e-02 2.275878e+00 39 32 26
-3.682396e+00 -6.336062e-01 3.515915e+00 89 84 78
-7.985973e-01 -2.139551e-04 2.547684e+00 104 100 89
-7.985973e-01 -2.139551e-04 2.547684e+00 104 100 89
-7.349442e-01 2.889745e-01 1.726429e+00 89 84 81
2.125836e+00 1.825950e-01 3.050824e+00 173 168 160
6.196196e-01 2.629231e-01 2.261230e+00 100 101 91
-7.659279e-01 6.756346e-02 2.376917e+00 139 136 129
-3.229501e+00 -4.545405e-01 3.224289e+00 178 179 174
7.759650e-01 2.953605e-01 2.280190e+00 100 93 83
-1.545950e-01 8.631786e-02 2.596698e+00 191 190 186
-1.110988e+00 2.250180e-01 1.898941e+00 189 190 184
-5.376902e-01 1.482235e-01 2.344390e+00 102 100 92
-7.896000e-01 3.202019e-01 1.763605e+00 188 187 185
-2.438881e+00 -2.011676e-01 2.806690e+00 60 56 45
-2.438881e+00 -2.011676e-01 2.806690e+00 60 56 45
-1.267409e+01 -2.923683e+00 8.122301e+00 110 111 115
2.177555e-01 1.827311e-01 2.577247e+00 193 193 186
2.378371e+00 1.335138e-01 3.551709e+00 80 77 73
9.067194e-01 3.841483e-01 2.208824e+00 124 118 104
-8.551297e+00 -1.733706e+00 5.995785e+00 173 167 154
2.486575e+00 1.421539e-01 3.602580e+00 72 68 63
-4.912365e-01 3.818231e-01 1.874620e+00 92 91 84
-2.982636e+00 -2.314494e-01 3.058940e+00 174 175 161
-3.204659e+00 -2.896361e-01 3.171686e+00 173 170 164
-4.904607e+00 -7.390767e-01 4.081090e+00 87 78 66
2.625224e+00 3.479868e-02 4.138068e+00 194 191 184
-8.101219e+00 -1.516222e+00 5.734757e+00 104 100 93
-8.196162e+00 -1.495898e+00 5.793483e+00 182 179 172
2.661505e+00 8.238241e-02 4.149411e+00 75 70 66
-8.977810e+00 -1.640631e+00 6.180199e+00 76 71 64
2.889025e+00 -1.555853e-02 4.739056e+00 78 65 59
3.308883e+00 -2.281154e-01 5.676812e+00 66 62 58
1.692307e+00 6.413209e-01 2.168817e+00 187 180 162
1.111203e+00 6.135778e-01 2.066875e+00 194 191 188
9.925333e-01 6.333668e-01 2.023030e+00 89 88 86
2.662694e+00 2.290994e-01 4.029095e+00 186 186 175
7.210810e-01 6.332224e-01 2.070661e+00 155 151 140
3.312644e+00 -1.296439e-01 5.676898e+00 189 186 175
-4.386150e+00 -2.384845e-01 3.715356e+00 144 139 135
-3.355837e+00 4.706233e-03 3.162117e+00 104 97 83
1.070547e+00 7.442584e-01 1.954459e+00 177 172 171
1.779657e+00 7.554289e-01 2.181159e+00 188 181 162
-4.208938e+00 -1.637895e-01 3.636502e+00 81 68 53
-4.208938e+00 -1.637895e-01 3.636502e+00 81 68 53
-5.209054e+00 -3.120781e-01 4.168175e+00 142 138 127
-4.989261e+00 -2.164345e-01 3.986093e+00 71 66 61
-1.923889e+00 5.079889e-01 2.312807e+00 180 177 172
-3.080024e+00 2.374394e-01 3.007279e+00 68 58 58
-4.170726e-01 8.089284e-01 1.764369e+00 196 189 183
1.498480e+00 9.026165e-01 2.034142e+00 175 164 146
1.436018e+00 9.039431e-01 2.031030e+00 92 83 79
1.495191e+00 9.249193e-01 2.011739e+00 115 107 90
8.350632e-01 8.586083e-01 2.064471e+00 176 174 169
9.654952e-01 9.089299e-01 1.977064e+00 163 160 152
-8.671234e-01 8.553076e-01 1.607480e+00 63 58 55
1.564247e+00 9.545658e-01 2.006673e+00 190 184 168
-7.758188e-01 8.740433e-01 1.626521e+00 88 80 72
1.529104e+00 9.726380e-01 1.975631e+00 138 130 117
-6.149753e-02 8.892032e-01 1.855477e+00 115 110 96
3.155774e+00 3.221102e-01 5.074417e+00 162 159 155
3.155774e+00 3.221102e-01 5.074417e+00 162 159 155
1.930868e+00 9.859914e-01 2.104629e+00 168 158 146
-9.611929e+00 -9.493350e-01 6.325334e+00 93 87 88
-4.323445e-01 9.413701e-01 1.629232e+00 96 88 79
1.919211e+00 9.967828e-01 2.116055e+00 74 67 56
-4.793612e-01 9.608340e-01 1.572721e+00 173 168 155
-5.137656e-01 9.681658e-01 1.579657e+00 86 76 65
-5.137656e-01 9.681658e-01 1.579657e+00 86 76 65
3.573767e-01 9.878361e-01 1.925968e+00 98 93 84
-3.240803e+00 4.652657e-01 3.055507e+00 184 178 166
-3.865682e+00 3.492179e-01 3.371347e+00 78 65 57
2.866039e+00 6.090495e-01 4.287038e+00 128 120 112
2.797411e+00 6.378904e-01 4.148119e+00 91 80 75
-2.137162e+00 7.197103e-01 2.430892e+00 104 95 86
2.148517e+00 9.870432e-01 2.574468e+00 182 176 162
2.148517e+00 9.870432e-01 2.574468e+00 182 176 162
7.438264e-01 1.061644e+00 1.913784e+00 178 175 166
-4.905539e+00 1.960008e-01 3.931357e+00 169 166 155
1.646901e+00 1.140287e+00 1.919782e+00 181 175 161
1.816882e+00 1.136896e+00 1.984631e+00 100 92 76
1.615002e+00 1.141017e+00 1.917002e+00 84 80 69
1.374364e+00 1.141043e+00 1.900125e+00 100 95 90
1.102094e+00 1.135390e+00 1.875961e+00 52 48 44
-8.209725e-02 1.116796e+00 1.627318e+00 185 180 164
3.899534e-01 1.106408e+00 1.809054e+00 175 175 163
-5.037617e-01 1.117592e+00 1.532773e+00 95 79 74
1.907847e+00 1.165235e+00 2.019199e+00 82 74 68
1.779996e+00 1.175983e+00 1.953449e+00 87 79 72
2.828868e+00 7.282632e-01 4.193595e+00 68 63 59
2.828868e+00 7.282632e-01 4.193595e+00 68 63 59
-2.218273e+00 7.990857e-01 2.514540e+00 165 166 161
6.629477e-01 1.165999e+00 1.814502e+00 59 55 49
-3.432635e-01 1.168481e+00 1.572404e+00 185 173 152
-6.342693e+00 9.759333e-02 4.657727e+00 84 76 68
-6.327954e+00 1.359810e-01 4.654868e+00 159 156 139
2.038772e+00 1.179211e+00 2.286213e+00 55 41 40
3.150576e+00 6.547559e-01 4.991790e+00 85 79 71
-8.614197e+00 -2.123826e-01 5.776919e+00 126 122 119
3.383255e-01 1.230252e+00 1.734701e+00 100 96 93
1.733008e-01 1.223087e+00 1.718290e+00 103 99 95
1.733008e-01 1.223087e+00 1.718290e+00 103 99 95
1.997676e+00 1.242743e+00 2.172356e+00 162 151 128
3.622293e-01 1.249371e+00 1.730398e+00 179 175 172
1.123121e-01 1.244908e+00 1.686317e+00 180 179 184
2.010647e+00 1.255931e+00 2.174179e+00 98 87 72
1.872485e+00 1.311539e+00 1.894157e+00 184 183 186
-1.923749e+00 1.000589e+00 2.327097e+00 70 57 41
1.936626e-01 1.274618e+00 1.682459e+00 78 73 67
1.936626e-01 1.274618e+00 1.682459e+00 78 73 67
-6.911449e+00 1.685302e-01 4.945773e+00 109 102 96
2.805134e+00 8.999152e-01 4.099871e+00 99 96 89
1.491561e+00 1.329090e+00 1.824834e+00 195 185 174
-3.237388e+00 8.050932e-01 3.011361e+00 156 147 131
1.641311e+00 1.335025e+00 1.859321e+00 193 182 169
1.985424e+00 1.292090e+00 2.148532e+00 174 166 147
1.708518e+00 1.332916e+00 1.903732e+00 190 185 174
1.931346e-01 1.298741e+00 1.682120e+00 180 176 173
4.814894e-01 1.363575e+00 1.544481e+00 166 159 147
-5.933973e-01 1.302577e+00 1.541184e+00 177 165 149
5.575069e-01 1.307359e+00 1.847761e+00 128 124 115
-3.182264e+00 8.576978e-01 2.981768e+00 60 51 42
-3.182264e+00 8.576978e-01 2.981768e+00 60 51 42
9.365267e-01 1.323970e+00 1.895139e+00 191 188 181
2.205134e+00 1.234406e+00 2.618906e+00 92 81 77
-8.578841e+00 -5.275150e-03 5.783849e+00 67 61 60
1.970173e+00 1.338358e+00 2.118334e+00 176 168 157
-4.312352e+00 7.145995e-01 3.604293e+00 169 167 145
-8.453456e+00 6.127003e-02 5.704685e+00 196 194 187
2.784334e+00 9.947178e-01 4.031359e+00 185 182 177
1.228696e+00 1.392396e+00 1.799235e+00 134 131 119
-2.293355e-01 1.374179e+00 1.602570e+00 171 160 140
2.758597e+00 1.040236e+00 3.927660e+00 193 186 179
-2.671421e+00 1.040959e+00 2.723138e+00 129 117 91
-1.738444e-01 1.410539e+00 1.574039e+00 60 51 40
-1.738444e-01 1.410539e+00 1.574039e+00 60 51 40
2.747671e+00 1.092707e+00 3.878217e+00 87 78 64
2.747671e+00 1.092707e+00 3.878217e+00 87 78 64
-2.017839e-01 1.420867e+00 1.598884e+00 168 157 140
6.247767e-01 1.422422e+00 1.851132e+00 173 171 160
4.243044e-01 1.471528e+00 1.602575e+00 183 173 154
8.344907e-01 1.480245e+00 1.761196e+00 110 106 101
8.344907e-01 1.480245e+00 1.761196e+00 110 106 101
-1.599845e+00 1.287551e+00 2.145384e+00 179 174 160
3.033269e+00 1.016989e+00 4.579916e+00 63 55 53
6.005903e-01 1.529177e+00 1.468268e+00 58 48 42
-1.564626e+00 1.314553e+00 2.146836e+00 174 171 159
-2.642826e+00 1.167179e+00 2.697341e+00 46 32 31
-8.911759e-01 1.424781e+00 1.825034e+00 170 163 145
-1.669942e+00 1.317098e+00 2.195450e+00 153 147 132
2.417667e+00 1.313733e+00 3.190184e+00 63 53 43
2.443397e+00 1.329268e+00 3.258922e+00 175 168 149
-2.635244e+00 1.234699e+00 2.716165e+00 98 97 93
-9.587354e-01 1.472599e+00 1.865274e+00 154 145 130
2.142234e+00 1.484756e+00 2.457522e+00 173 163 151
2.744021e+00 1.280255e+00 3.857399e+00 170 164 150
2.385471e+00 1.420541e+00 3.135509e+00 56 49 42
-1.700279e+00 1.433010e+00 2.251727e+00 170 163 144
1.866896e+00 1.619346e+00 2.015573e+00 144 136 118
1.072364e+00 1.660858e+00 1.663437e+00 67 51 48
2.684107e+00 1.355931e+00 3.785632e+00 182 175 165
-2.248940e+00 1.449238e+00 2.525682e+00 178 171 156
2.416663e+00 1.494535e+00 3.175661e+00 105 102 95
2.954068e+00 1.307099e+00 4.341743e+00 179 172 162
-5.474204e-01 1.674818e+00 1.604968e+00 136 125 98
2.398128e+00 1.511052e+00 3.131565e+00 198 195 187
3.010950e+00 1.335209e+00 4.437535e+00 195 186 180
-3.914864e+00 1.347114e+00 3.374679e+00 93 81 65
-4.871646e+00 1.253512e+00 3.877149e+00 174 168 151
2.687440e+00 1.490120e+00 3.734046e+00 115 106 97
1.832904e+00 1.774068e+00 1.910770e+00 59 42 34
-3.897976e+00 1.390934e+00 3.348015e+00 182 180 166
2.026222e+00 1.737212e+00 2.304484e+00 97 84 66
1.959949e+00 1.767950e+00 2.181637e+00 139 127 106
-8.635351e-01 1.755983e+00 1.813397e+00 117 106 88
1.999407e+00 1.758582e+00 2.287445e+00 97 83 69
-1.002796e+01 8.347169e-01 6.292778e+00 158 153 141
2.559353e+00 1.575883e+00 3.542557e+00 181 171 161
1.223509e+00 1.874262e+00 1.564708e+00 63 53 47
3.199596e+00 1.400517e+00 4.816238e+00 89 80 75
2.018202e+00 1.771407e+00 2.343124e+00 157 146 124
1.994488e+00 1.776934e+00 2.324231e+00 157 150 133
1.755280e+00 1.840560e+00 1.940006e+00 69 57 41
1.212180e+00 1.895449e+00 1.587242e+00 43 39 35
-6.931179e-01 1.821431e+00 1.773270e+00 137 122 99
-6.931179e-01 1.821431e+00 1.773270e+00 137 122 99
-9.543893e+00 9.979818e-01 6.009006e+00 70 55 56
5.242599e-01 1.906597e+00 1.513036e+00 35 31 35
1.964164e+00 1.832233e+00 2.254073e+00 75 65 61
1.712151e+00 1.891346e+00 1.815409e+00 164 155 139
-2.298056e+00 1.698242e+00 2.599654e+00 87 77 64
1.974199e+00 1.817834e+00 2.364246e+00 61 53 50
-1.991051e+00 1.731945e+00 2.441120e+00 145 139 121
-1.991051e+00 1.731945e+00 2.441120e+00 145 139 121
-1.000641e+01 1.007089e+00 6.256383e+00 179 176 160
9.686165e-01 1.944632e+00 1.519955e+00 177 176 171
2.074622e+00 1.819652e+00 2.499489e+00 79 69 67
2.050947e+00 1.843684e+00 2.468386e+00 60 51 43
-7.496394e+00 1.289979e+00 5.164740e+00 169 166 160
3.208248e+00 1.514741e+00 4.811289e+00 83 74 67
-9.489442e-01 1.883162e+00 1.901993e+00 151 139 117
2.844884e+00 1.619208e+00 4.119323e+00 166 159 153
-2.194278e+00 1.787592e+00 2.554041e+00 165 160 152
-9.687999e-01 1.902159e+00 1.926641e+00 65 56 41
8.534322e-01 2.015984e+00 1.340963e+00 167 161 142
1.744934e+00 1.934317e+00 2.090231e+00 183 179 166
-8.874412e-01 1.921573e+00 1.899462e+00 53 46 27
-3.114151e+00 1.844047e+00 3.032831e+00 174 170 161
7.341711e-02 2.090065e+00 1.460430e+00 101 87 60
-2.927076e+00 1.874832e+00 2.944200e+00 79 69 68
-3.209262e+00 1.857941e+00 3.071572e+00 172 173 167
2.838994e+00 1.779342e+00 4.042574e+00 179 176 170
1.649796e+00 2.058347e+00 1.914249e+00 39 28 24
2.460550e+00 1.882993e+00 3.311318e+00 79 72 64
-3.542556e-01 2.083655e+00 1.673671e+00 139 130 114
-3.083618e+00 1.900645e+00 3.050434e+00 160 161 159
2.707874e+00 1.835266e+00 3.832886e+00 92 83 78
1.888900e+00 2.032791e+00 2.329595e+00 88 74 69
-9.753626e+00 1.552205e+00 6.106440e+00 191 189 191
1.884386e+00 2.068610e+00 2.371907e+00 192 185 177
1.567106e+00 2.127645e+00 1.891474e+00 176 171 164
2.212398e+00 2.017859e+00 2.848577e+00 185 180 174
2.754036e+00 1.881826e+00 3.975775e+00 94 85 81
-5.591949e-01 2.152833e+00 1.779435e+00 56 46 35
-4.014195e+00 1.941929e+00 3.509752e+00 59 49 48
2.718216e+00 1.921088e+00 3.883913e+00 83 73 69
2.718216e+00 1.921088e+00 3.883913e+00 83 73 69
-7.368072e-01 2.154245e+00 1.935269e+00 116 111 106
-2.768252e+00 2.035924e+00 2.906198e+00 166 158 146
3.132499e+00 1.847212e+00 4.641801e+00 121 119 122
-5.781670e+00 1.906399e+00 4.356527e+00 176 173 168
2.732391e+00 1.949601e+00 3.919614e+00 89 82 76
4.683017e-01 2.248717e+00 1.374657e+00 105 92 76
4.683017e-01 2.248717e+00 1.374657e+00 105 92 76
-9.113426e+00 1.766767e+00 5.817334e+00 162 157 146
-1.655913e+00 2.147790e+00 2.356070e+00 171 167 152
1.709158e+00 2.187278e+00 2.005042e+00 107 93 85
-8.468021e+00 1.800244e+00 5.535155e+00 175 171 167
2.093591e+00 2.117728e+00 2.700141e+00 70 58 53
3.495476e+00 1.835815e+00 5.090066e+00 107 92 80
2.672048e+00 1.991781e+00 3.804872e+00 110 103 96
2.050456e+00 2.136114e+00 2.626870e+00 181 168 160
1.735971e+00 2.190004e+00 2.199145e+00 83 76 75
-3.648790e+00 2.080051e+00 3.327593e+00 93 89 90
1.381324e+00 2.277488e+00 1.739727e+00 170 166 155
-1.396722e+00 2.236240e+00 2.276844e+00 56 43 37
1.961222e+00 2.198446e+00 2.479612e+00 78 68 58
2.032545e+00 2.208691e+00 2.672243e+00 54 44 45
2.696998e+00 2.084544e+00 3.830714e+00 94 91 84
2.094351e+00 2.207001e+00 2.709915e+00 73 65 55
4.355419e-01 2.352239e+00 1.472521e+00 165 149 125
4.355419e-01 2.352239e+00 1.472521e+00 165 149 125
2.713748e+00 2.089567e+00 3.860793e+00 186 186 178
1.977221e+00 2.231195e+00 2.606849e+00 184 177 162
2.679911e+00 2.105525e+00 3.841375e+00 204 200 197
2.542913e-01 2.359862e+00 1.582014e+00 149 144 124
-5.315510e-01 2.344073e+00 1.886867e+00 148 136 113
-1.580811e+00 2.306905e+00 2.349743e+00 67 57 55
-1.580811e+00 2.306905e+00 2.349743e+00 67 57 55
-4.152652e+00 2.218672e+00 3.595825e+00 179 180 171
1.686496e+00 2.320668e+00 2.157704e+00 152 143 127
-1.929371e-01 2.382622e+00 1.725178e+00 151 141 118
1.215750e+00 2.385061e+00 1.591711e+00 123 107 86
-2.094695e+00 2.351892e+00 2.639709e+00 61 51 47
-7.853941e+00 2.188707e+00 5.273508e+00 188 183 177
-3.742555e+00 2.329474e+00 3.449245e+00 184 181 179
-8.060975e+00 2.269152e+00 5.384485e+00 183 178 174
-1.147873e+00 2.454254e+00 2.244610e+00 174 167 141
-1.983369e+00 2.443720e+00 2.617952e+00 159 150 136
-1.364886e+00 2.461075e+00 2.291277e+00 164 161 142
-7.792137e+00 2.330472e+00 5.234190e+00 171 171 161
-1.995607e+00 2.467328e+00 2.630255e+00 101 89 82
-1.995607e+00 2.467328e+00 2.630255e+00 101 89 82
-4.739061e-01 2.496879e+00 1.893341e+00 99 85 65
1.832538e+00 2.418439e+00 2.457657e+00 156 143 134
1.832538e+00 2.418439e+00 2.457657e+00 156 143 134
1.897184e+00 2.422180e+00 2.545941e+00 107 95 83
1.897184e+00 2.422180e+00 2.545941e+00 107 95 83
2.210103e+00 2.391670e+00 3.061521e+00 131 127 115
2.940030e+00 2.284169e+00 4.327032e+00 133 126 117
2.151460e+00 2.420911e+00 2.965159e+00 87 77 72
-7.267388e+00 2.473520e+00 5.011754e+00 170 167 153
7.844399e-01 2.562949e+00 1.525443e+00 142 126 103
6.533234e-01 2.563936e+00 1.602159e+00 90 72 57
-5.190382e+00 2.514029e+00 4.173876e+00 183 179 177
3.271791e+00 2.272549e+00 4.723291e+00 186 178 165
3.271791e+00 2.272549e+00 4.723291e+00 186 178 165
2.362931e+00 2.410757e+00 3.360635e+00 178 171 158
4.523810e-02 2.585037e+00 1.776653e+00 176 169 156
-1.009609e+00 2.589263e+00 2.217966e+00 70 57 48
1.755903e+00 2.517685e+00 2.467495e+00 177 173 163
-4.307738e+00 2.576622e+00 3.709212e+00 111 105 105
-1.027429e+00 2.606849e+00 2.225495e+00 167 167 156
-1.155018e+00 2.616868e+00 2.246672e+00 142 133 121
-6.142066e-01 2.628785e+00 2.055697e+00 84 72 62
-7.537970e-01 2.626740e+00 2.144748e+00 141 133 104
1.295763e+00 2.596357e+00 1.843830e+00 89 76 60
1.324000e+00 2.596097e+00 1.933082e+00 112 103 85
-7.367432e-01 2.643309e+00 2.141390e+00 58 46 46
-3.207946e+00 2.634909e+00 3.253116e+00 176 176 166
8.162185e-01 2.655072e+00 1.608784e+00 50 40 31
-3.871344e+00 2.675367e+00 3.498612e+00 129 122 113
-6.583035e+00 2.689602e+00 4.719728e+00 166 159 147
1.162001e+00 2.659924e+00 1.841095e+00 56 43 33
2.388263e+00 2.532586e+00 3.481407e+00 190 189 187
-3.131574e+00 2.725499e+00 3.209365e+00 111 106 100
2.684648e+00 2.497405e+00 3.978724e+00 169 160 144
6.819670e-01 2.701442e+00 1.671531e+00 80 68 55
2.009561e+00 2.606542e+00 2.886266e+00 187 183 175
-1.434490e+00 2.745679e+00 2.471983e+00 68 58 56
3.227494e+00 2.463897e+00 4.687949e+00 108 98 89
-6.936794e+00 2.820162e+00 4.890164e+00 129 119 117
-6.936794e+00 2.820162e+00 4.890164e+00 129 119 117
3.172851e+00 2.496755e+00 4.599808e+00 55 44 40
-3.082696e+00 2.799318e+00 3.201778e+00 84 76 74
-4.022009e+00 2.814837e+00 3.656865e+00 156 148 128
3.912079e-02 2.773055e+00 1.891122e+00 73 64 49
-1.445688e+00 2.798687e+00 2.500805e+00 193 189 178
1.644791e+00 2.730359e+00 2.385794e+00 188 180 157
-6.818552e+00 2.967568e+00 4.846086e+00 120 116 120
2.632241e+00 2.648908e+00 3.965887e+00 105 95 92
1.792626e+00 2.745730e+00 2.599552e+00 176 166 145
1.226595e+00 2.802945e+00 2.028519e+00 171 163 149
1.469073e+00 2.792526e+00 2.312270e+00 180 173 158
-1.474445e+00 2.908640e+00 2.572179e+00 132 126 119
2.249638e+00 2.725831e+00 3.376688e+00 185 179 173
1.389620e+00 2.825720e+00 2.246470e+00 174 162 136
2.973227e+00 2.681573e+00 4.273386e+00 58 47 45
2.973227e+00 2.681573e+00 4.273386e+00 58 47 45
1.447699e+00 2.834939e+00 2.335556e+00 194 190 178
8.000087e-01 2.880790e+00 1.808657e+00 139 132 112
-2.189620e+00 2.986861e+00 2.902454e+00 172 165 141
-3.419875e-01 2.941417e+00 2.161099e+00 170 164 151
2.142598e+00 2.806432e+00 3.259579e+00 90 79 68
2.142598e+00 2.806432e+00 3.259579e+00 90 79 68
2.604183e+00 2.770537e+00 3.936474e+00 106 102 101
2.587504e+00 2.772601e+00 3.902303e+00 203 200 193
2.505996e+00 2.812790e+00 3.752989e+00 184 181 173
-2.893857e-01 2.999479e+00 2.133262e+00 85 76 68
-5.226080e+00 3.211759e+00 4.179839e+00 87 71 73
-5.732146e+00 3.241745e+00 4.420233e+00 85 75 74
-5.732146e+00 3.241745e+00 4.420233e+00 85 75 74
2.146167e+00 2.873172e+00 3.287826e+00 130 125 113
-5.141811e+00 3.213332e+00 4.143526e+00 165 158 147
2.099519e+00 2.888624e+00 3.243748e+00 200 194 183
1.265180e+00 2.956631e+00 2.248569e+00 82 70 54
-8.499289e-01 3.073183e+00 2.399595e+00 174 166 150
-2.399693e+00 3.143855e+00 3.014823e+00 192 187 181
2.088054e+00 2.912047e+00 3.235797e+00 202 197 191
-5.952293e+00 3.318518e+00 4.509694e+00 114 109 113
1.326407e+00 2.975276e+00 2.274337e+00 67 53 43
-1.148057e+00 3.100707e+00 2.451091e+00 160 156 145
-2.343309e+00 3.166440e+00 3.001635e+00 193 192 189
-5.260694e+00 3.300912e+00 4.228197e+00 193 189 183
-8.913868e-01 3.114026e+00 2.429573e+00 65 52 44
-8.913868e-01 3.114026e+00 2.429573e+00 65 52 44
1.074253e+00 3.035509e+00 2.186796e+00 129 119 99
-1.981464e+00 3.194438e+00 2.868791e+00 136 132 128
2.852523e+00 2.920158e+00 4.191001e+00 179 172 154
2.375510e-01 3.103286e+00 2.091203e+00 53 42 45
2.319012e+00 2.975345e+00 3.594892e+00 70 57 53
8.696543e-01 3.073741e+00 2.008311e+00 120 105 84
2.400847e+00 2.970700e+00 3.700507e+00 175 167 146
1.534260e+00 3.040241e+00 2.651021e+00 193 185 174
-3.414896e+00 3.313250e+00 3.521111e+00 85 76 75
-4.889511e+00 3.391370e+00 4.079086e+00 180 174 164
1.671059e-01 3.126316e+00 2.143279e+00 91 81 70
-4.926243e+00 3.403171e+00 4.085438e+00 60 49 58
-5.098372e+00 3.464901e+00 4.191896e+00 157 150 134
2.736764e+00 2.987355e+00 3.998390e+00 75 63 57
8.496111e-01 3.120764e+00 2.106293e+00 91 73 59
2.510954e+00 3.015649e+00 3.787168e+00 131 124 116
-4.988773e+00 3.481877e+00 4.146648e+00 191 187 185
2.649123e+00 3.011746e+00 3.876415e+00 109 104 102
-8.561329e-01 3.245819e+00 2.462251e+00 60 56 55
-1.630490e+00 3.297983e+00 2.797554e+00 165 157 144
3.161180e-01 3.190476e+00 2.161203e+00 195 192 187
2.628809e+00 3.040376e+00 3.859520e+00 111 107 104
-1.624690e+00 3.317556e+00 2.800962e+00 87 79 77
-2.942548e+00 3.405829e+00 3.378168e+00 72 62 64
-2.607546e+00 3.385995e+00 3.210266e+00 112 102 91
-4.661078e+00 3.529383e+00 4.004705e+00 184 179 161
2.625761e+00 3.064872e+00 3.871722e+00 183 178 158
1.236452e+00 3.168411e+00 2.467421e+00 80 70 60
-5.609238e-01 3.311086e+00 2.403498e+00 94 87 79
2.228557e+00 3.135349e+00 3.531470e+00 179 175 164
1.161212e+00 3.205194e+00 2.432541e+00 76 65 59
2.294717e+00 3.139751e+00 3.622698e+00 78 71 78
-3.069853e+00 3.504169e+00 3.472634e+00 206 206 196
-4.393073e+00 3.591873e+00 3.906212e+00 177 168 159
1.824107e+00 3.176780e+00 3.051495e+00 206 203 199
1.816708e+00 3.190410e+00 3.033738e+00 123 119 108
6.426302e-01 3.262530e+00 2.146820e+00 73 62 56
-4.118007e-01 3.357321e+00 2.402910e+00 86 79 69
-4.466252e-01 3.369349e+00 2.411766e+00 186 181 161
-2.250513e+00 3.496393e+00 3.034750e+00 98 87 82
2.639525e+00 3.173156e+00 3.985049e+00 111 95 80
-4.520539e+00 3.680738e+00 3.983867e+00 187 180 172
2.675903e+00 3.174848e+00 4.038017e+00 162 160 149
-4.361308e+00 3.671337e+00 3.919926e+00 66 56 59
1.203404e+00 3.281371e+00 2.548112e+00 143 136 130
2.029627e+00 3.253142e+00 3.386813e+00 154 145 136
1.511797e+00 3.274791e+00 2.746250e+00 103 94 77
2.498048e+00 3.221525e+00 3.770035e+00 114 97 86
5.646073e-01 3.334375e+00 2.166447e+00 125 112 95
5.646073e-01 3.334375e+00 2.166447e+00 125 112 95
1.508587e+00 3.290139e+00 2.816631e+00 176 167 156
-2.569517e+00 3.604337e+00 3.265229e+00 196 193 188
1.628486e+00 3.297708e+00 2.960941e+00 198 195 187
2.551348e+00 3.246725e+00 3.902036e+00 185 180 167
1.080718e+00 3.346009e+00 2.455780e+00 200 199 194
-1.067467e+00 3.513288e+00 2.703041e+00 168 162 147
2.054767e+00 3.304945e+00 3.457971e+00 181 171 154
2.179105e+00 3.299530e+00 3.507048e+00 136 127 119
-3.830241e+00 3.761305e+00 3.716259e+00 163 154 142
9.582210e-01 3.371133e+00 2.441215e+00 143 136 110
-1.056935e+00 3.531554e+00 2.703799e+00 75 65 64
1.883462e+00 3.318119e+00 3.143525e+00 159 151 132
2.023403e+00 3.324991e+00 3.438843e+00 77 68 61
1.720361e+00 3.339062e+00 2.974133e+00 181 171 150
9.861835e-01 3.398135e+00 2.473270e+00 45 35 26
-4.067643e+00 3.856720e+00 3.855805e+00 96 86 85
8.927919e-01 3.429205e+00 2.434189e+00 129 118 105
9.635988e-01 3.430504e+00 2.477691e+00 106 96 86
1.469798e+00 3.412660e+00 2.896085e+00 76 69 62
3.016568e-01 3.488763e+00 2.385370e+00 185 173 153
-8.112086e-01 3.589991e+00 2.668744e+00 199 194 173
2.388426e+00 3.373247e+00 3.740242e+00 150 142 132
-3.613007e+00 3.863666e+00 3.674671e+00 186 179 169
1.405144e+00 3.429553e+00 2.772774e+00 146 137 126
3.009863e-01 3.506037e+00 2.396653e+00 90 74 69
1.868348e+00 3.415365e+00 3.256333e+00 89 79 66
-2.339723e+00 3.773287e+00 3.243869e+00 69 59 57
-3.174315e+00 3.838223e+00 3.462119e+00 119 111 97
-3.288016e+00 3.868022e+00 3.513337e+00 74 63 61
-3.825693e+00 3.935518e+00 3.768867e+00 104 92 87
-2.381389e+00 3.800074e+00 3.261070e+00 65 57 61
2.470341e+00 3.417684e+00 3.873576e+00 86 75 68
2.377643e+00 3.428665e+00 3.777506e+00 182 174 154
7.859562e-01 3.515875e+00 2.472673e+00 199 195 186
1.047223e+00 3.501845e+00 2.527927e+00 161 155 129
-3.014621e+00 3.883231e+00 3.412744e+00 119 111 100
-8.965224e-01 3.690435e+00 2.750831e+00 194 191 186
-3.272279e+00 3.929867e+00 3.524401e+00 160 145 126
1.928171e+00 3.485449e+00 3.358162e+00 80 74 72
-3.030868e+00 3.913245e+00 3.449605e+00 168 162 138
1.204570e+00 3.533855e+00 2.769995e+00 202 196 183
1.204570e+00 3.533855e+00 2.769995e+00 202 196 183
2.332118e+00 3.496322e+00 3.760269e+00 203 202 177
2.332118e+00 3.496322e+00 3.760269e+00 203 202 177
1.631809e+00 3.557212e+00 3.169144e+00 87 77 68
5.244036e-01 3.613813e+00 2.441210e+00 195 190 177
1.105145e+00 3.586173e+00 2.744210e+00 179 172 154
1.105145e+00 3.586173e+00 2.744210e+00 179 172 154
2.322742e+00 3.527822e+00 3.774461e+00 170 161 145
-3.035922e+00 4.051341e+00 3.506829e+00 160 154 132
-5.616735e-01 3.788471e+00 2.716086e+00 113 104 95
-2.554710e+00 4.015662e+00 3.291340e+00 102 92 90
1.783449e+00 3.626298e+00 3.275778e+00 122 114 109
1.543433e+00 3.660478e+00 3.180128e+00 159 146 121
1.543433e+00 3.660478e+00 3.180128e+00 159 146 121
1.530047e+00 3.660835e+00 3.165229e+00 154 142 123
8.968531e-01 3.691023e+00 2.700413e+00 49 42 36
-2.563318e+00 4.052685e+00 3.325648e+00 199 195 189
-3.284745e+00 4.158359e+00 3.612290e+00 81 73 70
2.077067e+00 3.651485e+00 3.515677e+00 92 78 73
8.959437e-01 3.722507e+00 2.737826e+00 67 56 51
8.959437e-01 3.722507e+00 2.737826e+00 67 56 51
1.941411e+00 3.669067e+00 3.376385e+00 109 102 94
1.375100e+00 3.708795e+00 3.033836e+00 187 180 155
-1.434908e+00 4.001064e+00 3.066309e+00 79 69 67
6.631089e-01 3.764748e+00 2.610471e+00 135 129 110
-2.919700e+00 4.215865e+00 3.533202e+00 189 184 173
-2.919700e+00 4.215865e+00 3.533202e+00 189 184 173
2.026918e+00 3.735204e+00 3.560184e+00 208 197 175
9.125353e-02 3.868722e+00 2.672504e+00 104 92 78
1.963207e+00 3.745387e+00 3.477215e+00 193 189 178
-2.780851e+00 4.262126e+00 3.488661e+00 175 168 152
7.183341e-02 3.913040e+00 2.711321e+00 117 104 95
1.834821e+00 3.785172e+00 3.354282e+00 94 80 78
-2.076524e+00 4.175386e+00 3.207272e+00 190 183 171
2.019198e+00 3.801558e+00 3.596000e+00 175 170 158
2.019198e+00 3.801558e+00 3.596000e+00 175 170 158
1.777759e+00 3.807646e+00 3.317970e+00 177 167 146
-2.139227e+00 4.210310e+00 3.242438e+00 168 162 134
-2.466936e+00 4.260816e+00 3.390994e+00 68 56 60
-1.875918e+00 4.178999e+00 3.166883e+00 187 188 178
1.395441e+00 3.836028e+00 3.083287e+00 166 158 147
-3.030828e+00 4.346503e+00 3.557566e+00 164 165 170
4.982207e-01 3.915635e+00 2.698689e+00 176 168 143
3.862340e-01 3.930392e+00 2.699511e+00 39 29 28
3.862340e-01 3.930392e+00 2.699511e+00 39 29 28
-2.757162e+00 4.338547e+00 3.501967e+00 93 88 100
1.074526e+00 3.897477e+00 3.017074e+00 201 199 187
-6.850795e-01 4.081582e+00 2.936660e+00 183 183 170
-6.850795e-01 4.081582e+00 2.936660e+00 183 183 170
-2.215772e+00 4.287789e+00 3.327609e+00 180 177 164
1.056462e+00 3.923543e+00 3.018546e+00 191 185 175
1.676990e+00 3.889604e+00 3.300758e+00 79 67 70
1.647434e+00 3.889080e+00 3.266120e+00 161 154 134
-5.161325e-01 4.103111e+00 2.928932e+00 116 104 91
-5.609894e-01 4.113604e+00 2.943913e+00 160 150 132
1.680596e+00 3.909360e+00 3.331639e+00 184 178 162
1.663588e+00 3.905388e+00 3.301193e+00 189 185 168
-8.511614e-01 4.163804e+00 3.001503e+00 54 46 43
1.059447e+00 3.970995e+00 3.068257e+00 87 78 72
5.538714e-01 4.005932e+00 2.729629e+00 112 93 76
1.610703e+00 3.951878e+00 3.300499e+00 152 146 124
1.691052e+00 3.965638e+00 3.375418e+00 177 165 139
-2.059703e+00 4.391341e+00 3.303531e+00 191 191 177
1.809620e+00 3.977567e+00 3.506289e+00 201 199 190
-3.288083e-01 4.210703e+00 2.923751e+00 190 185 172
6.073086e-01 4.165768e+00 2.956515e+00 158 148 126
1.215576e+00 4.107406e+00 3.092235e+00 173 162 144
-6.048336e-01 4.317462e+00 2.969293e+00 141 137 137
-1.019757e+00 4.374283e+00 3.026091e+00 120 107 97
1.419685e+00 4.133203e+00 3.310758e+00 101 82 67
-1.292589e+00 4.444578e+00 3.122187e+00 74 63 60
1.215916e+00 4.145469e+00 3.131835e+00 169 160 137
6.005900e-01 4.232246e+00 2.971839e+00 67 59 48
-8.609211e-02 4.313811e+00 2.942890e+00 133 129 126
-1.509571e-01 4.324441e+00 2.928657e+00 135 130 124
1.271329e-01 4.296262e+00 2.924483e+00 108 98 93
1.271329e-01 4.296262e+00 2.924483e+00 108 98 93
5.744805e-01 4.256055e+00 2.967549e+00 114 103 103
1.334775e-01 4.314414e+00 2.930910e+00 203 200 193
8.066828e-01 4.247104e+00 3.013985e+00 202 199 193
1.054056e+00 4.223262e+00 3.081120e+00 167 154 129
-5.949510e-01 4.416504e+00 2.970161e+00 185 176 163
1.370067e+00 4.223677e+00 3.327414e+00 111 99 87
-5.664355e-01 4.418252e+00 2.963760e+00 183 178 156
1.393183e+00 4.224668e+00 3.330586e+00 212 212 196
-5.410875e-01 4.422098e+00 2.974021e+00 192 184 174
1.054062e+00 4.240293e+00 3.093825e+00 64 51 48
1.054062e+00 4.240293e+00 3.093825e+00 64 51 48
1.006440e+00 4.246522e+00 3.072484e+00 151 139 111
1.413771e+00 4.236851e+00 3.337691e+00 104 97 113
-5.711752e-01 4.438433e+00 2.980489e+00 109 98 94
1.191646e+00 4.253734e+00 3.206552e+00 135 122 103
9.979091e-01 4.263765e+00 3.072829e+00 85 66 60
9.009254e-01 4.292533e+00 3.046911e+00 150 137 112
9.009254e-01 4.292533e+00 3.046911e+00 150 137 112
-9.840098e-01 4.562394e+00 3.136122e+00 161 153 137
-1.101452e+00 4.590826e+00 3.169932e+00 190 185 160
8.572275e-01 4.330888e+00 3.060926e+00 111 94 85
9.394761e-01 4.333889e+00 3.109663e+00 44 33 29
-4.494005e-01 4.497031e+00 2.993293e+00 78 61 57
-1.124865e+00 4.629610e+00 3.196231e+00 168 161 145
1.079988e+00 4.350835e+00 3.212958e+00 95 80 64
1.209138e+00 4.346337e+00 3.273681e+00 103 100 109
-4.868493e-01 4.543191e+00 3.033055e+00 56 46 44
6.791910e-01 4.391716e+00 3.008430e+00 148 132 108
7.217134e-01 4.394850e+00 3.039373e+00 167 161 135
-9.447902e-01 4.652718e+00 3.166922e+00 165 157 134
-4.652029e-01 4.575669e+00 3.051852e+00 42 27 29
5.729765e-01 4.437654e+00 2.990211e+00 147 133 104
1.066346e+00 4.433154e+00 3.231773e+00 216 221 227
6.534376e-01 4.469064e+00 3.063125e+00 165 162 137
6.392457e-01 4.482252e+00 3.057912e+00 64 52 46
-1.804838e+01 -8.524159e+00 1.216058e+01 191 193 189
-6.869111e+00 -4.562835e+00 7.477805e+00 84 84 80
-6.869111e+00 -4.562835e+00 7.477805e+00 84 84 80
-1.803276e+01 -8.515132e+00 1.222768e+01 83 82 92
-1.803276e+01 -8.515132e+00 1.222768e+01 83 82 92
-1.760017e-02 -1.390192e+00 3.291805e+00 113 114 108
-7.661324e+00 -4.479481e+00 7.233801e+00 161 162 156
-4.353414e-02 -9.964961e-01 2.481399e+00 53 50 45
9.931309e-01 -8.726227e-01 2.628659e+00 80 80 82
1.416681e+00 -8.333367e-01 2.765869e+00 89 85 86
1.706384e+00 -1.004255e+00 3.287902e+00 73 71 70
2.406037e+00 -1.570941e+00 4.910670e+00 140 139 137
2.380520e+00 -1.554140e+00 4.885670e+00 82 81 77
2.728731e+00 -1.857201e+00 5.754219e+00 139 138 134
1.713551e+00 -9.728096e-01 3.271413e+00 165 162 155
2.379107e+00 -1.493517e+00 4.859005e+00 113 113 109
1.624347e+00 -7.969815e-01 2.953370e+00 27 25 24
1.727309e+00 -8.751924e-01 3.193864e+00 108 107 105
2.809695e+00 -1.734334e+00 5.754605e+00 152 152 150
3.249298e-01 -1.069370e+00 3.163596e+00 148 147 145
1.299504e-01 -1.143410e+00 3.280766e+00 147 145 148
8.067702e-01 -7.308843e-01 2.596470e+00 74 70 59
7.484537e-01 -7.044104e-01 2.585888e+00 64 60 60
8.542735e-02 -1.089663e+00 3.259097e+00 165 164 161
3.225112e-01 -9.860449e-01 3.115120e+00 135 135 134
-6.031678e+00 -4.236918e+00 8.204166e+00 102 102 104
1.975910e+00 -7.797300e-01 3.277799e+00 144 145 140
3.192760e+00 -1.927799e+00 6.569164e+00 65 65 64
-5.279408e+00 -2.912312e+00 5.609622e+00 156 151 150
9.327259e-02 -1.050644e+00 3.230189e+00 29 28 28
-2.007276e-01 -8.070837e-01 2.575308e+00 170 167 162
1.518186e+00 -5.300494e-01 2.746053e+00 60 58 60
2.125258e+00 -8.576005e-01 3.881973e+00 31 26 28
1.649159e+00 -5.440899e-01 2.900263e+00 198 199 205
1.845000e+00 -5.632699e-01 3.034380e+00 176 177 172
1.617150e+00 -5.341887e-01 2.890784e+00 129 129 127
3.666201e-02 -8.529963e-01 3.082554e+00 170 169 167
1.198180e+00 -4.862481e-01 2.626809e+00 84 85 80
1.198180e+00 -4.862481e-01 2.626809e+00 84 85 80
1.275238e+00 -5.163067e-01 2.736198e+00 162 163 160
1.153930e+00 -4.898445e-01 2.629420e+00 93 93 88
1.840767e+00 -5.422658e-01 3.028048e+00 101 101 99
-5.752505e+00 -3.410273e+00 7.232930e+00 118 119 114
1.842217e+00 -4.677076e-01 2.966966e+00 182 181 177
1.829753e+00 -4.544013e-01 2.923357e+00 104 105 100
1.829753e+00 -4.544013e-01 2.923357e+00 104 105 100
-5.897981e-01 -6.766259e-01 2.549953e+00 70 63 62
-4.649687e+00 -2.867214e+00 6.431134e+00 80 77 65
-6.264280e+00 -2.513452e+00 5.250083e+00 41 39 41
1.800252e+00 -4.355799e-01 2.904088e+00 124 124 122
1.800252e+00 -4.355799e-01 2.904088e+00 124 124 122
-5.154670e-01 -6.620287e-01 2.592591e+00 98 97 93
2.525850e-02 -5.844730e-01 2.614331e+00 162 160 148
-5.153825e-01 -5.616104e-01 2.433609e+00 171 167 150
-5.153825e-01 -5.616104e-01 2.433609e+00 171 167 150
1.113721e+00 -4.142100e-01 2.684824e+00 172 169 163
4.372236e-01 -4.523556e-01 2.538853e+00 105 99 85
1.086656e+00 -3.670425e-01 2.618567e+00 176 176 168
3.773829e-01 -4.440438e-01 2.575670e+00 126 124 112
-5.220540e+00 -2.838948e+00 6.516305e+00 117 117 109
4.120253e-01 -4.469517e-01 2.629643e+00 125 121 108
8.049256e-01 -2.825641e-01 2.515084e+00 88 84 72
-4.096094e+00 -1.721886e+00 4.532330e+00 165 161 138
-1.291315e+00 -7.689662e-01 3.091037e+00 164 162 154
2.742595e+00 -9.995046e-01 5.325522e+00 166 165 161
8.056196e-01 -2.464702e-01 2.515425e+00 98 95 88
-1.044281e+01 -3.452258e+00 7.287032e+00 163 163 161
2.160077e+00 -3.737722e-01 3.449796e+00 167 162 156
-9.039008e-02 2.649171e-01 9.831319e-01 101 99 95
-4.368281e+00 -1.488319e+00 4.181498e+00 27 23 20
-7.548851e-01 -1.175339e-01 1.788650e+00 170 167 156
-4.346097e+00 -1.477152e+00 4.199688e+00 168 161 151
1.066126e+00 -1.142082e-01 2.439039e+00 120 119 115
-8.582672e+00 -2.727306e+00 6.292371e+00 114 115 115
-5.114020e+00 -1.633936e+00 4.495674e+00 180 177 169
1.632116e+00 -3.628136e-02 2.517484e+00 120 121 116
2.158333e+00 -2.278267e-01 3.374623e+00 122 115 108
1.446559e+00 1.033489e-02 2.435663e+00 73 64 59
-4.813776e-02 3.535383e-01 9.988323e-01 93 89 88
1.218092e+00 -3.024435e-03 2.423183e+00 96 96 97
1.083003e+00 -3.137435e-02 2.451992e+00 189 189 187
1.867320e+00 3.994194e-02 2.562894e+00 161 158 155
1.880653e+00 4.787799e-02 2.568079e+00 68 63 61
2.938689e+00 -7.962584e-01 5.476162e+00 123 121 122
-1.918990e+00 -4.926244e-01 2.766999e+00 75 73 71
-1.811642e+00 -4.116351e-01 2.599224e+00 168 168 166
2.723385e+00 -5.232336e-01 4.646554e+00 58 53 48
2.723385e+00 -5.232336e-01 4.646554e+00 58 53 48
-1.883400e+00 -4.685517e-01 2.750026e+00 165 166 161
-4.173610e-01 -3.150627e-01 2.874522e+00 104 96 87
2.065188e+00 -5.819227e-02 3.150474e+00 170 161 154
-9.917756e-01 1.795798e-02 1.859370e+00 91 90 88
-5.477463e-01 2.066206e-01 1.502497e+00 191 192 187
-9.586846e+00 -2.643628e+00 6.733450e+00 64 62 63
1.072201e+00 1.010167e-01 2.377771e+00 166 166 158
2.079367e+00 -2.606088e-02 3.157630e+00 174 168 155
2.987162e+00 -5.748541e-01 5.297171e+00 122 118 107
-3.968923e+00 -8.567871e-01 3.756371e+00 97 85 70
2.418174e+00 -5.944305e-02 3.691268e+00 150 149 145
-2.795869e+00 -4.615135e-01 3.100292e+00 87 76 66
3.282837e+00 -6.683761e-01 5.926407e+00 163 155 144
1.946883e+00 2.979763e-01 2.480935e+00 188 187 181
-3.173651e+00 -5.341900e-01 3.275175e+00 75 66 61
-1.428700e+00 2.328916e-02 2.173705e+00 80 74 66
2.679618e+00 -2.195917e-01 4.396324e+00 106 101 89
-7.363555e-01 2.760560e-01 1.678306e+00 101 101 93
1.591335e+00 3.330540e-01 2.345831e+00 165 162 150
2.393802e-01 9.719230e-02 2.571848e+00 111 110 105
-5.333785e-01 3.128274e-01 1.690922e+00 142 140 128
-4.475011e+00 -7.991535e-01 3.906001e+00 80 76 72
-8.428850e-01 -7.575738e-03 2.622494e+00 193 192 187
7.299183e-01 2.957217e-01 2.283378e+00 175 169 157
-1.054687e+00 2.537189e-01 1.860696e+00 114 115 109
2.252404e+00 2.134598e-01 3.124003e+00 166 164 152
-8.525121e-01 2.731604e-02 2.625307e+00 99 99 91
-8.181063e-01 6.402069e-02 2.583363e+00 170 169 166
7.299323e-01 3.205775e-01 2.335296e+00 196 191 175
7.299323e-01 3.205775e-01 2.335296e+00 196 191 175
1.325515e+00 4.124183e-01 2.278459e+00 183 181 173
1.710262e-01 2.482772e-01 2.380900e+00 191 191 183
-2.940626e+00 -2.723165e-01 3.042066e+00 88 79 76
2.633307e+00 -2.234385e-02 4.161926e+00 78 77 73
2.633307e+00 -2.234385e-02 4.161926e+00 78 77 73
2.589420e+00 -1.587243e-02 4.117571e+00 85 82 73
2.700919e+00 -2.840640e-02 4.264222e+00 109 107 94
1.959457e-01 2.787007e-01 2.380344e+00 185 186 181
1.959457e-01 2.787007e-01 2.380344e+00 185 186 181
6.839226e-01 3.631485e-01 2.296965e+00 173 169 165
1.833902e+00 4.890592e-01 2.319608e+00 109 105 101
1.664954e+00 4.890910e-01 2.265853e+00 118 118 113
2.338222e+00 2.920768e-01 3.171799e+00 118 109 102
-9.533178e+00 -1.921760e+00 6.507873e+00 169 165 158
2.389031e+00 1.969771e-01 3.536023e+00 82 78 75
2.456944e+00 1.905090e-01 3.584937e+00 70 67 60
3.225833e+00 -3.421411e-01 5.639289e+00 179 172 169
-9.498391e+00 -1.825025e+00 6.468066e+00 197 198 193
3.407789e+00 -3.792042e-01 5.954877e+00 153 150 134
2.623183e+00 1.032365e-01 4.091902e+00 165 160 155
-3.604938e+00 -3.006533e-01 3.389031e+00 165 162 146
2.338212e+00 3.535446e-01 3.183813e+00 145 139 121
-3.470215e+00 -2.481554e-01 3.279164e+00 79 75 65
-6.426458e+00 -9.840980e-01 4.844691e+00 167 164 154
2.264858e+00 4.245158e-01 2.957615e+00 132 128 117
2.081611e+00 5.645637e-01 2.440905e+00 160 159 155
-3.523840e+00 -2.454352e-01 3.322657e+00 149 143 129
7.335901e-01 5.233265e-01 2.165688e+00 86 85 83
1.865530e+00 6.058431e-01 2.281381e+00 94 87 80
1.865530e+00 6.058431e-01 2.281381e+00 94 87 80
-1.672919e+00 2.868739e-01 2.197981e+00 156 152 142
3.016278e+00 -5.556429e-02 4.955959e+00 170 161 146
1.995675e+00 6.087001e-01 2.334191e+00 70 62 59
1.995675e+00 6.087001e-01 2.334191e+00 70 62 59
1.855505e+00 6.203660e-01 2.262558e+00 180 175 171
3.362254e+00 -2.509094e-01 5.779336e+00 102 98 95
1.103453e+00 6.222056e-01 2.031297e+00 71 67 62
-2.035757e+00 2.049825e-01 2.466555e+00 116 109 101
-9.101443e-01 5.533017e-01 1.707540e+00 177 168 160
2.474285e+00 3.855675e-01 3.431826e+00 184 179 172
-4.503986e+00 -3.704448e-01 3.804146e+00 156 149 133
-5.198323e-01 5.822513e-01 1.787783e+00 183 174 157
-1.640517e+00 3.641632e-01 2.186532e+00 156 150 137
2.708755e+00 2.303871e-01 4.093449e+00 187 180 161
1.550211e+00 6.916726e-01 2.105707e+00 195 185 176
1.550211e+00 6.916726e-01 2.105707e+00 195 185 176
2.616889e+00 2.827401e-01 3.913884e+00 102 95 90
2.733886e+00 2.336214e-01 4.123168e+00 174 170 159
-3.180437e-01 5.639154e-01 1.965714e+00 184 179 175
2.660895e+00 2.633874e-01 4.038008e+00 181 178 163
2.660895e+00 2.633874e-01 4.038008e+00 181 178 163
-3.363365e+00 -3.943878e-02 3.189053e+00 157 155 143
1.617104e+00 7.184252e-01 2.133827e+00 112 103 94
2.706181e+00 2.651762e-01 4.101999e+00 173 170 165
1.607594e+00 7.280951e-01 2.108358e+00 183 174 154
1.607594e+00 7.280951e-01 2.108358e+00 183 174 154
3.307329e+00 -9.990241e-02 5.660263e+00 134 133 115
1.931227e+00 7.487075e-01 2.206604e+00 178 170 159
1.812093e+00 7.589027e-01 2.153395e+00 82 70 61
2.972410e+00 1.363699e-01 4.799830e+00 184 176 166
8.849957e-01 7.240822e-01 2.013005e+00 174 168 152
1.883730e+00 7.798807e-01 2.160264e+00 113 103 85
9.120291e-01 7.458105e-01 1.999970e+00 167 161 146
-1.026566e+01 -1.520766e+00 6.746667e+00 137 135 126
-1.807180e+00 4.317532e-01 2.295803e+00 176 167 160
2.111001e+00 6.863868e-01 2.674647e+00 159 152 144
-4.047492e+00 -7.714594e-02 3.531364e+00 91 82 75
3.234063e+00 3.297368e-02 5.435411e+00 184 180 177
-1.014413e+01 -1.364149e+00 6.655346e+00 164 163 161
-2.503460e+00 3.391882e-01 2.700542e+00 150 145 139
9.226522e-01 8.074318e-01 2.020894e+00 178 172 166
3.191541e-01 7.480093e-01 2.073760e+00 197 195 188
-4.573795e-01 7.848667e-01 1.725747e+00 108 96 81
2.315038e+00 6.644667e-01 3.093540e+00 177 168 158
6.891124e-02 7.615125e-01 2.015894e+00 112 105 102
6.891124e-02 7.615125e-01 2.015894e+00 112 105 102
7.392430e-01 8.291331e-01 2.058951e+00 132 125 109
-3.571758e+00 1.705342e-01 3.257597e+00 175 165 153
1.547369e+00 9.166202e-01 2.018141e+00 183 172 151
1.990916e+00 9.108016e-01 2.177488e+00 154 150 141
1.471731e+00 9.211426e-01 1.991225e+00 87 79 73
1.170657e+00 9.001733e-01 1.985304e+00 105 99 82
1.284283e+00 9.173399e-01 1.985984e+00 90 86 76
1.284283e+00 9.173399e-01 1.985984e+00 90 86 76
2.357108e+00 6.884818e-01 3.194657e+00 174 167 158
-3.666692e+00 2.002418e-01 3.269502e+00 171 158 143
1.578557e+00 9.441926e-01 2.020754e+00 160 154 139
2.546638e+00 6.178034e-01 3.575444e+00 70 64 64
-7.824315e-01 8.526203e-01 1.662680e+00 103 96 85
-4.563471e-02 8.505039e-01 1.895450e+00 49 44 37
3.241992e+00 2.661512e-01 5.174621e+00 147 143 133
1.797615e+00 9.587189e-01 2.073792e+00 175 165 140
1.777472e+00 9.589057e-01 2.066955e+00 174 164 143
-5.521056e+00 -1.738490e-01 4.288924e+00 76 67 63
-5.521056e+00 -1.738490e-01 4.288924e+00 76 67 63
2.549695e+00 6.366165e-01 3.571449e+00 166 162 149
1.976059e+00 9.618764e-01 2.126495e+00 50 42 39
1.976059e+00 9.618764e-01 2.126495e+00 50 42 39
2.571240e+00 6.284346e-01 3.618198e+00 157 153 142
2.341712e+00 7.489118e-01 3.082173e+00 76 71 68
-3.515182e+00 2.607520e-01 3.226221e+00 154 143 125
-7.166250e+00 -4.900424e-01 5.115541e+00 177 176 175
2.565018e+00 6.534633e-01 3.602816e+00 162 154 134
2.819169e+00 5.154183e-01 4.227661e+00 172 163 154
-8.705599e-02 8.974261e-01 1.858082e+00 102 95 86
2.550599e+00 6.649810e-01 3.583168e+00 77 69 59
1.050643e+00 9.817491e-01 1.914590e+00 45 39 38
-9.091671e-02 9.175132e-01 1.822674e+00 99 95 84
6.413765e-01 9.348323e-01 1.973202e+00 162 159 149
1.918835e+00 9.965800e-01 2.116935e+00 74 66 56
1.952042e+00 1.010304e+00 2.114933e+00 92 83 74
1.952042e+00 1.010304e+00 2.114933e+00 92 83 74
2.579631e+00 6.821502e-01 3.640737e+00 155 146 132
9.413809e-01 9.943111e-01 1.934713e+00 100 94 92
9.413809e-01 9.943111e-01 1.934713e+00 100 94 92
7.918883e-01 9.726805e-01 1.987651e+00 181 178 173
2.603516e+00 6.811999e-01 3.699417e+00 163 156 139
2.592753e+00 6.888529e-01 3.669584e+00 63 55 49
1.092663e+00 1.011051e+00 1.965778e+00 130 123 115
1.874845e+00 1.046597e+00 2.052649e+00 107 97 88
3.795621e-01 9.724628e-01 1.911266e+00 118 113 93
1.432967e+00 1.061572e+00 1.927627e+00 135 128 119
1.432967e+00 1.061572e+00 1.927627e+00 135 128 119
8.805893e-01 1.021553e+00 1.930677e+00 117 114 105
9.250775e-01 1.028502e+00 1.953847e+00 101 97 88
9.250775e-01 1.028502e+00 1.953847e+00 101 97 88
7.357744e-01 1.032313e+00 1.888480e+00 168 166 154
8.401005e-01 1.037934e+00 1.914919e+00 107 103 95
8.236692e-01 1.057115e+00 1.874969e+00 87 85 70
3.094086e-01 1.000891e+00 1.961855e+00 147 145 140
1.900608e+00 1.100685e+00 2.027354e+00 65 58 50
2.330612e+00 9.083894e-01 2.979446e+00 141 128 110
2.271274e+00 9.375729e-01 2.886849e+00 108 95 87
2.906079e+00 6.379735e-01 4.316920e+00 182 176 163
-5.158394e+00 1.548169e-01 4.048678e+00 63 57 46
-5.158394e+00 1.548169e-01 4.048678e+00 63 57 46
1.936832e+00 1.109532e+00 2.083325e+00 119 107 96
1.684631e+00 1.136548e+00 1.935326e+00 93 86 82
2.882664e+00 6.480237e-01 4.318076e+00 107 101 84
2.861986e+00 6.657126e-01 4.232253e+00 40 36 30
1.535643e+00 1.147290e+00 1.897660e+00 93 89 80
1.896032e+00 1.149616e+00 1.989587e+00 73 70 63
1.759014e+00 1.157081e+00 1.942201e+00 100 91 74
-6.901499e-01 1.079244e+00 1.576089e+00 103 97 85
1.915010e+00 1.152423e+00 2.016740e+00 172 169 162
-2.119483e+00 7.970522e-01 2.433600e+00 90 82 71
-3.517921e-01 1.127501e+00 1.551045e+00 100 86 74
2.882160e+00 6.956852e-01 4.308717e+00 172 165 148
-9.741873e-02 1.130553e+00 1.651477e+00 115 113 99
-7.950270e-02 1.138590e+00 1.622803e+00 115 113 99
1.929325e+00 1.176333e+00 2.012182e+00 177 174 167
-2.733126e-01 1.157981e+00 1.503368e+00 92 82 68
2.536983e+00 8.901672e-01 3.435481e+00 90 83 75
2.134549e+00 1.074069e+00 2.537115e+00 167 157 142
1.108528e-01 1.123667e+00 1.782174e+00 115 111 102
-6.022997e-01 1.131670e+00 1.545463e+00 107 100 90
3.139405e+00 5.893319e-01 4.924548e+00 49 45 40
-3.475616e+00 5.781884e-01 3.174641e+00 176 171 167
1.704876e+00 1.187623e+00 1.977082e+00 154 148 135
2.252400e+00 1.020164e+00 2.862206e+00 103 97 92
-3.563836e+00 5.705287e-01 3.210425e+00 187 182 160
-3.563836e+00 5.705287e-01 3.210425e+00 187 182 160
2.149338e+00 1.092768e+00 2.531027e+00 90 81 67
1.764473e+00 1.218202e+00 1.959175e+00 176 168 158
2.322016e-01 1.153599e+00 1.831952e+00 186 180 174
5.645062e-01 1.195280e+00 1.757527e+00 40 34 37
2.092029e+00 1.123520e+00 2.502467e+00 172 163 148
-1.301825e+00 1.062337e+00 1.947866e+00 122 110 98
1.093380e+00 1.245371e+00 1.833631e+00 170 166 155
1.296688e+00 1.252034e+00 1.872857e+00 177 171 157
6.035085e-01 1.206812e+00 1.887297e+00 174 166 154
3.032302e-01 1.229607e+00 1.733601e+00 107 103 103
2.265703e+00 1.128478e+00 2.701722e+00 62 49 40
1.166974e+00 1.267900e+00 1.822190e+00 113 110 104
4.848073e-01 1.248987e+00 1.713366e+00 63 53 43
1.492790e+00 1.290018e+00 1.826179e+00 173 166 147
-8.581709e+00 -1.631251e-01 5.760460e+00 182 180 170
-1.883884e+00 9.977532e-01 2.318836e+00 147 134 113
2.887485e+00 8.479575e-01 4.241672e+00 101 95 87
2.575819e+00 1.044005e+00 3.406300e+00 119 118 107
2.357026e+00 1.143918e+00 2.922655e+00 94 87 81
6.484346e-02 1.325363e+00 1.565895e+00 89 75 66
1.002101e+00 1.312674e+00 1.898890e+00 112 105 96
1.544595e+00 1.351209e+00 1.858080e+00 127 116 104
-2.016349e+00 1.046591e+00 2.359167e+00 123 109 89
1.281315e+00 1.363370e+00 1.836713e+00 91 82 81
-3.186779e+00 8.805742e-01 2.986218e+00 162 156 145
2.007675e+00 1.285676e+00 2.394326e+00 151 144 128
-2.053978e-01 1.355260e+00 1.546771e+00 52 44 43
1.209301e+00 1.391143e+00 1.778201e+00 135 127 113
3.086027e+00 8.571590e-01 4.773643e+00 189 184 180
-2.424182e-01 1.383527e+00 1.498037e+00 105 101 98
-4.299621e+00 7.433599e-01 3.578100e+00 57 48 44
2.310652e+00 1.221708e+00 2.899442e+00 64 59 48
3.431614e+00 7.739446e-01 5.378428e+00 187 181 159
2.278266e+00 1.240793e+00 2.896498e+00 150 141 126
-1.943462e-01 1.406306e+00 1.545746e+00 50 38 32
5.950017e-01 1.408091e+00 1.789233e+00 173 168 162
-2.622954e+00 1.059413e+00 2.701475e+00 79 70 63
3.065760e+00 9.332268e-01 4.699507e+00 66 65 60
-4.271016e+00 8.282938e-01 3.564764e+00 149 134 113
-2.613159e+00 1.089141e+00 2.695679e+00 171 166 153
6.319997e-01 1.435069e+00 1.782510e+00 180 181 166
-2.879114e+00 1.058821e+00 2.830649e+00 155 146 129
9.757569e-01 1.462011e+00 1.807095e+00 69 61 59
9.757569e-01 1.462011e+00 1.807095e+00 69 61 59
-1.510111e-01 1.453939e+00 1.606310e+00 165 157 138
7.237160e-01 1.471390e+00 1.762480e+00 186 180 174
2.413701e+00 1.263013e+00 3.196915e+00 122 116 112
-3.156214e+00 1.064997e+00 2.951569e+00 153 150 141
1.591276e-01 1.526273e+00 1.490057e+00 180 175 165
-2.574809e+00 1.175291e+00 2.681392e+00 175 163 144
2.172691e+00 1.387842e+00 2.669750e+00 131 121 109
