ply
format ascii 1.0
element face 0
property list uchar int vertex_indices
element vertex 943
property float x
property float y
property float z
property uchar diffuse_red
property uchar diffuse_green
property uchar diffuse_blue
end_header
3.141973e+00 2.985125e+00 4.164534e+00 106 102 101
2.984709e+00 3.048843e+00 4.060556e+00 184 181 173
-1.109163e+00 3.283427e+00 2.709576e+00 85 76 68
-4.776998e+00 2.987743e+00 3.946974e+00 87 71 73
-5.027926e+00 2.967881e+00 4.063326e+00 85 75 74
-5.027926e+00 2.967881e+00 4.063326e+00 85 75 74
2.428142e+00 3.161748e+00 3.699395e+00 130 125 113
-4.732049e+00 2.997409e+00 3.929726e+00 165 158 147
2.356183e+00 3.184834e+00 3.666919e+00 200 194 183
9.439858e-01 3.331850e+00 2.865593e+00 82 70 54
-1.638575e+00 3.310586e+00 2.906065e+00 174 166 150
-2.942405e+00 3.213523e+00 3.296482e+00 192 187 181
2.336784e+00 3.215510e+00 3.668813e+00 202 197 191
-5.151285e+00 3.015174e+00 4.129253e+00 114 109 113
1.032992e+00 3.358349e+00 2.897290e+00 67 53 43
-1.954943e+00 3.311003e+00 2.955157e+00 160 156 145
-2.897087e+00 3.244773e+00 3.295164e+00 193 192 189
-4.785907e+00 3.067991e+00 3.990325e+00 193 189 183
-1.675916e+00 3.355230e+00 2.940592e+00 65 52 44
-1.675916e+00 3.355230e+00 2.940592e+00 65 52 44
6.530481e-01 3.433896e+00 2.830015e+00 129 119 99
-2.625087e+00 3.319935e+00 3.235467e+00 136 132 128
3.467891e+00 3.143809e+00 4.435251e+00 179 172 154
-4.977622e-01 3.471330e+00 2.757316e+00 53 42 45
2.699435e+00 3.266764e+00 3.990192e+00 70 57 53
2.974039e-01 3.486830e+00 2.699411e+00 120 105 84
2.827179e+00 3.252463e+00 4.053691e+00 175 167 146
1.420054e+00 3.406050e+00 3.263549e+00 193 185 174
-3.646043e+00 3.280078e+00 3.628323e+00 85 76 75
-4.591325e+00 3.191322e+00 3.946680e+00 180 174 164
-5.568104e-01 3.489408e+00 2.776214e+00 91 81 70
-4.619047e+00 3.198291e+00 3.955193e+00 60 49 58
-4.700767e+00 3.237631e+00 4.019567e+00 157 150 134
3.291850e+00 3.243383e+00 4.322017e+00 75 63 57
3.157295e-01 3.543174e+00 2.766045e+00 91 73 59
2.975156e+00 3.299971e+00 4.150952e+00 131 124 116
-4.642536e+00 3.265684e+00 4.003510e+00 191 187 185
-1.637967e+00 3.518370e+00 3.012915e+00 60 56 55
-2.312546e+00 3.479805e+00 3.227708e+00 165 157 144
-3.751107e-01 3.586912e+00 2.842726e+00 195 192 187
3.130713e+00 3.322432e+00 4.234674e+00 111 107 104
-2.291953e+00 3.498645e+00 3.211403e+00 87 79 77
-3.304974e+00 3.432546e+00 3.579088e+00 72 62 64
-4.468527e+00 3.348028e+00 3.953181e+00 184 179 161
3.126219e+00 3.351709e+00 4.250988e+00 183 178 158
9.587054e-01 3.595202e+00 3.107782e+00 80 70 60
-1.337170e+00 3.633986e+00 3.005864e+00 94 87 79
2.556819e+00 3.474159e+00 3.977983e+00 179 175 164
8.410564e-01 3.637607e+00 3.094290e+00 76 65 59
2.658950e+00 3.470929e+00 4.050728e+00 78 71 78
-3.382425e+00 3.518900e+00 3.658102e+00 206 206 196
-4.313288e+00 3.440353e+00 3.924606e+00 177 168 159
1.915490e+00 3.569547e+00 3.605324e+00 206 203 199
1.899063e+00 3.588809e+00 3.598033e+00 123 119 108
1.905974e-02 3.714854e+00 2.910248e+00 73 62 56
-1.167779e+00 3.707704e+00 3.026182e+00 86 79 69
-1.205659e+00 3.718019e+00 3.032576e+00 186 181 161
-2.849018e+00 3.621840e+00 3.440084e+00 98 87 82
3.149436e+00 3.473931e+00 4.365186e+00 111 95 80
-4.385196e+00 3.509631e+00 3.988453e+00 187 180 172
3.202271e+00 3.470178e+00 4.405966e+00 162 160 149
-4.289359e+00 3.520850e+00 3.955008e+00 66 56 59
9.315614e-01 3.725898e+00 3.208398e+00 143 136 130
2.255620e+00 3.635105e+00 3.904121e+00 154 145 136
1.402650e+00 3.719110e+00 3.388687e+00 103 94 77
2.931261e+00 3.556746e+00 4.224297e+00 114 97 86
-7.224315e-02 3.796036e+00 2.907761e+00 125 112 95
-7.224315e-02 3.796036e+00 2.907761e+00 125 112 95
1.416635e+00 3.730443e+00 3.454405e+00 176 167 156
-3.042888e+00 3.692004e+00 3.590884e+00 196 193 188
1.620043e+00 3.729483e+00 3.561025e+00 198 195 187
3.018105e+00 3.573520e+00 4.325531e+00 185 180 167
7.232702e-01 3.821397e+00 3.159876e+00 200 199 194
2.299604e+00 3.693389e+00 3.965079e+00 181 171 154
2.468252e+00 3.682499e+00 4.021204e+00 136 127 119
-3.967770e+00 3.679548e+00 3.886506e+00 163 154 142
5.541989e-01 3.847457e+00 3.146386e+00 143 136 110
-1.764001e+00 3.820950e+00 3.237061e+00 75 65 64
1.998347e+00 3.742575e+00 3.738083e+00 159 151 132
2.252762e+00 3.720216e+00 3.955136e+00 77 68 61
1.736536e+00 3.784478e+00 3.605785e+00 181 171 150
6.006593e-01 3.879448e+00 3.187637e+00 45 35 26
-4.103855e+00 3.739259e+00 3.983009e+00 96 86 85
4.571221e-01 3.919196e+00 3.161742e+00 129 118 105
5.810359e-01 3.923850e+00 3.160614e+00 106 96 86
1.377272e+00 3.878641e+00 3.540285e+00 76 69 62
-3.300643e-01 3.950549e+00 3.115966e+00 185 173 153
-1.526068e+00 3.926141e+00 3.272601e+00 199 194 173
2.770120e+00 3.748053e+00 4.244289e+00 150 142 132
-3.814551e+00 3.811418e+00 3.898071e+00 186 179 169
1.251475e+00 3.911914e+00 3.464233e+00 146 137 126
-3.283295e-01 3.971345e+00 3.132756e+00 90 74 69
1.996649e+00 3.852415e+00 3.848807e+00 89 79 66
-2.854310e+00 3.904519e+00 3.640564e+00 69 59 57
-3.540083e+00 3.851613e+00 3.789854e+00 119 111 97
-3.618945e+00 3.864878e+00 3.826401e+00 74 63 61
-3.957314e+00 3.851164e+00 3.969910e+00 104 92 87
-2.875966e+00 3.922947e+00 3.634139e+00 65 57 61
2.891392e+00 3.786421e+00 4.362566e+00 86 75 68
2.756937e+00 3.811774e+00 4.287670e+00 182 174 154
3.223118e-01 4.018711e+00 3.215278e+00 199 195 186
6.840171e-01 4.014261e+00 3.276786e+00 161 155 129
-3.427312e+00 3.921928e+00 3.781570e+00 119 111 100
-1.594200e+00 4.028552e+00 3.360058e+00 194 191 186
-3.606607e+00 3.929924e+00 3.853120e+00 160 145 126
2.089928e+00 3.929397e+00 3.955821e+00 80 74 72
-3.424165e+00 3.949340e+00 3.807415e+00 168 162 138
9.836816e-01 4.028963e+00 3.449618e+00 202 196 183
9.753941e-01 4.035424e+00 3.471750e+00 202 196 183
2.687937e+00 3.896813e+00 4.296445e+00 203 202 177
1.654465e+00 4.035183e+00 3.793680e+00 87 77 68
-5.282585e-02 4.130574e+00 3.254892e+00 195 190 177
8.302901e-01 4.099231e+00 3.464664e+00 179 172 154
8.302901e-01 4.099231e+00 3.464664e+00 179 172 154
2.675011e+00 3.933530e+00 4.316217e+00 170 161 145
-3.415508e+00 4.088347e+00 3.885219e+00 160 154 132
-1.243596e+00 4.188719e+00 3.378598e+00 113 104 95
-3.079033e+00 4.131771e+00 3.770257e+00 102 92 90
1.864085e+00 4.112790e+00 3.938335e+00 122 114 109
1.531646e+00 4.159898e+00 3.817517e+00 159 146 121
1.531646e+00 4.159898e+00 3.817517e+00 159 146 121
1.511438e+00 4.161596e+00 3.807558e+00 154 142 123
5.333107e-01 4.221218e+00 3.459430e+00 49 42 36
-3.072148e+00 4.167724e+00 3.799106e+00 199 195 189
-3.600025e+00 4.155879e+00 3.978686e+00 81 73 70
2.293161e+00 4.118179e+00 4.161273e+00 92 78 73
5.400883e-01 4.257770e+00 3.495839e+00 67 56 51
5.420897e-01 4.256119e+00 3.496927e+00 67 56 51
2.084609e+00 4.156891e+00 4.054630e+00 109 102 94
1.267551e+00 4.232646e+00 3.710832e+00 187 180 155
-2.047526e+00 4.284387e+00 3.610419e+00 79 69 67
1.853829e-01 4.308467e+00 3.408267e+00 135 129 110
-3.307964e+00 4.269265e+00 3.941074e+00 189 184 173
-3.307964e+00 4.269265e+00 3.941074e+00 189 184 173
2.229139e+00 4.213622e+00 4.214648e+00 208 197 175
-5.093110e-01 4.369956e+00 3.441768e+00 104 92 78
2.126929e+00 4.237034e+00 4.155863e+00 193 189 178
-3.218024e+00 4.343809e+00 3.958814e+00 175 168 152
-5.213145e-01 4.417039e+00 3.483934e+00 117 104 95
1.926631e+00 4.300988e+00 4.072816e+00 94 80 78
-2.677503e+00 4.378480e+00 3.793519e+00 190 183 171
2.218402e+00 4.289173e+00 4.265307e+00 175 170 158
2.218402e+00 4.289173e+00 4.265307e+00 175 170 158
1.841079e+00 4.332356e+00 4.049259e+00 177 167 146
-2.725836e+00 4.403944e+00 3.824451e+00 168 162 134
-2.972008e+00 4.396676e+00 3.912793e+00 68 56 60
-2.496016e+00 4.415429e+00 3.775400e+00 187 188 178
1.281473e+00 4.385215e+00 3.843389e+00 166 158 147
-3.428579e+00 4.387235e+00 4.031744e+00 164 165 170
-6.778660e-03 4.468878e+00 3.517861e+00 176 168 143
-1.535601e-01 4.482360e+00 3.528013e+00 39 29 28
-1.575505e-01 4.480587e+00 3.545676e+00 39 29 28
-3.200302e+00 4.425079e+00 3.997808e+00 93 88 100
8.534747e-01 4.443601e+00 3.758683e+00 201 199 187
-1.326763e+00 4.488908e+00 3.653110e+00 183 183 170
-1.314357e+00 4.493669e+00 3.619812e+00 183 183 170
-2.764882e+00 4.468112e+00 3.894995e+00 180 177 164
8.253480e-01 4.475585e+00 3.779508e+00 191 185 175
1.710374e+00 4.430692e+00 4.029748e+00 79 67 70
1.663412e+00 4.434415e+00 4.000295e+00 161 154 134
-1.134431e+00 4.544348e+00 3.654749e+00 116 104 91
-1.179779e+00 4.548862e+00 3.665429e+00 160 150 132
1.721017e+00 4.450174e+00 4.053615e+00 184 178 162
1.677201e+00 4.450923e+00 4.062075e+00 189 185 168
-1.490526e+00 4.555209e+00 3.708992e+00 54 46 43
8.409252e-01 4.525783e+00 3.826780e+00 87 78 72
6.037346e-02 4.582331e+00 3.587817e+00 112 93 76
1.618816e+00 4.504335e+00 4.031361e+00 152 146 124
1.723913e+00 4.513859e+00 4.141560e+00 177 165 139
-2.639799e+00 4.604344e+00 3.932421e+00 191 191 177
1.918556e+00 4.516533e+00 4.197131e+00 201 199 190
-9.475743e-01 4.698850e+00 3.726665e+00 190 185 172
1.977565e-01 4.747275e+00 3.806727e+00 158 148 126
1.013275e+00 4.707565e+00 3.952100e+00 173 162 144
-1.252783e+00 4.776617e+00 3.777944e+00 141 137 137
-1.696297e+00 4.774343e+00 3.815408e+00 120 107 97
1.338322e+00 4.714306e+00 4.130990e+00 101 82 67
-1.969541e+00 4.804957e+00 3.907407e+00 74 63 60
1.021390e+00 4.747135e+00 3.994838e+00 169 160 137
1.842361e-01 4.824576e+00 3.849193e+00 67 59 48
-6.661913e-01 4.846031e+00 3.798935e+00 133 129 126
-7.512330e-01 4.852406e+00 3.791321e+00 135 130 124
-4.196804e-01 4.855120e+00 3.800139e+00 108 98 93
-4.297250e-01 4.863629e+00 3.814829e+00 108 98 93
1.353858e-01 4.858370e+00 3.893254e+00 114 103 103
-4.124285e-01 4.876451e+00 3.813952e+00 203 200 193
4.516301e-01 4.856206e+00 3.911035e+00 202 199 193
7.806709e-01 4.843679e+00 4.015392e+00 167 154 129
-1.259441e+00 4.892132e+00 3.830645e+00 185 176 163
1.266688e+00 4.817336e+00 4.177870e+00 111 99 87
-1.230702e+00 4.899197e+00 3.829996e+00 183 178 156
1.296046e+00 4.819506e+00 4.185217e+00 212 212 196
-1.196914e+00 4.905729e+00 3.838109e+00 192 184 174
7.825212e-01 4.862029e+00 4.032421e+00 64 51 48
7.825212e-01 4.862029e+00 4.032421e+00 64 51 48
7.213133e-01 4.863642e+00 3.976778e+00 151 139 111
1.321540e+00 4.834201e+00 4.200583e+00 104 97 113
-1.255623e+00 4.930051e+00 3.895019e+00 109 98 94
9.989722e-01 4.863040e+00 4.090457e+00 135 122 103
7.076243e-01 4.883707e+00 3.985337e+00 85 66 60
5.726377e-01 4.914393e+00 3.969213e+00 150 137 112
5.726377e-01 4.914393e+00 3.969213e+00 150 137 112
-1.630736e+00 4.975712e+00 3.964734e+00 161 153 137
-1.745668e+00 4.984553e+00 3.990016e+00 190 185 160
5.173180e-01 4.953813e+00 3.991229e+00 111 94 85
6.291031e-01 4.962706e+00 4.077371e+00 44 33 29
-1.096074e+00 5.002115e+00 3.893505e+00 78 61 57
-1.763635e+00 5.019999e+00 4.020961e+00 168 161 145
8.461648e-01 4.969373e+00 4.125645e+00 95 80 64
1.027747e+00 4.962958e+00 4.181744e+00 103 100 109
-1.126875e+00 5.043272e+00 3.935470e+00 56 46 44
2.662441e-01 5.018501e+00 3.967508e+00 148 132 108
3.305982e-01 5.020927e+00 3.992859e+00 167 161 135
-1.588016e+00 5.077487e+00 4.029232e+00 165 157 134
-1.098561e+00 5.080429e+00 3.963732e+00 42 27 29
1.200815e-01 5.065109e+00 3.968302e+00 147 133 104
8.208759e-01 5.062727e+00 4.180101e+00 216 221 227
2.433330e-01 5.097552e+00 4.037075e+00 165 162 137
2.213487e-01 5.112663e+00 4.039569e+00 64 52 46
-6.974992e+00 -3.605670e+00 4.928438e+00 191 193 189
-3.863833e+00 -3.272652e+00 4.429763e+00 84 84 80
-3.863833e+00 -3.272652e+00 4.429763e+00 84 84 80
-6.945827e+00 -3.590341e+00 4.936673e+00 83 82 92
-6.945827e+00 -3.590341e+00 4.936673e+00 83 82 92
2.376927e-01 -1.756429e+00 2.189978e+00 113 114 108
-4.405503e+00 -3.125841e+00 4.237142e+00 161 162 156
-7.880817e-02 -1.453820e+00 1.573919e+00 53 50 45
1.632447e+00 -1.479145e+00 2.126423e+00 89 85 86
2.118039e+00 -1.583027e+00 2.516088e+00 73 71 70
3.222648e+00 -1.847632e+00 3.513994e+00 140 139 137
3.192029e+00 -1.834227e+00 3.498934e+00 82 81 77
3.666853e+00 -1.943691e+00 3.945584e+00 139 138 134
2.121733e+00 -1.552630e+00 2.511735e+00 165 162 155
3.187061e+00 -1.778960e+00 3.495250e+00 113 113 109
1.930441e+00 -1.419312e+00 2.305320e+00 27 25 24
2.116595e+00 -1.462896e+00 2.478458e+00 108 107 105
3.750599e+00 -1.832798e+00 3.983519e+00 152 152 150
5.337208e-01 -1.497518e+00 2.210488e+00 148 147 145
3.695994e-01 -1.524408e+00 2.253242e+00 147 145 148
8.621341e-01 -1.309401e+00 1.917114e+00 74 70 59
7.897355e-01 -1.272641e+00 1.905361e+00 64 60 60
3.109840e-01 -1.466179e+00 2.243587e+00 165 164 161
5.084782e-01 -1.418725e+00 2.194301e+00 135 135 134
2.427918e+00 -1.363802e+00 2.597832e+00 144 145 140
-3.684335e+00 -2.538470e+00 3.891277e+00 156 151 150
3.066089e-01 -1.431629e+00 2.231738e+00 29 28 28
-2.075848e-01 -1.173680e+00 1.602889e+00 170 167 162
1.738285e+00 -1.141932e+00 2.187534e+00 60 58 60
2.733921e+00 -1.319510e+00 3.003846e+00 31 26 28
1.945950e+00 -1.138787e+00 2.323496e+00 198 199 205
2.210188e+00 -1.154396e+00 2.446427e+00 176 177 172
1.898395e+00 -1.125358e+00 2.309365e+00 129 129 127
1.780848e-01 -1.243648e+00 2.163805e+00 170 169 167
1.344405e+00 -1.020524e+00 1.955082e+00 84 85 80
1.344405e+00 -1.020524e+00 1.955082e+00 84 85 80
1.443883e+00 -1.096710e+00 2.144929e+00 162 163 160
1.264700e+00 -1.073720e+00 2.051565e+00 93 93 88
2.202469e+00 -1.160414e+00 2.504468e+00 101 101 99
2.187772e+00 -1.056855e+00 2.417125e+00 182 181 177
2.159594e+00 -1.080259e+00 2.443948e+00 104 105 100
2.159594e+00 -1.080259e+00 2.443948e+00 104 105 100
-4.845509e-01 -7.850108e-01 1.175927e+00 70 63 62
-4.524425e+00 -2.128724e+00 3.671272e+00 41 39 41
2.120215e+00 -1.051978e+00 2.417373e+00 124 124 122
2.120062e+00 -1.027899e+00 2.370524e+00 124 124 122
-4.710975e-01 -8.713636e-01 1.415766e+00 98 97 93
-4.937350e-01 -7.269724e-01 1.189378e+00 171 167 150
-4.937350e-01 -7.269724e-01 1.189378e+00 171 167 150
1.230085e+00 -9.683892e-01 2.106323e+00 172 169 163
4.084522e-01 -9.451299e-01 1.886145e+00 105 99 85
1.173587e+00 -9.238432e-01 2.063322e+00 176 176 168
3.525245e-01 -9.214308e-01 1.910406e+00 126 124 112
3.958771e-01 -9.306437e-01 1.965520e+00 125 121 108
7.973550e-01 -8.121775e-01 1.967922e+00 88 84 72
-3.311280e+00 -1.761021e+00 3.431760e+00 165 161 138
7.944363e-01 -7.714678e-01 1.980990e+00 98 95 88
-5.955835e+00 -2.087742e+00 4.185106e+00 163 163 161
2.680383e+00 -8.722440e-01 2.830581e+00 167 162 156
-3.721824e+00 -1.587805e+00 3.291305e+00 27 23 20
-3.694163e+00 -1.573653e+00 3.297288e+00 168 161 151
1.077934e+00 -6.501455e-01 1.974819e+00 120 119 115
-5.439325e+00 -1.874119e+00 3.944129e+00 114 115 115
-4.120357e+00 -1.588497e+00 3.399047e+00 180 177 169
1.792643e+00 -6.073066e-01 2.140394e+00 120 121 116
2.660152e+00 -7.162785e-01 2.811244e+00 122 115 108
1.533125e+00 -5.470263e-01 2.062644e+00 73 64 59
1.245210e+00 -5.431270e-01 2.022252e+00 96 96 97
1.091505e+00 -5.593209e-01 2.029526e+00 189 189 187
2.110031e+00 -4.916314e-01 2.150224e+00 161 158 155
2.116123e+00 -5.191641e-01 2.239366e+00 68 63 61
3.866619e+00 -9.704220e-01 4.060202e+00 123 121 122
-2.332586e+00 -1.018830e+00 2.577410e+00 168 168 166
3.535393e+00 -8.373043e-01 3.639810e+00 58 53 48
3.535393e+00 -8.373043e-01 3.639810e+00 58 53 48
-4.523858e-01 -6.583364e-01 2.127438e+00 104 96 87
2.494140e+00 -5.503018e-01 2.677680e+00 170 161 154
-5.797165e+00 -1.657374e+00 4.064473e+00 64 62 63
1.040732e+00 -4.118759e-01 2.001569e+00 166 166 158
2.525875e+00 -4.554505e-01 2.563978e+00 174 168 155
3.900095e+00 -7.816174e-01 4.028810e+00 122 118 107
-3.630757e+00 -1.051992e+00 3.079050e+00 97 85 70
3.030785e+00 -4.783331e-01 3.109622e+00 150 149 145
-2.971939e+00 -8.444997e-01 2.761022e+00 87 76 66
4.264264e+00 -7.784326e-01 4.376031e+00 163 155 144
2.167707e+00 -2.263475e-01 2.243983e+00 188 187 181
-3.222906e+00 -8.663456e-01 2.860172e+00 75 66 61
-2.164551e+00 -5.852271e-01 2.282777e+00 80 74 66
3.450865e+00 -5.479267e-01 3.556945e+00 106 101 89
1.668011e+00 -1.754382e-01 2.097928e+00 165 162 150
1.202474e-01 -3.017154e-01 2.071861e+00 111 110 105
-3.965662e+00 -9.283054e-01 3.150132e+00 80 76 72
5.610238e-01 -1.680112e-01 1.969081e+00 175 169 157
-1.935876e+00 -3.773203e-01 2.074182e+00 114 115 109
2.712957e+00 -2.498214e-01 2.759308e+00 166 164 152
-1.097160e+00 -3.148398e-01 2.090112e+00 99 99 91
-1.081251e+00 -2.799981e-01 2.064824e+00 170 169 166
5.641648e-01 -1.474112e-01 2.079153e+00 196 191 175
5.699093e-01 -1.426878e-01 2.051677e+00 196 191 175
1.273705e+00 -9.870805e-02 2.125844e+00 183 181 173
-7.552502e-02 -1.735362e-01 2.011912e+00 191 191 183
-3.147181e+00 -6.333621e-01 2.737486e+00 88 79 76
3.361489e+00 -3.647136e-01 3.455626e+00 78 77 73
3.361489e+00 -3.647136e-01 3.455626e+00 78 77 73
3.303851e+00 -3.614089e-01 3.421173e+00 85 82 73
3.454668e+00 -3.586189e-01 3.528913e+00 109 107 94
-4.988518e-02 -1.391310e-01 2.021776e+00 185 186 181
-4.988518e-02 -1.391310e-01 2.021776e+00 185 186 181
4.964185e-01 -8.699560e-02 2.034967e+00 173 169 165
1.968049e+00 4.260998e-03 2.137642e+00 109 105 101
1.731639e+00 6.973354e-03 2.081657e+00 118 118 113
2.825787e+00 -1.449634e-01 2.828988e+00 118 109 102
-5.917726e+00 -1.160144e+00 4.039807e+00 169 165 158
2.962540e+00 -1.996213e-01 3.063787e+00 82 78 75
3.053592e+00 -2.048364e-01 3.107946e+00 70 67 60
4.185015e+00 -4.925776e-01 4.301686e+00 179 172 169
-5.923735e+00 -1.095542e+00 4.034521e+00 197 198 193
4.396402e+00 -4.892887e-01 4.482226e+00 153 150 134
3.337518e+00 -2.315064e-01 3.441372e+00 165 160 155
-3.540046e+00 -5.525421e-01 2.904535e+00 165 162 146
2.826774e+00 -6.647702e-02 2.852466e+00 145 139 121
-3.487769e+00 -5.251564e-01 2.854631e+00 79 75 65
-4.898329e+00 -8.204701e-01 3.532471e+00 167 164 154
2.684763e+00 -1.016869e-02 2.694401e+00 132 128 117
2.320761e+00 9.883412e-02 2.304445e+00 160 159 155
-3.509394e+00 -5.100504e-01 2.874158e+00 149 143 129
4.907756e-01 8.763407e-02 1.974462e+00 86 85 83
1.989906e+00 1.405420e-01 2.162408e+00 94 87 80
1.989906e+00 1.405420e-01 2.162408e+00 94 87 80
-2.395833e+00 -2.052071e-01 2.249805e+00 156 152 142
3.896016e+00 -2.911636e-01 3.977577e+00 170 161 146
2.179017e+00 1.508549e-01 2.205950e+00 70 62 59
2.179017e+00 1.508549e-01 2.205950e+00 70 62 59
1.972502e+00 1.620427e-01 2.141196e+00 180 175 171
4.338090e+00 -3.842668e-01 4.420147e+00 102 98 95
9.090430e-01 1.781846e-01 1.883086e+00 71 67 62
-2.605666e+00 -2.278961e-01 2.396868e+00 116 109 101
-1.845949e+00 7.828196e-03 1.919053e+00 177 168 160
3.042190e+00 3.184522e-03 3.058541e+00 184 179 172
-4.062228e+00 -5.079610e-01 3.114819e+00 156 149 133
-1.324411e+00 5.686210e-02 1.932793e+00 183 174 157
-2.365488e+00 -1.062611e-01 2.231682e+00 156 150 137
3.435697e+00 -9.078377e-02 3.491476e+00 187 180 161
1.505155e+00 2.319661e-01 2.038149e+00 195 185 176
1.505155e+00 2.319661e-01 2.038149e+00 195 185 176
3.299222e+00 -5.164857e-02 3.374753e+00 102 95 90
3.469340e+00 -8.415037e-02 3.515577e+00 174 170 159
-9.450916e-01 1.004329e-01 1.948231e+00 184 179 175
3.370848e+00 -5.729763e-02 3.455815e+00 181 178 163
3.370848e+00 -5.729763e-02 3.455815e+00 181 178 163
-3.451071e+00 -3.161313e-01 2.810817e+00 157 155 143
1.604433e+00 2.729675e-01 2.067541e+00 112 103 94
3.433455e+00 -4.839836e-02 3.504788e+00 173 170 165
1.583977e+00 2.829015e-01 2.046311e+00 183 174 154
1.582708e+00 2.819322e-01 2.050237e+00 183 174 154
4.272463e+00 -2.420279e-01 4.386955e+00 134 133 115
2.049588e+00 3.173873e-01 2.141880e+00 178 170 159
1.874738e+00 3.319770e-01 2.084494e+00 82 70 61
3.829265e+00 -1.017619e-01 3.930837e+00 184 176 166
6.048778e-01 3.172935e-01 1.898127e+00 174 168 152
1.965776e+00 3.422156e-01 2.136888e+00 113 103 85
6.276718e-01 3.338009e-01 1.913117e+00 167 161 146
-6.228776e+00 -7.998137e-01 4.145362e+00 137 135 126
-2.472629e+00 1.359076e-02 2.286657e+00 176 167 160
2.412599e+00 2.920053e-01 2.524974e+00 159 152 144
-3.851766e+00 -2.702032e-01 2.992897e+00 91 82 75
4.176943e+00 -1.320886e-01 4.293181e+00 184 180 177
-6.218743e+00 -7.028936e-01 4.132356e+00 164 163 161
-2.939022e+00 -1.013290e-03 2.537019e+00 150 145 139
6.344884e-01 4.075614e-01 1.970606e+00 178 172 166
-9.027980e-02 3.799639e-01 1.939019e+00 197 195 188
-1.255875e+00 3.592850e-01 1.799219e+00 108 96 81
2.769180e+00 3.100568e-01 2.865789e+00 177 168 158
-4.448856e-01 3.797649e-01 1.939462e+00 112 105 102
-4.448856e-01 3.797649e-01 1.939462e+00 112 105 102
2.941674e+00 2.800303e-01 3.003089e+00 133 125 117
4.349389e-01 4.791947e-01 1.927649e+00 132 125 109
-3.608277e+00 -6.694361e-02 2.860670e+00 175 165 153
1.466640e+00 5.407919e-01 1.989249e+00 183 172 151
2.111664e+00 5.260164e-01 2.173830e+00 154 150 141
1.344136e+00 5.348589e-01 1.994697e+00 87 79 73
9.335091e-01 5.061365e-01 1.993281e+00 105 99 82
1.086662e+00 5.309820e-01 1.992989e+00 90 86 76
1.086662e+00 5.309820e-01 1.992989e+00 90 86 76
2.843440e+00 3.606985e-01 2.920686e+00 174 167 158
-3.689910e+00 -3.256675e-02 2.877712e+00 171 158 143
1.497096e+00 5.591943e-01 2.041188e+00 160 154 139
3.151695e+00 3.233181e-01 3.165890e+00 70 64 64
-1.718978e+00 4.162062e-01 1.856320e+00 103 96 85
-6.442232e-01 4.892544e-01 1.851757e+00 49 44 37
4.162137e+00 7.879328e-02 4.221876e+00 147 143 133
1.817837e+00 5.900129e-01 2.075353e+00 175 165 140
1.781830e+00 5.751112e-01 2.104695e+00 174 164 143
-4.594932e+00 -1.974729e-01 3.351515e+00 76 67 63
-4.594932e+00 -1.974729e-01 3.351515e+00 76 67 63
3.152875e+00 3.263554e-01 3.233162e+00 166 162 149
2.070255e+00 5.780741e-01 2.175901e+00 50 42 39
2.070255e+00 5.780741e-01 2.175901e+00 50 42 39
3.187450e+00 3.213702e-01 3.266153e+00 157 153 142
2.797167e+00 4.131296e-01 2.885993e+00 76 71 68
-3.580308e+00 2.505689e-02 2.847486e+00 154 143 125
-5.284600e+00 -3.165897e-01 3.675917e+00 177 176 175
3.176496e+00 3.502669e-01 3.261567e+00 162 154 134
3.578607e+00 2.548116e-01 3.669014e+00 172 163 154
-7.197525e-01 5.448508e-01 1.837783e+00 102 95 86
3.155365e+00 3.831935e-01 3.186409e+00 77 69 59
7.495179e-01 6.242392e-01 1.920024e+00 45 39 38
-7.774008e-01 5.346105e-01 1.890362e+00 99 95 84
2.675026e-01 6.108511e-01 1.871877e+00 162 159 149
1.991812e+00 6.391902e-01 2.138336e+00 74 66 56
2.035170e+00 6.552858e-01 2.145652e+00 92 83 74
2.035170e+00 6.552858e-01 2.145652e+00 92 83 74
3.199922e+00 3.896005e-01 3.297144e+00 155 146 132
6.075533e-01 6.398849e-01 1.952571e+00 100 94 92
6.052385e-01 6.379598e-01 1.960839e+00 100 94 92
4.455471e-01 6.378810e-01 1.947638e+00 181 178 173
3.238801e+00 3.947398e-01 3.339992e+00 163 156 139
3.220546e+00 4.008066e-01 3.320400e+00 63 55 49
8.322753e-01 6.803354e-01 1.946810e+00 130 123 115
1.909726e+00 7.018851e-01 2.093837e+00 107 97 88
-1.141459e-01 6.433052e-01 1.879730e+00 118 113 93
1.259300e+00 7.211768e-01 1.976092e+00 135 128 119
1.259300e+00 7.211768e-01 1.976092e+00 135 128 119
5.310492e-01 6.905268e-01 1.923554e+00 117 114 105
5.979336e-01 7.018084e-01 1.946572e+00 101 97 88
5.974937e-01 7.007940e-01 1.948532e+00 101 97 88
3.281487e-01 7.092530e-01 1.882446e+00 168 166 154
4.756730e-01 7.175689e-01 1.906274e+00 107 103 95
4.335076e-01 7.372157e-01 1.875748e+00 87 85 70
-1.833808e-01 6.888131e-01 1.927223e+00 147 145 140
1.928503e+00 7.581963e-01 2.131655e+00 65 58 50
2.754662e+00 6.039245e-01 2.854510e+00 141 128 110
2.657096e+00 6.342442e-01 2.783832e+00 108 95 87
3.688790e+00 4.040108e-01 3.773422e+00 182 176 163
-4.476185e+00 7.277534e-02 3.274831e+00 63 57 46
-4.476185e+00 7.277534e-02 3.274831e+00 63 57 46
1.998673e+00 7.878605e-01 2.146958e+00 119 107 96
1.604655e+00 8.117568e-01 2.030649e+00 93 86 82
3.661498e+00 4.178451e-01 3.771517e+00 107 101 84
3.625879e+00 4.286674e-01 3.721300e+00 40 36 30
1.390330e+00 8.392557e-01 1.957210e+00 93 89 80
1.908840e+00 8.251938e-01 2.106417e+00 73 70 63
1.709236e+00 8.468028e-01 2.020418e+00 100 91 74
-1.675289e+00 7.066280e-01 1.814061e+00 103 97 85
1.942340e+00 8.298055e-01 2.136366e+00 172 169 162
-2.736442e+00 4.914939e-01 2.403393e+00 90 82 71
-1.262443e+00 7.817218e-01 1.741098e+00 100 86 74
3.658577e+00 4.725237e-01 3.778848e+00 172 165 148
-8.746113e-01 8.132057e-01 1.763251e+00 115 113 99
-8.698201e-01 8.182509e-01 1.747174e+00 115 113 99
1.962486e+00 8.716418e-01 2.107336e+00 177 174 167
-1.194888e+00 8.153081e-01 1.708312e+00 92 82 68
3.105937e+00 6.306483e-01 3.179206e+00 90 83 75
2.386925e+00 7.718654e-01 2.564447e+00 167 157 142
-5.362274e-01 8.277540e-01 1.830961e+00 115 111 102
-1.588777e+00 7.745595e-01 1.788408e+00 107 100 90
4.022333e+00 4.109989e-01 4.151740e+00 49 45 40
-3.596008e+00 3.609392e-01 2.848854e+00 176 171 167
1.643212e+00 8.930601e-01 2.064679e+00 154 148 135
2.623205e+00 7.397574e-01 2.785922e+00 103 97 92
-3.655236e+00 3.576276e-01 2.872286e+00 187 182 160
-3.655236e+00 3.576276e-01 2.872286e+00 187 182 160
2.405929e+00 8.037089e-01 2.537356e+00 90 81 67
1.714588e+00 9.260908e-01 2.080155e+00 176 168 158
-3.602302e-01 8.736916e-01 1.870641e+00 186 180 174
3.702833e-02 9.241057e-01 1.799145e+00 40 34 37
2.321180e+00 8.453608e-01 2.514227e+00 172 163 148
-2.165173e+00 7.434527e-01 2.095078e+00 122 110 98
7.581948e-01 9.816587e-01 1.906824e+00 170 166 155
1.044205e+00 9.844134e-01 1.961751e+00 177 171 157
1.558122e-01 9.631418e-01 1.867026e+00 174 166 154
-3.258080e-01 9.619350e-01 1.814482e+00 107 103 103
2.597910e+00 8.623036e-01 2.700533e+00 62 49 40
8.342232e-01 9.949563e-01 1.942751e+00 113 110 104
-8.684345e-02 9.991402e-01 1.762319e+00 63 53 43
1.293471e+00 1.029739e+00 1.938127e+00 173 166 147
-5.864019e+00 6.261416e-02 3.955756e+00 182 180 170
-2.572148e+00 7.178967e-01 2.342829e+00 147 134 113
3.652152e+00 6.433232e-01 3.782488e+00 101 95 87
3.141453e+00 8.092433e-01 3.242921e+00 119 118 107
2.764917e+00 9.001742e-01 2.887298e+00 94 87 81
-7.373419e-01 1.062988e+00 1.741742e+00 89 75 66
6.585034e-01 1.087048e+00 1.959228e+00 112 105 96
1.371041e+00 1.117303e+00 1.990810e+00 127 116 104
-2.695032e+00 7.793915e-01 2.388537e+00 123 109 89
1.001974e+00 1.139669e+00 1.953291e+00 91 82 81
-3.467509e+00 6.635632e-01 2.780659e+00 162 156 145
2.169135e+00 1.047405e+00 2.499320e+00 151 144 128
-1.100858e+00 1.094282e+00 1.763503e+00 52 44 43
8.631773e-01 1.154506e+00 1.960026e+00 135 127 113
3.941568e+00 7.008171e-01 4.131200e+00 189 184 180
-1.180914e+00 1.123635e+00 1.743570e+00 105 101 98
-4.095997e+00 5.893465e-01 3.102755e+00 57 48 44
2.695756e+00 1.002389e+00 2.884742e+00 64 59 48
4.376568e+00 6.489102e-01 4.503935e+00 187 181 159
2.652203e+00 1.029231e+00 2.881828e+00 150 141 126
-1.094239e+00 1.162708e+00 1.776189e+00 50 38 32
7.192606e-02 1.218494e+00 1.861145e+00 173 168 162
-3.109077e+00 8.339397e-01 2.620053e+00 79 70 63
3.908822e+00 7.815742e-01 4.107361e+00 66 65 60
-4.086999e+00 6.746767e-01 3.106986e+00 149 134 113
-3.105512e+00 8.674551e-01 2.620749e+00 171 166 153
1.116265e-01 1.256813e+00 1.859904e+00 180 181 166
-3.283036e+00 8.456245e-01 2.706531e+00 155 146 129
5.671501e-01 1.279198e+00 1.943477e+00 69 61 59
5.534132e-01 1.268654e+00 1.967299e+00 69 61 59
-1.006269e+00 1.239384e+00 1.816372e+00 165 157 138
2.145752e-01 1.299759e+00 1.868065e+00 186 180 174
2.887721e+00 1.077490e+00 3.130278e+00 122 116 112
-3.478162e+00 8.615678e-01 2.792640e+00 153 150 141
-6.800825e-01 1.329348e+00 1.733650e+00 180 175 165
-3.083853e+00 9.653877e-01 2.623679e+00 175 163 144
2.452405e+00 1.209156e+00 2.738524e+00 131 121 109
3.387093e+00 1.018901e+00 3.601945e+00 185 175 164
-4.036058e+00 8.025688e-01 3.091911e+00 98 90 83
3.418899e+00 1.020658e+00 3.625949e+00 121 113 111
1.935407e+00 1.334550e+00 2.244866e+00 78 69 56
-1.750482e+00 1.237009e+00 2.015588e+00 140 137 122
1.918206e+00 1.350613e+00 2.244405e+00 148 139 122
-1.707883e+00 1.255884e+00 1.970432e+00 60 52 43
-3.304578e+00 9.726179e-01 2.742076e+00 67 55 41
1.930007e+00 1.401285e+00 2.270954e+00 86 80 57
2.822699e+00 1.214294e+00 3.124455e+00 193 185 173
-2.241963e+00 1.221760e+00 2.228302e+00 38 29 26
5.420042e-01 1.462154e+00 1.892073e+00 73 59 48
-1.000006e+00 1.404930e+00 1.800453e+00 171 163 144
-6.143957e+00 5.301920e-01 4.111837e+00 104 104 100
1.886871e+00 1.420719e+00 2.240474e+00 144 131 114
-2.280230e+00 1.220190e+00 2.269087e+00 163 156 158
-2.352871e+00 1.215170e+00 2.281404e+00 93 87 89
2.918009e+00 1.211907e+00 3.200390e+00 81 70 61
-1.100904e-01 1.500285e+00 1.733702e+00 162 151 139
3.325098e+00 1.149428e+00 3.582818e+00 164 153 135
3.325098e+00 1.149428e+00 3.582818e+00 164 153 135
1.882939e+00 1.460255e+00 2.253685e+00 55 46 41
-2.946737e+00 1.155289e+00 2.605896e+00 167 160 154
5.332857e-01 1.554665e+00 1.846825e+00 160 148 126
-3.998786e+00 9.861923e-01 3.097018e+00 191 183 171
-5.796732e+00 6.802913e-01 3.973242e+00 108 103 100
5.097587e-01 1.561984e+00 1.850304e+00 54 43 37
2.397846e+00 1.390575e+00 2.733946e+00 166 164 152
-4.678315e+00 8.930605e-01 3.436295e+00 103 93 90
1.950657e+00 1.496983e+00 2.404307e+00 170 162 153
2.438083e-01 1.578510e+00 1.860750e+00 157 145 117
2.523343e+00 1.427372e+00 2.819905e+00 125 116 110
-4.459117e+00 1.026904e+00 3.334355e+00 77 66 66
-4.613092e+00 1.010239e+00 3.412023e+00 165 157 136
-3.701048e+00 1.185239e+00 2.974852e+00 113 96 82
-5.014867e+00 9.680653e-01 3.587421e+00 169 165 153
3.634101e-01 1.678964e+00 1.880531e+00 181 171 161
-1.938089e-01 1.706331e+00 1.768095e+00 185 178 161
2.728011e+00 1.473690e+00 3.111413e+00 165 158 150
1.154749e+00 1.703250e+00 2.023332e+00 185 180 177
3.709846e+00 1.304897e+00 3.889993e+00 178 171 160
2.926318e-01 1.714462e+00 1.879643e+00 172 162 150
-6.668198e+00 7.445898e-01 4.350644e+00 70 64 65
2.208324e+00 1.605516e+00 2.636590e+00 103 98 95
-4.200713e-01 1.736725e+00 1.745626e+00 85 70 52
-4.464636e+00 1.143341e+00 3.361775e+00 69 56 51
-4.464636e+00 1.143341e+00 3.361775e+00 69 56 51
2.275611e+00 1.587757e+00 2.795020e+00 173 167 154
3.141645e+00 1.455167e+00 3.473384e+00 175 166 152
-3.870198e+00 1.268156e+00 3.071085e+00 97 90 82
-3.870198e+00 1.268156e+00 3.071085e+00 97 90 82
2.634389e+00 1.568215e+00 3.060179e+00 202 196 193
-4.274538e-01 1.793343e+00 1.778579e+00 133 127 122
-3.799895e-01 1.830711e+00 1.807001e+00 167 155 139
1.575175e+00 1.820040e+00 2.163597e+00 168 159 142
8.064065e-01 1.866731e+00 1.933841e+00 197 194 190
-5.303621e+00 1.147601e+00 3.785310e+00 162 157 149
-3.698452e+00 1.417586e+00 3.018906e+00 179 178 175
2.025810e+00 1.775270e+00 2.504986e+00 155 146 125
4.375721e-01 1.900646e+00 1.846449e+00 50 46 43
-2.878247e+00 1.567675e+00 2.661386e+00 175 162 143
3.636501e+00 1.481116e+00 3.978910e+00 90 83 77
2.602895e+00 1.683357e+00 3.094756e+00 165 158 146
4.192130e-01 1.918787e+00 1.862010e+00 174 173 169
-2.791153e+00 1.597701e+00 2.629692e+00 179 171 163
3.657645e+00 1.498191e+00 3.986112e+00 107 105 106
2.073642e+00 1.802373e+00 2.615220e+00 173 169 167
2.622896e+00 1.696991e+00 3.126631e+00 185 178 171
-5.262068e+00 1.229898e+00 3.773519e+00 189 187 190
2.660002e+00 1.716155e+00 3.104111e+00 189 181 176
3.028215e+00 1.641276e+00 3.451058e+00 182 172 160
2.780877e+00 1.717572e+00 3.149758e+00 186 181 175
2.684443e+00 1.729454e+00 3.122112e+00 180 176 164
-6.304748e+00 1.085169e+00 4.205208e+00 167 164 155
-6.304748e+00 1.085169e+00 4.205208e+00 167 164 155
-2.254722e+00 1.760161e+00 2.371824e+00 106 99 87
-2.643846e+00 1.736554e+00 2.575845e+00 116 108 86
-6.481191e+00 1.153727e+00 4.316637e+00 165 158 131
-2.786906e+00 1.739355e+00 2.631259e+00 121 118 113
2.120476e+00 1.914770e+00 2.696252e+00 84 74 62
-1.834063e+00 1.890040e+00 2.241279e+00 59 48 34
-1.237891e+00 1.979506e+00 1.998773e+00 92 77 64
-3.336959e+00 1.681506e+00 2.891740e+00 173 165 155
-2.710276e+00 1.790186e+00 2.639051e+00 185 179 167
2.399652e+00 1.908145e+00 3.042310e+00 168 162 149
3.020932e+00 1.816968e+00 3.497568e+00 99 90 77
3.020932e+00 1.816968e+00 3.497568e+00 99 90 77
-3.439518e+00 1.722235e+00 2.960134e+00 165 161 152
2.615107e+00 1.903888e+00 3.120526e+00 195 193 180
1.159069e+00 2.128811e+00 2.001376e+00 161 152 135
2.391282e+00 1.929004e+00 3.039837e+00 95 87 84
2.503466e+00 1.931594e+00 3.055364e+00 153 145 132
-2.441395e+00 1.889791e+00 2.511284e+00 46 37 32
-3.512135e+00 1.731720e+00 2.998827e+00 175 168 160
4.336735e-01 2.158989e+00 1.838594e+00 193 193 195
-1.321062e+00 2.044607e+00 2.085007e+00 164 157 140
-1.935525e+00 1.972359e+00 2.333023e+00 192 186 173
-2.441422e+00 1.912613e+00 2.529656e+00 168 164 160
-3.258492e+00 1.802152e+00 2.892577e+00 68 60 58
-3.258492e+00 1.802152e+00 2.892577e+00 68 60 58
1.370457e+00 2.128759e+00 2.276170e+00 161 148 132
-3.509079e+00 1.775406e+00 3.003165e+00 168 165 154
-3.837374e-01 2.182175e+00 1.816043e+00 72 60 46
3.376034e+00 1.815449e+00 3.835450e+00 166 159 144
1.352814e+00 2.148221e+00 2.241244e+00 84 73 66
2.888945e+00 1.909227e+00 3.434603e+00 169 159 147
-2.547810e+00 1.945087e+00 2.618018e+00 187 183 178
2.503364e+00 2.001197e+00 3.086784e+00 95 88 81
2.470946e+00 2.007888e+00 3.070044e+00 199 191 180
-1.400916e+00 2.110899e+00 2.108870e+00 120 110 79
-2.524327e+00 1.960346e+00 2.608783e+00 63 55 50
1.961615e+00 2.101260e+00 2.673940e+00 167 159 146
7.558372e-01 2.231992e+00 1.958357e+00 191 188 183
1.859645e-01 2.256098e+00 1.817106e+00 77 61 36
-6.166138e+00 1.441610e+00 4.201441e+00 183 180 177
3.050396e-01 2.268379e+00 1.846893e+00 86 67 54
-1.934749e+00 2.079424e+00 2.339567e+00 160 157 142
7.077857e-01 2.262460e+00 1.952285e+00 178 177 178
3.462703e+00 1.867826e+00 3.932877e+00 175 171 161
-6.076313e+00 1.481395e+00 4.160719e+00 181 178 168
-6.247783e+00 1.467142e+00 4.243494e+00 121 117 114
-3.075607e+00 1.942457e+00 2.829580e+00 107 103 92
-3.124793e+00 1.935906e+00 2.875932e+00 189 183 166
2.805318e+00 2.023743e+00 3.388424e+00 162 154 138
2.805318e+00 2.023743e+00 3.388424e+00 162 154 138
2.342374e+00 2.128986e+00 2.989484e+00 159 151 132
3.961489e-01 2.349046e+00 1.832412e+00 155 140 107
2.257502e+00 2.159011e+00 2.965486e+00 190 180 173
3.386173e+00 1.970549e+00 3.876001e+00 182 175 160
-4.154026e+00 1.871831e+00 3.354529e+00 78 69 61
-7.149638e-01 2.329762e+00 1.956556e+00 163 154 124
-1.676293e+00 2.252317e+00 2.311611e+00 126 121 117
1.182559e+00 2.373796e+00 2.234055e+00 39 25 16
-7.356832e-01 2.374599e+00 1.984075e+00 94 76 56
-1.680604e+00 2.270122e+00 2.341391e+00 202 201 194
1.346412e+00 2.381458e+00 2.325367e+00 164 152 130
1.519585e+00 2.383281e+00 2.460065e+00 71 57 41
2.663189e+00 2.208525e+00 3.352514e+00 87 76 66
1.697338e+00 2.378044e+00 2.620629e+00 178 174 165
-3.856638e+00 2.064167e+00 3.271814e+00 117 116 114
-3.888230e+00 2.062364e+00 3.278920e+00 193 192 190
1.148737e+00 2.443571e+00 2.302983e+00 122 108 94
1.148737e+00 2.443571e+00 2.302983e+00 122 108 94
-1.376420e+00 2.379867e+00 2.283305e+00 177 170 155
-2.205682e+00 2.286540e+00 2.583107e+00 126 116 104
3.270364e+00 2.140945e+00 3.848617e+00 203 199 196
2.123230e+00 2.333057e+00 2.947258e+00 62 53 49
2.189300e+00 2.332547e+00 3.007943e+00 181 176 173
-2.075361e+00 2.323564e+00 2.515671e+00 135 121 100
2.160017e-01 2.521922e+00 1.881725e+00 155 139 122
2.054070e+00 2.356856e+00 2.914457e+00 197 189 178
2.634826e+00 2.273550e+00 3.368104e+00 184 177 160
2.691535e+00 2.270669e+00 3.400112e+00 124 116 105
2.691535e+00 2.270669e+00 3.400112e+00 124 116 105
-4.591914e+00 2.014524e+00 3.602614e+00 97 87 81
-2.249652e+00 2.333225e+00 2.617372e+00 165 157 136
-2.417271e+00 2.315753e+00 2.656181e+00 159 155 146
-2.234265e+00 2.351029e+00 2.611147e+00 79 69 57
4.335693e+00 2.015544e+00 4.724041e+00 185 175 165
-3.021014e+00 2.267391e+00 2.939545e+00 117 108 102
-3.021014e+00 2.267391e+00 2.939545e+00 117 108 102
-7.416069e-01 2.526880e+00 2.131895e+00 79 68 51
-2.265047e+00 2.397829e+00 2.650881e+00 169 163 151
-2.166086e+00 2.412393e+00 2.618969e+00 48 36 36
-1.125095e+00 2.535759e+00 2.236397e+00 150 138 113
-2.735087e+00 2.357516e+00 2.840180e+00 184 175 166
2.596574e+00 2.387443e+00 3.363023e+00 102 95 85
3.072415e+00 2.313110e+00 3.757309e+00 189 183 170
6.849916e-01 2.622163e+00 2.173016e+00 110 95 84
-6.037712e+00 1.948513e+00 4.247637e+00 106 97 90
3.194262e+00 2.299532e+00 3.834739e+00 133 129 121
-2.858770e+00 2.366787e+00 2.913937e+00 178 175 160
-4.500296e-01 2.621069e+00 2.099288e+00 163 147 123
-2.917448e+00 2.371347e+00 2.939347e+00 104 98 84
-3.859652e+00 2.253006e+00 3.334307e+00 142 141 139
-2.887970e+00 2.392435e+00 2.915889e+00 175 167 151
-2.887970e+00 2.392435e+00 2.915889e+00 175 167 151
-4.573573e+00 2.181039e+00 3.652201e+00 181 174 171
3.510998e+00 2.271974e+00 4.141188e+00 110 101 96
3.063595e+00 2.352632e+00 3.776427e+00 202 193 184
2.482964e+00 2.453066e+00 3.317861e+00 166 160 145
-2.929818e+00 2.410867e+00 2.936937e+00 176 167 151
-2.929818e+00 2.410867e+00 2.936937e+00 176 167 151
-5.796396e+00 2.044538e+00 4.144705e+00 121 117 105
-5.796396e+00 2.044538e+00 4.144705e+00 121 117 105
-2.038604e+00 2.521122e+00 2.614434e+00 60 52 42
-5.720535e+00 2.055918e+00 4.108734e+00 76 70 71
2.970191e+00 2.396894e+00 3.704401e+00 62 49 40
2.970191e+00 2.396894e+00 3.704401e+00 62 49 40
1.473083e+00 2.616277e+00 2.640225e+00 90 78 67
-3.090639e+00 2.412004e+00 2.978928e+00 91 88 87
-2.622557e+00 2.479716e+00 2.843112e+00 167 157 148
2.956455e+00 2.415907e+00 3.707928e+00 134 126 115
4.278538e+00 2.187352e+00 4.731332e+00 151 144 125
-2.225372e+00 2.537488e+00 2.670717e+00 172 168 160
1.217502e+00 2.706924e+00 2.537420e+00 174 170 169
2.894967e+00 2.489170e+00 3.686299e+00 69 58 52
-1.204875e+00 2.695074e+00 2.390630e+00 179 172 152
-8.752313e-01 2.723799e+00 2.273486e+00 146 130 107
2.371615e+00 2.587227e+00 3.288100e+00 97 86 77
-3.547239e+00 2.460642e+00 3.246087e+00 44 40 37
4.184826e+00 2.292610e+00 4.671829e+00 157 149 136
4.063985e+00 2.315932e+00 4.574936e+00 173 167 155
4.046580e+00 2.321896e+00 4.544905e+00 72 63 58
1.708099e+00 2.696728e+00 2.855576e+00 172 165 151
-3.460811e+00 2.496932e+00 3.224442e+00 83 75 73
-2.395098e+00 2.626505e+00 2.783450e+00 84 76 71
-9.979342e-02 2.812140e+00 2.176467e+00 150 136 110
-4.678518e+00 2.358538e+00 3.743793e+00 134 130 128
1.250329e+00 2.770152e+00 2.594657e+00 94 89 83
1.250329e+00 2.770152e+00 2.594657e+00 94 89 83
-3.589140e+00 2.501594e+00 3.283961e+00 166 161 155
2.886206e+00 2.549637e+00 3.750030e+00 102 94 89
-2.052924e+00 2.689769e+00 2.652387e+00 127 125 114
-3.635379e+00 2.510753e+00 3.313786e+00 182 177 173
2.428148e+00 2.648986e+00 3.352017e+00 148 145 140
4.095417e+00 2.384354e+00 4.621116e+00 89 77 65
1.767645e+00 2.767437e+00 2.934307e+00 193 184 177
1.688293e+00 2.777496e+00 2.892966e+00 95 88 72
3.989119e+00 2.429744e+00 4.546324e+00 190 180 151
-9.602359e-01 2.843108e+00 2.408343e+00 176 164 145
-1.864779e+00 2.769329e+00 2.613794e+00 122 115 96
-3.449006e+00 2.602730e+00 3.266127e+00 99 88 74
2.907168e+00 2.625896e+00 3.772181e+00 90 83 79
2.907168e+00 2.625896e+00 3.772181e+00 90 83 79
1.719517e+00 2.798281e+00 2.930348e+00 113 107 93
-1.647136e+00 2.802142e+00 2.618864e+00 60 51 44
4.058307e+00 2.455652e+00 4.629389e+00 185 176 151
1.600315e+00 2.832193e+00 2.883633e+00 170 158 133
1.719253e+00 2.836226e+00 2.852237e+00 187 180 162
8.469326e-01 2.911586e+00 2.448045e+00 148 141 130
-5.347259e+00 2.427121e+00 4.023523e+00 123 109 100
4.036338e+00 2.482438e+00 4.618310e+00 176 167 157
-3.572519e+00 2.643680e+00 3.320230e+00 161 159 147
-2.417476e+00 2.795291e+00 2.883957e+00 126 119 108
-5.289307e+00 2.466749e+00 4.016578e+00 133 124 117
-3.308656e+00 2.711504e+00 3.246960e+00 78 71 66
-5.938711e-01 2.958686e+00 2.360990e+00 134 122 107
-2.414300e+00 2.814021e+00 2.898871e+00 187 180 172
2.150046e+00 2.827378e+00 3.266251e+00 169 165 156
-2.519241e+00 2.806620e+00 2.913237e+00 79 75 64
-5.723766e+00 2.441502e+00 4.218085e+00 129 122 128
-1.680581e-01 2.985296e+00 2.279724e+00 96 80 64
3.900105e+00 2.560018e+00 4.520775e+00 167 156 138
6.491354e-01 2.985322e+00 2.430361e+00 150 142 129
3.944549e+00 2.563098e+00 4.558540e+00 179 170 155
7.217292e-01 2.984592e+00 2.493736e+00 154 144 135
2.762164e+00 2.761767e+00 3.744341e+00 200 197 195
3.894725e+00 2.591046e+00 4.527039e+00 176 168 148
3.954560e+00 2.590057e+00 4.589211e+00 159 149 137
1.351434e-02 3.030944e+00 2.283002e+00 152 139 118
-4.223916e+00 2.669875e+00 3.636115e+00 116 111 105
-3.819545e-01 3.025566e+00 2.421914e+00 51 35 20
3.309238e+00 2.699436e+00 4.171450e+00 172 165 146
2.640661e+00 2.810755e+00 3.686764e+00 187 178 166
-2.292831e+00 2.890765e+00 2.897390e+00 62 49 43
2.114092e+00 2.901099e+00 3.268553e+00 97 89 78
-5.017014e+00 2.604656e+00 3.923326e+00 131 127 124
2.690257e+00 2.817132e+00 3.711134e+00 64 54 53
-7.424052e-01 3.024932e+00 2.457513e+00 119 106 87
-5.045006e+00 2.609896e+00 3.940622e+00 189 185 176
-2.378379e+00 2.920768e+00 2.949078e+00 181 175 162
2.076123e+00 2.935289e+00 3.278249e+00 151 144 125
-2.198638e+00 2.952873e+00 2.898321e+00 175 169 146
-3.983061e+00 2.772840e+00 3.566141e+00 64 55 52
2.507330e+00 2.885285e+00 3.642826e+00 75 67 64
2.100866e+00 2.950719e+00 3.306806e+00 190 183 179
-4.032187e+00 2.781203e+00 3.596318e+00 151 144 129
-2.195576e+00 2.976406e+00 2.903878e+00 85 74 68
-1.995907e+00 2.996286e+00 2.832020e+00 67 57 47
-2.251388e+00 2.977688e+00 2.932895e+00 93 84 75
-2.255735e+00 2.979341e+00 2.919753e+00 93 84 75
-2.222729e+00 2.983627e+00 2.925548e+00 164 157 140
-2.222729e+00 2.983627e+00 2.925548e+00 164 157 140
3.186491e+00 2.815826e+00 4.122815e+00 150 142 129
-1.211802e+00 3.079292e+00 2.639399e+00 152 140 114
-6.668883e-01 3.112639e+00 2.484438e+00 176 171 164
-3.092594e+00 2.921854e+00 3.241153e+00 187 179 166
2.474020e+00 2.934904e+00 3.647326e+00 79 69 59
-4.516000e-01 3.136366e+00 2.528688e+00 170 161 142
-1.065098e+00 3.106009e+00 2.609975e+00 170 162 150
1.773664e+00 3.047399e+00 3.095570e+00 114 101 83
-1.301213e+00 3.095349e+00 2.655825e+00 76 69 64
-2.301195e+00 3.022723e+00 2.968207e+00 191 188 183
1.298260e+00 3.108677e+00 2.866426e+00 114 102 88
-6.239559e-02 3.167989e+00 2.438360e+00 86 74 62
2.624709e+00 2.952779e+00 3.727469e+00 193 189 180
1.191922e+00 3.121517e+00 2.811793e+00 159 150 137
-1.027212e+00 3.132195e+00 2.615238e+00 176 164 144
3.736296e+00 2.785629e+00 4.472275e+00 156 148 128
1.132238e+00 3.138173e+00 2.811518e+00 71 62 51
2.392938e+00 2.998145e+00 3.629310e+00 180 171 164
-2.084971e+00 3.083723e+00 2.922432e+00 182 181 177
-4.948067e+00 2.792000e+00 3.952705e+00 162 150 128
-2.373082e-01 3.205194e+00 2.412921e+00 122 109 86
-2.121466e+00 3.085912e+00 2.944140e+00 115 108 106
-2.121466e+00 3.085912e+00 2.944140e+00 115 108 106
-1.121529e+00 3.168644e+00 2.678474e+00 148 135 122
-2.813393e+00 3.038968e+00 3.182329e+00 108 100 90
-2.813393e+00 3.038968e+00 3.182329e+00 108 100 90
2.409001e+00 3.034738e+00 3.621590e+00 179 171 156
5.181964e-01 3.211131e+00 2.605530e+00 186 184 167
-5.047176e+00 2.814243e+00 4.012452e+00 158 150 131
1.844713e+00 3.116025e+00 3.208536e+00 98 90 78
1.059399e+00 3.194052e+00 2.836475e+00 71 60 54
-2.158477e+00 3.124324e+00 2.964325e+00 128 128 126
1.261683e+00 3.187250e+00 2.883329e+00 68 58 56
1.681676e-01 3.242576e+00 2.489779e+00 83 74 60
-1.255710e+00 3.193945e+00 2.694036e+00 60 51 47
1.841645e+00 3.133140e+00 3.220071e+00 167 160 149
1.065915e+00 3.209648e+00 2.825754e+00 177 170 148
1.062427e+00 3.210068e+00 2.847912e+00 177 170 148
1.117935e+00 3.207658e+00 2.845914e+00 183 172 150
-4.058156e+00 2.975963e+00 3.685161e+00 67 61 60
-9.730401e-01 3.236903e+00 2.706781e+00 170 161 146
-1.130483e+00 3.231487e+00 2.719062e+00 100 92 89
-4.015101e+00 2.995166e+00 3.677685e+00 121 113 109
-4.015101e+00 2.995166e+00 3.677685e+00 121 113 109
1.590662e+00 3.199178e+00 3.064882e+00 186 182 174
-3.092954e+00 3.093322e+00 3.311110e+00 184 181 176
3.571074e+00 2.932414e+00 4.387106e+00 168 159 142
1.548297e+00 3.223715e+00 3.122726e+00 173 166 146
-1.839637e+00 3.221746e+00 2.914283e+00 179 175 163
-9.092773e-01 3.282706e+00 2.680780e+00 181 173 163
1.659864e+00 3.228531e+00 3.199289e+00 81 68 61
3.811688e+00 2.931000e+00 4.617851e+00 142 142 145
1.679918e+00 3.247330e+00 3.148785e+00 183 175 164
1.624566e+00 3.258445e+00 3.199435e+00 157 146 125
-9.781397e-01 3.322578e+00 2.741941e+00 95 88 80
-1.199640e+00 3.314319e+00 2.724099e+00 124 112 96
-4.856837e+00 2.997931e+00 3.993530e+00 119 109 103
-1.720774e+00 3.286879e+00 2.914789e+00 177 169 151
-1.720774e+00 3.286879e+00 2.914789e+00 177 169 151
2.963352e+00 3.111654e+00 4.077301e+00 98 83 84
-4.830722e+00 3.020449e+00 3.980033e+00 179 171 166
9.251979e-01 3.346341e+00 2.870137e+00 156 144 130
-1.756832e+00 3.316208e+00 2.943847e+00 192 188 177
-1.751202e+00 3.313825e+00 2.940217e+00 192 188 177
-1.688765e+00 3.334300e+00 2.930038e+00 173 163 141
1.578007e+00 3.307043e+00 3.287911e+00 204 199 193
3.729206e+00 3.045111e+00 4.597919e+00 213 214 218
1.771513e+00 3.322097e+00 3.288319e+00 168 161 151
-3.740516e+00 3.203529e+00 3.634560e+00 131 130 127
1.582059e+00 3.350401e+00 3.253518e+00 148 142 130
-1.816608e+00 3.365170e+00 2.987624e+00 181 174 164
-1.816608e+00 3.365170e+00 2.987624e+00 181 174 164
-5.054405e-01 3.430759e+00 2.712669e+00 152 144 127
-5.646836e-01 3.427137e+00 2.711603e+00 147 135 121
3.419304e+00 3.122142e+00 4.374092e+00 148 140 121
3.474131e+00 3.117874e+00 4.436557e+00 101 88 70
7.435375e-01 3.428261e+00 2.891960e+00 185 173 151
7.501430e-01 3.430721e+00 2.865688e+00 185 173 151
-5.542220e-01 3.445777e+00 2.721014e+00 75 66 52
3.452724e+00 3.125332e+00 4.410967e+00 179 172 154
-1.855637e+00 3.384687e+00 3.003769e+00 173 166 156
-1.853731e+00 3.383818e+00 3.008962e+00 173 166 156
-4.732521e+00 3.132471e+00 3.991162e+00 108 99 93
-3.674574e+00 3.251851e+00 3.623381e+00 171 158 133
-3.742259e-01 3.468366e+00 2.727654e+00 76 66 64
-4.700679e+00 3.155504e+00 3.977192e+00 192 190 177
-2.274362e+00 3.388451e+00 3.139503e+00 103 88 72
-3.543578e+00 3.284084e+00 3.592367e+00 112 105 99
-4.654205e+00 3.179860e+00 3.972923e+00 148 140 128
-6.168670e-01 3.486954e+00 2.787781e+00 161 152 142
2.674434e+00 3.282782e+00 3.986139e+00 197 194 180
2.119053e+00 3.358451e+00 3.611252e+00 160 154 138
4.159216e+00 3.071073e+00 4.809995e+00 169 170 172
-3.537898e+00 3.301743e+00 3.604118e+00 191 187 177
2.096654e+00 3.370901e+00 3.600628e+00 99 92 88
2.096654e+00 3.370901e+00 3.600628e+00 99 92 88
-2.522771e+00 3.401463e+00 3.253088e+00 89 80 83
3.903201e-01 3.512638e+00 2.775458e+00 28 21 13
3.300150e+00 3.221786e+00 4.322539e+00 170 159 137
-2.492653e+00 3.410222e+00 3.250067e+00 88 83 85
2.091381e+00 3.387229e+00 3.612260e+00 193 189 180
5.058466e-01 3.518694e+00 2.858769e+00 166 155 133
-3.443190e-01 3.526355e+00 2.761887e+00 52 44 38
-4.657590e+00 3.241050e+00 3.993074e+00 69 61 66
-4.657590e+00 3.241050e+00 3.993074e+00 69 61 66
2.068908e+00 3.410394e+00 3.602910e+00 115 105 97
4.612568e-01 3.536358e+00 2.850667e+00 100 87 70
-3.410759e+00 3.364351e+00 3.587322e+00 63 52 48
-3.410759e+00 3.364351e+00 3.587322e+00 63 52 48
-7.048483e-01 3.541613e+00 2.794735e+00 64 57 51
-3.829262e+00 3.334513e+00 3.696603e+00 199 196 189
-1.532203e+00 3.512800e+00 2.991599e+00 52 48 50
-1.532203e+00 3.512800e+00 2.991599e+00 52 48 50
-3.456772e+00 3.377036e+00 3.605868e+00 62 52 50
3.436952e+00 3.242237e+00 4.461468e+00 164 152 136
-2.354155e+00 3.476115e+00 3.240413e+00 128 121 111
-3.470140e+00 3.395173e+00 3.619132e+00 184 177 173
2.008203e+00 3.446378e+00 3.635504e+00 178 171 148
2.266838e+00 3.425738e+00 3.685625e+00 140 131 116
2.266838e+00 3.425738e+00 3.685625e+00 140 131 116
1.426629e+00 3.512692e+00 3.252826e+00 207 202 198
-1.385942e+00 3.558097e+00 2.983731e+00 155 152 139
1.996321e+00 3.471124e+00 3.646229e+00 121 114 109
1.296336e+00 3.541656e+00 3.227863e+00 190 186 175
2.594025e+00 3.404741e+00 3.978989e+00 143 136 125
2.007036e+00 3.487712e+00 3.622179e+00 198 195 187
-2.479430e+00 3.520164e+00 3.309224e+00 186 185 179
-2.247486e+00 3.538476e+00 3.235970e+00 180 173 144
-1.257026e+00 3.596191e+00 2.976349e+00 103 93 84
-1.355532e+00 3.590707e+00 2.981947e+00 183 179 176
-4.151476e+00 3.391996e+00 3.823788e+00 114 105 96
1.126145e+00 3.582285e+00 3.139371e+00 75 59 45
1.118853e+00 3.587558e+00 3.166851e+00 75 59 45
-2.239074e+00 3.550658e+00 3.220418e+00 79 71 62
9.794627e-01 3.599727e+00 3.150346e+00 77 68 61
-4.497515e+00 3.385554e+00 3.985061e+00 95 83 79
-2.040411e-01 3.653821e+00 2.839703e+00 128 123 117
