ply
format ascii 1.0
element face 0
property list uchar int vertex_indices
element vertex 944
property float x
property float y
property float z
property uchar diffuse_red
property uchar diffuse_green
property uchar diffuse_blue
end_header
1.541890e+00 4.672097e-01 6.968943e+00 150 140 131
5.423175e-01 3.876580e-01 7.221130e+00 71 68 63
2.169009e+00 6.289121e-01 6.310206e+00 107 93 86
2.217824e+00 6.596715e-01 6.168917e+00 133 115 101
2.270913e+00 7.304061e-01 5.876126e+00 145 134 130
2.339112e+00 7.093643e-01 6.050977e+00 115 109 109
2.553148e+00 1.077116e+00 5.141428e+00 100 98 101
5.235180e-01 -1.461456e+00 2.148799e+00 51 44 38
9.757783e-02 -9.422348e-01 4.864053e+00 86 79 71
3.972296e-01 -1.259579e+00 2.706077e+00 103 103 105
9.030962e-01 -2.211028e+00 5.143122e-01 108 110 115
-7.355464e-02 -1.360908e+00 4.399916e+00 129 128 127
-1.025895e-01 -1.344925e+00 4.760723e+00 121 118 116
7.299283e-02 -1.032081e+00 4.880559e+00 110 110 110
1.312049e-01 -1.546863e+00 2.488571e+00 89 85 82
6.556963e-01 -1.526655e+00 1.953439e+00 82 80 81
1.298049e+00 -1.401191e+00 2.297218e+00 206 215 224
2.167740e-01 -2.717507e+00 3.047077e+00 63 65 60
2.722630e-01 -2.387122e+00 3.467409e+00 130 135 141
1.112441e+00 -9.641379e-01 2.713877e+00 180 185 189
9.975166e-01 -2.700364e+00 1.879601e+00 128 133 136
-2.570103e-01 -2.277378e+00 2.475063e+00 165 181 197
1.224408e+00 -1.817263e+00 1.916864e+00 209 225 239
1.088047e-01 -1.732220e+00 2.576767e+00 95 86 79
3.975916e-01 -1.454300e+00 2.549730e+00 105 91 82
1.153959e+00 -1.166415e+00 2.483547e+00 179 193 206
1.129417e+00 -1.134698e+00 2.555876e+00 92 94 96
-1.892015e-01 -7.513622e-01 3.019568e+00 80 80 95
9.575275e-01 -2.537011e+00 2.165506e+00 93 99 96
3.837088e-01 -2.458525e+00 3.024956e+00 126 134 137
1.146314e+00 -1.116579e+00 2.513716e+00 180 189 197
-1.420543e-01 -1.137690e+00 2.851847e+00 82 85 89
-7.597920e-02 -7.245915e-01 3.077536e+00 188 197 204
5.187297e-01 -1.450075e+00 2.549917e+00 109 100 90
1.297009e+00 -9.176945e-01 2.602374e+00 178 179 172
1.623600e-01 -2.505100e+00 2.899259e+00 131 142 146
7.319773e-02 -2.447689e+00 2.720331e+00 152 166 175
-1.240947e-01 -2.199457e+00 2.826538e+00 109 113 124
-9.999707e-02 -2.189468e+00 2.703626e+00 165 175 184
1.061353e+00 -1.965680e+00 1.978502e+00 171 178 185
1.056816e+00 -1.951174e+00 2.027521e+00 88 86 86
1.596561e+00 -1.507896e+00 2.326117e+00 206 210 214
6.870632e-01 -1.531595e+00 2.460674e+00 145 145 143
1.193162e+00 -1.064775e+00 2.550977e+00 161 162 167
1.046921e+00 -9.526141e-01 2.718957e+00 92 91 96
-1.423398e-01 -1.092398e+00 2.859921e+00 91 84 86
6.281367e-01 -3.934296e-01 3.895870e+00 193 198 192
4.492897e-01 -2.413954e+00 3.520307e+00 71 71 72
6.681459e-01 -2.399689e+00 2.641633e+00 48 44 46
1.178192e+00 -2.284848e+00 1.707108e+00 94 93 101
1.003620e+00 -1.722442e+00 2.164722e+00 203 211 215
9.491985e-01 -1.735332e+00 2.108420e+00 195 206 215
6.173912e-01 -3.743969e-01 3.908309e+00 55 71 97
-2.088713e-01 -2.103743e+00 2.612663e+00 171 185 189
1.273562e+00 -8.739764e-01 2.593430e+00 175 172 161
7.761144e-01 -8.406451e-01 2.752782e+00 154 143 131
1.126451e+00 -3.099950e-01 3.458975e+00 180 178 171
1.147780e+00 -2.962636e-01 3.408546e+00 181 177 173
5.493249e-01 -4.733217e-01 3.140654e+00 114 112 120
1.682285e+00 -1.568370e+00 2.430248e+00 115 112 108
1.654407e+00 -1.543930e+00 2.399895e+00 102 97 94
1.637586e+00 -1.547520e+00 2.376644e+00 164 158 143
1.080932e+00 -1.178588e+00 2.565380e+00 185 189 190
1.597647e+00 -2.144281e-01 3.432256e+00 158 157 144
5.427708e-01 -6.284411e-01 3.043001e+00 163 163 164
5.621280e-01 -6.194785e-01 3.032307e+00 143 146 153
1.158773e+00 -2.697622e-01 3.411361e+00 114 114 114
4.446698e-01 -2.480412e+00 3.094114e+00 150 157 159
4.915499e-01 -1.749746e+00 2.259932e+00 42 37 27
1.761505e-02 -1.641733e+00 4.848599e+00 77 67 68
-3.790868e-02 -1.662976e+00 4.716752e+00 77 67 68
-1.075066e-01 -1.427111e+00 5.106244e+00 164 149 135
3.427206e-01 -2.026063e+00 5.223419e+00 67 59 55
-4.175293e-01 -2.282522e+00 4.652304e+00 63 61 41
-5.288042e-01 -2.376042e+00 4.113329e+00 71 68 53
-5.288042e-01 -2.376042e+00 4.113329e+00 71 68 53
5.423552e-03 -1.346246e+00 4.768289e+00 176 171 176
-3.362494e-02 -1.334533e+00 4.889647e+00 157 146 130
-2.937645e-02 -1.271911e+00 5.023245e+00 80 73 57
9.859400e-02 -1.165804e+00 4.519923e+00 134 123 115
3.576207e-02 -1.152114e+00 4.947778e+00 85 75 79
3.576207e-02 -1.152114e+00 4.947778e+00 85 75 79
-6.153208e-02 -1.723717e+00 5.644519e+00 179 177 172
-1.697161e-01 -1.344287e+00 4.835799e+00 155 156 146
8.566698e-02 -1.124538e+00 4.931439e+00 172 157 147
2.401705e-01 -1.124166e+00 4.038227e+00 158 152 136
7.020724e-02 -1.095737e+00 5.190788e+00 155 142 133
1.069937e+00 -7.656132e-01 2.103465e+00 147 145 131
7.243016e-01 -5.968194e-01 6.968917e+00 153 153 156
-4.376689e-01 -2.321569e+00 4.737326e+00 138 133 106
-6.025859e-02 -2.150239e+00 5.162989e+00 59 48 38
4.019052e-03 -2.129012e+00 5.203679e+00 57 47 35
-2.289267e-01 -2.209678e+00 4.917385e+00 67 55 50
-6.278102e-01 -2.120285e+00 4.754806e+00 161 161 161
-6.278102e-01 -2.120285e+00 4.754806e+00 161 161 161
-5.596114e-02 -1.394168e+00 4.731100e+00 106 88 81
3.318401e-01 -1.512332e+00 2.197942e+00 111 106 86
5.343315e-01 -1.488594e+00 8.573269e-01 183 176 170
1.089229e+00 -1.204204e+00 7.726217e-01 129 122 111
1.235753e-01 -1.090407e+00 4.440053e+00 175 166 154
1.238548e-01 -1.090222e+00 4.441261e+00 175 166 154
-5.638106e-02 -1.031043e+00 5.411103e+00 177 169 164
9.375433e-02 -1.010520e+00 5.728870e+00 177 169 164
4.266823e-02 -1.014744e+00 5.398202e+00 156 147 136
1.141764e+00 -9.940493e-01 1.100286e+00 150 149 140
2.527948e-01 -9.814468e-01 4.228613e+00 43 32 40
5.541806e-01 -9.684665e-01 3.467400e+00 62 58 46
1.010781e+00 -9.161385e-01 3.282943e+00 65 51 51
8.749485e-01 -9.314499e-01 3.479849e-01 163 146 138
9.885963e-01 -8.740657e-01 3.258025e+00 35 37 25
8.644245e-01 -8.997870e-01 1.528738e+00 23 24 27
6.462157e-01 -9.354041e-01 5.643274e-01 23 24 27
1.429178e+00 -5.960278e-01 5.299860e+00 160 164 174
-3.129023e-01 -2.458686e+00 4.721181e+00 139 130 129
-1.533643e-01 -2.252393e+00 4.990862e+00 138 131 116
-2.074245e-01 -2.268645e+00 4.649435e+00 88 81 62
-2.209985e-01 -2.041919e+00 5.117376e+00 131 122 113
1.896151e-03 -1.904646e+00 5.539643e+00 91 71 61
-4.483839e-01 -1.966357e+00 4.559287e+00 124 113 101
-2.364813e-01 -1.835197e+00 5.125757e+00 150 142 123
1.971765e-01 -1.734727e+00 5.508681e+00 68 54 44
4.192910e-03 -1.734348e+00 5.463388e+00 124 112 98
-1.037092e-01 -1.287043e+00 5.690810e+00 181 172 178
9.556869e-01 -1.066564e+00 1.017832e+00 169 154 147
8.957272e-02 -9.780089e-01 5.807531e+00 47 41 41
-4.522741e-01 -2.488052e+00 4.197902e+00 137 118 106
-4.522741e-01 -2.488052e+00 4.197902e+00 137 118 106
2.676699e-01 -2.194353e+00 4.732015e+00 111 99 79
-6.191756e-01 -2.235915e+00 4.750576e+00 157 145 149
-1.833010e-01 -2.049492e+00 4.872088e+00 128 118 93
1.432050e-01 -1.850137e+00 5.502538e+00 63 51 45
-3.922249e-02 -1.878903e+00 5.320654e+00 87 70 63
-3.922249e-02 -1.878903e+00 5.320654e+00 87 70 63
-5.097233e-01 -1.970784e+00 4.500750e+00 71 66 47
-4.326444e-01 -1.905674e+00 4.631328e+00 80 73 57
6.716969e-03 -1.726096e+00 5.531436e+00 73 60 43
-3.892705e-02 -1.633379e+00 5.160607e+00 111 103 96
-1.296844e-02 -1.563395e+00 4.508264e+00 136 133 121
-2.796143e-02 -1.428754e+00 4.687653e+00 118 111 95
3.589220e-01 -1.662269e+00 8.453196e-01 57 57 41
-2.019352e-01 -1.339130e+00 5.504980e+00 138 131 121
-6.506585e-02 -1.360711e+00 4.587564e+00 177 174 164
-7.737112e-02 -1.276172e+00 5.678645e+00 83 88 83
-1.989119e-02 -1.170591e+00 5.570473e+00 94 85 79
9.486313e-02 -1.150630e+00 5.810269e+00 94 85 79
7.053606e-02 -1.194351e+00 4.706570e+00 63 50 41
3.677352e-02 -1.133100e+00 5.155613e+00 170 156 147
1.300546e+00 -1.230757e+00 1.094938e-01 150 140 122
-1.693162e-01 -1.100613e+00 5.407379e+00 163 161 166
2.584110e-01 -1.031552e+00 4.574468e+00 71 61 63
1.599048e-01 -9.554204e-01 4.634173e+00 36 30 32
4.348620e-01 -9.586824e-01 3.386659e+00 144 125 115
7.010738e-01 -9.204668e-01 2.531480e+00 133 115 101
1.559270e+00 -8.684747e-01 6.528288e-01 147 140 124
1.578604e+00 -8.676618e-01 7.888690e-01 147 140 124
1.125292e+00 -8.897576e-01 1.349408e+00 15 24 15
5.759057e-01 -6.905670e-01 4.108467e+00 74 65 56
-3.766112e-01 -2.515012e+00 4.624392e+00 43 30 28
-2.283858e-01 -2.286103e+00 4.923180e+00 138 128 119
-1.468015e-01 -2.154901e+00 5.045821e+00 106 99 89
-1.468015e-01 -2.154901e+00 5.045821e+00 106 99 89
1.737976e-01 -2.099166e+00 5.017097e+00 120 108 86
-7.093186e-01 -2.298504e+00 4.160279e+00 94 85 64
5.996061e-01 -2.860922e+00 -1.089401e+00 177 171 163
5.582069e-01 -2.302450e+00 2.575520e+00 138 131 114
-2.115900e-01 -2.013833e+00 5.146362e+00 136 125 113
2.261290e-01 -2.206705e+00 2.827976e+00 149 129 104
-5.185511e-01 -2.040907e+00 4.518435e+00 81 77 67
-3.240906e-01 -1.951053e+00 4.720816e+00 112 104 91
-4.505057e-02 -1.794172e+00 2.307534e+00 181 171 176
-9.813382e-02 -1.489254e+00 4.283960e+00 185 182 178
2.584280e-01 -1.568332e+00 2.429973e+00 131 114 104
-2.746549e-02 -1.381219e+00 4.724220e+00 174 163 156
-1.390976e-02 -1.361901e+00 4.842665e+00 84 71 65
1.383926e-02 -1.356380e+00 4.906870e+00 84 71 65
5.462396e-01 -1.479627e+00 -3.306627e-01 134 126 110
4.116909e-02 -1.179299e+00 5.034205e+00 30 37 29
1.423804e-01 -1.138958e+00 5.684528e+00 71 73 57
2.852915e-01 -1.223716e+00 3.268863e+00 133 123 113
3.591178e-02 -1.155044e+00 5.201046e+00 77 71 61
7.339786e-02 -1.081355e+00 5.622375e+00 94 85 74
1.230807e-01 -1.075579e+00 5.406408e+00 74 65 54
1.070002e+00 -1.141767e+00 8.886463e-01 137 131 120
1.082209e-01 -1.083170e+00 4.616035e+00 95 87 74
8.097043e-01 -1.080237e+00 1.850472e+00 160 151 141
2.176946e-01 -1.055488e+00 3.649054e+00 183 182 184
5.883445e-01 -1.037674e+00 2.459645e+00 153 141 141
5.529479e-01 -1.018572e+00 2.985398e+00 67 55 49
1.379791e+00 -1.014579e+00 3.237832e-01 158 150 137
2.376876e-01 -9.269662e-01 5.057728e+00 29 25 23
1.759291e-01 -9.364445e-01 4.602992e+00 31 26 20
1.202940e+00 -8.595930e-01 1.587267e+00 20 22 21
3.279741e-01 -7.970030e-01 5.722481e+00 48 56 65
6.816572e-01 -7.498327e-01 6.996145e+00 80 78 62
6.308502e-01 -7.169579e-01 4.114363e+00 166 163 157
9.364710e-01 -6.756477e-01 3.336019e+00 157 145 134
1.138755e+00 -6.295753e-01 3.378834e+00 64 67 64
1.662542e+00 -5.763867e-01 1.632742e+00 171 161 163
1.231123e+00 -5.615715e-01 5.879771e+00 174 163 156
1.078947e-01 -2.132381e+00 4.776201e+00 120 114 100
-3.211130e-01 -2.140587e+00 5.004120e+00 135 121 104
5.490641e-02 -2.003824e+00 5.366566e+00 77 71 45
-5.629596e-01 -2.151553e+00 4.797114e+00 106 98 85
-5.629596e-01 -2.151553e+00 4.797114e+00 106 98 85
5.268737e-01 -2.420928e+00 2.074628e+00 95 89 70
-1.812671e-01 -2.053661e+00 5.135160e+00 85 80 59
-7.000694e-01 -2.213723e+00 4.180153e+00 84 77 62
-6.287578e-01 -2.095376e+00 4.352343e+00 156 144 130
-5.673007e-01 -2.020258e+00 4.825278e+00 168 167 162
9.129546e-02 -2.026396e+00 4.173951e+00 109 102 85
-1.281507e-01 -1.857213e+00 5.219088e+00 116 114 97
-3.706031e-01 -1.858916e+00 5.270036e+00 164 164 168
-3.706031e-01 -1.858916e+00 5.270036e+00 164 164 168
2.301363e-01 -1.751024e+00 5.391699e+00 65 49 56
2.301363e-01 -1.751024e+00 5.391699e+00 65 49 56
2.439815e-01 -1.731543e+00 5.463095e+00 121 114 96
7.569934e-02 -1.839229e+00 4.319272e+00 60 52 46
-2.236601e-01 -1.731827e+00 5.150761e+00 177 165 170
-6.447233e-02 -1.624066e+00 5.146836e+00 66 56 46
3.626906e-01 -1.813410e+00 1.712486e-01 181 175 177
1.147358e+00 -1.762605e+00 -1.676235e+00 185 177 169
3.649151e-01 -1.629922e+00 8.666508e-01 175 164 148
-5.230834e-02 -1.389220e+00 4.870858e+00 168 152 134
-5.016766e-02 -1.337225e+00 4.442821e+00 108 102 97
-1.792833e-01 -1.277548e+00 5.512003e+00 135 122 125
-7.139765e-02 -1.363324e+00 3.446658e+00 146 144 142
6.178013e-02 -1.180367e+00 5.717271e+00 165 159 156
2.901891e-01 -1.251164e+00 2.995298e+00 61 64 50
4.650647e-01 -1.250893e+00 2.577566e+00 49 45 50
7.926965e-01 -1.311771e+00 3.357895e-01 168 168 175
1.276361e+00 -1.156437e+00 2.658390e+00 168 168 175
7.778325e-01 -1.245929e+00 1.350045e+00 44 42 38
1.188286e-01 -1.079312e+00 5.360794e+00 168 159 166
8.390419e-01 -1.175767e+00 7.577235e-01 144 135 122
1.525198e-01 -1.054276e+00 4.552379e+00 123 109 98
8.987957e-01 -1.109524e+00 7.905234e-01 104 101 90
1.084633e-01 -1.006739e+00 5.665980e+00 131 121 107
1.352656e+00 -1.049426e+00 4.023224e-01 170 163 157
6.223411e-01 -1.049745e+00 2.315978e+00 152 152 136
3.972488e-01 -1.014358e+00 3.841802e+00 57 62 51
3.972488e-01 -1.014358e+00 3.841802e+00 57 62 51
9.101960e-01 -1.033719e+00 1.136406e+00 151 137 134
3.298548e-01 -9.558367e-01 3.952450e+00 136 127 129
1.068911e+00 -9.029453e-01 1.212660e+00 158 150 134
1.200623e+00 -8.523158e-01 1.399604e+00 103 86 60
6.802987e-01 -7.238349e-01 4.044116e+00 80 78 67
6.434347e-01 -7.229125e-01 4.080206e+00 74 72 61
1.814411e+00 -5.402064e-01 4.517601e+00 107 101 86
1.206436e+00 -5.079978e-01 5.978059e+00 171 164 175
1.719393e+00 -4.351786e-01 4.416790e+00 164 155 145
-3.565920e-03 -2.246435e+00 5.146875e+00 71 64 49
-3.494612e-01 -2.770100e+00 1.673563e+00 73 65 49
-5.991153e-01 -2.169377e+00 4.783233e+00 87 92 77
-2.050307e-01 -2.025128e+00 5.118534e+00 95 82 70
-1.243688e+00 -2.339117e+00 3.520695e+00 100 97 85
-1.114854e-02 -1.854092e+00 5.356584e+00 70 57 48
1.850691e-01 -1.899713e+00 4.611134e+00 55 51 35
-4.219960e-01 -1.866517e+00 5.115271e+00 148 150 162
-4.684522e-01 -2.196132e+00 1.948811e+00 88 79 82
-9.281339e-02 -1.746055e+00 5.197757e+00 68 59 47
5.631612e-01 -1.885801e+00 3.309547e+00 47 33 22
-8.609857e-02 -1.866168e+00 2.295898e+00 172 172 166
1.169037e-01 -1.740111e+00 2.312302e+00 139 132 126
2.012462e-01 -1.635139e+00 2.249841e+00 131 122 115
2.379847e-01 -1.626649e+00 2.230698e+00 66 54 42
3.086072e-01 -1.555899e+00 2.313889e+00 129 121 119
1.695041e-01 -1.548188e+00 2.155827e+00 62 53 49
7.665843e-02 -1.222340e+00 4.686041e+00 165 159 161
-4.249261e-02 -1.209174e+00 5.141858e+00 88 83 74
5.094735e-01 -1.290291e+00 2.027188e+00 168 158 151
5.094735e-01 -1.290291e+00 2.027188e+00 168 158 151
3.520587e-01 -1.245996e+00 2.689830e+00 174 164 166
1.248824e+00 -1.295217e+00 -2.045477e-01 170 169 174
5.317595e-02 -1.068417e+00 5.099310e+00 136 126 116
6.378507e-01 -1.108344e+00 1.817289e+00 178 173 170
2.065679e-01 -1.031589e+00 4.996288e+00 102 92 81
6.270563e-01 -1.096551e+00 1.875471e+00 117 119 95
8.896546e-02 -1.045059e+00 4.741070e+00 147 134 125
1.318935e+00 -1.081486e+00 2.281736e-01 75 79 69
1.387682e-01 -1.057914e+00 3.794843e+00 113 112 103
3.097676e-01 -1.041855e+00 3.818712e+00 125 112 113
3.436034e-01 -1.042081e+00 3.580833e+00 111 103 76
6.830308e-01 -6.892202e-01 3.744638e+00 118 112 95
7.995941e-01 -6.140459e-01 6.550326e+00 180 178 180
1.158684e+00 -5.551168e-01 5.714830e+00 38 51 43
1.728659e+00 -4.919024e-01 4.368886e+00 116 118 103
8.053299e-01 -5.634325e-01 6.570893e+00 171 166 161
7.968313e-01 -5.640324e-01 6.550996e+00 171 166 161
-4.093929e-01 -2.513551e+00 4.612419e+00 134 121 121
-4.334091e-01 -2.267848e+00 4.711727e+00 123 120 116
-5.848766e-01 -2.149428e+00 4.813294e+00 92 88 76
2.335085e-01 -2.366764e+00 2.533570e+00 76 63 34
-5.766376e-01 -2.197081e+00 4.343183e+00 146 140 133
6.714748e-01 -2.133123e+00 2.646650e+00 68 54 49
-1.533511e-01 -2.277797e+00 2.146174e+00 155 144 127
1.375988e-01 -2.085294e+00 2.588078e+00 136 130 118
1.487875e-01 -1.271556e+00 3.255267e+00 173 170 170
1.006297e-01 -1.124408e+00 5.237286e+00 108 107 88
-4.248376e-02 -1.075115e+00 5.704487e+00 123 119 125
4.341648e-01 -1.074221e+00 2.818968e+00 97 89 79
6.398010e-01 -1.078821e+00 2.049790e+00 112 108 96
7.930400e-01 -1.056664e+00 2.024523e+00 89 90 76
1.538131e+00 -1.022056e+00 2.191838e-01 78 80 72
5.695637e-01 -9.881185e-01 2.722901e+00 109 99 103
3.283048e-01 -9.527644e-01 3.807314e+00 110 100 104
4.791559e-01 -7.273401e-01 4.591474e+00 92 90 79
1.074829e+00 -6.180319e-01 5.398750e+00 121 122 123
1.777546e+00 -5.576245e-01 4.455350e+00 121 112 112
1.515799e+00 -4.789578e-01 5.105330e+00 128 129 116
1.759181e+00 -4.287551e-01 4.553341e+00 112 108 98
-3.283950e-01 -2.434003e+00 4.797764e+00 100 87 75
8.097559e-01 -2.429840e+00 3.507276e-02 152 137 133
2.002037e+00 -9.952849e-02 6.257445e+00 187 167 159
2.073633e+00 -2.769954e-01 5.450076e+00 54 58 70
1.300421e+00 5.322352e-01 7.672977e+00 8 7 12
1.904660e+00 1.219430e-01 5.366202e+00 152 128 124
8.058743e-01 1.846251e-01 7.980531e+00 207 232 254
2.659119e+00 1.424583e+00 6.617624e+00 96 86 82
1.096939e+00 -9.543555e-01 5.361579e+00 108 93 81
1.444251e+00 -3.223657e-01 5.976479e+00 56 56 63
9.306828e-01 2.174184e-02 6.945106e+00 170 166 167
2.422974e+00 4.321759e-01 5.175851e+00 54 56 69
1.041184e+00 1.442094e-01 7.514935e+00 182 174 164
1.100109e+00 3.308722e-01 7.151053e+00 146 140 142
1.719314e+00 -6.351936e-01 3.322829e+00 58 56 76
1.175310e+00 -5.524062e-01 5.581725e+00 41 43 55
2.127364e+00 -1.693860e-02 5.062939e+00 122 107 110
9.190142e-01 -2.083344e-01 6.711248e+00 167 159 156
2.051491e+00 4.444671e-01 6.047195e+00 14 13 18
2.106399e+00 5.273365e-01 5.706913e+00 176 166 159
2.288375e+00 6.252053e-01 5.658258e+00 8 9 11
2.031330e+00 5.617008e-01 5.996655e+00 45 41 41
2.031330e+00 5.617008e-01 5.996655e+00 45 41 41
2.124177e+00 6.167836e-01 5.886015e+00 63 42 51
2.252254e+00 6.622249e-01 5.696060e+00 73 63 74
2.340358e+00 7.614803e-01 5.211511e+00 110 104 107
2.019649e+00 6.108242e-01 6.193782e+00 37 34 32
2.721181e+00 9.654402e-01 5.513019e+00 119 114 137
2.721181e+00 9.654402e-01 5.513019e+00 119 114 137
7.919320e-01 -2.228149e+00 3.472124e+00 14 14 16
8.569504e-01 -1.023016e+00 1.577997e+00 153 144 147
8.765840e-01 -9.896913e-01 2.900755e+00 197 178 164
1.510247e+00 -5.231900e-01 5.499665e+00 38 40 55
1.586870e+00 -4.653476e-01 5.607640e+00 44 46 60
1.885868e+00 -3.458230e-01 4.824485e+00 171 158 146
8.338516e-01 -4.018852e-01 6.689618e+00 107 93 84
1.969350e+00 -1.254512e-01 4.959061e+00 94 80 71
6.323536e-01 -1.345656e-01 3.393789e+00 40 40 48
1.434480e+00 -2.287863e-01 6.204197e+00 40 40 48
1.487589e+00 -2.044800e-01 6.165496e+00 43 44 50
1.547498e+00 -8.576869e-02 6.286788e+00 40 39 45
1.543698e+00 -8.496987e-02 6.272597e+00 40 39 45
9.264983e-01 -1.342221e-01 6.581883e+00 169 164 168
1.984428e+00 2.708727e-01 5.632470e+00 175 161 156
2.110346e+00 4.595068e-01 5.980268e+00 15 15 20
9.567191e-01 2.196600e-01 7.475113e+00 179 160 143
1.117004e+00 2.763996e-01 7.274025e+00 32 32 40
1.454776e+00 3.614739e-01 7.020763e+00 186 162 154
2.103812e+00 5.717978e-01 5.973526e+00 48 48 48
2.110625e+00 5.660686e-01 6.010192e+00 48 48 48
1.103205e+00 3.220799e-01 7.336448e+00 22 22 26
1.101386e+00 3.226897e-01 7.332150e+00 22 22 26
1.103954e+00 3.180939e-01 7.341774e+00 22 22 26
2.231560e+00 6.217512e-01 5.813184e+00 70 69 67
2.162817e+00 6.074276e-01 5.876939e+00 55 53 61
2.096358e+00 5.598884e-01 6.140038e+00 171 156 142
2.062845e+00 5.884733e-01 5.964731e+00 171 156 142
2.173842e+00 6.557862e-01 5.717373e+00 184 177 164
1.076489e+00 3.453165e-01 7.365570e+00 137 130 125
1.303378e+00 1.006466e+00 8.158385e+00 114 104 105
1.970721e+00 -9.081602e-01 -1.053774e+00 53 48 52
2.066244e+00 -3.698459e-01 5.686593e+00 60 57 70
8.661719e-01 -4.827374e-01 6.742968e+00 98 82 76
2.123067e+00 -2.971359e-01 4.330284e+00 145 136 122
1.928680e+00 -3.176833e-01 5.219946e+00 115 93 80
2.059154e+00 -2.593709e-01 4.081958e+00 51 37 39
2.005900e+00 -2.533421e-01 4.489421e+00 114 103 104
9.103105e-01 -3.259065e-01 6.331203e+00 145 142 143
8.657599e-01 -2.348343e-01 6.919786e+00 157 148 143
7.494869e-01 -1.989509e-01 7.057879e+00 184 171 163
9.979591e-01 -1.357547e-01 6.600017e+00 140 138 139
2.356116e+00 2.324328e-01 4.697749e+00 139 135 134
6.165119e-01 -9.385361e-02 7.553341e+00 252 255 252
7.806559e-01 1.158383e-01 7.825583e+00 90 89 130
2.000586e+00 5.635395e-01 6.028590e+00 153 134 112
2.109714e+00 6.121666e-01 5.788294e+00 131 120 109
9.981675e-01 2.849596e-01 7.584973e+00 20 19 29
1.153930e+00 3.781265e-01 7.207956e+00 141 136 131
1.668555e+00 5.570457e-01 6.553778e+00 108 99 90
1.008145e+00 3.815069e-01 7.568266e+00 128 121 114
1.138713e+00 4.216677e-01 7.428606e+00 133 125 124
2.057619e+00 7.917698e-01 5.929907e+00 136 120 113
1.400943e+00 7.551972e-01 8.547444e+00 118 108 96
1.999348e+00 1.071560e+00 7.608628e+00 187 208 255
2.000450e+00 -7.942646e-01 -1.022451e-01 26 22 26
2.111096e+00 -3.468801e-01 4.165675e+00 147 138 131
1.318272e+00 -3.744047e-01 6.164280e+00 48 35 52
2.386092e+00 -1.898837e-01 4.385687e+00 130 120 131
1.623149e+00 7.859901e-02 5.554681e+00 76 61 76
1.641745e+00 7.428742e-02 5.632528e+00 76 61 76
1.625169e+00 7.788919e-02 5.563534e+00 76 61 76
1.171779e+00 -1.637113e-03 6.231383e+00 177 163 155
1.465030e+00 7.854764e-02 5.961230e+00 148 141 131
1.431681e+00 7.311351e-02 6.035332e+00 149 140 128
1.099955e+00 8.733560e-02 7.001867e+00 19 23 34
1.099955e+00 8.733560e-02 7.001867e+00 19 23 34
1.111218e+00 9.423516e-02 6.975656e+00 134 132 135
1.929748e+00 3.176321e-01 5.532551e+00 220 203 186
1.082709e+00 8.732808e-02 7.172529e+00 145 144 149
1.129131e+00 2.602300e-01 7.157954e+00 20 19 28
1.824129e+00 5.114680e-01 6.499028e+00 146 147 147
2.258355e+00 6.797676e-01 5.647436e+00 153 147 139
1.449127e+00 4.947441e-01 6.809397e+00 144 131 117
7.881146e-01 3.506941e-01 7.644659e+00 48 42 54
2.077295e+00 6.941803e-01 6.019697e+00 122 109 92
1.129397e+00 5.210340e-01 6.956333e+00 48 46 54
2.087871e+00 1.363689e+00 7.503795e+00 142 136 140
8.124792e-01 -2.339409e+00 -5.680876e-02 199 191 175
9.355079e-02 -1.152906e+00 5.660373e+00 90 77 84
1.240416e-01 -1.129660e+00 6.002346e+00 206 199 181
1.256689e-01 -9.311637e-01 6.046668e+00 33 23 26
6.163755e-01 -5.600963e-01 6.697237e+00 161 152 137
9.449202e-01 -4.944372e-01 6.458741e+00 45 43 60
1.482670e+00 -3.348189e-01 5.910339e+00 153 148 143
2.046889e+00 -2.146938e-01 4.528289e+00 92 75 86
2.023865e+00 -1.867096e-01 4.513935e+00 85 71 74
1.427899e+00 -3.036588e-01 6.159771e+00 46 38 61
1.476763e+00 -2.613469e-01 6.115663e+00 46 43 64
9.006861e-01 -2.234200e-01 6.855309e+00 149 141 141
9.986241e-01 -1.650484e-01 6.624262e+00 114 105 114
9.101870e-01 -1.789120e-01 6.755175e+00 145 139 126
8.789857e-01 -1.033036e-01 6.777159e+00 185 177 174
9.953523e-01 -6.576217e-02 6.716291e+00 94 80 95
1.540921e+00 6.649234e-02 5.850124e+00 141 133 130
1.589992e+00 8.185372e-02 5.869965e+00 170 163 161
1.583200e+00 8.514364e-02 5.958483e+00 172 165 167
9.992993e-01 -3.789668e-02 6.944871e+00 101 91 92
1.722643e+00 1.311320e-01 5.811193e+00 66 53 62
1.654313e+00 1.311619e-01 5.767885e+00 92 77 83
2.386761e+00 2.861310e-01 4.766954e+00 141 142 142
1.120201e+00 9.632666e-02 7.102190e+00 124 127 129
7.693633e-01 4.351639e-02 7.751451e+00 157 159 179
7.889704e-01 7.426985e-02 7.793805e+00 154 156 177
2.046681e+00 5.418345e-01 5.848582e+00 195 179 154
2.153895e+00 5.995477e-01 5.547304e+00 183 169 157
1.035048e+00 2.797807e-01 7.451653e+00 165 154 145
1.781265e+00 5.125875e-01 6.280178e+00 58 52 59
1.729158e+00 5.348372e-01 6.268633e+00 142 142 142
2.016199e+00 5.851315e-01 6.059201e+00 166 149 129
2.276768e+00 6.777936e-01 5.628838e+00 38 37 45
2.065179e+00 6.537416e-01 5.841549e+00 78 70 75
2.208485e+00 7.061367e-01 5.604940e+00 127 114 106
7.743703e-01 3.134975e-01 7.672649e+00 67 55 60
1.040886e+00 3.563123e-01 7.519337e+00 133 122 111
1.127817e+00 3.911318e-01 7.388890e+00 123 111 101
1.824352e+00 6.890440e-01 5.861381e+00 87 74 77
2.276324e+00 8.803869e-01 5.697108e+00 25 16 45
1.262343e+00 6.483301e-01 7.947508e+00 96 90 101
1.268870e+00 6.620376e-01 8.776753e+00 188 214 254
1.322288e+00 1.014046e+00 8.183896e+00 114 110 109
1.152565e+00 9.990267e-01 8.433177e+00 180 206 255
1.421454e-01 -9.308888e-01 5.612571e+00 30 21 30
1.365079e-01 -9.206400e-01 5.660253e+00 139 126 109
1.581077e+00 -5.984814e-01 2.270685e+00 74 53 74
1.273476e+00 -5.854978e-01 3.165663e+00 179 173 170
1.563881e+00 -5.377557e-01 5.660823e+00 37 26 55
6.730673e-01 -4.839773e-01 7.698811e+00 127 122 194
1.307178e+00 -3.613497e-01 6.164009e+00 41 25 42
1.671393e+00 -2.755871e-01 5.686092e+00 126 115 110
1.033104e+00 -3.236412e-01 5.947242e+00 156 124 112
7.531774e-01 -3.802709e-01 6.847197e+00 131 118 109
1.494592e+00 -2.717187e-01 6.118758e+00 175 172 170
1.509802e+00 -2.691722e-01 6.124313e+00 47 32 60
2.106862e+00 -9.147918e-02 4.486275e+00 165 155 153
1.553171e+00 -1.936282e-01 6.115299e+00 36 14 33
2.141990e+00 -3.832621e-02 4.331410e+00 169 167 168
2.141990e+00 -3.832621e-02 4.331410e+00 169 167 168
1.545854e+00 -1.859599e-01 6.153701e+00 176 168 169
1.474213e+00 -1.819644e-01 6.190867e+00 171 161 149
8.006964e-01 -2.507742e-01 6.915043e+00 171 160 142
1.676300e+00 -1.234362e-01 6.158881e+00 123 114 98
1.651924e+00 -1.182594e-01 6.052206e+00 123 114 98
1.664363e+00 -1.068981e-01 6.145079e+00 118 103 86
1.403509e+00 -1.250127e-01 6.376676e+00 151 132 106
9.134355e-01 -1.871158e-01 6.883847e+00 134 125 122
8.096784e-01 -1.934598e-01 6.905540e+00 91 73 63
2.163495e+00 6.359893e-02 4.680564e+00 46 40 49
1.417774e+00 -1.065531e-01 6.385337e+00 145 125 98
2.171494e+00 7.937091e-02 4.689074e+00 129 126 118
1.587578e+00 -8.018885e-02 6.309566e+00 138 133 111
1.648861e+00 -3.047021e-02 5.762921e+00 72 61 65
1.577622e+00 -6.765296e-02 6.200394e+00 134 126 107
8.907881e-01 -1.673945e-01 6.936306e+00 81 68 66
8.907881e-01 -1.673945e-01 6.936306e+00 81 68 66
1.507219e+00 -7.214963e-02 6.340597e+00 150 140 118
2.196996e+00 6.700258e-02 5.151105e+00 42 30 41
2.155465e+00 1.002138e-01 4.913093e+00 133 117 111
9.080848e-01 -1.185354e-01 6.742493e+00 181 176 172
8.564308e-01 -1.047612e-01 6.893889e+00 187 178 179
1.515884e+00 9.258226e-02 5.866814e+00 95 78 88
1.336486e+00 3.977492e-02 6.427195e+00 135 112 106
1.128265e+00 7.562659e-02 7.116338e+00 119 120 119
2.320697e+00 4.111224e-01 4.965897e+00 191 191 195
2.411613e+00 4.280934e-01 4.957888e+00 36 34 70
1.025853e+00 1.963919e-01 7.455232e+00 84 72 76
8.480608e-01 1.218675e-01 8.021783e+00 201 232 255
7.882514e-01 1.464474e-01 7.882491e+00 118 125 193
2.104345e+00 5.177919e-01 5.962410e+00 95 87 74
1.035162e+00 2.653242e-01 7.388743e+00 137 130 122
2.265320e+00 5.887022e-01 5.639466e+00 24 19 33
8.484500e-01 1.667784e-01 8.007215e+00 199 230 251
1.128619e+00 2.947767e-01 7.271318e+00 108 104 95
8.552840e-01 2.104205e-01 8.060771e+00 133 143 223
2.057331e+00 6.117254e-01 5.959655e+00 187 173 154
1.717892e+00 5.717947e-01 6.321248e+00 136 128 133
1.617386e+00 5.342858e-01 6.592041e+00 181 176 173
1.744935e+00 5.697579e-01 6.438617e+00 30 25 40
2.096193e+00 6.656693e-01 6.012006e+00 165 154 136
1.647745e+00 5.841628e-01 6.502421e+00 77 61 68
1.711798e+00 6.010909e-01 6.441364e+00 62 51 59
2.223065e+00 7.529648e-01 5.682025e+00 135 124 117
2.373460e+00 8.273534e-01 5.346834e+00 94 92 87
1.128061e+00 5.381249e-01 8.035610e+00 180 173 157
1.134279e+00 5.612723e-01 8.048982e+00 167 159 146
1.270107e+00 6.746317e-01 7.932805e+00 163 154 152
1.475110e+00 7.877076e-01 8.015936e+00 118 116 119
1.366322e+00 8.108575e-01 8.180888e+00 164 153 138
1.262579e+00 6.767885e-01 8.778366e+00 107 119 208
2.070391e+00 9.667393e-01 7.868440e+00 60 59 166
2.289327e+00 1.274901e+00 7.273050e+00 148 142 142
1.789380e+00 -1.366983e+00 2.634885e+00 198 181 173
1.450113e+00 -5.622087e-01 5.299384e+00 158 152 159
1.927037e+00 -4.758579e-01 5.240646e+00 185 171 154
1.248340e+00 -5.312852e-01 5.945000e+00 166 158 155
1.487811e+00 -4.732358e-01 5.698220e+00 47 35 60
1.217077e+00 -4.803036e-01 6.004521e+00 174 170 161
1.953420e+00 -3.906017e-01 5.357352e+00 118 94 92
1.457141e+00 -4.279407e-01 5.631907e+00 38 12 38
1.350350e+00 -3.810039e-01 6.071225e+00 22 11 26
4.812187e-01 -4.918029e-01 7.294264e+00 219 238 253
7.457601e-01 -4.075908e-01 6.657919e+00 69 47 49
7.466329e-01 -3.927405e-01 6.687900e+00 76 56 56
1.419718e+00 -2.885954e-01 6.067746e+00 203 193 193
1.351361e+00 -2.932603e-01 6.239341e+00 45 12 36
1.687311e+00 -2.433197e-01 5.850334e+00 31 20 28
7.935517e-01 -3.391544e-01 6.669166e+00 117 105 116
1.411718e+00 -2.494082e-01 6.239321e+00 176 170 164
1.698458e+00 -2.110434e-01 5.891310e+00 124 113 95
9.561563e-01 -2.683051e-01 6.426339e+00 153 153 151
2.024386e+00 -8.933884e-02 4.627821e+00 125 108 123
2.131600e+00 -5.501176e-02 4.384543e+00 171 161 160
1.463646e+00 -2.070981e-01 6.210869e+00 163 154 139
8.480385e-01 -2.338548e-01 6.179947e+00 155 152 153
1.409292e+00 -1.978607e-01 6.255941e+00 52 27 47
9.542813e-01 -2.160892e-01 6.536099e+00 161 157 156
2.177720e+00 2.584950e-02 4.515580e+00 95 82 98
8.350712e-01 -2.338972e-01 7.022850e+00 102 82 76
9.287780e-01 -2.148086e-01 6.940615e+00 105 91 92
9.308923e-01 -1.705139e-01 6.643657e+00 147 137 135
1.566070e+00 -7.984731e-02 6.181306e+00 26 19 25
1.543476e+00 -8.358951e-02 6.351069e+00 35 21 33
1.551071e+00 -6.874182e-02 6.301937e+00 33 22 27
8.922397e-01 -1.286192e-01 6.696160e+00 79 66 78
2.045005e+00 7.800293e-02 5.094198e+00 97 71 70
8.779436e-01 -1.118446e-01 6.720792e+00 174 164 162
1.001103e+00 -8.614259e-02 6.621926e+00 69 58 69
8.723110e-01 -1.156229e-01 6.848958e+00 85 71 78
2.266388e+00 1.478999e-01 4.840742e+00 175 168 170
2.204652e+00 1.538429e-01 4.725005e+00 161 147 144
2.153360e+00 1.777302e-01 4.667234e+00 151 143 139
2.139275e+00 1.780910e-01 4.761246e+00 150 139 136
1.619121e+00 5.085347e-02 5.877605e+00 69 54 67
1.075965e+00 -2.468455e-02 6.711052e+00 130 110 112
1.627142e+00 1.341659e-01 5.762410e+00 162 155 155
8.907365e-01 -4.174179e-02 7.098960e+00 90 76 76
8.907365e-01 -4.174179e-02 7.098960e+00 90 76 76
1.435139e+00 9.143714e-02 6.110843e+00 162 148 132
1.391026e+00 1.045683e-01 6.222139e+00 71 57 57
1.394206e+00 1.036806e-01 6.233350e+00 71 57 57
1.599931e+00 1.372731e-01 6.076112e+00 76 67 68
1.394002e+00 1.270626e-01 6.098165e+00 188 168 162
1.676225e+00 1.603985e-01 5.947612e+00 73 62 70
1.662960e+00 2.855099e-01 5.242477e+00 160 144 136
9.385376e-01 1.576575e-01 7.616203e+00 121 97 90
9.120939e-01 1.694052e-01 7.534905e+00 197 183 164
1.054524e+00 2.388317e-01 7.203315e+00 162 157 149
1.004626e+00 2.088938e-01 7.432059e+00 170 159 141
9.293473e-01 2.388744e-01 7.428782e+00 180 169 154
8.770931e-01 1.490999e-01 8.069516e+00 126 139 214
1.016107e+00 2.579814e-01 7.421316e+00 167 170 164
1.108192e+00 3.036419e-01 7.168101e+00 142 135 133
1.055897e+00 2.779950e-01 7.332408e+00 167 167 159
2.050430e+00 5.055776e-01 6.159105e+00 91 83 72
1.065380e+00 3.052956e-01 7.361520e+00 95 78 78
1.125933e+00 3.254870e-01 7.278801e+00 90 80 88
9.398771e-01 2.661618e-01 7.648865e+00 55 52 52
1.041505e+00 3.115548e-01 7.490508e+00 101 90 88
1.977655e+00 5.947292e-01 6.013589e+00 181 165 148
1.143538e+00 3.357270e-01 7.402112e+00 101 90 98
2.052840e+00 6.286537e-01 5.859136e+00 40 18 30
1.442146e+00 4.390872e-01 6.883696e+00 90 78 86
1.112427e+00 3.601758e-01 7.313054e+00 167 157 155
2.154309e+00 6.970318e-01 5.518639e+00 80 63 74
2.336960e+00 7.599093e-01 5.249185e+00 139 134 133
2.369845e+00 7.545448e-01 5.307236e+00 118 118 116
1.532813e+00 4.790736e-01 6.780927e+00 74 66 81
9.541145e-01 3.130026e-01 7.631720e+00 82 66 59
1.407752e+00 4.597234e-01 6.895403e+00 58 45 60
2.496581e+00 9.193003e-01 4.474540e+00 165 154 148
2.015539e+00 6.534497e-01 5.953662e+00 86 75 81
1.627225e+00 5.379195e-01 6.555929e+00 48 29 48
1.138230e+00 3.916508e-01 7.314823e+00 60 51 52
8.031975e-01 3.318596e-01 7.596183e+00 81 67 69
1.383838e+00 4.530582e-01 7.099722e+00 79 58 47
1.524330e+00 4.988133e-01 6.890488e+00 83 70 69
1.696630e+00 5.494378e-01 6.646808e+00 146 134 125
1.314111e+00 4.990256e-01 6.878169e+00 173 156 136
1.653867e+00 5.362365e-01 6.745151e+00 89 71 74
2.830824e+00 7.755409e-01 5.987973e+00 122 128 204
2.417226e+00 9.863706e-01 4.965550e+00 57 45 50
9.970296e-01 4.282942e-01 7.866139e+00 129 107 95
1.253699e+00 4.991803e-01 7.846189e+00 102 91 99
1.100219e+00 5.116361e-01 7.994775e+00 121 112 106
2.438714e+00 1.002082e+00 6.262935e+00 84 80 96
1.124350e+00 6.003452e-01 8.053151e+00 122 105 98
1.295814e+00 6.476443e-01 7.942655e+00 160 155 152
1.144427e+00 6.129310e-01 8.074453e+00 166 159 140
2.232865e+00 9.982588e-01 6.551448e+00 89 85 102
1.079986e+00 6.666945e-01 8.058552e+00 122 108 95
1.156825e+00 7.084101e-01 8.129422e+00 124 112 110
1.417434e+00 7.995035e-01 8.268878e+00 58 43 48
1.452703e+00 9.048714e-01 7.919506e+00 56 46 54
2.025549e+00 1.151988e+00 7.511190e+00 126 126 125
1.288184e+00 1.002962e+00 8.213766e+00 67 55 64
4.315506e-01 -1.708578e+00 3.063474e+00 61 33 32
1.380462e-02 -1.158873e+00 6.063918e+00 192 180 174
3.130231e-01 -1.306579e+00 2.277652e+00 176 163 155
8.201593e-01 -9.741891e-01 2.877738e+00 153 143 136
1.469599e+00 -5.739790e-01 5.392889e+00 22 5 23
1.721887e+00 -4.931350e-01 4.336539e+00 141 111 110
1.244246e+00 -5.308920e-01 5.990734e+00 49 34 59
1.446467e+00 -4.875907e-01 5.546827e+00 169 167 163
1.146489e+00 -3.963753e-01 5.107628e+00 25 4 19
8.532162e-01 -4.660068e-01 6.610235e+00 122 119 110
1.681220e+00 -3.126672e-01 5.773345e+00 23 11 23
1.423164e+00 -3.347359e-01 6.056467e+00 47 20 34
1.972540e+00 -2.399904e-01 5.092448e+00 48 37 42
1.472735e+00 -3.065873e-01 5.944821e+00 30 5 18
2.004557e+00 -1.564473e-01 4.649879e+00 60 42 40
8.268761e-01 -3.190162e-01 6.667396e+00 159 156 154
2.040354e+00 -8.473549e-02 4.640558e+00 178 169 166
2.040354e+00 -8.473549e-02 4.640558e+00 178 169 166
2.039075e+00 -6.670860e-02 4.705262e+00 174 164 162
8.534840e-01 -2.686650e-01 6.850749e+00 161 151 150
2.166217e+00 -6.135118e-03 4.491827e+00 101 91 105
1.642766e+00 -1.178246e-01 6.068143e+00 34 20 29
1.413899e+00 -1.233156e-01 6.368583e+00 51 36 38
8.929081e-01 -1.459225e-01 6.755092e+00 82 66 66
9.810629e-01 -1.048225e-01 6.512737e+00 61 54 64
6.973343e-01 -1.560930e-01 7.210340e+00 106 96 93
7.776780e-01 -1.433644e-01 7.264168e+00 103 78 76
6.431871e-01 -1.178176e-01 7.505926e+00 128 124 131
1.534320e+00 6.678851e-02 6.143467e+00 174 155 151
1.496393e+00 8.207669e-02 6.231392e+00 158 143 137
9.734873e-01 -7.774198e-03 6.942811e+00 144 134 132
9.430488e-01 -4.011452e-03 6.907755e+00 154 143 146
1.040795e+00 5.946182e-02 6.793831e+00 167 162 172
2.018104e+00 4.382381e-01 6.031499e+00 100 77 83
1.102193e+00 2.206633e-01 7.348519e+00 98 81 85
1.212871e+00 2.470096e-01 7.272099e+00 64 56 63
8.829070e-01 1.873504e-01 7.608429e+00 203 188 160
1.178020e+00 3.043335e-01 7.168235e+00 128 127 124
9.777420e-01 2.393338e-01 7.573611e+00 99 79 81
1.068752e+00 3.067947e-01 7.528007e+00 170 162 154
1.071917e+00 3.081283e-01 7.558591e+00 162 152 142
1.108074e+00 3.295728e-01 7.480450e+00 162 152 141
2.129170e+00 6.597898e-01 5.782796e+00 158 149 133
1.405748e+00 4.401281e-01 6.949930e+00 61 50 48
1.137353e+00 3.580929e-01 7.391562e+00 111 95 88
1.995290e+00 6.630911e-01 5.764574e+00 72 64 72
1.614676e+00 5.501649e-01 6.469890e+00 149 142 135
1.441796e+00 4.655331e-01 6.984344e+00 171 149 137
8.685272e-01 2.699219e-01 8.100999e+00 128 146 215
9.037119e-01 2.683591e-01 8.162989e+00 193 222 255
9.038872e-01 2.761754e-01 8.170804e+00 142 159 224
9.038872e-01 2.761754e-01 8.170804e+00 142 159 224
2.099140e+00 7.773640e-01 5.677928e+00 62 53 47
1.210378e+00 4.566412e-01 7.736111e+00 102 96 98
1.910457e+00 4.531811e-01 8.408469e+00 55 52 63
1.244898e+00 5.676296e-01 7.829235e+00 106 97 102
1.919113e+00 5.080313e-01 8.447939e+00 55 51 67
1.262231e+00 6.377861e-01 7.878209e+00 106 99 102
1.273225e+00 6.474727e-01 7.904580e+00 105 95 98
1.920712e+00 5.887104e-01 8.523569e+00 46 45 51
2.339129e+00 1.065976e+00 7.498457e+00 126 118 109
2.431450e+00 1.179648e+00 7.390472e+00 103 95 87
1.351590e+00 1.023390e+00 8.117478e+00 152 138 135
5.492287e-01 -2.866430e+00 -1.110799e+00 67 55 69
1.333283e-01 -1.057719e+00 6.041811e+00 219 196 176
8.194057e-01 -1.053286e+00 2.160007e+00 90 72 84
6.939036e-01 -4.759629e-01 7.757370e+00 213 241 255
1.587812e+00 -1.970597e-01 6.066813e+00 164 155 164
2.017780e+00 -8.017720e-02 4.634629e+00 176 166 170
1.411128e+00 -1.489970e-01 6.343296e+00 191 185 167
7.725298e-01 -1.943626e-01 7.139586e+00 200 181 165
1.485190e+00 -8.853817e-02 6.457524e+00 28 5 4
7.284689e-01 -1.906998e-01 7.277917e+00 95 72 72
1.921509e+00 1.048144e-01 5.148944e+00 93 77 74
2.312165e+00 1.955272e-01 4.781497e+00 169 162 166
2.327642e+00 4.000551e-01 5.081900e+00 103 102 123
7.340752e-01 4.809947e-02 7.504222e+00 105 86 96
1.178100e+00 3.016615e-01 7.194319e+00 51 32 34
9.835735e-01 2.664347e-01 7.653986e+00 153 135 131
1.121381e+00 3.415927e-01 7.435032e+00 161 151 150
9.254721e-01 2.979747e-01 8.204558e+00 197 216 255
2.498729e+00 1.279258e+00 7.013125e+00 99 104 105
1.429676e+00 9.870566e-01 7.986173e+00 121 116 123
1.409267e+00 9.899846e-01 8.058945e+00 65 64 65
2.277361e+00 1.271094e+00 7.320798e+00 152 148 144
1.392731e+00 1.036289e+00 8.070841e+00 55 48 46
2.038957e+00 1.166503e+00 7.717651e+00 181 209 255
3.385135e-01 -7.354387e-01 4.713647e+00 139 119 119
2.738594e+00 9.631484e-01 5.711517e+00 172 176 247
1.944495e+00 1.143392e+00 7.456436e+00 180 201 255
8.540105e-01 -2.261382e+00 -9.956721e-02 138 127 141
2.512511e+00 1.649563e+00 6.280935e+00 123 116 123
-6.296087e-02 -1.400263e+00 4.707317e+00 77 72 67
3.855022e-02 -1.005427e+00 6.151822e+00 115 116 118
4.264345e-03 -1.244810e+00 4.597013e+00 103 106 109
3.557680e-01 -1.421595e+00 2.441866e+00 113 112 109
-8.416781e-02 -1.081828e+00 5.882180e+00 103 103 105
1.000687e-01 -9.645244e-01 5.772485e+00 102 101 97
1.048307e+00 -8.643127e-01 3.186465e+00 26 22 19
3.465517e-01 -9.448665e-01 3.488524e+00 21 16 13
-8.528099e-01 -2.994472e+00 3.899842e-01 81 80 81
-4.718641e-02 -1.145847e+00 4.891516e+00 95 93 93
8.308110e-01 -1.044956e+00 3.129678e+00 113 112 109
1.307234e+00 -8.638472e-01 3.627337e+00 33 29 32
-5.527055e-02 -9.597983e-01 5.981621e+00 88 87 83
2.541194e-01 -3.797225e-01 6.546380e+00 59 62 68
-3.770008e-01 -2.415060e+00 2.726470e+00 36 35 33
1.174652e+00 -1.090040e+00 3.151871e+00 84 83 81
1.110559e+00 -1.110329e+00 2.913877e+00 84 83 81
5.131442e-02 -1.039571e+00 4.452115e+00 92 91 86
8.932807e-02 -9.510381e-01 5.179299e+00 16 13 8
7.820762e-01 -7.566087e-01 6.079642e+00 100 104 107
-1.375440e-01 -8.041596e-01 5.900476e+00 116 115 113
-1.650094e-02 -2.138332e+00 2.285940e+00 18 15 11
-3.666695e-02 -1.373289e+00 4.255249e+00 116 116 114
-1.014008e-01 -1.265893e+00 4.555591e+00 92 92 94
-6.767430e-03 -1.250937e+00 4.421591e+00 37 36 35
-2.070245e-02 -1.281069e+00 3.325055e+00 25 25 25
5.663225e-01 -4.236056e-01 4.862784e+00 113 117 120
1.154925e-01 -1.590399e+00 2.188351e+00 113 111 113
8.791525e-02 -1.153066e+00 6.166335e+00 24 23 30
8.342397e-01 -1.070016e+00 2.663388e+00 58 56 57
-9.886958e-02 -1.069060e+00 5.913847e+00 121 121 123
1.535590e+00 -8.218770e-01 3.715800e+00 20 16 15
1.050656e+00 -2.334793e+00 7.683761e-01 107 106 110
6.365893e-01 -1.217052e+00 2.926682e+00 11 9 11
1.116709e-01 -1.088124e+00 4.161961e+00 103 101 102
7.159748e-02 -1.073673e+00 4.408516e+00 106 104 102
3.191365e-01 -7.305276e-01 4.372554e+00 58 56 46
2.071476e-01 -7.543419e-01 5.622770e+00 89 85 74
1.410362e+00 -1.842749e+00 -3.860443e+00 174 172 177
9.362483e-01 -4.547839e-01 6.610457e+00 55 61 79
4.216947e-01 -5.960884e-01 4.659165e+00 179 178 187
8.404611e-01 -4.739044e-01 7.075287e+00 63 63 85
2.007870e+00 1.153975e+00 7.387426e+00 115 112 126
5.375022e-01 -6.018137e-01 5.973668e+00 177 176 187
5.375022e-01 -6.018137e-01 5.973668e+00 177 176 187
8.820346e-01 1.054869e-02 5.944205e+00 196 197 209
1.179900e+00 4.610058e-01 7.926311e+00 2 8 19
2.395092e+00 1.019065e+00 6.814988e+00 12 16 27
2.308748e+00 1.123891e+00 7.041523e+00 162 166 177
2.308748e+00 1.123891e+00 7.041523e+00 162 166 177
1.130627e+00 9.551765e-01 8.086000e+00 145 145 157
7.648338e-01 -1.218071e-01 6.969941e+00 179 179 189
1.664972e+00 -3.834830e-01 5.474852e+00 141 140 146
9.039099e-01 -7.208332e-02 6.343698e+00 92 90 95
1.644020e+00 8.074473e-02 5.961022e+00 180 180 188
9.034732e-01 -8.992934e-02 6.103816e+00 190 190 200
-2.183380e-02 -1.040266e+00 5.745100e+00 172 175 184
7.123119e-01 -2.835840e-01 5.598177e+00 197 196 210
1.540384e+00 -2.610485e-02 4.492236e+00 192 191 198
7.073103e-01 -1.054905e-01 7.091582e+00 173 176 185
9.611240e-01 2.179665e-01 7.410859e+00 21 13 28
9.657454e-01 2.159644e-01 7.422394e+00 21 13 28
1.095887e+00 2.571983e-01 7.217405e+00 18 17 25
1.061987e+00 3.460428e-01 6.623017e+00 178 179 189
9.204013e-01 2.638732e-01 7.401911e+00 168 168 178
1.037950e+00 2.893703e-01 7.345829e+00 167 167 175
1.367314e+00 4.333069e-01 6.984222e+00 181 180 186
1.366113e+00 4.338908e-01 6.979977e+00 181 180 186
1.791413e+00 6.726351e-01 6.010640e+00 191 191 199
1.501914e+00 6.266498e-01 8.136757e+00 12 12 23
9.984652e-02 -2.165140e+00 4.715043e+00 149 140 143
4.714402e-03 -1.138727e+00 4.724100e+00 179 174 181
1.404472e-01 -1.184927e+00 3.316517e+00 162 156 160
1.110462e+00 -1.195729e+00 9.025912e-01 146 140 144
4.649192e-01 -1.088035e+00 3.442314e+00 172 167 173
5.316771e-01 -1.071084e+00 3.664453e+00 172 167 173
3.868299e-02 -1.029438e+00 4.836865e+00 157 152 159
3.448500e-01 -1.035211e+00 3.517424e+00 172 167 173
-1.209090e-01 -9.920743e-01 5.940841e+00 57 56 62
-1.026635e-01 -9.586405e-01 5.719084e+00 165 164 170
7.299825e-01 -4.859337e-01 6.416310e+00 104 98 102
1.229887e+00 -3.892724e-01 6.175921e+00 60 58 69
7.298406e-01 -3.547192e-01 6.877011e+00 85 80 84
8.909531e-01 -2.229089e-01 3.443005e+00 70 68 81
8.594376e-01 -2.910410e-01 6.598399e+00 174 174 182
9.080195e-01 2.317734e-01 7.531583e+00 159 158 165
9.160121e-01 2.686555e-01 7.557671e+00 28 25 34
9.157270e-01 2.688046e-01 7.556559e+00 28 25 34
1.175365e+00 4.512686e-01 6.732709e+00 168 171 178
1.830873e+00 6.342307e-01 5.961278e+00 183 184 189
1.121074e+00 8.036235e-01 8.108168e+00 140 142 155
1.136154e+00 9.965837e-01 8.187555e+00 76 74 88
-7.016803e-03 -1.292677e+00 5.448054e+00 189 190 192
4.093468e-02 -1.225026e+00 4.712608e+00 176 175 186
-3.079072e-03 -1.144806e+00 5.859232e+00 101 102 107
1.520819e-01 -1.273329e+00 3.121004e+00 168 168 180
8.325130e-02 -1.093195e+00 4.314955e+00 183 177 184
-1.228478e-02 -1.034561e+00 4.989717e+00 160 153 160
-2.649252e-02 -1.039136e+00 4.955759e+00 160 153 160
1.360703e-01 -1.041079e+00 4.142452e+00 162 155 162
6.609397e-01 -9.691447e-01 2.821473e+00 84 76 78
1.193778e-01 -9.660702e-01 3.947484e+00 154 144 148
7.455730e-01 -5.181197e-01 7.015374e+00 162 161 167
1.380244e+00 -3.075752e-01 6.287020e+00 191 191 201
6.736726e-01 -1.595662e-01 7.069929e+00 176 175 181
1.974877e+00 1.886588e-01 5.462621e+00 183 181 186
9.011691e-01 2.194510e-01 7.585846e+00 37 36 44
9.353513e-01 2.285097e-01 7.518008e+00 40 37 45
1.157521e+00 3.062076e-01 7.179963e+00 24 21 32
1.013704e+00 2.917007e-01 7.461191e+00 30 29 37
1.155714e+00 3.782977e-01 7.211680e+00 156 155 161
1.161410e+00 4.351253e-01 6.795728e+00 184 187 193
1.162354e+00 4.631702e-01 6.809057e+00 141 140 146
2.444612e+00 1.035182e+00 5.075166e+00 160 163 172
1.355483e+00 9.711724e-01 8.061395e+00 180 182 194
2.340090e+00 1.300283e+00 7.163490e+00 167 168 183
-4.371208e-01 -1.363941e+00 5.034590e+00 199 199 208
9.338824e-01 -1.247845e+00 6.763095e-01 114 109 115
9.531923e-02 -1.153256e+00 4.019117e+00 165 160 164
4.194516e-02 -1.134027e+00 3.949779e+00 91 87 92
9.228476e-02 -1.096724e+00 4.029453e+00 164 159 163
2.797442e-01 -9.830248e-01 4.630115e+00 56 47 50
8.786645e-01 -9.549848e-01 2.139697e+00 59 50 53
5.749271e-01 -9.299153e-01 3.164301e+00 163 152 158
2.111929e+00 -8.285534e-01 -1.275240e+00 165 159 165
7.304421e-01 -4.419338e-01 6.534588e+00 169 169 175
1.550731e+00 -3.503717e-01 5.769521e+00 172 171 179
1.550731e+00 -3.503717e-01 5.769521e+00 172 171 179
1.547362e+00 -1.892848e-01 6.238597e+00 156 153 162
2.024812e+00 3.869362e-02 5.221435e+00 189 184 188
1.183643e+00 -3.558975e-02 6.282490e+00 87 85 90
1.200537e+00 -6.453306e-03 6.317173e+00 181 181 184
1.199671e+00 -5.098991e-03 6.314143e+00 181 181 184
1.212208e+00 -8.183826e-03 6.355510e+00 181 181 184
1.906710e+00 1.277356e-01 5.473076e+00 169 163 164
1.249341e+00 3.161094e-02 6.347313e+00 182 181 189
1.304104e+00 4.772173e-02 6.218832e+00 171 171 176
1.187571e+00 1.617402e-01 7.181088e+00 163 162 170
9.615764e-01 2.948704e-01 7.591773e+00 168 167 175
7.128116e-01 3.004791e-01 7.446638e+00 78 75 84
1.354734e+00 4.053267e-01 7.046680e+00 107 106 111
1.829517e+00 6.571151e-01 6.022963e+00 99 98 103
1.477100e+00 8.995512e-01 8.125280e+00 94 91 99
1.399004e+00 8.885947e-01 8.241999e+00 164 168 180
-2.023204e-01 -1.205453e+00 5.183626e+00 103 102 110
1.624444e-02 -1.210059e+00 4.568066e+00 87 81 83
2.091651e-01 -1.231275e+00 3.621315e+00 66 61 67
-1.282812e-01 -1.155807e+00 5.347828e+00 111 109 114
-5.644393e-03 -1.151366e+00 4.451428e+00 164 158 160
5.771484e-01 -1.134332e+00 3.005061e+00 81 76 82
2.148771e-01 -1.100370e+00 3.598868e+00 169 164 170
-9.623609e-02 -9.668746e-01 5.401992e+00 41 39 42
-5.891021e-02 -7.832707e-01 5.751200e+00 130 128 138
9.861508e-02 -7.686780e-01 5.745639e+00 101 98 105
4.494479e-01 -7.426449e-01 4.497568e+00 122 117 120
1.332131e+00 -3.484834e-01 6.207874e+00 185 183 196
8.308422e-01 -3.261953e-01 6.615035e+00 156 155 163
1.151259e+00 -1.329631e-01 6.211228e+00 162 160 166
1.169382e+00 -1.073270e-01 6.215098e+00 177 175 178
1.545201e+00 -8.396703e-02 6.403317e+00 165 156 161
1.234459e+00 -4.968489e-02 6.238466e+00 155 153 158
7.113658e-01 -1.290781e-01 7.046519e+00 89 88 96
7.257895e-01 -1.259808e-01 7.126974e+00 191 191 201
1.205033e+00 -3.635957e-02 6.258554e+00 175 174 180
1.201975e+00 -3.662018e-02 6.251471e+00 175 174 180
1.002293e+00 -4.584348e-02 6.639248e+00 187 185 190
1.210269e+00 -1.602898e-02 6.442771e+00 84 79 86
1.339497e+00 1.735869e-02 6.256108e+00 151 149 154
1.223776e+00 1.887032e-02 6.412140e+00 66 61 65
1.486746e+00 7.457634e-02 5.947735e+00 162 160 166
1.913044e+00 1.534591e-01 5.457576e+00 89 83 83
9.147055e-01 3.210315e-02 7.269812e+00 36 36 48
9.432987e-01 4.110939e-02 7.299296e+00 169 171 184
1.126482e+00 7.783622e-02 7.067192e+00 31 31 41
1.615565e+00 1.985204e-01 6.247878e+00 167 170 186
9.847901e-01 1.214819e-01 7.443253e+00 35 29 41
7.322289e-01 2.279247e-01 7.414937e+00 124 122 133
1.325960e+00 3.311708e-01 6.876711e+00 106 104 107
7.238036e-01 2.461654e-01 7.536669e+00 102 102 112
1.132519e+00 4.111214e-01 6.784953e+00 112 115 124
1.832908e+00 5.159419e-01 6.431570e+00 104 103 108
2.278865e+00 7.367313e-01 5.663850e+00 174 173 179
1.387233e+00 9.076991e-01 8.259638e+00 58 62 73
-9.781754e-02 -1.211683e+00 4.756014e+00 173 170 177
-1.450989e-01 -1.216130e+00 4.728820e+00 161 156 162
-9.244089e-02 -1.182039e+00 5.175036e+00 90 83 92
8.427374e-02 -1.219574e+00 4.012584e+00 156 146 153
-2.474777e-02 -1.178091e+00 4.569233e+00 84 78 80
3.336059e-01 -1.154930e+00 3.075468e+00 174 169 174
4.489873e-01 -1.130903e+00 2.996666e+00 168 163 169
-2.363348e-02 -1.012237e+00 5.331154e+00 42 40 45
3.784961e-02 -1.012570e+00 4.937848e+00 49 39 48
7.512189e-02 -1.036352e+00 3.805941e+00 158 149 154
-2.005192e-01 -9.594386e-01 5.427723e+00 114 112 114
1.977479e-01 -9.475172e-01 4.564352e+00 42 36 36
-1.500739e-01 -7.977348e-01 5.665214e+00 135 133 140
1.409749e-01 -7.704177e-01 5.522613e+00 159 158 166
5.769908e-01 -7.341446e-01 4.436750e+00 93 91 96
4.664511e-01 -7.234276e-01 4.391019e+00 181 180 186
1.522426e+00 -4.077291e-01 5.736870e+00 177 177 185
1.467108e-01 -4.578893e-01 6.335679e+00 119 119 131
5.944896e-01 -4.073419e-01 6.898606e+00 97 98 103
1.356418e+00 -3.269484e-01 6.169716e+00 33 31 44
1.272429e+00 -3.263713e-01 6.379089e+00 25 24 30
1.270830e+00 -2.928517e-01 6.327925e+00 163 162 167
1.275305e+00 -2.762341e-01 6.352956e+00 165 162 169
1.557886e+00 -2.343226e-01 5.987129e+00 29 27 38
7.997382e-01 -3.027676e-01 6.839868e+00 77 80 85
1.499401e+00 -1.295332e-01 4.048192e+00 85 88 97
1.547410e+00 -1.877101e-01 6.155462e+00 195 189 199
1.330279e+00 -2.119679e-01 6.439338e+00 158 149 152
1.598503e+00 -1.772301e-01 6.192219e+00 53 53 63
1.510934e+00 -1.873803e-01 6.312951e+00 188 187 195
8.824975e-01 -2.084767e-01 6.772151e+00 162 158 162
9.103362e-01 -1.790018e-01 6.613548e+00 101 97 104
8.839909e-01 -1.323729e-01 6.750388e+00 183 181 186
1.905150e+00 4.521481e-02 5.111839e+00 186 185 191
1.010871e+00 -8.628380e-02 6.643718e+00 88 86 91
