ply
format ascii 1.0
element face 0
property list uchar int vertex_indices
element vertex 950
property float x
property float y
property float z
property uchar diffuse_red
property uchar diffuse_green
property uchar diffuse_blue
end_header
1.276381e+00 7.619826e-01 1.740537e+00 183 172 162
3.036023e-01 5.689154e-01 1.972855e+00 58 51 39
3.036023e-01 5.689154e-01 1.972855e+00 58 51 39
1.677997e+00 9.219369e-01 1.678234e+00 120 104 89
-7.970252e-01 3.536528e-01 2.229321e+00 68 59 44
-1.546442e+00 2.350741e-01 2.411276e+00 17 20 23
1.676751e+00 9.884384e-01 1.689107e+00 120 107 90
-1.015097e+00 4.648177e-01 2.278837e+00 84 75 59
1.388091e+00 1.185776e+00 1.827516e+00 58 57 47
6.317131e-01 6.312860e-01 1.745641e+00 55 55 43
7.564881e-01 1.226100e+00 1.819331e+00 203 192 183
1.788364e+00 1.499589e+00 1.510486e+00 255 255 255
-1.419917e+00 1.092970e+00 2.472723e+00 71 62 53
-1.517708e+00 1.079270e+00 2.492143e+00 80 76 65
1.796312e+00 1.630708e+00 1.522397e+00 135 129 123
1.482115e+00 2.370065e+00 1.997334e+00 123 113 101
1.229889e+00 2.692507e+00 2.196366e+00 190 176 165
-1.496256e+00 2.106729e+00 2.749802e+00 93 86 78
-1.249653e+00 2.474286e+00 2.747660e+00 110 100 90
1.247563e-01 -1.293241e+00 1.653983e+00 38 32 20
3.884497e-01 -1.290906e+00 1.535802e+00 86 69 51
7.451355e-01 -1.250954e+00 1.383310e+00 50 40 28
3.142906e-01 -1.247723e+00 1.575056e+00 37 33 24
2.285364e-01 -1.210620e+00 1.602431e+00 123 107 91
2.330352e-01 -1.213767e+00 1.581547e+00 70 58 42
2.815128e-01 -1.198699e+00 1.570247e+00 82 68 46
1.197228e-01 -1.213924e+00 1.612428e+00 101 84 66
1.267903e-01 -1.210808e+00 1.611460e+00 160 144 129
1.465224e-01 -1.202421e+00 1.608294e+00 171 153 131
3.269968e-01 -1.175282e+00 1.520434e+00 91 78 61
1.134905e-01 -1.142348e+00 1.584477e+00 74 59 40
1.598285e-01 -1.119641e+00 1.581296e+00 69 56 39
3.173825e-01 -1.097423e+00 1.528274e+00 157 140 123
9.722979e-01 -1.011295e+00 1.360128e+00 139 122 102
8.658840e-01 -1.048712e+00 1.344547e+00 98 82 63
-8.255972e-01 -1.200498e+00 1.841270e+00 155 143 127
2.015362e-01 -1.082123e+00 1.563901e+00 150 134 119
-9.802462e-02 -1.120892e+00 1.637290e+00 174 159 146
-1.348438e-01 -1.121198e+00 1.651134e+00 180 166 157
-3.709569e-01 -1.154401e+00 1.701684e+00 138 123 107
2.143849e-01 -1.078511e+00 1.553983e+00 74 63 49
-8.792235e-01 -1.201638e+00 1.851146e+00 58 50 36
5.878589e-02 -1.095985e+00 1.594426e+00 160 144 129
-1.665483e-01 -1.114086e+00 1.654292e+00 137 121 105
-7.080764e-02 -1.101539e+00 1.626563e+00 64 53 39
-6.991510e-01 -1.162158e+00 1.807744e+00 66 58 45
-8.802253e-01 -1.176674e+00 1.852284e+00 67 60 43
-5.272606e-01 -1.166818e+00 1.697609e+00 100 87 70
-4.486587e-01 -1.153157e+00 1.679955e+00 163 147 131
-2.818482e-02 -1.070207e+00 1.603307e+00 184 173 164
4.309816e-01 -9.792260e-01 1.514420e+00 178 160 138
-4.280122e-01 -1.122316e+00 1.670066e+00 132 119 102
-5.835135e-01 -1.136017e+00 1.709456e+00 74 62 46
7.023119e-01 -9.143159e-01 1.450547e+00 163 142 125
5.286462e-01 -9.213469e-01 1.511537e+00 98 80 60
2.964159e-01 -9.466440e-01 1.564267e+00 66 54 35
2.964159e-01 -9.466440e-01 1.564267e+00 66 54 35
-7.699161e-02 -9.916905e-01 1.664195e+00 192 174 158
-4.435145e-01 -1.108737e+00 1.669290e+00 104 88 72
-4.761540e-01 -1.114442e+00 1.675069e+00 111 98 81
1.939716e-01 -9.227188e-01 1.600190e+00 52 41 27
3.967933e-01 -8.401563e-01 1.548617e+00 91 76 57
3.967933e-01 -8.401563e-01 1.548617e+00 91 76 57
9.471239e-01 -7.128011e-01 1.432521e+00 86 71 52
9.471239e-01 -7.128011e-01 1.432521e+00 86 71 52
3.160328e-01 -8.287153e-01 1.556269e+00 193 174 159
6.758317e-01 -7.407662e-01 1.497879e+00 131 114 96
7.985697e-01 -7.193637e-01 1.430834e+00 94 80 60
5.580627e-01 -7.095293e-01 1.521670e+00 163 143 129
8.590772e-01 -7.102128e-01 1.394581e+00 78 64 48
8.081170e-01 -7.004705e-01 1.425111e+00 147 128 111
6.993202e-01 -7.068905e-01 1.447432e+00 84 70 51
-2.973970e-01 -8.045231e-01 1.739457e+00 62 49 32
2.141353e-01 -7.321452e-01 1.595412e+00 182 159 135
-4.645761e-02 -6.998885e-01 1.671366e+00 77 65 50
-6.439813e-01 -7.492286e-01 1.864312e+00 57 48 33
-2.276225e-01 -7.253551e-01 1.716028e+00 151 133 110
-4.426032e-01 -7.876621e-01 1.731440e+00 193 180 163
-9.876727e-02 -6.971699e-01 1.681567e+00 126 111 90
-2.337397e-01 -7.087530e-01 1.715398e+00 126 109 91
7.143635e-01 -5.005340e-01 1.535254e+00 70 60 48
6.788104e-01 -4.632079e-02 1.867284e+00 84 73 53
7.356525e-01 -2.677035e-02 1.831823e+00 69 57 38
6.902505e-01 -2.371833e-02 1.822742e+00 97 85 67
7.917805e-01 -2.285127e-01 1.553106e+00 66 61 51
4.610592e-01 2.191485e-01 2.052752e+00 167 143 114
4.610592e-01 2.191485e-01 2.052752e+00 167 143 114
1.646623e+00 2.221814e-01 1.577659e+00 181 164 148
1.569627e+00 2.540351e-01 1.630239e+00 178 160 144
1.303593e+00 2.636204e-01 1.738428e+00 70 61 46
-1.033881e+00 -1.986322e-01 2.260806e+00 192 180 166
1.635813e+00 2.445938e-01 1.585889e+00 176 159 140
1.570897e+00 3.309373e-01 1.619764e+00 176 163 146
1.526600e+00 3.402044e-01 1.632530e+00 93 80 58
1.354259e+00 4.128869e-01 1.728427e+00 66 54 40
1.131989e+00 3.565569e-01 1.766957e+00 166 150 130
1.238927e+00 3.928459e-01 1.752352e+00 79 67 50
1.461496e+00 3.850886e-01 1.656435e+00 107 92 66
1.430288e+00 4.163963e-01 1.691220e+00 147 127 103
1.376666e+00 4.284842e-01 1.703101e+00 138 122 100
1.208596e+00 4.085978e-01 1.748985e+00 146 125 103
5.467872e-01 3.180369e-01 1.912484e+00 86 77 61
1.291685e+00 4.497522e-01 1.714007e+00 91 78 58
1.680615e+00 5.182401e-01 1.602250e+00 174 158 142
1.284476e+00 4.660111e-01 1.716113e+00 177 155 131
6.214594e-01 3.628665e-01 1.887508e+00 97 86 70
6.214594e-01 3.628665e-01 1.887508e+00 97 86 70
-2.533420e-01 2.449192e-01 2.098706e+00 105 92 75
6.943491e-01 1.820442e-01 1.671141e+00 198 184 171
6.837163e-01 5.375282e-01 1.893292e+00 146 130 115
6.837163e-01 5.375282e-01 1.893292e+00 146 130 115
-5.183617e-01 -5.360188e-02 1.913043e+00 90 79 68
6.150610e-01 5.307120e-01 1.910439e+00 63 52 37
5.103420e-01 5.026568e-01 1.927122e+00 68 60 43
6.995540e-01 5.555620e-01 1.890432e+00 81 68 51
4.545218e-02 4.439483e-01 2.061295e+00 115 102 86
8.000091e-02 4.544331e-01 2.055249e+00 125 111 98
-8.919734e-01 2.270847e-01 2.245225e+00 102 85 65
-6.914173e-01 3.017687e-01 2.202781e+00 136 124 108
-1.070498e+00 2.604640e-01 2.312064e+00 86 76 60
-1.239762e+00 1.916272e-01 2.327439e+00 99 87 68
1.805691e+00 6.266877e-01 1.457648e+00 206 194 186
-3.067089e-01 4.056381e-01 2.120695e+00 70 60 49
-2.320344e-01 4.193885e-01 2.096279e+00 70 59 44
-1.206795e+00 2.184504e-01 2.323965e+00 86 77 58
-1.166073e+00 2.390438e-01 2.314773e+00 88 77 56
-8.014294e-01 3.138779e-01 2.223237e+00 90 85 66
-1.065904e+00 2.851258e-01 2.299164e+00 97 84 65
-1.488808e+00 2.003481e-01 2.394931e+00 168 159 146
1.672692e+00 8.879580e-01 1.656623e+00 184 172 158
1.854595e+00 6.914521e-01 1.428466e+00 112 110 97
1.854595e+00 6.914521e-01 1.428466e+00 112 110 97
1.658516e+00 1.013604e+00 1.733240e+00 145 128 108
-3.909700e-02 5.444412e-01 2.053298e+00 73 65 50
2.037923e+00 1.230954e+00 1.593731e+00 253 251 252
1.671303e+00 1.173072e+00 1.663542e+00 70 63 47
6.517871e-01 1.108798e+00 1.992113e+00 57 47 36
1.647233e+00 1.212253e+00 1.669047e+00 67 60 50
1.666214e+00 1.224821e+00 1.659455e+00 48 42 36
1.655307e+00 1.239219e+00 1.662134e+00 126 117 100
6.750170e-01 1.109323e+00 1.944399e+00 58 46 30
1.112359e+00 1.325719e+00 1.851637e+00 141 129 115
1.450102e+00 1.385326e+00 1.756254e+00 152 134 118
1.362329e+00 1.374485e+00 1.778212e+00 149 132 112
1.339443e+00 1.377062e+00 1.785964e+00 149 132 113
-2.206893e-01 1.050631e+00 2.182816e+00 134 123 112
-9.431172e-01 9.978122e-01 2.425030e+00 89 85 78
1.374896e+00 1.377127e+00 1.768812e+00 99 83 62
1.227589e+00 1.367766e+00 1.816975e+00 159 143 127
2.804317e-01 1.184186e+00 2.060970e+00 198 183 176
1.154742e+00 1.369814e+00 1.832152e+00 93 80 63
-2.132055e-01 1.104763e+00 2.188371e+00 186 178 170
3.667319e-01 1.250355e+00 2.050997e+00 67 63 52
-1.323464e+00 9.071449e-01 2.436713e+00 171 162 147
-5.071085e-02 1.250239e+00 2.152025e+00 162 153 143
1.564643e+00 1.539312e+00 1.662487e+00 57 53 46
-1.212203e-01 1.287973e+00 2.157900e+00 104 92 77
-1.316117e+00 1.034023e+00 2.434821e+00 87 79 65
5.534110e-01 1.486829e+00 1.968787e+00 78 71 62
-1.519974e+00 1.057714e+00 2.501077e+00 158 143 129
1.802355e+00 1.533815e+00 1.504021e+00 138 129 116
1.802355e+00 1.533815e+00 1.504021e+00 138 129 116
1.804513e+00 1.584065e+00 1.515527e+00 133 132 124
1.583212e+00 1.598645e+00 1.588348e+00 186 176 166
-1.695111e+00 8.755158e-01 2.418833e+00 135 115 100
-1.695111e+00 8.755158e-01 2.418833e+00 135 115 100
8.020474e-01 1.566581e+00 1.807898e+00 178 168 159
8.020474e-01 1.566581e+00 1.807898e+00 178 168 159
-1.767362e+00 1.003795e+00 2.445017e+00 153 142 127
1.120027e+00 2.443571e+00 2.106805e+00 105 95 84
1.120027e+00 2.443571e+00 2.106805e+00 105 95 84
1.473251e+00 2.747370e+00 2.009972e+00 175 162 153
1.419883e+00 2.768562e+00 2.035496e+00 179 168 158
-1.040304e+00 2.547448e+00 2.729554e+00 168 156 147
-1.126607e+00 2.439564e+00 2.685254e+00 175 162 152
1.677240e+00 2.726609e+00 1.736602e+00 110 111 101
1.677240e+00 2.726609e+00 1.736602e+00 110 111 101
5.910966e-01 2.956274e+00 2.112587e+00 254 254 254
-1.967254e+00 2.559280e+00 2.860475e+00 255 255 255
1.882209e-01 -1.242487e+00 1.638446e+00 42 34 22
3.690039e-01 -1.241522e+00 1.541423e+00 85 69 46
-7.300242e-02 -1.278879e+00 1.615958e+00 91 74 56
4.476496e-02 -1.216910e+00 1.626624e+00 80 65 44
2.662797e-01 -1.149791e+00 1.544145e+00 169 150 132
9.953930e-01 -1.042174e+00 1.358761e+00 160 146 129
7.253275e-01 -1.071706e+00 1.425414e+00 84 71 54
1.050486e+00 -1.011806e+00 1.341416e+00 47 37 26
3.641852e-01 -1.093584e+00 1.515886e+00 168 152 139
1.497104e-01 -1.116127e+00 1.575351e+00 71 60 46
1.716502e-01 -1.104883e+00 1.572269e+00 79 70 55
2.005526e-01 -1.100160e+00 1.558494e+00 69 56 39
-7.750898e-01 -1.195485e+00 1.829904e+00 163 150 133
-1.610877e-01 -1.129325e+00 1.650747e+00 184 173 164
1.298009e-01 -1.090268e+00 1.577777e+00 144 128 113
1.001932e+00 -9.921789e-01 1.338673e+00 173 160 151
7.210993e-01 -1.050393e+00 1.373499e+00 162 143 128
-6.792981e-01 -1.167490e+00 1.806919e+00 135 124 108
-6.805668e-01 -1.164162e+00 1.802634e+00 56 48 37
-6.402097e-02 -1.100456e+00 1.625411e+00 64 52 38
8.654982e-01 -1.015017e+00 1.342054e+00 92 79 62
-1.450013e-03 -1.089032e+00 1.608015e+00 140 127 108
5.018019e-01 -1.032400e+00 1.471506e+00 95 79 63
-1.854802e-01 -1.110368e+00 1.656229e+00 80 66 51
-8.151609e-01 -1.175896e+00 1.835932e+00 138 124 110
8.241316e-01 -1.018899e+00 1.350729e+00 81 68 49
4.760433e-01 -1.034097e+00 1.471042e+00 150 140 130
-1.892433e-01 -1.106898e+00 1.654209e+00 134 119 103
3.497614e-01 -1.047704e+00 1.502192e+00 91 76 55
-6.807801e-01 -1.154225e+00 1.797535e+00 73 57 41
-2.850159e-01 -1.117152e+00 1.672824e+00 146 133 116
-4.475157e-01 -1.158716e+00 1.680871e+00 113 100 79
-4.667915e-01 -1.152798e+00 1.683920e+00 98 86 70
-4.571795e-01 -1.150163e+00 1.682382e+00 84 72 60
8.339462e-01 -9.991712e-01 1.334321e+00 176 165 156
-5.105980e-01 -1.148252e+00 1.696426e+00 172 155 139
8.475682e-01 -9.842113e-01 1.331860e+00 182 173 167
-4.294392e-01 -1.127738e+00 1.671889e+00 61 53 40
6.658243e-01 -9.293164e-01 1.464775e+00 81 68 52
6.516133e-01 -9.115733e-01 1.480874e+00 65 50 34
8.043468e-01 -9.176920e-01 1.402633e+00 161 144 128
3.019703e-01 -9.447937e-01 1.563803e+00 184 165 141
1.735492e-01 -9.480285e-01 1.601227e+00 59 44 25
6.451208e-01 -8.764250e-01 1.467205e+00 185 166 149
-8.530837e-02 -9.450644e-01 1.671232e+00 107 85 62
9.643078e-01 -7.950280e-01 1.408286e+00 121 103 83
9.643078e-01 -7.950280e-01 1.408286e+00 121 103 83
-4.989713e-01 -1.017964e+00 1.725649e+00 168 145 127
-4.852854e-01 -9.580435e-01 1.724038e+00 88 70 52
-4.844715e-01 -9.519474e-01 1.724202e+00 191 175 161
7.294608e-02 -7.809311e-01 1.652644e+00 81 69 55
7.374303e-01 -7.144054e-01 1.430447e+00 83 68 52
-4.461925e-02 -7.765323e-01 1.668468e+00 66 55 37
8.627621e-01 -6.824865e-01 1.390381e+00 174 159 139
7.854732e-01 -6.825840e-01 1.418256e+00 70 58 42
6.916786e-01 -7.023396e-01 1.428270e+00 192 179 167
-6.900908e-01 -8.278602e-01 1.845192e+00 76 68 54
2.362485e-01 -6.950033e-01 1.601956e+00 70 55 35
-3.733009e-01 -7.324637e-01 1.756053e+00 66 57 38
-3.733009e-01 -7.324637e-01 1.756053e+00 66 57 38
1.251876e+00 1.488721e-03 1.757054e+00 144 128 112
7.225883e-01 -5.350999e-02 1.854446e+00 115 98 78
1.712924e+00 3.862133e-02 1.540347e+00 120 106 85
5.951552e-01 6.150059e-02 2.007321e+00 60 51 39
-9.367862e-01 -6.078692e-01 1.972305e+00 119 106 93
5.510851e-01 1.689582e-01 2.029463e+00 144 124 99
7.096357e-01 8.546710e-03 1.809830e+00 67 60 44
5.396557e-02 -3.314357e-01 1.757555e+00 206 195 189
1.480627e-01 -2.502032e-01 1.744382e+00 111 102 89
1.463106e+00 2.678213e-01 1.675673e+00 97 89 70
1.612271e+00 2.699276e-01 1.602160e+00 115 98 78
-1.004131e-01 1.987344e-01 2.192814e+00 62 54 38
1.067962e+00 2.830461e-01 1.773522e+00 165 149 133
6.828522e-01 2.121019e-01 1.861578e+00 156 138 124
1.350322e+00 4.203699e-01 1.721900e+00 134 121 104
-7.126337e-01 1.763987e-02 2.201134e+00 84 74 55
-1.172185e+00 -5.003202e-02 2.313323e+00 102 90 78
1.294343e+00 4.356526e-01 1.732680e+00 99 84 63
1.710784e+00 2.704140e-01 1.425616e+00 75 66 53
1.541369e+00 4.495547e-01 1.632575e+00 171 155 142
1.338888e+00 4.406147e-01 1.697894e+00 99 85 62
1.664380e+00 5.041094e-01 1.603066e+00 68 61 43
6.470242e-01 3.785876e-01 1.881522e+00 110 95 76
6.493301e-01 4.098922e-01 1.896072e+00 176 163 147
5.444774e-01 3.876534e-01 1.908131e+00 91 83 67
2.875008e-01 4.181112e-01 2.025141e+00 76 65 47
6.089647e-01 4.438183e-01 1.910569e+00 85 75 58
-5.862755e-02 3.744960e-01 2.097638e+00 148 135 119
6.873642e-01 4.917687e-01 1.892772e+00 53 43 32
5.191561e-01 4.455593e-01 1.922557e+00 120 107 91
-2.915325e-01 2.631641e-01 2.098064e+00 156 139 122
5.878567e-01 4.782261e-01 1.918470e+00 65 54 42
1.471673e-01 4.574555e-01 2.035333e+00 116 104 90
3.032441e-02 4.349984e-01 2.063925e+00 137 125 111
-1.003192e+00 2.253018e-01 2.300607e+00 115 102 85
-2.714635e-01 3.512217e-01 2.100427e+00 51 38 25
5.889159e-01 5.697829e-01 1.914098e+00 81 66 46
3.405961e-01 5.414242e-01 1.974895e+00 153 136 120
6.894677e-01 5.622101e-01 1.842757e+00 88 76 53
1.703054e+00 6.391114e-01 1.486508e+00 88 80 69
1.505400e+00 1.049284e+00 1.799618e+00 82 76 60
6.754231e-01 5.744972e-01 1.786247e+00 91 78 59
1.396605e+00 1.055419e+00 1.841952e+00 114 110 97
-1.014293e+00 3.831395e-01 2.291683e+00 125 107 87
6.960980e-01 5.793764e-01 1.757150e+00 121 106 88
8.257120e-01 6.044000e-01 1.717132e+00 82 73 58
1.815494e+00 8.398714e-01 1.480663e+00 160 158 148
1.465808e+00 1.174284e+00 1.839248e+00 50 41 35
1.645609e+00 1.166682e+00 1.756345e+00 115 101 87
1.391945e+00 1.169429e+00 1.857874e+00 19 20 22
1.667293e+00 1.135130e+00 1.710563e+00 93 86 69
1.372966e+00 1.178590e+00 1.856033e+00 98 89 80
1.652967e+00 1.139339e+00 1.704395e+00 66 60 49
1.652967e+00 1.139339e+00 1.704395e+00 66 60 49
1.084915e+00 1.145209e+00 1.930066e+00 38 40 32
-1.393556e+00 4.052177e-01 2.382498e+00 83 71 57
2.051770e+00 1.227849e+00 1.570161e+00 103 112 102
1.205714e+00 1.194956e+00 1.826441e+00 177 163 150
1.014362e+00 1.114139e+00 1.848118e+00 95 84 66
6.517283e-01 1.089040e+00 1.971011e+00 133 116 100
6.517283e-01 1.089040e+00 1.971011e+00 133 116 100
1.732790e+00 1.107969e+00 1.559631e+00 117 107 94
1.524174e+00 1.271960e+00 1.736667e+00 49 44 40
1.786575e+00 1.132718e+00 1.543325e+00 152 139 123
1.667431e+00 1.247287e+00 1.647492e+00 116 107 96
1.185851e+00 1.245605e+00 1.829183e+00 52 48 38
1.654014e+00 1.247885e+00 1.639584e+00 40 37 28
1.614704e+00 1.325955e+00 1.697352e+00 133 119 106
-7.999658e-01 9.278545e-01 2.366725e+00 93 80 63
7.220588e-01 9.913315e-01 1.813856e+00 157 139 118
1.419870e+00 1.377413e+00 1.760954e+00 154 137 120
1.754534e+00 1.279317e+00 1.550283e+00 188 177 165
5.091976e-01 1.307949e+00 2.028859e+00 94 82 64
1.075311e-01 1.165165e+00 2.094679e+00 80 76 64
7.370926e-01 1.128693e+00 1.826600e+00 102 85 67
7.063056e-01 1.127265e+00 1.836660e+00 63 51 38
6.731267e-01 1.121510e+00 1.842813e+00 69 57 35
6.731267e-01 1.121510e+00 1.842813e+00 69 57 35
3.344561e-01 1.281934e+00 2.067186e+00 141 127 112
-4.298699e-01 1.082853e+00 2.237166e+00 82 73 56
-1.066112e-01 1.158849e+00 2.148127e+00 72 68 57
3.907120e-01 1.321040e+00 2.032384e+00 73 64 56
-3.938328e-01 1.137021e+00 2.222268e+00 173 158 145
-2.128540e-01 1.217053e+00 2.184429e+00 82 75 65
1.694239e+00 1.442477e+00 1.570927e+00 74 66 58
6.682135e-01 1.248340e+00 1.850499e+00 179 163 148
-1.768401e-01 1.266689e+00 2.174097e+00 159 142 127
-2.062634e-01 1.261666e+00 2.179040e+00 163 150 134
-2.062634e-01 1.261666e+00 2.179040e+00 163 150 134
-2.379010e-01 1.267285e+00 2.190638e+00 161 144 130
-1.177967e+00 1.046890e+00 2.412722e+00 143 131 114
-1.407168e+00 1.045577e+00 2.470498e+00 83 78 66
-1.514002e+00 1.037165e+00 2.497841e+00 56 56 48
-6.061903e-01 1.081037e+00 2.151491e+00 175 162 150
-6.089007e-01 1.083566e+00 2.139834e+00 51 47 38
-1.697631e+00 9.256053e-01 2.425605e+00 67 57 44
-1.697631e+00 9.256053e-01 2.425605e+00 67 57 44
5.598198e-01 1.503006e+00 1.877803e+00 68 61 51
-1.765264e+00 9.469294e-01 2.447625e+00 86 72 59
-1.758932e+00 9.775620e-01 2.449019e+00 85 73 62
-1.760919e+00 1.027256e+00 2.443686e+00 80 76 64
1.360590e+00 2.698117e+00 2.135945e+00 117 109 96
1.293558e+00 2.741549e+00 2.160325e+00 96 88 77
1.020524e+00 2.677244e+00 2.229166e+00 122 108 96
1.667339e+00 2.211869e+00 1.726711e+00 191 180 171
9.899027e-01 2.701665e+00 2.234310e+00 93 87 75
4.942130e-01 2.447582e+00 2.224303e+00 186 173 165
1.322504e+00 2.815979e+00 2.083199e+00 61 55 47
8.430519e-01 2.766929e+00 2.210380e+00 94 83 71
9.261788e-01 2.802628e+00 2.186962e+00 75 72 62
1.100631e+00 2.784812e+00 2.101515e+00 80 72 61
-1.019690e+00 2.516791e+00 2.716760e+00 17 28 30
-8.663771e-01 2.556339e+00 2.678788e+00 113 103 93
-8.894134e-01 2.599846e+00 2.693068e+00 101 91 81
-9.111845e-01 2.624431e+00 2.703169e+00 100 90 81
-1.017684e+00 2.594727e+00 2.726757e+00 121 113 104
-7.745886e-01 2.474899e+00 2.565498e+00 174 157 144
-1.071569e+00 2.603174e+00 2.703365e+00 144 131 122
-1.077752e+00 2.606917e+00 2.693157e+00 77 70 60
-1.043855e+00 2.651598e+00 2.688471e+00 63 59 52
-1.023882e+00 2.673679e+00 2.686765e+00 53 50 44
-4.580366e-01 2.733048e+00 2.496956e+00 250 254 254
-1.101555e+00 2.618347e+00 2.683043e+00 158 145 134
-1.450512e+00 2.605503e+00 2.797361e+00 131 121 112
-1.407939e+00 2.672419e+00 2.788889e+00 57 52 46
-1.480033e+00 2.617452e+00 2.777281e+00 145 136 123
-1.301201e+00 2.659144e+00 2.718557e+00 62 59 50
-1.383455e+00 2.715757e+00 2.740765e+00 62 64 52
-6.585945e-01 2.821736e+00 2.397752e+00 156 146 142
1.923655e-01 -1.250429e+00 1.636510e+00 46 33 17
4.286972e-01 -1.256462e+00 1.509648e+00 56 44 30
2.753792e-01 -1.191387e+00 1.571456e+00 152 135 115
3.760023e-01 -1.198872e+00 1.505989e+00 87 73 55
9.999435e-01 -1.024394e+00 1.358535e+00 83 69 49
-6.528898e-01 -1.178494e+00 1.798882e+00 78 67 49
-8.444392e-01 -1.200390e+00 1.845399e+00 92 80 63
7.935455e-01 -1.043337e+00 1.361557e+00 76 63 46
7.475652e-01 -1.044568e+00 1.376621e+00 85 69 49
7.209662e-01 -1.048156e+00 1.380095e+00 57 47 31
1.017766e+00 -9.899160e-01 1.334029e+00 172 161 148
5.821274e-02 -1.090002e+00 1.593588e+00 89 74 55
8.761893e-01 -1.016929e+00 1.336024e+00 74 61 42
8.451894e-01 -1.018330e+00 1.347135e+00 97 81 63
5.609201e-01 -1.028954e+00 1.452940e+00 80 64 49
-4.562990e-01 -1.145124e+00 1.681578e+00 177 165 149
-4.475603e-01 -1.145054e+00 1.675793e+00 177 162 147
-4.790425e-01 -1.147904e+00 1.685025e+00 65 55 39
-4.751840e-01 -1.147600e+00 1.682407e+00 170 155 143
1.068026e+00 -9.006209e-01 1.354081e+00 68 55 41
1.066846e+00 -8.982376e-01 1.350470e+00 178 158 142
7.863013e-01 -9.045146e-01 1.418302e+00 136 120 104
3.817277e-02 -9.732649e-01 1.636691e+00 168 151 131
3.588044e-02 -9.692692e-01 1.634479e+00 82 64 47
1.871617e-01 -9.373795e-01 1.602527e+00 96 76 52
6.457071e-01 -8.842977e-01 1.463059e+00 86 69 49
5.662518e-01 -8.074781e-01 1.510493e+00 108 88 64
2.724194e-01 -8.087879e-01 1.588499e+00 189 173 150
9.467854e-01 -6.990337e-01 1.418282e+00 154 130 110
8.326795e-01 -7.234066e-01 1.432007e+00 165 145 130
6.775837e-01 -7.206153e-01 1.487165e+00 142 124 108
8.479531e-01 -7.218411e-01 1.413991e+00 105 90 77
5.381797e-01 -7.250748e-01 1.528526e+00 111 94 74
8.418376e-01 -7.048453e-01 1.395700e+00 171 154 135
6.969724e-01 -7.023815e-01 1.435189e+00 77 61 46
7.797204e-01 -6.829148e-01 1.420436e+00 124 108 93
1.999937e-01 -7.136587e-01 1.606940e+00 79 62 39
8.478926e-01 -6.525394e-01 1.404519e+00 151 131 107
2.195414e-01 -6.981024e-01 1.603584e+00 105 82 54
2.244267e-01 -6.912890e-01 1.603803e+00 141 121 95
2.283601e-01 -6.822845e-01 1.605968e+00 72 57 34
2.283601e-01 -6.822845e-01 1.605968e+00 72 57 34
2.191675e-01 -6.856731e-01 1.606117e+00 72 59 40
-8.315716e-02 -7.308407e-01 1.679081e+00 139 120 102
7.274311e-01 -6.383208e-01 1.441522e+00 71 60 40
-3.458141e-01 -7.314885e-01 1.751919e+00 67 52 29
6.869106e-01 -5.008268e-01 1.564746e+00 87 75 59
6.740242e-01 -5.106895e-01 1.557444e+00 134 118 105
6.350493e-01 -5.103943e-01 1.570587e+00 80 69 53
-4.702291e-01 -7.549635e-01 1.748437e+00 152 133 112
1.672920e+00 1.059065e-01 1.595007e+00 93 83 64
1.694908e+00 9.007980e-02 1.567682e+00 79 63 50
1.282381e+00 -2.018527e-01 1.448816e+00 196 182 174
7.322212e-01 -6.959144e-03 1.814169e+00 120 108 94
7.149161e-01 -1.240070e-02 1.813874e+00 143 131 115
7.149161e-01 -1.240070e-02 1.813874e+00 143 131 115
2.552693e-02 6.585731e-02 2.141353e+00 127 115 101
2.488000e-01 -2.482256e-01 1.725189e+00 180 166 157
-1.349455e-01 1.031091e-01 2.184111e+00 81 68 52
1.724949e-01 -2.215004e-01 1.740442e+00 195 177 163
-4.030560e-02 2.422254e-01 2.177563e+00 153 135 117
1.711633e+00 3.658304e-01 1.579416e+00 78 68 50
1.288897e+00 3.930010e-01 1.761422e+00 128 115 96
1.462970e+00 3.794214e-01 1.670587e+00 152 135 115
1.261868e+00 3.926576e-01 1.750535e+00 65 53 37
1.275591e+00 4.084431e-01 1.740088e+00 68 56 38
6.123282e-01 3.052985e-01 1.885159e+00 145 131 119
1.712486e+00 4.918019e-01 1.547729e+00 94 77 64
1.712486e+00 4.918019e-01 1.547729e+00 94 77 64
6.962891e-01 1.567146e-01 1.669123e+00 201 189 177
3.121728e-01 4.108858e-01 2.007466e+00 147 135 119
1.706480e+00 6.199571e-01 1.605713e+00 70 58 41
6.943270e-01 2.207065e-01 1.678477e+00 192 171 153
1.698189e+00 5.008806e-01 1.490117e+00 79 72 55
1.666864e+00 6.615026e-01 1.589511e+00 125 115 105
6.379529e-01 5.600649e-01 1.903533e+00 149 132 114
6.106793e-01 5.586834e-01 1.910714e+00 160 145 126
6.106793e-01 5.586834e-01 1.910714e+00 160 145 126
5.994691e-01 5.615523e-01 1.915814e+00 156 141 120
3.119311e-01 5.000403e-01 1.976896e+00 80 75 61
5.180219e-01 5.536916e-01 1.932822e+00 160 147 130
5.180219e-01 5.536916e-01 1.932822e+00 160 147 130
5.041326e-01 5.528906e-01 1.936902e+00 177 162 143
5.041326e-01 5.528906e-01 1.936902e+00 177 162 143
4.785865e-01 5.501746e-01 1.940734e+00 169 153 134
4.653055e-01 5.495157e-01 1.945597e+00 171 155 139
4.469128e-01 5.456883e-01 1.947572e+00 167 153 142
4.025870e-01 5.456589e-01 1.960487e+00 165 153 135
-1.476932e+00 1.394983e-01 2.385029e+00 78 70 52
1.686625e+00 7.857036e-01 1.620230e+00 94 84 67
1.679789e+00 6.399624e-01 1.511720e+00 122 109 93
1.519985e+00 9.562968e-01 1.796302e+00 184 171 158
-7.110594e-01 3.515475e-01 2.204132e+00 65 57 38
-3.120437e-01 4.891189e-01 2.122259e+00 148 134 120
-3.243298e-01 4.892940e-01 2.126720e+00 142 133 118
6.768400e-01 8.735084e-01 1.939811e+00 133 116 98
1.651925e+00 1.126921e+00 1.691935e+00 148 135 116
1.076955e+00 1.163498e+00 1.933612e+00 84 82 71
1.657907e+00 1.143800e+00 1.689097e+00 85 77 60
9.286183e-01 1.099229e+00 1.892196e+00 112 95 74
6.582041e-01 1.076116e+00 1.972682e+00 162 145 129
1.664786e+00 1.190219e+00 1.656237e+00 79 72 56
7.349244e-01 8.724863e-01 1.802390e+00 153 135 115
1.499128e+00 1.243279e+00 1.745721e+00 73 61 44
1.569974e+00 1.251938e+00 1.720307e+00 112 98 87
6.708423e-01 1.079042e+00 1.952236e+00 162 143 126
1.292730e+00 1.230491e+00 1.802820e+00 74 63 45
5.078394e-01 1.090625e+00 2.002278e+00 63 56 45
7.284057e-01 9.276345e-01 1.807655e+00 155 138 116
1.782148e+00 1.162709e+00 1.547169e+00 97 85 69
1.223909e+00 1.230978e+00 1.805366e+00 183 169 154
3.840402e-01 1.127277e+00 2.053541e+00 72 68 60
1.704479e+00 1.176353e+00 1.566495e+00 64 57 46
1.149770e+00 1.300951e+00 1.860910e+00 94 84 74
1.003997e+00 1.239964e+00 1.875272e+00 83 75 60
6.698609e-01 1.138047e+00 1.939896e+00 81 69 55
6.131231e-01 1.198549e+00 2.001360e+00 142 129 115
1.689763e+00 1.190111e+00 1.572842e+00 160 139 128
9.694197e-01 1.261901e+00 1.895969e+00 46 42 31
1.697708e+00 1.209866e+00 1.572177e+00 65 57 51
5.039539e-01 1.161060e+00 2.002773e+00 62 54 39
9.742822e-01 1.271277e+00 1.885294e+00 79 69 57
8.575988e-02 1.054733e+00 2.091232e+00 81 73 62
3.556590e-01 1.177671e+00 2.060966e+00 73 66 52
-2.113788e-02 1.059610e+00 2.130083e+00 62 55 46
1.403722e+00 1.364712e+00 1.764267e+00 157 144 125
-4.924809e-01 6.634828e-01 2.049963e+00 94 88 74
1.262297e+00 1.354758e+00 1.803202e+00 166 149 134
1.209811e+00 1.354637e+00 1.819565e+00 156 140 124
1.126851e+00 1.347704e+00 1.840820e+00 152 135 117
7.192277e-01 1.081914e+00 1.830651e+00 142 125 106
7.192277e-01 1.081914e+00 1.830651e+00 142 125 106
2.702930e-01 1.186140e+00 2.066087e+00 92 82 70
1.142653e+00 1.365371e+00 1.838451e+00 138 123 104
1.116149e+00 1.363498e+00 1.845534e+00 136 123 104
3.369438e-01 1.228259e+00 2.056216e+00 96 84 70
1.625412e+00 1.344668e+00 1.627687e+00 87 75 61
7.124357e-02 1.155457e+00 2.108590e+00 177 164 153
-7.462842e-02 1.141697e+00 2.155128e+00 83 74 66
1.866341e+00 1.284888e+00 1.489015e+00 253 255 254
3.254948e-01 1.317725e+00 2.062134e+00 80 67 51
3.138208e-01 1.313904e+00 2.062048e+00 72 59 43
1.904768e-01 1.296504e+00 2.094122e+00 176 161 148
-1.825417e-01 1.187687e+00 2.172156e+00 102 92 78
7.807380e-01 1.185679e+00 1.787505e+00 91 79 63
7.307086e-01 1.217941e+00 1.825732e+00 194 180 167
-3.769991e-01 1.167185e+00 2.211223e+00 111 98 79
-6.333431e-02 1.275459e+00 2.149661e+00 159 147 132
-1.469959e-01 1.268116e+00 2.167357e+00 166 153 140
6.502942e-01 1.270047e+00 1.846166e+00 128 111 94
-7.477332e-01 1.171605e+00 2.298529e+00 73 65 53
6.743759e-01 1.343289e+00 1.845340e+00 148 131 115
1.126052e+00 2.144468e+00 2.085960e+00 135 122 104
-5.567310e-01 1.095444e+00 2.128889e+00 160 150 135
1.474400e+00 2.274528e+00 2.008172e+00 141 125 111
1.469717e+00 2.333955e+00 2.016363e+00 139 125 109
-1.363134e+00 1.185057e+00 2.448100e+00 75 63 47
-5.322376e-01 1.171846e+00 2.122373e+00 133 119 101
1.107067e+00 2.431496e+00 2.126918e+00 136 118 102
-1.082813e+00 1.992902e+00 2.631485e+00 95 82 69
6.853252e-01 2.080760e+00 1.996057e+00 153 137 122
1.339994e+00 2.819954e+00 2.095123e+00 113 105 94
1.572763e+00 2.606080e+00 1.888274e+00 170 159 147
1.215050e+00 2.799591e+00 2.116594e+00 69 60 51
5.758386e-01 2.555065e+00 2.209094e+00 173 157 144
5.758386e-01 2.555065e+00 2.209094e+00 173 157 144
5.574282e-01 2.553752e+00 2.216546e+00 178 162 149
5.574282e-01 2.553752e+00 2.216546e+00 178 162 149
1.549535e+00 2.738268e+00 1.918746e+00 68 61 51
9.461120e-01 2.820080e+00 2.173330e+00 75 75 64
1.017654e+00 2.820843e+00 2.142168e+00 125 112 96
9.998417e-01 2.867589e+00 2.155601e+00 162 149 136
5.977137e-01 2.581858e+00 2.157137e+00 85 74 64
1.634511e+00 2.770868e+00 1.792804e+00 100 109 102
1.609502e+00 2.801281e+00 1.800501e+00 101 111 102
-1.065621e+00 2.670767e+00 2.681254e+00 133 126 114
-9.293144e-01 2.719592e+00 2.624339e+00 57 59 48
-1.083596e+00 2.680777e+00 2.663083e+00 85 81 70
-1.012228e+00 2.727862e+00 2.646403e+00 99 96 84
-1.269904e+00 2.659930e+00 2.702838e+00 89 81 70
6.020929e-01 2.863992e+00 2.087703e+00 118 112 99
-1.294227e+00 2.671201e+00 2.707810e+00 82 76 64
6.160430e-01 2.915057e+00 2.092886e+00 251 252 255
6.012253e-01 2.922549e+00 2.085989e+00 127 123 113
6.012253e-01 2.922549e+00 2.085989e+00 127 123 113
-1.532335e+00 2.802048e+00 2.765351e+00 67 63 53
-1.406169e+00 2.831028e+00 2.727279e+00 139 129 119
5.190447e-01 -1.073721e+00 1.481645e+00 96 80 58
2.455247e-01 -1.096559e+00 1.544280e+00 66 50 33
7.184834e-01 -1.050500e+00 1.382062e+00 147 131 118
-3.449345e-01 -1.142295e+00 1.697168e+00 75 62 45
-3.449345e-01 -1.142295e+00 1.697168e+00 75 62 45
8.335000e-01 -1.021473e+00 1.347367e+00 99 84 64
7.741332e-01 -1.018053e+00 1.361495e+00 85 70 51
1.066003e+00 -9.034215e-01 1.364491e+00 66 49 35
1.067071e+00 -8.079111e-01 1.361949e+00 95 83 69
1.187415e+00 -6.540073e-01 1.345258e+00 149 135 116
1.087062e+00 -6.191154e-01 1.386010e+00 78 64 45
2.452482e-01 -7.033460e-01 1.596455e+00 71 51 26
8.194594e-01 -6.566919e-01 1.408474e+00 81 64 42
2.557290e-01 -6.942139e-01 1.596576e+00 148 126 103
3.777456e-01 -6.713892e-01 1.566601e+00 88 70 45
2.996617e-01 -6.824830e-01 1.585359e+00 136 119 99
7.008067e-01 -6.577191e-01 1.447700e+00 133 117 93
7.574002e-01 -6.540059e-01 1.427105e+00 165 144 117
-5.738383e-02 -7.345857e-01 1.672760e+00 64 47 27
7.000772e-01 -6.400358e-01 1.447133e+00 78 65 49
-1.646543e-01 -7.265478e-01 1.702532e+00 165 144 120
7.250958e-01 -5.048406e-01 1.544664e+00 79 66 52
1.077679e+00 -4.640878e-01 1.439108e+00 94 83 66
5.932253e-01 7.698236e-02 2.009955e+00 73 56 35
5.932253e-01 7.698236e-02 2.009955e+00 73 56 35
1.272499e+00 8.157921e-02 1.700599e+00 200 188 176
1.215184e+00 1.130148e-01 1.720788e+00 130 115 93
1.542176e+00 1.611575e-01 1.628847e+00 193 181 169
-1.689324e-01 7.628702e-02 2.195502e+00 87 71 51
4.470084e-01 2.072950e-01 2.062013e+00 131 114 94
4.644276e-01 2.104359e-01 2.054347e+00 76 64 43
7.344188e-01 7.321140e-02 1.797688e+00 112 95 78
1.452587e+00 2.872573e-01 1.678643e+00 115 105 88
1.457306e+00 2.944189e-01 1.676284e+00 80 73 55
7.254887e-01 1.806505e-01 1.814735e+00 99 83 61
1.077176e+00 2.967935e-01 1.767658e+00 149 131 107
1.244490e+00 3.929921e-01 1.764224e+00 123 107 91
1.352215e+00 4.082405e-01 1.718366e+00 74 66 47
1.414667e+00 4.381000e-01 1.659541e+00 77 71 56
1.548831e+00 4.734332e-01 1.631227e+00 178 164 149
1.659127e+00 5.142405e-01 1.601409e+00 162 156 142
1.570146e+00 5.268246e-01 1.631311e+00 107 97 82
1.633752e+00 5.431645e-01 1.616978e+00 140 134 122
1.695484e+00 6.359204e-01 1.608310e+00 65 52 39
-8.805186e-01 1.753889e-01 2.257640e+00 81 72 53
1.782577e+00 5.073817e-01 1.451588e+00 112 102 90
1.782577e+00 5.073817e-01 1.451588e+00 112 102 90
-2.764101e-01 3.605902e-01 2.097952e+00 164 151 135
1.520068e+00 9.605989e-01 1.789527e+00 124 106 92
1.697923e+00 6.438568e-01 1.484569e+00 144 132 121
1.005214e-01 5.329813e-01 2.029323e+00 73 58 42
-3.168607e-01 4.365766e-01 2.118732e+00 58 48 34
1.424384e+00 9.661098e-01 1.817960e+00 181 163 151
-8.040268e-01 3.336669e-01 2.226667e+00 182 169 153
-1.412316e-01 5.027470e-01 2.082819e+00 160 146 133
-1.900747e-01 4.993369e-01 2.093933e+00 167 154 141
-1.818337e-01 5.052947e-01 2.088134e+00 84 72 56
-2.598454e-01 4.927943e-01 2.109125e+00 168 154 142
5.600879e-01 7.080811e-01 1.941745e+00 119 106 90
1.081354e+00 9.800605e-01 1.918226e+00 58 45 35
1.495477e+00 1.086032e+00 1.804075e+00 129 119 104
1.493139e+00 1.116475e+00 1.814614e+00 55 48 38
1.376362e+00 1.093392e+00 1.841506e+00 78 68 58
1.384403e+00 1.180841e+00 1.856597e+00 85 75 73
2.048418e+00 1.224471e+00 1.582780e+00 252 251 250
1.678343e+00 1.145735e+00 1.667208e+00 95 83 67
1.678343e+00 1.145735e+00 1.667208e+00 95 83 67
1.554701e+00 1.148916e+00 1.711785e+00 78 70 59
1.236069e+00 1.137249e+00 1.791940e+00 137 126 114
7.392814e-01 8.626307e-01 1.804275e+00 153 134 117
7.392814e-01 8.626307e-01 1.804275e+00 153 134 117
1.424265e+00 1.211874e+00 1.763931e+00 98 86 73
1.236760e+00 1.148475e+00 1.788065e+00 92 86 74
1.420888e+00 1.218625e+00 1.760534e+00 151 139 126
5.368315e-01 1.063621e+00 2.000010e+00 175 156 142
1.301585e+00 1.228454e+00 1.798168e+00 98 85 69
1.217692e+00 1.193628e+00 1.805759e+00 176 166 152
1.414908e+00 1.238112e+00 1.756243e+00 158 149 134
5.175583e-01 1.088429e+00 2.006095e+00 135 121 110
1.481348e+00 1.269907e+00 1.740412e+00 140 127 117
1.481348e+00 1.269907e+00 1.740412e+00 140 127 117
5.130727e-01 1.102424e+00 1.995208e+00 92 84 71
1.611254e+00 1.341724e+00 1.708456e+00 62 51 39
1.015100e+00 1.226134e+00 1.863445e+00 175 162 145
2.974681e-01 1.088957e+00 2.042380e+00 91 81 69
1.123956e+00 1.322774e+00 1.849052e+00 93 83 71
1.776943e+00 1.208936e+00 1.525179e+00 163 153 143
-4.941030e-01 6.543243e-01 2.052066e+00 196 178 170
5.587644e-01 1.245436e+00 2.013400e+00 98 82 61
1.773120e+00 1.271630e+00 1.543703e+00 100 93 77
1.626844e+00 1.354530e+00 1.641580e+00 90 82 69
9.699392e-01 1.338339e+00 1.885153e+00 139 124 108
1.087675e-01 1.160830e+00 2.103239e+00 163 150 141
7.196316e-01 1.113328e+00 1.836998e+00 108 89 72
1.867124e+00 1.268089e+00 1.485023e+00 112 122 119
2.505094e-01 1.217087e+00 2.075605e+00 104 94 82
7.659517e-01 1.150373e+00 1.814091e+00 145 130 111
3.854321e-01 1.335998e+00 2.044202e+00 128 115 101
1.766332e-01 1.287789e+00 2.093995e+00 164 148 134
2.656452e-01 1.316672e+00 2.067531e+00 138 125 109
-9.167416e-02 1.231573e+00 2.153820e+00 103 86 72
2.084074e-01 1.309631e+00 2.079691e+00 140 122 108
3.954887e-02 1.282437e+00 2.128253e+00 164 152 138
7.290747e-01 1.281925e+00 1.840776e+00 136 121 101
-4.096218e-01 1.240602e+00 2.227918e+00 75 67 52
6.664793e-01 1.290527e+00 1.842904e+00 124 109 89
-9.497388e-01 1.219904e+00 2.343806e+00 72 62 46
1.116300e+00 2.288400e+00 2.116731e+00 172 159 143
1.104624e+00 2.439501e+00 2.146684e+00 140 123 107
-6.648983e-01 1.245934e+00 2.160808e+00 110 95 76
1.585495e+00 2.100573e+00 1.747199e+00 150 141 130
1.339767e+00 2.729698e+00 2.136274e+00 66 60 49
1.016892e+00 2.680568e+00 2.216439e+00 75 67 56
1.411854e+00 2.714174e+00 2.063839e+00 95 87 71
1.392341e+00 2.779685e+00 2.050053e+00 92 89 76
1.566515e+00 2.625988e+00 1.894376e+00 130 122 109
1.566515e+00 2.625988e+00 1.894376e+00 130 122 109
1.574567e+00 2.612151e+00 1.879190e+00 99 88 76
1.059574e+00 2.720663e+00 2.127214e+00 94 92 77
1.041791e+00 2.760533e+00 2.141616e+00 79 79 66
5.533987e-01 2.572565e+00 2.231380e+00 103 89 76
9.568732e-01 2.821812e+00 2.199869e+00 114 105 97
1.657128e+00 2.456633e+00 1.745417e+00 249 253 254
1.646572e+00 2.451779e+00 1.746459e+00 135 139 132
5.863473e-01 2.582636e+00 2.211987e+00 102 89 73
1.550101e+00 2.739518e+00 1.919269e+00 68 61 51
1.643336e+00 2.482258e+00 1.750060e+00 130 139 130
9.693595e-01 2.813923e+00 2.166752e+00 81 78 65
5.933657e-01 2.557180e+00 2.180852e+00 164 151 134
9.235661e-01 2.826324e+00 2.180905e+00 84 79 67
1.618856e+00 2.653783e+00 1.790339e+00 97 87 77
-1.036309e+00 2.586266e+00 2.722610e+00 96 83 74
-8.309829e-01 2.604663e+00 2.581848e+00 145 135 123
-4.693557e-01 2.744214e+00 2.499854e+00 147 139 136
-9.699873e-01 2.717538e+00 2.656791e+00 94 88 79
-1.101669e+00 2.627338e+00 2.661495e+00 141 133 122
8.406572e-01 -1.035353e+00 1.347447e+00 157 144 128
9.360459e-01 -6.738466e-01 1.418872e+00 144 135 116
1.183611e+00 -6.121935e-01 1.359339e+00 83 68 46
9.948235e-01 -6.240702e-01 1.411879e+00 83 69 45
4.427496e-01 -6.741010e-01 1.550741e+00 88 68 41
3.376939e-01 -6.879677e-01 1.575833e+00 99 77 46
4.704367e-01 -6.587078e-01 1.545428e+00 137 120 104
2.823565e-01 -5.010595e-01 1.646989e+00 127 114 98
1.658946e+00 9.067437e-02 1.590721e+00 164 153 134
1.619106e+00 2.469962e-01 1.592106e+00 93 81 65
4.381316e-01 2.606418e-01 2.066977e+00 134 117 92
1.347518e+00 3.454630e-01 1.741215e+00 135 126 109
1.551680e+00 3.175489e-01 1.618564e+00 118 105 86
2.129002e-01 3.297105e-01 2.138219e+00 110 95 71
1.436792e+00 4.031902e-01 1.662899e+00 134 118 92
1.624370e+00 4.185925e-01 1.600706e+00 175 168 154
1.396471e+00 4.228707e-01 1.677931e+00 115 103 80
1.549686e+00 4.658012e-01 1.630113e+00 90 80 68
1.367497e+00 6.184201e-01 1.702421e+00 111 98 79
1.692413e+00 5.076545e-01 1.477923e+00 155 146 134
5.839354e-01 5.107696e-01 1.908106e+00 171 162 147
5.554429e-01 5.225242e-01 1.919506e+00 80 68 54
4.520707e-01 5.620432e-01 1.951778e+00 78 66 50
1.846217e+00 6.385841e-01 1.444402e+00 253 253 252
1.098207e+00 9.016658e-01 1.908531e+00 105 95 88
1.846618e+00 6.789218e-01 1.452321e+00 128 127 113
1.086791e+00 9.150048e-01 1.910154e+00 71 56 42
1.088022e+00 9.686073e-01 1.911159e+00 113 103 94
1.829083e+00 8.035474e-01 1.466247e+00 174 174 167
2.051445e+00 1.217297e+00 1.572077e+00 246 245 241
7.367061e-01 8.295239e-01 1.794529e+00 162 148 132
7.367061e-01 8.295239e-01 1.794529e+00 162 148 132
1.213101e+00 1.208157e+00 1.818892e+00 161 147 136
1.155393e+00 1.243179e+00 1.846458e+00 147 137 125
9.977223e-01 1.211844e+00 1.869667e+00 136 127 112
9.784477e-01 1.252636e+00 1.886514e+00 75 65 53
1.126959e+00 1.313884e+00 1.854604e+00 75 65 55
3.571575e-01 1.176199e+00 2.052665e+00 153 145 136
1.217901e-01 1.151814e+00 2.103292e+00 150 140 131
2.903654e-01 1.194156e+00 2.063294e+00 110 94 84
1.874603e+00 1.268009e+00 1.484909e+00 251 255 255
2.557573e-01 1.250254e+00 2.069931e+00 90 82 69
-1.439762e-01 1.163280e+00 2.161352e+00 112 98 85
6.318245e-01 1.129816e+00 1.828221e+00 90 80 68
1.466112e-01 1.293888e+00 2.101381e+00 89 76 60
7.768390e-01 1.203209e+00 1.799080e+00 174 160 147
1.571796e-01 1.301815e+00 2.094920e+00 82 67 54
-1.157468e-01 1.287386e+00 2.158668e+00 79 67 52
1.418453e+00 2.718328e+00 2.037377e+00 121 115 103
1.025315e+00 2.773010e+00 2.154892e+00 104 99 94
1.547062e+00 2.506575e+00 1.804032e+00 144 138 124
1.547062e+00 2.506575e+00 1.804032e+00 144 138 124
5.920019e-01 2.571474e+00 2.193407e+00 104 91 78
1.032682e+00 2.807413e+00 2.137770e+00 137 122 109
5.936276e-01 2.579738e+00 2.179069e+00 94 81 67
9.962891e-01 2.841677e+00 2.154229e+00 122 111 97
6.488949e-01 2.590132e+00 2.065219e+00 124 107 90
5.827230e-01 2.615066e+00 2.069213e+00 93 79 68
6.189880e-01 2.682907e+00 2.070031e+00 140 131 120
1.692849e+00 1.025499e-01 1.551582e+00 128 113 95
1.692849e+00 1.025499e-01 1.551582e+00 128 113 95
1.054160e+00 3.367676e-01 1.751943e+00 106 92 75
1.254563e+00 4.706801e-01 1.711982e+00 102 90 73
1.282229e+00 4.820211e-01 1.707075e+00 131 122 107
2.981236e-01 5.470464e-01 1.983843e+00 103 87 71
2.053128e+00 1.219837e+00 1.564017e+00 248 254 252
1.085676e+00 1.355188e+00 1.855709e+00 120 101 83
2.241653e-01 -2.076695e+00 1.915748e+00 58 60 67
4.748096e-01 -2.068881e+00 1.803192e+00 62 64 68
3.582277e-01 -2.128875e+00 1.849367e+00 120 129 136
6.716059e-01 -2.263960e+00 1.888447e+00 118 123 121
4.391064e-01 -2.176313e+00 1.899515e+00 52 57 61
1.036040e-01 -2.063793e+00 1.948373e+00 135 140 140
8.060467e-01 -1.731242e+00 1.444825e+00 159 160 155
2.858920e-01 -1.593464e+00 1.797591e+00 158 153 140
4.333330e-01 -1.474691e+00 1.635727e+00 141 135 127
6.282689e-01 -2.258900e+00 1.903319e+00 50 52 59
6.598601e-01 -2.073218e+00 1.753898e+00 119 124 128
5.163610e-01 -2.008796e+00 1.785692e+00 38 38 40
2.118184e-01 -1.995018e+00 1.883934e+00 137 141 138
2.007371e-01 -1.930214e+00 1.861233e+00 143 144 139
9.586903e-03 -1.845302e+00 1.852665e+00 141 141 133
1.250081e-01 -1.700494e+00 1.870238e+00 150 148 132
6.452215e-01 -1.665085e+00 1.554533e+00 143 146 150
3.607291e-01 -1.672832e+00 1.768299e+00 155 150 130
3.607291e-01 -1.672832e+00 1.768299e+00 155 150 130
4.642789e-01 -1.626201e+00 1.711020e+00 81 77 68
6.890897e-01 -2.333053e+00 1.934003e+00 113 117 118
7.469637e-01 -2.271890e+00 1.862815e+00 122 132 132
6.290544e-01 -2.191507e+00 1.849098e+00 122 127 121
6.071173e-01 -2.192601e+00 1.873592e+00 52 57 61
7.218074e-01 -1.990713e+00 1.659489e+00 59 59 54
2.951803e-01 -2.015129e+00 1.853852e+00 154 162 158
1.289372e-01 -2.019955e+00 1.921527e+00 144 148 146
6.980681e-01 -1.930556e+00 1.643046e+00 105 101 99
1.543114e-01 -1.945994e+00 1.860461e+00 139 145 143
5.966699e-01 -1.795228e+00 1.656895e+00 90 86 75
3.767875e-01 -1.413206e+00 1.656580e+00 143 140 134
3.985907e-01 -2.348388e+00 2.010487e+00 112 118 118
3.449504e-01 -2.229054e+00 1.951412e+00 44 46 54
3.968780e-01 -2.158514e+00 1.864437e+00 115 133 135
5.866126e-01 -2.058662e+00 1.798962e+00 120 127 123
1.642115e-01 -2.006591e+00 1.898634e+00 153 161 157
5.495121e-01 -1.935505e+00 1.745919e+00 136 144 146
6.419513e-01 -1.842338e+00 1.646538e+00 143 148 141
-3.493790e-02 -1.895120e+00 1.860663e+00 73 70 64
-3.844997e-02 -1.905552e+00 1.846972e+00 73 70 64
5.862155e-01 -1.746628e+00 1.652991e+00 78 73 66
-1.110333e-01 -1.826604e+00 1.816523e+00 166 162 149
6.758335e-01 -1.708518e+00 1.546779e+00 156 158 153
5.408183e-01 -1.669757e+00 1.657623e+00 96 89 83
3.297839e-01 -1.675770e+00 1.778648e+00 103 101 100
5.202253e-01 -1.607033e+00 1.654164e+00 149 149 141
2.029752e-01 -1.235880e+00 1.636818e+00 141 139 123
4.203397e-01 -2.312841e+00 1.965275e+00 126 133 136
4.394885e-01 -2.282394e+00 1.944339e+00 108 119 128
4.240832e-01 -2.247963e+00 1.913939e+00 108 112 113
3.262164e-01 -2.133902e+00 1.873790e+00 115 117 113
5.801839e-01 -2.038484e+00 1.787554e+00 135 140 138
1.248134e-01 -2.073825e+00 1.953061e+00 126 129 122
6.490909e-01 -2.019301e+00 1.742617e+00 110 114 115
1.059134e-01 -2.031114e+00 1.935911e+00 96 97 98
1.236786e-01 -1.985233e+00 1.907364e+00 137 148 145
8.785145e-02 -1.982450e+00 1.894825e+00 146 151 144
1.066461e-01 -1.938510e+00 1.879196e+00 138 143 138
5.015537e-01 -1.855075e+00 1.756928e+00 153 158 157
3.733963e-01 -1.866192e+00 1.791750e+00 159 165 165
6.189399e-01 -1.791601e+00 1.636286e+00 153 157 153
5.524814e-01 -1.733299e+00 1.687126e+00 140 142 131
1.490381e-01 -1.552590e+00 1.787941e+00 91 83 73
4.713083e-01 -2.365032e+00 2.001940e+00 103 114 115
4.699881e-01 -2.341688e+00 1.989454e+00 119 123 121
3.794486e-01 -2.309476e+00 1.981264e+00 97 106 106
7.264955e-01 -2.252268e+00 1.855735e+00 60 61 57
7.264955e-01 -2.252268e+00 1.855735e+00 60 61 57
1.558695e-01 -2.023272e+00 1.912276e+00 42 39 41
3.114192e-01 -2.010495e+00 1.843950e+00 155 165 166
3.006964e-01 -1.995052e+00 1.848014e+00 109 110 106
1.281646e-01 -2.000087e+00 1.912907e+00 107 106 102
3.965679e-01 -1.953561e+00 1.801956e+00 152 155 152
7.527469e-01 -1.935816e+00 1.577295e+00 105 102 103
1.514236e-01 -1.966568e+00 1.876091e+00 90 83 80
4.695676e-01 -1.924834e+00 1.779704e+00 121 117 113
5.622226e-01 -1.906560e+00 1.750897e+00 94 95 93
1.357213e-01 -1.952296e+00 1.881130e+00 152 157 153
1.656269e-01 -1.951071e+00 1.860821e+00 154 160 160
7.478678e-01 -1.898650e+00 1.578853e+00 105 101 97
6.389494e-01 -1.903470e+00 1.660832e+00 146 149 146
5.122681e-01 -1.900893e+00 1.765749e+00 145 153 147
7.628100e-02 -1.940832e+00 1.911871e+00 103 99 96
8.757972e-02 -1.934859e+00 1.905918e+00 144 156 155
1.282947e-01 -1.930875e+00 1.889672e+00 108 106 100
5.558141e-01 -1.876020e+00 1.746792e+00 114 117 112
1.290004e-01 -1.933100e+00 1.867092e+00 132 143 138
1.707254e-01 -1.910656e+00 1.865957e+00 92 89 84
1.709757e-01 -1.910416e+00 1.866223e+00 92 89 84
1.694682e-01 -1.912229e+00 1.864177e+00 92 89 84
1.872002e-01 -1.901726e+00 1.850037e+00 104 106 100
4.518807e-01 -1.856802e+00 1.768954e+00 162 168 167
3.457500e-01 -1.851305e+00 1.792990e+00 105 103 109
-6.307254e-02 -1.905639e+00 1.848291e+00 145 146 133
7.558041e-01 -1.781419e+00 1.511579e+00 117 114 105
-5.803377e-02 -1.866265e+00 1.835961e+00 153 156 143
3.410101e-01 -1.745660e+00 1.775973e+00 101 91 81
2.898829e-01 -1.700594e+00 1.783995e+00 157 156 143
1.743334e-01 -1.681531e+00 1.822166e+00 76 67 68
3.206355e-01 -1.605267e+00 1.777331e+00 106 106 105
2.056151e-01 -1.292002e+00 1.678838e+00 77 66 62
1.015620e-01 -1.247521e+00 1.620008e+00 145 144 137
1.834105e-01 -2.347282e+00 2.065687e+00 45 48 55
4.392067e-01 -2.300737e+00 1.953925e+00 73 74 70
4.392067e-01 -2.300737e+00 1.953925e+00 73 74 70
3.442134e-01 -2.151108e+00 1.877479e+00 59 61 66
5.518127e-01 -2.013556e+00 1.794835e+00 118 123 117
1.403173e-01 -2.059980e+00 1.913111e+00 99 101 95
2.736820e-01 -1.998073e+00 1.855548e+00 98 95 94
7.587501e-02 -1.992127e+00 1.903691e+00 98 100 93
5.413909e-01 -1.929188e+00 1.762302e+00 153 158 161
1.455587e-01 -1.954991e+00 1.876415e+00 150 154 147
2.480348e-01 -1.946682e+00 1.834313e+00 110 110 99
3.546344e-01 -1.929406e+00 1.801745e+00 134 137 134
1.133996e-01 -1.948834e+00 1.879838e+00 139 144 140
3.909197e-01 -1.910534e+00 1.789417e+00 111 114 109
2.814932e-01 -1.911214e+00 1.820902e+00 157 159 154
1.427007e-01 -1.923580e+00 1.865098e+00 85 84 79
6.242631e-01 -1.848766e+00 1.662673e+00 133 130 125
2.512218e-01 -1.881535e+00 1.825638e+00 165 169 168
6.711241e-01 -1.849996e+00 1.608085e+00 79 75 73
4.967845e-01 -1.792081e+00 1.751189e+00 159 162 155
2.218943e-01 -1.768841e+00 1.828034e+00 89 88 84
6.137448e-01 -1.737806e+00 1.623849e+00 75 67 65
1.428919e-01 -1.783475e+00 1.836268e+00 139 137 127
3.512519e-01 -1.754666e+00 1.778376e+00 129 137 136
1.645180e-01 -1.778626e+00 1.830297e+00 133 136 129
2.039310e-01 -1.772455e+00 1.815657e+00 137 139 129
1.875899e-01 -1.774636e+00 1.824636e+00 141 151 143
3.650146e-01 -1.739124e+00 1.773086e+00 147 150 141
3.169400e-01 -1.746552e+00 1.781800e+00 102 95 88
6.766922e-01 -1.724185e+00 1.561929e+00 80 75 70
2.019063e-01 -1.694360e+00 1.813512e+00 98 90 80
4.905083e-01 -1.647952e+00 1.702607e+00 112 105 100
6.633863e-01 -1.611650e+00 1.506521e+00 118 119 115
3.317260e-01 -1.617553e+00 1.772153e+00 154 152 138
5.371320e-01 -1.589461e+00 1.620950e+00 158 159 157
4.722183e-01 -1.585242e+00 1.675396e+00 162 171 179
3.920367e-01 -1.383995e+00 1.620866e+00 164 162 164
5.723274e-01 -1.349918e+00 1.441533e+00 97 98 101
3.272439e-01 -1.285522e+00 1.598163e+00 115 106 103
2.190308e-01 -1.254127e+00 1.633703e+00 157 154 146
4.836740e-01 -2.376852e+00 2.012787e+00 105 114 111
7.300318e-01 -2.244395e+00 1.843799e+00 108 113 116
3.796392e-01 -2.176905e+00 1.874945e+00 79 82 81
6.980231e-01 -2.117895e+00 1.755051e+00 130 132 133
1.276465e-01 -2.055999e+00 1.908385e+00 78 79 81
1.494857e-01 -2.046321e+00 1.904401e+00 102 104 101
4.084674e-01 -2.005576e+00 1.817218e+00 51 43 46
2.725698e-01 -2.020126e+00 1.857016e+00 51 45 48
2.743320e-01 -2.014165e+00 1.864858e+00 51 45 48
6.667895e-01 -1.947843e+00 1.681585e+00 107 112 111
5.768055e-01 -1.945217e+00 1.762176e+00 98 99 105
1.139885e-01 -1.989188e+00 1.915156e+00 100 99 94
2.608266e-01 -1.980117e+00 1.849889e+00 104 104 98
4.440693e-01 -1.943092e+00 1.788018e+00 111 110 105
4.440693e-01 -1.943092e+00 1.788018e+00 111 110 105
4.775008e-01 -1.926685e+00 1.775486e+00 108 103 98
-2.103257e-02 -2.000257e+00 1.871418e+00 92 82 75
-2.103257e-02 -2.000257e+00 1.871418e+00 92 82 75
2.963646e-01 -1.947732e+00 1.822462e+00 144 143 137
-3.552248e-02 -1.996848e+00 1.867312e+00 152 150 138
-3.552248e-02 -1.996848e+00 1.867312e+00 152 150 138
5.450967e-01 -1.910014e+00 1.757377e+00 139 142 140
2.356811e-01 -1.933485e+00 1.836605e+00 92 94 93
-9.856909e-02 -1.987421e+00 1.857080e+00 144 140 128
1.734937e-01 -1.932896e+00 1.850563e+00 141 149 145
2.971328e-01 -1.913531e+00 1.809523e+00 157 158 153
7.738885e-01 -1.875728e+00 1.537778e+00 140 142 141
5.011340e-01 -1.877114e+00 1.756937e+00 136 145 140
9.826003e-02 -1.915566e+00 1.875682e+00 141 142 137
5.928328e-01 -1.854455e+00 1.704326e+00 142 144 143
3.366851e-01 -1.879872e+00 1.803375e+00 109 110 107
6.790470e-01 -1.859153e+00 1.607487e+00 144 153 156
6.546174e-02 -1.911486e+00 1.879257e+00 95 94 86
3.256944e-01 -1.876178e+00 1.799969e+00 164 167 164
5.715545e-01 -1.838749e+00 1.704039e+00 143 144 136
3.209740e-01 -1.843307e+00 1.797472e+00 142 143 138
5.158248e-01 -1.813294e+00 1.748408e+00 151 150 135
3.057750e-01 -1.832629e+00 1.800803e+00 90 81 75
3.056574e-01 -1.831531e+00 1.802358e+00 90 81 75
3.359665e-01 -1.825419e+00 1.790637e+00 143 148 137
6.170117e-01 -1.798630e+00 1.653292e+00 92 94 94
3.292991e-01 -1.819883e+00 1.795068e+00 53 48 45
2.464003e-01 -1.803511e+00 1.821785e+00 118 114 113
-1.646840e-01 -1.882524e+00 1.802805e+00 151 151 140
1.789611e-01 -1.781818e+00 1.829979e+00 91 83 81
2.636871e-01 -1.751136e+00 1.798482e+00 103 96 90
2.006278e-01 -1.752187e+00 1.821008e+00 111 112 117
3.396904e-01 -1.716552e+00 1.772105e+00 99 94 91
5.697849e-01 -1.644944e+00 1.609304e+00 135 141 129
5.257565e-01 -1.632525e+00 1.656926e+00 94 97 90
