ply
format ascii 1.0
element face 0
property list uchar int vertex_indices
element vertex 942
property float x
property float y
property float z
property uchar diffuse_red
property uchar diffuse_green
property uchar diffuse_blue
end_header
-1.704363e+00 4.077140e+00 2.553262e+00 196 192 189
2.430328e+00 3.961011e+00 3.261034e+00 192 186 172
-2.485858e+00 4.202527e+00 2.661836e+00 147 144 127
1.635225e+00 3.933447e+00 2.922043e+00 198 193 186
-1.027148e+00 4.002095e+00 2.446343e+00 104 91 75
-3.910406e+00 4.410808e+00 2.865121e+00 175 171 162
-3.449596e+00 4.343951e+00 2.762954e+00 124 118 103
5.303737e-01 3.916962e+00 2.518605e+00 107 95 81
-1.352473e+00 4.099517e+00 2.531365e+00 95 82 75
-2.475790e+00 4.247963e+00 2.669361e+00 87 77 74
-2.475790e+00 4.247963e+00 2.669361e+00 87 77 74
-2.576281e+00 4.289951e+00 2.678672e+00 83 70 69
3.019793e+00 4.051229e+00 3.462007e+00 177 171 158
-9.176841e-01 4.074294e+00 2.451863e+00 142 126 103
2.563504e+00 4.046740e+00 3.277710e+00 153 143 139
1.916856e+00 4.015812e+00 2.996833e+00 138 125 101
1.280269e+00 4.045697e+00 2.800177e+00 76 66 58
2.255443e+00 4.103186e+00 3.175101e+00 206 205 192
-1.013184e+00 4.188597e+00 2.522814e+00 144 134 124
4.367652e-01 4.054432e+00 2.536030e+00 183 184 171
-2.593938e+00 4.416052e+00 2.668429e+00 126 119 113
9.441822e-01 4.097076e+00 2.682652e+00 152 146 124
7.296693e-01 4.081356e+00 2.594774e+00 82 67 46
2.753194e+00 4.153161e+00 3.338735e+00 95 78 72
7.643427e-02 4.112473e+00 2.491995e+00 60 49 44
1.079709e+00 4.129974e+00 2.742663e+00 93 80 76
9.716527e-01 4.147432e+00 2.713975e+00 149 146 131
-2.076147e+00 4.400510e+00 2.614661e+00 160 154 137
2.697823e+00 4.190796e+00 3.308895e+00 108 94 84
1.090775e+00 4.181541e+00 2.739595e+00 151 145 131
-3.133267e+00 4.594231e+00 2.715681e+00 79 69 64
-1.781761e+00 4.459856e+00 2.602760e+00 47 36 36
-3.124330e+00 4.645680e+00 2.730380e+00 174 171 155
1.173668e+00 4.263367e+00 2.805754e+00 114 104 94
2.713896e+00 4.310326e+00 3.329497e+00 99 81 67
6.454544e-01 4.280738e+00 2.649944e+00 172 162 150
-3.380985e+00 4.730985e+00 2.751970e+00 178 178 162
-3.380985e+00 4.730985e+00 2.751970e+00 178 178 162
3.453987e-01 4.276907e+00 2.540372e+00 123 116 98
-9.714808e-01 4.420754e+00 2.524098e+00 97 85 80
2.383767e+00 4.334103e+00 3.183369e+00 103 91 83
-3.113643e+00 4.742190e+00 2.732264e+00 183 180 163
-3.980833e-01 4.403969e+00 2.534375e+00 178 174 162
2.369263e+00 4.372147e+00 3.185620e+00 180 175 152
-6.244320e-01 4.431624e+00 2.522559e+00 175 167 156
-4.710355e-01 4.429129e+00 2.534439e+00 50 40 38
-4.709698e-01 4.429669e+00 2.536554e+00 50 40 38
-4.709698e-01 4.429669e+00 2.536554e+00 50 40 38
-3.232172e+00 4.805962e+00 2.741765e+00 94 80 69
-3.232172e+00 4.805962e+00 2.741765e+00 94 80 69
1.634502e+00 4.410161e+00 2.966527e+00 112 107 104
-1.890355e+00 4.657559e+00 2.617532e+00 172 170 157
-2.651660e+00 4.759225e+00 2.659577e+00 103 92 89
-2.698512e+00 4.803511e+00 2.675001e+00 168 157 138
1.559565e+00 4.458518e+00 2.925480e+00 186 183 175
-2.974961e+00 4.857221e+00 2.710614e+00 191 189 177
4.832451e-01 4.443893e+00 2.610434e+00 210 201 192
3.500129e-01 4.461912e+00 2.596878e+00 135 123 114
-1.749075e+00 4.715325e+00 2.625077e+00 183 180 171
-2.063600e+00 4.745237e+00 2.615815e+00 192 190 179
-1.520304e+00 4.709628e+00 2.605442e+00 57 44 42
2.603870e+00 4.565477e+00 3.304765e+00 137 133 132
-2.971623e+00 4.941197e+00 2.711964e+00 192 193 179
9.541499e-01 4.532399e+00 2.741362e+00 136 124 108
-3.018908e+00 4.954505e+00 2.710745e+00 118 114 117
2.567230e+00 4.586741e+00 3.287005e+00 145 135 139
2.123342e+00 4.557069e+00 3.101636e+00 87 74 58
2.123342e+00 4.557069e+00 3.101636e+00 87 74 58
-2.274835e+00 4.835895e+00 2.613993e+00 91 89 87
2.530190e+00 4.613661e+00 3.271339e+00 126 118 120
2.004833e-01 4.577245e+00 2.588178e+00 78 64 55
-7.669352e-01 4.671561e+00 2.545583e+00 164 148 132
1.323302e+00 4.599419e+00 2.897939e+00 90 81 73
2.008221e+00 4.589736e+00 3.056780e+00 188 181 163
-2.255852e+00 4.874804e+00 2.619627e+00 185 192 181
-1.024188e+00 4.757964e+00 2.598393e+00 174 165 148
-1.024188e+00 4.757964e+00 2.598393e+00 174 165 148
-6.758016e-01 4.690812e+00 2.540678e+00 152 137 117
6.493042e-01 4.618464e+00 2.665246e+00 67 53 46
1.275439e+00 4.656372e+00 2.887250e+00 201 195 179
6.893816e-01 4.637463e+00 2.684387e+00 106 94 78
-2.727335e+00 5.025513e+00 2.687293e+00 174 170 158
1.499182e+00 4.649835e+00 2.918603e+00 188 184 173
-2.022701e+00 4.921257e+00 2.599181e+00 125 116 107
1.854060e+00 4.668688e+00 2.999680e+00 171 166 140
1.979561e+00 4.701291e+00 3.071664e+00 104 89 70
1.984060e+00 4.694225e+00 3.059334e+00 104 89 70
1.822750e+00 4.686712e+00 2.992145e+00 181 176 147
-2.055699e+00 4.964592e+00 2.609572e+00 185 180 160
-1.113590e+00 4.876847e+00 2.599582e+00 145 139 125
2.212428e+00 4.743704e+00 3.160379e+00 103 89 79
1.794242e+00 4.724876e+00 2.986457e+00 76 64 65
6.511043e-01 4.776477e+00 2.717832e+00 85 72 62
-2.479619e+00 5.110967e+00 2.658888e+00 195 190 171
1.664056e+00 4.807876e+00 2.959988e+00 78 65 58
1.664056e+00 4.807876e+00 2.959988e+00 78 65 58
-1.212819e-02 4.832680e+00 2.580986e+00 148 132 108
7.082264e-01 4.839444e+00 2.740934e+00 89 75 65
-1.646356e+00 5.054833e+00 2.588668e+00 109 96 85
-1.637767e+00 5.039390e+00 2.578307e+00 109 96 85
7.210204e-01 4.894579e+00 2.761149e+00 78 70 62
-2.752033e-01 4.958336e+00 2.615075e+00 80 67 58
1.530774e+00 4.888134e+00 2.932756e+00 194 188 165
-1.976609e+00 5.162559e+00 2.615824e+00 181 174 156
1.444781e+00 4.888779e+00 2.906398e+00 157 144 125
-1.833484e+00 5.179664e+00 2.613924e+00 175 170 158
-1.421891e+00 5.136184e+00 2.576736e+00 178 165 148
-1.837402e+00 5.218639e+00 2.617820e+00 176 173 150
-2.133257e+00 5.266130e+00 2.630148e+00 127 117 121
1.233106e+00 5.002769e+00 2.849096e+00 74 59 53
-1.631540e+00 5.243854e+00 2.600672e+00 80 62 43
-1.426836e+00 5.312546e+00 2.604932e+00 91 77 68
1.332816e+00 5.124102e+00 2.903334e+00 81 75 61
2.516998e-01 5.143582e+00 2.645314e+00 108 94 88
-1.892295e+00 5.403993e+00 2.605955e+00 225 229 232
-1.244276e+00 5.332799e+00 2.600459e+00 203 195 180
-1.134495e+00 5.351450e+00 2.598915e+00 177 168 154
-5.525406e-01 5.299858e+00 2.579461e+00 117 103 81
9.401146e-01 5.225721e+00 2.801042e+00 173 166 145
-8.609360e-01 5.371705e+00 2.589700e+00 168 158 138
6.829418e-01 5.260820e+00 2.732292e+00 183 172 158
-3.933215e-01 5.324343e+00 2.581014e+00 94 78 64
-8.932340e-01 5.432933e+00 2.605887e+00 100 82 70
6.052695e-01 5.334203e+00 2.722878e+00 161 147 120
7.645307e-01 5.365769e+00 2.763778e+00 81 70 61
2.606479e+00 -1.874557e+00 4.581993e+00 182 181 179
3.265394e+00 -1.867193e+00 4.989294e+00 147 146 141
3.890490e+00 -1.856043e+00 5.442538e+00 80 76 73
5.879164e-01 -1.766259e+00 3.630075e+00 114 113 111
-4.730368e+00 -2.117828e+00 4.946945e+00 141 134 118
-6.289159e+00 -2.165885e+00 5.205507e+00 158 155 147
3.002022e-01 -1.658702e+00 3.621677e+00 57 56 52
-2.461143e-01 -1.672091e+00 3.567219e+00 153 151 146
5.025699e-01 -1.632978e+00 3.554967e+00 131 128 121
-7.386077e+00 -1.964018e+00 5.388335e+00 77 77 77
4.480811e+00 -1.511503e+00 5.692661e+00 160 162 159
-2.417521e+00 -1.690446e+00 4.359974e+00 53 53 55
-9.955994e-01 -1.402520e+00 3.423072e+00 77 70 62
-4.695113e+00 -1.590780e+00 4.418105e+00 41 36 32
-1.102188e+00 -1.356510e+00 3.366133e+00 139 132 116
-1.075130e+00 -1.371394e+00 3.441961e+00 166 164 158
-4.341518e+00 -1.569061e+00 4.381537e+00 148 148 150
2.123582e+00 -1.271382e+00 3.836158e+00 103 103 101
2.123582e+00 -1.271382e+00 3.836158e+00 103 103 101
1.039219e+00 -1.261770e+00 3.441781e+00 148 146 132
-3.094750e+00 -1.595938e+00 4.603856e+00 117 116 110
-2.971019e+00 -1.577275e+00 4.574930e+00 122 122 114
-7.727633e-01 -1.288312e+00 3.283051e+00 170 172 166
9.686966e-01 -1.229841e+00 3.444596e+00 110 107 103
1.030054e+00 -1.227289e+00 3.452821e+00 80 77 70
1.369766e-01 -1.220273e+00 3.248042e+00 97 93 83
-1.491620e+00 -1.332321e+00 3.592335e+00 176 173 159
-1.622133e+00 -1.342628e+00 3.716562e+00 141 135 114
8.855957e-01 -1.185298e+00 3.406012e+00 193 194 189
1.084397e+00 -1.178268e+00 3.459488e+00 121 121 113
1.084397e+00 -1.178268e+00 3.459488e+00 121 121 113
-1.119977e+00 -1.232791e+00 3.326659e+00 122 122 115
-2.473199e+00 -1.350692e+00 4.377319e+00 105 102 95
2.513334e+00 -1.046990e+00 4.002778e+00 107 99 97
-2.034492e+00 -1.241642e+00 4.080663e+00 90 83 76
-5.914501e+00 -1.285249e+00 4.613312e+00 165 165 172
2.449329e+00 -9.847424e-01 3.977852e+00 163 156 145
2.449329e+00 -9.847424e-01 3.977852e+00 163 156 145
-2.396137e+00 -1.210230e+00 4.237641e+00 140 133 122
-3.996663e+00 -1.198258e+00 4.114681e+00 156 155 153
2.475738e+00 -9.688027e-01 3.968517e+00 99 89 81
2.475738e+00 -9.688027e-01 3.968517e+00 99 89 81
-8.076081e-01 -9.635792e-01 3.084701e+00 189 183 170
2.712912e+00 -8.978174e-01 4.042995e+00 184 181 172
-1.195171e+00 -9.755940e-01 3.292904e+00 63 60 55
2.449198e+00 -8.656274e-01 3.899444e+00 168 162 146
1.005257e+00 -8.659449e-01 3.258327e+00 79 78 74
-5.858704e+00 -1.127433e+00 4.530555e+00 155 157 157
2.567732e+00 -8.509241e-01 3.950369e+00 184 179 150
2.435176e+00 -8.389234e-01 3.884927e+00 91 87 77
2.435176e+00 -8.389234e-01 3.884927e+00 91 87 77
-9.084788e-01 -8.762489e-01 3.133219e+00 105 98 82
3.015638e+00 -7.940456e-01 4.250749e+00 161 156 153
3.015638e+00 -7.940456e-01 4.250749e+00 161 156 153
-2.834084e+00 -1.006160e+00 4.187479e+00 184 183 172
3.115400e+00 -7.574295e-01 4.294794e+00 173 169 156
7.040394e-01 -7.590328e-01 3.208174e+00 188 188 174
1.171783e+00 -7.442161e-01 3.243479e+00 122 118 109
1.171783e+00 -7.442161e-01 3.243479e+00 122 118 109
1.469039e+00 -7.203886e-01 3.332560e+00 186 183 176
-7.674078e+00 -9.996426e-01 4.977399e+00 188 201 205
-8.570549e-01 -7.300696e-01 3.100766e+00 189 189 182
-7.196673e+00 -9.502593e-01 4.862017e+00 142 146 149
-6.165234e+00 -8.871928e-01 4.526392e+00 123 120 112
5.329167e-01 -6.504946e-01 3.130457e+00 178 177 172
-5.934994e-01 -6.840694e-01 3.185334e+00 183 179 167
-5.448468e+00 -7.930923e-01 4.263353e+00 172 168 148
3.944605e+00 -6.051063e-01 4.856896e+00 140 134 121
-6.685788e-02 -5.612045e-01 3.097226e+00 195 194 190
-3.765362e+00 -6.655095e-01 3.734955e+00 123 113 98
3.592397e+00 -5.039022e-01 4.543006e+00 57 50 47
3.592397e+00 -5.039022e-01 4.543006e+00 57 50 47
3.438228e+00 -5.030123e-01 4.455736e+00 168 161 146
-5.090439e+00 -6.445288e-01 4.088491e+00 155 150 146
-6.198108e+00 -6.582657e-01 4.421984e+00 92 86 91
-3.387395e+00 -5.711180e-01 3.520182e+00 82 70 64
-3.519616e+00 -5.578416e-01 3.586348e+00 75 67 61
-3.745360e+00 -5.661695e-01 3.678374e+00 89 84 78
2.474908e+00 -4.182136e-01 3.698755e+00 173 168 160
2.559641e-01 -4.355583e-01 2.979626e+00 100 101 91
-3.492212e+00 -5.170465e-01 3.535152e+00 178 179 174
4.569534e-01 -4.056300e-01 3.008234e+00 100 93 83
-5.137254e-01 -4.332901e-01 3.131339e+00 191 190 186
-2.391526e+00 -4.920387e-01 3.461124e+00 189 190 184
-1.125476e+00 -4.175999e-01 3.054816e+00 102 100 92
-2.050375e+00 -4.535242e-01 3.307845e+00 188 187 185
-3.072691e+00 -4.783516e-01 3.526680e+00 60 56 45
-3.072691e+00 -4.783516e-01 3.526680e+00 60 56 45
-7.272776e+00 -5.416765e-01 4.707080e+00 110 111 115
-7.891892e-02 -3.618788e-01 3.109549e+00 193 193 186
2.952890e+00 -3.139466e-01 3.993696e+00 80 77 73
5.855420e-01 -3.347315e-01 2.977708e+00 124 118 104
-5.986325e+00 -4.312915e-01 4.271651e+00 173 167 154
3.108132e+00 -2.974854e-01 4.048702e+00 72 68 63
-3.356503e+00 -3.498903e-01 3.427660e+00 174 175 161
-3.501009e+00 -3.539717e-01 3.474857e+00 173 170 164
-4.441377e+00 -3.690405e-01 3.779301e+00 87 78 66
3.420337e+00 -2.449874e-01 4.324846e+00 194 191 184
-5.836976e+00 -3.497391e-01 4.192865e+00 104 100 93
-5.860301e+00 -3.089750e-01 4.189544e+00 182 179 172
3.470485e+00 -1.857809e-01 4.329664e+00 75 70 66
-6.170587e+00 -2.758200e-01 4.286786e+00 76 71 64
3.887221e+00 -1.188349e-01 4.641723e+00 78 65 59
4.577149e+00 -9.440690e-02 5.146203e+00 66 62 58
1.575450e+00 -1.100995e-01 3.121286e+00 187 180 162
7.804130e-01 -1.089577e-01 2.884033e+00 194 191 188
6.062645e-01 -8.535540e-02 2.839840e+00 89 88 86
3.446150e+00 -4.579694e-02 4.246946e+00 186 186 175
2.771696e-01 -3.545479e-02 2.846547e+00 155 151 140
4.583362e+00 2.023574e-02 5.122861e+00 189 186 175
-4.217232e+00 -1.193187e-02 3.558362e+00 144 139 135
-3.660578e+00 -1.503345e-02 3.404665e+00 104 97 83
6.726903e-01 2.952402e-02 2.796314e+00 177 172 171
1.702698e+00 4.520248e-02 3.102315e+00 188 181 162
-4.111701e+00 2.768730e-02 3.524926e+00 81 68 53
-4.111701e+00 2.768730e-02 3.524926e+00 81 68 53
-4.638298e+00 1.116395e-01 3.690352e+00 142 138 127
-4.574785e+00 1.385973e-01 3.627503e+00 71 66 61
-2.772520e+00 1.570605e-01 3.018833e+00 180 177 172
-3.480075e+00 1.738640e-01 3.278085e+00 68 58 58
-1.248330e+00 2.083251e-01 2.438724e+00 196 189 183
1.257759e+00 2.258273e-01 2.941941e+00 175 164 146
1.189781e+00 2.392726e-01 2.853498e+00 92 83 79
1.243397e+00 2.488098e-01 2.925370e+00 115 107 90
4.140941e-01 2.540651e-01 2.816908e+00 176 174 169
5.440045e-01 2.764451e-01 2.760956e+00 163 160 152
-2.056664e+00 2.466094e-01 2.678192e+00 63 58 55
1.334093e+00 2.805597e-01 2.935473e+00 190 184 168
-1.878798e+00 2.727290e-01 2.577449e+00 88 80 72
1.291883e+00 3.039883e-01 2.817287e+00 138 130 117
-8.138528e-01 3.096555e-01 2.599158e+00 115 110 96
4.296375e+00 3.753024e-01 4.769601e+00 162 159 155
4.296375e+00 3.753024e-01 4.769601e+00 162 159 155
1.882919e+00 3.230439e-01 3.036457e+00 168 158 146
-6.510539e+00 3.651072e-01 4.173258e+00 93 87 88
-1.371471e+00 3.342368e-01 2.383741e+00 96 88 79
1.871869e+00 3.446168e-01 3.032864e+00 74 67 56
-1.477533e+00 3.436625e-01 2.377637e+00 173 168 155
-1.526916e+00 3.589067e-01 2.403197e+00 86 76 65
-1.526916e+00 3.589067e-01 2.403197e+00 86 76 65
-2.755022e-01 4.261247e-01 2.698504e+00 98 93 84
-3.577320e+00 4.597690e-01 3.189002e+00 184 178 166
-3.974560e+00 4.707617e-01 3.330161e+00 78 65 57
3.775292e+00 5.013211e-01 4.321710e+00 128 120 112
3.655673e+00 4.986582e-01 4.238989e+00 91 80 75
-2.880211e+00 4.756594e-01 2.930043e+00 104 95 86
2.358833e+00 4.813767e-01 3.266203e+00 182 176 162
2.358833e+00 4.813767e-01 3.266203e+00 182 176 162
2.170661e-01 4.856753e-01 2.678234e+00 178 175 166
-4.519755e+00 5.376200e-01 3.493406e+00 169 166 155
1.413215e+00 5.030757e-01 2.844495e+00 181 175 161
1.678432e+00 5.057211e-01 2.902367e+00 100 92 76
1.382971e+00 5.107952e-01 2.761162e+00 84 80 69
1.048664e+00 5.288148e-01 2.716473e+00 100 95 90
6.725526e-01 5.388801e-01 2.673523e+00 52 48 44
-9.486955e-01 5.358153e-01 2.360449e+00 185 180 164
-2.929458e-01 5.426693e-01 2.594876e+00 175 175 163
-1.551513e+00 5.419383e-01 2.351983e+00 95 79 74
1.821244e+00 5.512151e-01 2.927049e+00 82 74 68
1.614616e+00 5.538393e-01 2.866602e+00 87 79 72
3.708412e+00 6.249756e-01 4.246572e+00 68 63 59
3.708412e+00 6.249756e-01 4.246572e+00 68 63 59
-2.896345e+00 6.039789e-01 2.917267e+00 165 166 161
6.095762e-02 6.012056e-01 2.604068e+00 59 55 49
-1.309386e+00 6.097713e-01 2.319055e+00 185 173 152
-5.225272e+00 7.134113e-01 3.677113e+00 84 76 68
-5.213205e+00 7.481909e-01 3.665683e+00 159 156 139
2.108747e+00 6.569482e-01 3.043848e+00 55 41 40
4.281807e+00 7.535523e-01 4.667322e+00 85 79 71
-6.183074e+00 8.075518e-01 3.948026e+00 126 122 119
-3.975482e-01 6.941191e-01 2.492765e+00 100 96 93
-6.068522e-01 6.896994e-01 2.468615e+00 103 99 95
-6.068522e-01 6.896994e-01 2.468615e+00 103 99 95
2.010732e+00 7.102456e-01 2.954474e+00 162 151 128
-3.675990e-01 7.137388e-01 2.500581e+00 179 175 172
-6.964225e-01 7.135374e-01 2.427615e+00 180 179 184
2.029556e+00 7.283671e-01 2.954054e+00 98 87 72
1.736096e+00 7.263639e-01 2.748925e+00 184 183 186
-2.707436e+00 7.682158e-01 2.796939e+00 70 57 41
-6.000887e-01 7.460549e-01 2.432817e+00 78 73 67
-6.000887e-01 7.460549e-01 2.432817e+00 78 73 67
-5.478952e+00 8.775495e-01 3.722222e+00 109 102 96
3.659375e+00 8.156013e-01 4.164541e+00 99 96 89
1.173435e+00 7.573180e-01 2.646131e+00 195 185 174
-3.608806e+00 8.291948e-01 3.098167e+00 156 147 131
1.394108e+00 7.642439e-01 2.686925e+00 193 182 169
1.982164e+00 7.727755e-01 2.966494e+00 174 166 147
1.505221e+00 7.707779e-01 2.725847e+00 190 185 174
-6.016712e-01 7.790624e-01 2.427771e+00 180 176 173
-3.079644e-01 7.973115e-01 2.350234e+00 166 159 147
-1.672406e+00 8.024231e-01 2.336176e+00 177 165 149
-6.265940e-02 8.173957e-01 2.589077e+00 128 124 115
-3.575258e+00 8.768729e-01 3.076633e+00 60 51 42
-3.575258e+00 8.768729e-01 3.076633e+00 60 51 42
4.573792e-01 8.240091e-01 2.636925e+00 191 188 181
2.452890e+00 8.336036e-01 3.244345e+00 92 81 77
-6.153705e+00 9.839726e-01 3.911127e+00 67 61 60
1.952306e+00 8.299216e-01 2.898298e+00 176 168 157
-4.209863e+00 9.532535e-01 3.282708e+00 169 167 145
-6.116517e+00 1.019123e+00 3.883151e+00 196 194 187
3.618077e+00 9.174627e-01 4.110164e+00 185 182 177
8.034028e-01 8.619740e-01 2.586361e+00 134 131 119
-1.162129e+00 8.885408e-01 2.307155e+00 171 160 140
3.560988e+00 9.464936e-01 4.049779e+00 193 186 179
-3.231907e+00 9.829100e-01 2.935704e+00 129 117 91
-1.113728e+00 9.244925e-01 2.291081e+00 60 51 40
-1.113728e+00 9.244925e-01 2.291081e+00 60 51 40
3.535776e+00 1.000169e+00 4.014151e+00 87 78 64
3.535776e+00 1.000169e+00 4.014151e+00 87 78 64
-1.134451e+00 9.488094e-01 2.302813e+00 168 157 140
2.420074e-02 9.719615e-01 2.570756e+00 173 171 160
-3.552309e-01 9.727852e-01 2.363569e+00 183 173 154
2.559592e-01 1.005975e+00 2.510901e+00 110 106 101
2.559592e-01 1.005975e+00 2.510901e+00 110 106 101
-2.468876e+00 1.046364e+00 2.643948e+00 179 174 160
4.061141e+00 1.088960e+00 4.402655e+00 63 55 53
-1.959024e-01 9.950082e-01 2.273541e+00 58 48 42
-2.427126e+00 1.078129e+00 2.635607e+00 174 171 159
-3.219284e+00 1.121537e+00 2.893318e+00 46 32 31
-1.848605e+00 1.077009e+00 2.441697e+00 170 163 145
-2.511541e+00 1.102139e+00 2.653301e+00 153 147 132
2.918006e+00 1.107446e+00 3.565182e+00 63 53 43
2.972333e+00 1.147206e+00 3.601076e+00 175 168 149
-3.198738e+00 1.205005e+00 2.883952e+00 98 97 93
-1.906002e+00 1.156416e+00 2.454235e+00 154 145 130
2.313248e+00 1.135136e+00 3.089664e+00 173 163 151
3.528957e+00 1.237698e+00 3.965902e+00 170 164 150
2.859775e+00 1.237023e+00 3.508549e+00 56 49 42
-2.506722e+00 1.263561e+00 2.645291e+00 170 163 144
1.768824e+00 1.206293e+00 2.756456e+00 144 136 118
5.242749e-01 1.211824e+00 2.428528e+00 67 51 48
3.432963e+00 1.319781e+00 3.903800e+00 182 175 165
-2.927459e+00 1.388299e+00 2.765614e+00 178 171 156
2.912287e+00 1.344959e+00 3.509046e+00 105 102 95
3.915208e+00 1.393794e+00 4.226868e+00 179 172 162
-1.582752e+00 1.321553e+00 2.281920e+00 136 125 98
2.874089e+00 1.358343e+00 3.487719e+00 198 195 187
4.010476e+00 1.451932e+00 4.277595e+00 195 186 180
-4.022703e+00 1.557532e+00 3.101030e+00 93 81 65
-4.540902e+00 1.606300e+00 3.259723e+00 174 168 151
3.426889e+00 1.481084e+00 3.855540e+00 115 106 97
1.678665e+00 1.399431e+00 2.656352e+00 59 42 34
-4.024860e+00 1.598537e+00 3.081273e+00 182 180 166
2.098881e+00 1.452628e+00 2.929101e+00 97 84 66
1.961581e+00 1.464067e+00 2.839068e+00 139 127 106
-1.839728e+00 1.508740e+00 2.378948e+00 117 106 88
2.059745e+00 1.479365e+00 2.911516e+00 97 83 69
-6.860168e+00 1.834001e+00 3.881637e+00 158 153 141
3.207800e+00 1.549247e+00 3.716805e+00 181 171 161
6.795186e-01 1.478474e+00 2.334212e+00 63 53 47
4.332182e+00 1.621971e+00 4.472306e+00 89 80 75
2.107046e+00 1.513895e+00 2.951262e+00 157 146 124
2.062080e+00 1.516626e+00 2.926105e+00 157 150 133
1.581793e+00 1.509303e+00 2.646288e+00 69 57 41
6.744216e-01 1.516742e+00 2.342795e+00 43 39 35
-1.661397e+00 1.574908e+00 2.344150e+00 137 122 99
-1.661397e+00 1.574908e+00 2.344150e+00 137 122 99
-6.731606e+00 1.912732e+00 3.809449e+00 70 55 56
-2.839101e-01 1.550422e+00 2.222782e+00 35 31 35
1.994140e+00 1.576736e+00 2.869632e+00 75 65 61
1.469782e+00 1.550040e+00 2.558297e+00 164 155 139
-2.935561e+00 1.707224e+00 2.742129e+00 87 77 64
2.048574e+00 1.587098e+00 2.936762e+00 61 53 50
-2.711301e+00 1.696059e+00 2.667661e+00 145 139 121
-2.711301e+00 1.696059e+00 2.667661e+00 145 139 121
-6.876774e+00 1.969883e+00 3.848955e+00 179 176 160
3.091162e-01 1.582169e+00 2.262232e+00 177 176 171
2.236806e+00 1.623246e+00 3.037697e+00 79 69 67
2.191495e+00 1.648558e+00 3.004356e+00 60 51 43
-5.818060e+00 1.971875e+00 3.584151e+00 169 166 160
4.345628e+00 1.763318e+00 4.452143e+00 83 74 67
-1.887887e+00 1.703866e+00 2.395200e+00 151 139 117
3.728864e+00 1.741712e+00 4.044660e+00 166 159 153
-2.860578e+00 1.799919e+00 2.709699e+00 165 160 152
-1.897161e+00 1.736212e+00 2.405362e+00 65 56 41
6.110993e-02 1.638864e+00 2.113321e+00 167 161 142
1.622930e+00 1.690385e+00 2.727945e+00 183 179 166
-1.818149e+00 1.750657e+00 2.387338e+00 53 46 27
-3.490591e+00 2.005688e+00 2.883951e+00 174 170 161
-9.055601e-01 1.818800e+00 2.130745e+00 101 87 60
-3.364343e+00 2.016430e+00 2.846679e+00 79 69 68
-3.561154e+00 2.033122e+00 2.897883e+00 172 173 167
3.707037e+00 1.931128e+00 3.980475e+00 179 176 170
1.422218e+00 1.822733e+00 2.571232e+00 39 28 24
3.012383e+00 1.907120e+00 3.525559e+00 79 72 64
-1.319086e+00 1.885930e+00 2.247138e+00 139 130 114
-3.449877e+00 2.072623e+00 2.879830e+00 160 161 159
3.483515e+00 1.958901e+00 3.842151e+00 92 83 78
1.917439e+00 1.886146e+00 2.860946e+00 88 74 69
-6.827784e+00 2.396646e+00 3.739920e+00 191 189 191
1.926764e+00 1.948075e+00 2.878193e+00 192 185 177
1.296798e+00 1.920961e+00 2.533624e+00 176 171 164
2.542504e+00 1.986862e+00 3.224408e+00 185 180 174
3.579827e+00 2.051809e+00 3.910347e+00 94 85 81
-1.509398e+00 2.014909e+00 2.289179e+00 56 46 35
-4.040010e+00 2.234245e+00 3.030981e+00 59 49 48
3.510972e+00 2.083306e+00 3.853070e+00 83 73 69
3.510972e+00 2.083306e+00 3.853070e+00 83 73 69
-1.626989e+00 2.060425e+00 2.367498e+00 116 111 106
-3.234434e+00 2.190316e+00 2.803128e+00 166 158 146
4.222989e+00 2.146424e+00 4.303686e+00 121 119 122
-5.025900e+00 2.383765e+00 3.289097e+00 176 173 168
3.538906e+00 2.128465e+00 3.867916e+00 89 82 76
-4.463937e-01 2.005055e+00 2.068242e+00 105 92 76
-4.463937e-01 2.005055e+00 2.068242e+00 105 92 76
-6.587370e+00 2.529634e+00 3.652402e+00 162 157 146
-2.420410e+00 2.178812e+00 2.563941e+00 171 167 152
1.540417e+00 2.030997e+00 2.612366e+00 107 93 85
-6.319751e+00 2.510659e+00 3.592558e+00 175 171 167
2.329283e+00 2.096103e+00 3.109583e+00 70 58 53
4.784862e+00 2.221725e+00 4.591245e+00 107 92 80
3.431114e+00 2.159789e+00 3.793127e+00 110 103 96
2.244485e+00 2.108481e+00 3.068609e+00 181 168 160
1.650868e+00 2.088311e+00 2.753171e+00 83 76 75
-3.826538e+00 2.344678e+00 2.950911e+00 93 89 90
9.618572e-01 2.112796e+00 2.413941e+00 170 166 155
-2.183200e+00 2.264867e+00 2.512030e+00 56 43 37
2.070899e+00 2.155684e+00 2.930131e+00 78 68 58
2.236052e+00 2.218277e+00 3.065601e+00 54 44 45
3.472467e+00 2.287634e+00 3.795628e+00 94 91 84
2.333813e+00 2.217953e+00 3.080165e+00 73 65 55
-4.400002e-01 2.180643e+00 2.112987e+00 165 149 125
-4.400002e-01 2.180643e+00 2.112987e+00 165 149 125
3.502337e+00 2.300467e+00 3.813018e+00 186 186 178
2.135485e+00 2.237596e+00 3.019498e+00 184 177 162
3.452404e+00 2.318008e+00 3.793245e+00 204 200 197
-6.153617e-01 2.224074e+00 2.169884e+00 149 144 124
-1.420016e+00 2.296820e+00 2.317756e+00 148 136 113
-2.307615e+00 2.365500e+00 2.464446e+00 67 57 55
-2.307615e+00 2.365500e+00 2.464446e+00 67 57 55
-4.127373e+00 2.553715e+00 3.019117e+00 179 180 171
1.569573e+00 2.261365e+00 2.676232e+00 152 143 127
-1.102591e+00 2.303461e+00 2.233101e+00 151 141 118
6.703582e-01 2.232672e+00 2.251369e+00 123 107 86
-2.723832e+00 2.498870e+00 2.650032e+00 61 51 47
-6.062363e+00 2.817096e+00 3.477955e+00 188 183 177
-3.845427e+00 2.643379e+00 2.952292e+00 184 181 179
-6.144173e+00 2.905424e+00 3.490172e+00 183 178 174
-1.931209e+00 2.533054e+00 2.466229e+00 174 167 141
-2.622261e+00 2.604487e+00 2.625707e+00 159 150 136
-2.152029e+00 2.554717e+00 2.487400e+00 164 161 142
-6.050271e+00 2.941832e+00 3.447540e+00 171 171 161
-2.628952e+00 2.635935e+00 2.627575e+00 101 89 82
-2.628952e+00 2.635935e+00 2.627575e+00 101 89 82
-1.354435e+00 2.503564e+00 2.299918e+00 99 85 65
1.885260e+00 2.464927e+00 2.856802e+00 156 143 134
1.885260e+00 2.464927e+00 2.856802e+00 156 143 134
2.006167e+00 2.487890e+00 2.916287e+00 107 95 83
2.006167e+00 2.487890e+00 2.916287e+00 107 95 83
2.605992e+00 2.548154e+00 3.257334e+00 131 127 115
3.914645e+00 2.646759e+00 4.045863e+00 133 126 117
2.495928e+00 2.569748e+00 3.191159e+00 87 77 72
-5.810630e+00 3.044897e+00 3.376879e+00 170 167 153
4.403076e-02 2.488808e+00 2.137074e+00 142 126 103
-9.071501e-02 2.510167e+00 2.175947e+00 90 72 57
-4.676622e+00 2.962120e+00 3.146759e+00 183 179 177
4.428163e+00 2.690763e+00 4.254085e+00 186 178 165
4.428163e+00 2.690763e+00 4.254085e+00 186 178 165
2.901487e+00 2.636533e+00 3.449185e+00 178 171 158
-7.590223e-01 2.571774e+00 2.179806e+00 176 169 156
-1.764233e+00 2.691225e+00 2.380015e+00 70 57 48
1.783702e+00 2.608617e+00 2.833217e+00 177 173 163
-4.213941e+00 2.960821e+00 3.002206e+00 111 105 105
-1.814066e+00 2.729827e+00 2.440049e+00 167 167 156
-1.949425e+00 2.743488e+00 2.446434e+00 142 133 121
-1.432453e+00 2.715494e+00 2.361533e+00 84 72 62
-1.544561e+00 2.731294e+00 2.403851e+00 141 133 104
8.933446e-01 2.597828e+00 2.384731e+00 89 76 60
9.725819e-01 2.615965e+00 2.443504e+00 112 103 85
-1.526910e+00 2.752190e+00 2.399299e+00 58 46 46
-3.476146e+00 2.950111e+00 2.838934e+00 176 176 166
1.267059e-01 2.640826e+00 2.178367e+00 50 40 31
-3.959269e+00 3.038224e+00 2.922857e+00 129 122 113
-5.483076e+00 3.215122e+00 3.273315e+00 166 159 147
7.083046e-01 2.691497e+00 2.357116e+00 56 43 33
2.970479e+00 2.823030e+00 3.489745e+00 190 189 187
-3.436813e+00 3.048213e+00 2.811885e+00 111 106 100
3.498702e+00 2.862740e+00 3.792732e+00 169 160 144
-2.150905e-02 2.723035e+00 2.199775e+00 80 68 55
2.277625e+00 2.812904e+00 3.092377e+00 187 183 175
-2.130995e+00 2.949406e+00 2.526569e+00 68 58 56
4.377566e+00 2.946173e+00 4.246552e+00 108 98 89
-5.654989e+00 3.359836e+00 3.296918e+00 129 119 117
-5.654989e+00 3.359836e+00 3.296918e+00 129 119 117
4.288560e+00 2.973303e+00 4.189513e+00 55 44 40
-3.398416e+00 3.132395e+00 2.799655e+00 84 76 74
-3.996620e+00 3.210562e+00 2.949257e+00 156 148 128
-7.347999e-01 2.873880e+00 2.278231e+00 73 64 49
-2.128037e+00 3.021092e+00 2.531205e+00 193 189 178
1.598531e+00 2.895340e+00 2.734133e+00 188 180 157
-5.601338e+00 3.498042e+00 3.265695e+00 120 116 120
3.428167e+00 3.060872e+00 3.750824e+00 105 95 92
1.881276e+00 2.955874e+00 2.875934e+00 176 166 145
8.789788e-01 2.934213e+00 2.455523e+00 171 163 149
1.329888e+00 2.970621e+00 2.656424e+00 180 173 158
-2.121504e+00 3.170916e+00 2.547289e+00 132 126 119
2.757098e+00 3.063757e+00 3.373213e+00 185 179 173
1.194448e+00 3.006166e+00 2.601928e+00 174 162 136
3.959028e+00 3.159677e+00 3.967089e+00 58 47 45
3.959028e+00 3.159677e+00 3.967089e+00 58 47 45
1.310084e+00 3.035065e+00 2.660267e+00 194 190 178
1.993721e-01 3.007475e+00 2.266255e+00 139 132 112
-2.690070e+00 3.312537e+00 2.664296e+00 172 165 141
-1.061680e+00 3.157435e+00 2.393491e+00 170 164 151
2.574863e+00 3.161120e+00 3.297553e+00 90 79 68
2.574863e+00 3.161120e+00 3.297553e+00 90 79 68
3.383654e+00 3.217740e+00 3.708975e+00 106 102 101
3.353345e+00 3.216338e+00 3.693080e+00 203 200 193
3.207909e+00 3.246193e+00 3.601076e+00 184 181 173
-1.014100e+00 3.226570e+00 2.361897e+00 85 76 68
-4.754789e+00 3.690855e+00 3.056233e+00 87 71 73
-5.022604e+00 3.737555e+00 3.117257e+00 85 75 74
-5.022604e+00 3.737555e+00 3.117257e+00 85 75 74
2.592209e+00 3.249599e+00 3.285117e+00 130 125 113
-4.705896e+00 3.689692e+00 3.044873e+00 165 158 147
2.515941e+00 3.263337e+00 3.251608e+00 200 194 183
1.025657e+00 3.192796e+00 2.566789e+00 82 70 54
-1.527595e+00 3.360259e+00 2.462985e+00 174 166 150
-2.846771e+00 3.514086e+00 2.676240e+00 192 187 181
2.498148e+00 3.294114e+00 3.241780e+00 202 197 191
-5.150378e+00 3.821047e+00 3.129441e+00 114 109 113
1.118456e+00 3.224129e+00 2.586513e+00 67 53 43
-1.841801e+00 3.402222e+00 2.474489e+00 160 156 145
-2.798141e+00 3.540785e+00 2.669664e+00 193 192 189
-4.755833e+00 3.786834e+00 3.056556e+00 193 189 183
-1.560070e+00 3.417585e+00 2.470503e+00 65 52 44
-1.560070e+00 3.417585e+00 2.470503e+00 65 52 44
7.418369e-01 3.293642e+00 2.495956e+00 129 119 99
-2.504409e+00 3.563944e+00 2.626650e+00 136 132 128
3.783855e+00 3.460779e+00 3.862669e+00 179 172 154
-3.925332e-01 3.373776e+00 2.368895e+00 53 42 45
2.914058e+00 3.442135e+00 3.467154e+00 70 57 53
3.848400e-01 3.318803e+00 2.363549e+00 120 105 84
3.054820e+00 3.447507e+00 3.525236e+00 175 167 146
1.546601e+00 3.382993e+00 2.835929e+00 193 185 174
-3.541964e+00 3.754968e+00 2.838120e+00 85 76 75
-4.538772e+00 3.874127e+00 3.000908e+00 180 174 164
-4.508461e-01 3.404919e+00 2.375730e+00 91 81 70
-4.567432e+00 3.886788e+00 3.000059e+00 60 49 58
-4.649731e+00 3.957445e+00 3.023302e+00 157 150 134
3.584430e+00 3.521227e+00 3.737066e+00 75 63 57
4.088338e-01 3.393638e+00 2.395482e+00 91 73 59
3.226745e+00 3.523542e+00 3.583304e+00 131 124 116
-4.585521e+00 3.973548e+00 3.007682e+00 191 187 185
3.436427e+00 3.535085e+00 3.656600e+00 109 104 102
-1.507344e+00 3.595107e+00 2.469880e+00 60 56 55
-2.176939e+00 3.688749e+00 2.591842e+00 165 157 144
-2.585536e-01 3.503369e+00 2.398571e+00 195 192 187
3.405245e+00 3.570787e+00 3.639273e+00 111 107 104
-2.167871e+00 3.710992e+00 2.582411e+00 87 79 77
-3.173893e+00 3.843218e+00 2.771623e+00 72 62 64
-2.948637e+00 3.821455e+00 2.724058e+00 112 102 91
-4.395294e+00 4.019601e+00 2.960236e+00 184 179 161
3.404676e+00 3.605434e+00 3.640826e+00 183 178 158
1.078241e+00 3.525267e+00 2.656210e+00 80 70 60
-1.199991e+00 3.679252e+00 2.445263e+00 94 87 79
2.778166e+00 3.643714e+00 3.383122e+00 179 175 164
9.623417e-01 3.569270e+00 2.618014e+00 76 65 59
2.893186e+00 3.663216e+00 3.440232e+00 78 71 78
-3.249648e+00 3.974411e+00 2.801081e+00 206 206 196
-4.223910e+00 4.084963e+00 2.922197e+00 177 168 159
2.084298e+00 3.627889e+00 3.059033e+00 206 203 199
2.068167e+00 3.644455e+00 3.046510e+00 123 119 108
1.481292e-01 3.611451e+00 2.409590e+00 73 62 56
-1.025320e+00 3.743568e+00 2.445848e+00 86 79 69
-1.064888e+00 3.766014e+00 2.451086e+00 186 181 161
-2.703967e+00 3.948117e+00 2.651115e+00 98 87 82
3.453721e+00 3.765719e+00 3.680254e+00 111 95 80
-4.289350e+00 4.180577e+00 2.933944e+00 187 180 172
3.515823e+00 3.775632e+00 3.712433e+00 162 160 149
-4.191388e+00 4.173407e+00 2.916886e+00 66 56 59
1.067853e+00 3.691073e+00 2.673528e+00 143 136 130
2.468919e+00 3.783949e+00 3.264298e+00 154 145 136
1.555399e+00 3.717800e+00 2.832062e+00 103 94 77
3.208651e+00 3.800608e+00 3.540539e+00 114 97 86
5.681663e-02 3.706635e+00 2.389575e+00 125 112 95
5.681663e-02 3.706635e+00 2.389575e+00 125 112 95
1.576152e+00 3.750984e+00 2.875821e+00 176 167 156
-2.890161e+00 4.087576e+00 2.719492e+00 196 193 188
1.791567e+00 3.778671e+00 2.961923e+00 198 195 187
3.315436e+00 3.851700e+00 3.610743e+00 185 180 167
8.644168e-01 3.770762e+00 2.604090e+00 200 199 194
-1.620630e+00 3.963196e+00 2.534366e+00 168 162 147
2.525667e+00 3.860080e+00 3.288510e+00 181 171 154
2.706386e+00 3.863739e+00 3.337089e+00 136 127 119
-3.841969e+00 4.272643e+00 2.842020e+00 163 154 142
6.974356e-01 3.800784e+00 2.578244e+00 143 136 110
-1.609561e+00 3.987406e+00 2.533530e+00 75 65 64
2.194986e+00 3.837324e+00 3.096035e+00 159 151 132
2.478163e+00 3.884089e+00 3.270184e+00 77 68 61
1.917963e+00 3.841404e+00 2.976883e+00 181 171 150
7.476671e-01 3.843282e+00 2.595326e+00 45 35 26
-3.976962e+00 4.380849e+00 2.873981e+00 96 86 85
6.076812e-01 3.879854e+00 2.558637e+00 129 118 105
1.554446e+00 3.927295e+00 2.889746e+00 76 69 62
-1.699605e-01 3.939089e+00 2.469507e+00 185 173 153
-1.352980e+00 4.067772e+00 2.525183e+00 199 194 173
3.055400e+00 3.998893e+00 3.480598e+00 150 142 132
-3.670523e+00 4.391450e+00 2.817161e+00 186 179 169
1.423185e+00 3.937086e+00 2.814678e+00 146 137 126
-1.657522e-01 3.964658e+00 2.474620e+00 90 74 69
2.213244e+00 3.983036e+00 3.137214e+00 89 79 66
-2.679245e+00 4.294998e+00 2.694699e+00 69 59 57
-3.385779e+00 4.364220e+00 2.751821e+00 119 111 97
-3.465400e+00 4.398485e+00 2.764602e+00 74 63 61
-3.814174e+00 4.471563e+00 2.836191e+00 104 92 87
-2.714092e+00 4.327587e+00 2.693314e+00 65 57 61
3.202424e+00 4.076624e+00 3.554218e+00 86 75 68
3.052094e+00 4.077387e+00 3.487936e+00 182 174 154
4.853809e-01 4.001943e+00 2.556126e+00 199 195 186
8.490767e-01 3.997586e+00 2.617495e+00 161 155 129
-3.263647e+00 4.419106e+00 2.730366e+00 119 111 100
-1.409009e+00 4.203049e+00 2.547349e+00 194 191 186
-3.445962e+00 4.470763e+00 2.758844e+00 160 145 126
2.326658e+00 4.092401e+00 3.188825e+00 80 74 72
-3.256927e+00 4.454991e+00 2.739411e+00 168 162 138
1.157847e+00 4.071729e+00 2.764924e+00 202 196 183
1.157847e+00 4.071729e+00 2.764924e+00 202 196 183
2.987402e+00 4.165511e+00 3.460217e+00 203 202 177
2.987402e+00 4.165511e+00 3.460217e+00 203 202 177
1.870683e+00 4.157925e+00 3.029536e+00 87 77 68
1.324740e-01 4.129340e+00 2.501981e+00 195 190 177
1.017050e+00 4.138178e+00 2.730812e+00 179 172 154
1.017050e+00 4.138178e+00 2.730812e+00 179 172 154
2.979335e+00 4.209231e+00 3.460722e+00 170 161 145
-3.233785e+00 4.619346e+00 2.742099e+00 160 154 132
-1.048504e+00 4.342858e+00 2.534619e+00 113 104 95
-2.888060e+00 4.586459e+00 2.675863e+00 102 92 90
2.107746e+00 4.272503e+00 3.101920e+00 122 114 109
1.757340e+00 4.294803e+00 3.001959e+00 159 146 121
1.757340e+00 4.294803e+00 3.001959e+00 159 146 121
1.735998e+00 4.293709e+00 2.993188e+00 154 142 123
7.275379e-01 4.271418e+00 2.667314e+00 49 42 36
-2.876703e+00 4.631499e+00 2.683753e+00 199 195 189
-3.415733e+00 4.739113e+00 2.759614e+00 81 73 70
2.576270e+00 4.343643e+00 3.269251e+00 92 78 73
7.423686e-01 4.318036e+00 2.682828e+00 67 56 51
7.423686e-01 4.318036e+00 2.682828e+00 67 56 51
2.351150e+00 4.349206e+00 3.172894e+00 109 102 94
1.484796e+00 4.339014e+00 2.889238e+00 187 180 155
-1.840290e+00 4.594246e+00 2.615855e+00 79 69 67
3.862571e-01 4.356669e+00 2.583008e+00 135 129 110
-3.111868e+00 4.816880e+00 2.730466e+00 189 184 173
-3.111868e+00 4.816880e+00 2.730466e+00 189 184 173
2.524237e+00 4.458746e+00 3.269850e+00 208 197 175
-2.969398e-01 4.475875e+00 2.549135e+00 104 92 78
2.413417e+00 4.463192e+00 3.215898e+00 193 189 178
-3.005473e+00 4.878120e+00 2.712139e+00 175 168 152
-3.023376e-01 4.537469e+00 2.561430e+00 117 104 95
2.202899e+00 4.501959e+00 3.126302e+00 94 80 78
-2.455875e+00 4.797629e+00 2.634488e+00 190 183 171
2.525898e+00 4.551898e+00 3.276249e+00 175 170 158
2.525898e+00 4.551898e+00 3.276249e+00 175 170 158
2.115104e+00 4.527128e+00 3.095237e+00 177 167 146
-2.501622e+00 4.838648e+00 2.641601e+00 168 162 134
-2.750174e+00 4.888454e+00 2.684297e+00 68 56 60
-2.268803e+00 4.809714e+00 2.624702e+00 187 188 178
1.528055e+00 4.527354e+00 2.912683e+00 166 158 147
-3.215937e+00 4.969771e+00 2.719064e+00 164 165 170
2.162393e-01 4.563384e+00 2.592423e+00 176 168 143
7.820679e-02 4.571291e+00 2.571316e+00 39 29 28
7.820679e-02 4.571291e+00 2.571316e+00 39 29 28
-2.978647e+00 4.971056e+00 2.707782e+00 93 88 100
1.087356e+00 4.588477e+00 2.826813e+00 201 199 187
-1.082395e+00 4.733819e+00 2.595300e+00 183 183 170
-1.079889e+00 4.727604e+00 2.588543e+00 183 183 170
-2.532894e+00 4.931590e+00 2.663596e+00 180 177 164
1.064496e+00 4.623553e+00 2.821521e+00 191 185 175
1.982872e+00 4.629439e+00 3.053268e+00 79 67 70
1.931966e+00 4.623731e+00 3.028811e+00 161 154 134
-8.927312e-01 4.770677e+00 2.599552e+00 116 104 91
-9.370622e-01 4.782674e+00 2.602490e+00 160 150 132
1.997908e+00 4.657635e+00 3.064417e+00 184 178 162
1.959014e+00 4.654160e+00 3.054214e+00 189 185 168
-1.239786e+00 4.834906e+00 2.604250e+00 54 46 43
1.088266e+00 4.691759e+00 2.840878e+00 87 78 72
2.978432e-01 4.693852e+00 2.601168e+00 112 93 76
1.895305e+00 4.707316e+00 3.025810e+00 152 146 124
2.021305e+00 4.743430e+00 3.087211e+00 177 165 139
-2.391783e+00 5.067237e+00 2.645066e+00 191 191 177
2.225390e+00 4.771593e+00 3.165537e+00 201 199 190
-6.813644e-01 4.921833e+00 2.590867e+00 190 185 172
4.664686e-01 4.926319e+00 2.702506e+00 158 148 126
1.296075e+00 4.894202e+00 2.852674e+00 173 162 144
-9.841261e-01 5.051891e+00 2.583293e+00 141 137 137
-1.427579e+00 5.101926e+00 2.575282e+00 120 107 97
1.644436e+00 4.952419e+00 2.989211e+00 101 82 67
-1.685167e+00 5.187899e+00 2.602589e+00 74 63 60
1.312062e+00 4.948513e+00 2.867632e+00 169 160 137
4.634149e-01 5.018211e+00 2.699898e+00 67 59 48
-3.894358e-01 5.080448e+00 2.609329e+00 133 129 126
-4.744380e-01 5.090342e+00 2.595190e+00 135 130 124
-1.419985e-01 5.071263e+00 2.620572e+00 108 98 93
-1.399358e-01 5.064114e+00 2.612728e+00 108 98 93
4.350265e-01 5.017966e+00 2.655680e+00 114 103 103
-1.317811e-01 5.096670e+00 2.621769e+00 203 200 193
7.399995e-01 5.055418e+00 2.741743e+00 202 199 193
1.082910e+00 5.043143e+00 2.809104e+00 167 154 129
-9.771445e-01 5.184916e+00 2.569857e+00 185 176 163
1.586367e+00 5.074421e+00 2.976992e+00 111 99 87
-9.477096e-01 5.189155e+00 2.568330e+00 183 178 156
1.617381e+00 5.077900e+00 2.981586e+00 212 212 196
-9.127784e-01 5.195811e+00 2.574352e+00 192 184 174
1.087991e+00 5.067161e+00 2.813127e+00 64 51 48
1.087991e+00 5.067161e+00 2.813127e+00 64 51 48
1.018234e+00 5.071624e+00 2.795323e+00 151 139 111
1.646630e+00 5.096809e+00 2.986061e+00 104 97 113
-9.507794e-01 5.228820e+00 2.583533e+00 109 98 94
1.309838e+00 5.099097e+00 2.886696e+00 135 122 103
1.007256e+00 5.095057e+00 2.791843e+00 85 66 60
8.725582e-01 5.126913e+00 2.762579e+00 150 137 112
8.725582e-01 5.126913e+00 2.762579e+00 150 137 112
-1.334639e+00 5.349748e+00 2.601797e+00 161 153 137
-1.448126e+00 5.378326e+00 2.606033e+00 190 185 160
8.227058e-01 5.176945e+00 2.759064e+00 111 94 85
9.476549e-01 5.188398e+00 2.793387e+00 44 33 29
-7.990910e-01 5.302640e+00 2.578970e+00 78 61 57
-1.461054e+00 5.426570e+00 2.610760e+00 168 161 145
1.168942e+00 5.224783e+00 2.860995e+00 95 80 64
1.358230e+00 5.230452e+00 2.909103e+00 103 100 109
-8.233370e-01 5.361437e+00 2.588997e+00 56 46 44
5.743656e-01 5.246671e+00 2.702778e+00 148 132 108
6.415019e-01 5.254631e+00 2.722988e+00 167 161 135
-1.277835e+00 5.470457e+00 2.605134e+00 165 157 134
-7.894695e-01 5.406289e+00 2.594769e+00 42 27 29
4.323352e-01 5.301849e+00 2.675209e+00 147 133 104
1.158470e+00 5.338431e+00 2.855993e+00 216 221 227
5.652846e-01 5.352028e+00 2.716469e+00 165 162 137
5.449506e-01 5.369199e+00 2.710160e+00 64 52 46
-7.861591e+00 -2.707630e+00 5.829945e+00 191 193 189
-3.861621e+00 -2.390808e+00 4.924344e+00 84 84 80
-3.861621e+00 -2.390808e+00 4.924344e+00 84 84 80
-7.813656e+00 -2.683594e+00 5.826304e+00 83 82 92
-7.813656e+00 -2.683594e+00 5.826304e+00 83 82 92
-1.095842e-02 -1.935950e+00 3.756728e+00 113 114 108
-4.620291e+00 -2.362760e+00 4.988700e+00 161 162 156
-5.428166e-01 -1.915774e+00 3.660666e+00 53 50 45
1.988859e+00 -1.796194e+00 4.106834e+00 73 71 70
3.302911e+00 -1.841491e+00 4.994431e+00 140 139 137
3.266577e+00 -1.827819e+00 4.971689e+00 82 81 77
3.860060e+00 -1.851630e+00 5.409883e+00 139 138 134
1.993222e+00 -1.764650e+00 4.088589e+00 165 162 155
3.259567e+00 -1.767310e+00 4.942212e+00 113 113 109
1.986183e+00 -1.678929e+00 4.025895e+00 108 107 105
3.958027e+00 -1.726347e+00 5.401526e+00 152 152 150
3.221381e-01 -1.666493e+00 3.657900e+00 148 147 145
1.670583e-01 -1.661190e+00 3.648330e+00 147 145 148
6.068179e-01 -1.621439e+00 3.540718e+00 74 70 59
5.343197e-01 -1.579894e+00 3.505563e+00 64 60 60
1.142403e-01 -1.596769e+00 3.599710e+00 165 164 161
3.035585e-01 -1.584671e+00 3.598560e+00 135 135 134
-2.743587e+00 -1.898195e+00 4.608052e+00 102 102 104
2.332705e+00 -1.560042e+00 4.091950e+00 144 145 140
4.541830e+00 -1.665494e+00 5.791875e+00 65 65 64
-3.768952e+00 -1.869991e+00 4.515005e+00 156 151 150
1.099975e-01 -1.565024e+00 3.580642e+00 29 28 28
-6.179596e-01 -1.569534e+00 3.460342e+00 170 167 162
1.565513e+00 -1.406746e+00 3.665712e+00 60 58 60
2.706501e+00 -1.393427e+00 4.344661e+00 31 26 28
1.790917e+00 -1.373028e+00 3.763116e+00 198 199 205
2.088723e+00 -1.368917e+00 3.876971e+00 176 177 172
1.747020e+00 -1.358702e+00 3.746938e+00 129 129 127
-8.975970e-03 -1.381817e+00 3.431920e+00 170 169 167
1.117012e+00 -1.348490e+00 3.515208e+00 84 85 80
1.117012e+00 -1.348490e+00 3.515208e+00 84 85 80
1.258351e+00 -1.348153e+00 3.585707e+00 162 163 160
1.063447e+00 -1.343871e+00 3.505171e+00 93 93 88
2.081590e+00 -1.343435e+00 3.865701e+00 101 101 99
-3.155154e+00 -1.645149e+00 4.656016e+00 118 119 114
2.064302e+00 -1.273853e+00 3.811569e+00 182 181 177
2.032836e+00 -1.275361e+00 3.788911e+00 104 105 100
2.032836e+00 -1.275361e+00 3.788911e+00 104 105 100
-1.110430e+00 -1.372552e+00 3.458647e+00 70 63 62
-2.745036e+00 -1.570061e+00 4.510360e+00 80 77 65
-4.813563e+00 -1.550978e+00 4.408691e+00 41 39 41
1.988500e+00 -1.254193e+00 3.765445e+00 124 124 122
1.988500e+00 -1.254193e+00 3.765445e+00 124 124 122
-9.521404e-01 -1.325001e+00 3.351108e+00 98 97 93
-2.822774e-01 -1.281812e+00 3.287230e+00 162 160 148
-1.059032e+00 -1.280606e+00 3.308128e+00 171 167 150
-1.059032e+00 -1.280606e+00 3.308128e+00 171 167 150
1.042020e+00 -1.209220e+00 3.479342e+00 172 169 163
1.635709e-01 -1.213575e+00 3.278101e+00 105 99 85
9.816747e-01 -1.173969e+00 3.428720e+00 176 176 168
1.119917e-01 -1.176083e+00 3.277079e+00 126 124 112
-3.214374e+00 -1.483731e+00 4.640374e+00 117 117 109
1.840395e-01 -1.157811e+00 3.287301e+00 125 121 108
5.934356e-01 -1.065355e+00 3.293903e+00 88 84 72
-3.488625e+00 -1.287784e+00 4.212170e+00 165 161 138
-1.499980e+00 -1.119748e+00 3.442239e+00 164 162 154
3.805393e+00 -1.045115e+00 5.037094e+00 166 165 161
5.974784e-01 -1.017068e+00 3.273429e+00 98 95 88
-6.440898e+00 -1.303837e+00 4.750270e+00 163 163 161
2.633115e+00 -9.795677e-01 4.041269e+00 167 162 156
-3.947276e+00 -1.153623e+00 4.058001e+00 27 23 20
-3.907770e+00 -1.135882e+00 4.047620e+00 168 161 151
8.852873e-01 -9.194191e-01 3.254883e+00 120 119 115
-5.839938e+00 -1.175273e+00 4.537971e+00 114 115 115
-4.369558e+00 -1.104143e+00 4.109669e+00 180 177 169
1.636584e+00 -8.707781e-01 3.410361e+00 120 121 116
2.610816e+00 -8.234534e-01 3.965899e+00 122 115 108
1.366258e+00 -8.148500e-01 3.304891e+00 73 64 59
1.070923e+00 -8.023681e-01 3.245528e+00 96 96 97
9.149331e-01 -8.058361e-01 3.231814e+00 189 189 187
1.963463e+00 -7.844786e-01 3.468672e+00 161 158 155
1.983271e+00 -7.733455e-01 3.471168e+00 68 63 61
4.075322e+00 -7.792576e-01 5.092971e+00 123 121 122
-2.798278e+00 -9.629452e-01 4.102847e+00 75 73 71
-2.834955e+00 -9.583729e-01 4.106916e+00 168 168 166
3.650830e+00 -7.493244e-01 4.690473e+00 58 53 48
3.650830e+00 -7.493244e-01 4.690473e+00 58 53 48
-2.788610e+00 -9.490634e-01 4.128734e+00 165 166 161
-5.977591e-01 -7.607527e-01 3.126159e+00 104 96 87
2.423826e+00 -6.846305e-01 3.794162e+00 170 161 154
-2.529888e+00 -8.688239e-01 4.032418e+00 91 90 88
-6.228733e+00 -8.965006e-01 4.547896e+00 64 62 63
8.698958e-01 -6.619453e-01 3.159194e+00 166 166 158
2.445103e+00 -6.414398e-01 3.790501e+00 174 168 155
4.106952e+00 -5.957312e-01 5.000128e+00 122 118 107
-3.860309e+00 -6.924595e-01 3.805375e+00 97 85 70
3.039488e+00 -5.118633e-01 4.117278e+00 150 149 145
-3.247076e+00 -6.331499e-01 3.688320e+00 87 76 66
4.573819e+00 -5.125842e-01 5.315636e+00 163 155 144
2.044765e+00 -4.796167e-01 3.364052e+00 188 187 181
-3.415756e+00 -5.946644e-01 3.592889e+00 75 66 61
-2.619836e+00 -6.118829e-01 3.702075e+00 80 74 66
3.545304e+00 -4.696729e-01 4.505821e+00 106 101 89
1.523612e+00 -4.382574e-01 3.192960e+00 165 162 150
1.841226e-02 -4.560145e-01 2.923394e+00 111 110 105
-4.192951e+00 -5.279662e-01 3.776279e+00 80 76 72
4.016642e-01 -3.977775e-01 3.001569e+00 175 169 157
-2.371265e+00 -4.803985e-01 3.481322e+00 114 115 109
2.664870e+00 -3.648092e-01 3.757434e+00 166 164 152
4.252902e-01 -3.439654e-01 3.023339e+00 196 191 175
4.252902e-01 -3.439654e-01 3.023339e+00 196 191 175
1.152176e+00 -3.220640e-01 3.073451e+00 183 181 173
-2.375287e-01 -3.520841e-01 3.013768e+00 191 191 183
-3.332561e+00 -4.074028e-01 3.444543e+00 88 79 76
3.435482e+00 -3.084960e-01 4.350551e+00 78 77 73
3.435482e+00 -3.084960e-01 4.350551e+00 78 77 73
3.368695e+00 -3.116204e-01 4.319755e+00 85 82 73
3.545881e+00 -2.861902e-01 4.415053e+00 109 107 94
-2.117822e-01 -3.170394e-01 3.019653e+00 185 186 181
-2.117822e-01 -3.170394e-01 3.019653e+00 185 186 181
3.499512e-01 -2.979396e-01 2.988845e+00 173 169 165
1.830548e+00 -2.738137e-01 3.231878e+00 109 105 101
1.590240e+00 -2.686887e-01 3.127631e+00 118 118 113
2.794218e+00 -2.527443e-01 3.778905e+00 118 109 102
-6.332200e+00 -3.828062e-01 4.376879e+00 169 165 158
2.963409e+00 -2.394731e-01 3.973032e+00 82 78 75
3.065327e+00 -2.377916e-01 4.017707e+00 70 67 60
4.464962e+00 -2.301798e-01 5.129811e+00 179 172 169
-6.334928e+00 -3.173572e-01 4.353939e+00 197 198 193
4.738101e+00 -1.862713e-01 5.299018e+00 153 150 134
3.407846e+00 -1.762330e-01 4.289117e+00 165 160 155
-3.745577e+00 -2.540521e-01 3.543475e+00 165 162 146
2.798554e+00 -1.665080e-01 3.768683e+00 145 139 121
-3.715270e+00 -2.489285e-01 3.539323e+00 79 75 65
-5.172181e+00 -2.485939e-01 3.954500e+00 167 164 154
2.633360e+00 -1.523016e-01 3.629149e+00 132 128 117
2.216591e+00 -1.472578e-01 3.299217e+00 160 159 155
-3.718017e+00 -2.239829e-01 3.519702e+00 149 143 129
3.434200e-01 -1.458164e-01 2.909837e+00 86 85 83
1.859724e+00 -1.323008e-01 3.199022e+00 94 87 80
1.859724e+00 -1.323008e-01 3.199022e+00 94 87 80
-2.679458e+00 -1.979986e-01 3.234977e+00 156 152 142
4.090343e+00 -1.055344e-01 4.771456e+00 170 161 146
2.061867e+00 -1.186230e-01 3.210909e+00 70 62 59
2.061867e+00 -1.186230e-01 3.210909e+00 70 62 59
1.845691e+00 -1.134481e-01 3.132623e+00 180 175 171
4.658837e+00 -9.231700e-02 5.201270e+00 102 98 95
7.533687e-01 -1.108052e-01 2.864776e+00 71 67 62
-2.833973e+00 -1.531614e-01 3.236447e+00 116 109 101
-2.119725e+00 -1.257319e-01 2.968049e+00 177 168 160
3.049726e+00 -4.522347e-02 3.907229e+00 184 179 172
-4.264247e+00 -1.121851e-01 3.613500e+00 156 149 133
-1.326018e+00 -6.468812e-02 2.440901e+00 183 174 157
-2.619269e+00 -1.037001e-01 3.152029e+00 156 150 137
3.521131e+00 -2.614990e-02 4.287295e+00 187 180 161
1.356475e+00 -4.788703e-02 3.052316e+00 195 185 176
1.356475e+00 -4.788703e-02 3.052316e+00 195 185 176
3.359713e+00 -1.460877e-02 4.174039e+00 102 95 90
3.560733e+00 -1.425136e-02 4.306646e+00 174 170 159
-1.017922e+00 -4.656635e-02 2.622262e+00 184 179 175
3.446411e+00 1.071446e-03 4.241711e+00 181 178 163
3.446411e+00 1.071446e-03 4.241711e+00 181 178 163
-3.646691e+00 -5.444377e-02 3.419509e+00 157 155 143
1.460820e+00 -6.463396e-03 3.062852e+00 112 103 94
3.520257e+00 2.120706e-02 4.281088e+00 173 170 165
1.436913e+00 -2.204586e-03 3.048347e+00 183 174 154
1.436913e+00 -2.204586e-03 3.048347e+00 183 174 154
4.574668e+00 5.004413e-02 5.108485e+00 134 133 115
1.928332e+00 3.338505e-02 3.088481e+00 178 170 159
1.745951e+00 4.098901e-02 3.028248e+00 82 70 61
4.008151e+00 7.773165e-02 4.655531e+00 184 176 166
4.589018e-01 4.626953e-02 2.811649e+00 174 168 152
1.836802e+00 5.804631e-02 3.116132e+00 113 103 85
4.894976e-01 6.804104e-02 2.795109e+00 167 161 146
-6.661460e+00 4.095738e-02 4.326769e+00 137 135 126
-2.639746e+00 4.696904e-02 3.006275e+00 176 167 160
2.339044e+00 1.103104e-01 3.380504e+00 159 152 144
-4.030915e+00 7.426063e-02 3.470780e+00 91 82 75
4.450087e+00 1.396631e-01 4.981480e+00 184 180 177
-6.637578e+00 1.367717e-01 4.281471e+00 164 163 161
-3.097128e+00 1.411843e-01 3.146685e+00 150 145 139
5.085774e-01 1.585481e-01 2.808513e+00 178 172 166
-2.445686e-01 1.617083e-01 2.834354e+00 197 195 188
-1.317670e+00 1.666813e-01 2.419925e+00 108 96 81
2.745209e+00 2.153951e-01 3.637654e+00 177 168 158
-5.207231e-01 1.907214e-01 2.604729e+00 112 105 102
-5.207231e-01 1.907214e-01 2.604729e+00 112 105 102
2.877375e-01 2.219868e-01 2.814479e+00 132 125 109
-3.773968e+00 2.192356e-01 3.342877e+00 175 165 153
1.334113e+00 2.396695e-01 2.859841e+00 183 172 151
2.000993e+00 2.430046e-01 3.041850e+00 154 150 141
1.220931e+00 2.440278e-01 2.830972e+00 87 79 73
8.174644e-01 2.455872e-01 2.789931e+00 105 99 82
