ply
format ascii 1.0
element face 0
property list uchar int vertex_indices
element vertex 952
property float x
property float y
property float z
property uchar diffuse_red
property uchar diffuse_green
property uchar diffuse_blue
end_header
-2.443203e+00 1.174904e+00 4.123080e+00 56 51 39
-4.045181e+00 1.007114e+00 4.500386e+00 152 137 118
-4.408337e+00 8.596244e-01 4.472439e+00 58 51 38
-2.529120e+00 1.263891e+00 4.181241e+00 50 44 31
-4.159304e+00 1.034634e+00 4.495426e+00 176 162 147
-1.281110e-01 1.853184e+00 3.844340e+00 71 63 51
-2.094530e-02 1.885782e+00 3.824849e+00 95 86 71
-3.216048e+00 1.405856e+00 4.447824e+00 82 71 53
-4.147926e+00 1.070475e+00 4.443917e+00 75 66 53
-2.134735e+00 1.529056e+00 4.183625e+00 95 81 66
-4.248526e+00 1.111411e+00 4.495395e+00 175 159 144
-5.821698e-01 1.894302e+00 3.922465e+00 201 184 176
-2.776262e-01 1.996775e+00 3.905429e+00 92 79 63
-2.825492e+00 1.554232e+00 4.337092e+00 195 182 171
-3.218730e+00 1.481210e+00 4.402416e+00 170 153 135
2.736449e+00 2.349625e+00 2.875048e+00 57 48 31
6.587306e+00 3.889681e+00 2.770005e+00 254 254 254
5.561742e+00 4.009117e+00 3.226065e+00 46 42 31
6.764784e+00 4.106142e+00 2.772215e+00 141 132 124
5.167971e+00 4.211790e+00 3.300035e+00 131 113 99
5.788451e+00 3.936282e+00 2.653902e+00 177 167 157
-2.288647e+00 4.336499e+00 4.943024e+00 164 150 137
5.373915e+00 7.660050e+00 4.633036e+00 103 97 85
5.373915e+00 7.660050e+00 4.633036e+00 103 97 85
-1.379713e+00 4.226181e+00 4.328716e+00 178 161 151
5.216564e+00 8.573856e+00 5.155818e+00 178 166 153
4.546607e+00 9.305803e+00 5.223861e+00 94 86 75
-2.689558e+00 7.953785e+00 6.736010e+00 179 170 160
4.788096e+00 9.509625e+00 5.235346e+00 80 75 65
4.184280e+00 9.407922e+00 5.345487e+00 173 160 149
-4.534611e+00 6.625806e+00 6.328904e+00 85 77 67
3.650595e+00 9.466408e+00 5.494176e+00 75 66 56
-4.201252e+00 7.651855e+00 6.797182e+00 171 162 151
-2.712971e+00 8.699703e+00 6.883403e+00 81 71 61
-2.357419e+00 9.467947e+00 6.795562e+00 45 47 42
-2.296088e+00 9.572844e+00 6.746576e+00 172 159 147
-3.684644e+00 9.445652e+00 7.084668e+00 63 60 52
-4.685669e+00 7.633207e+00 6.282414e+00 183 174 167
-8.008329e-01 -3.940996e+00 1.527288e+00 97 80 62
-2.177287e-01 -3.782803e+00 1.560296e+00 54 43 27
6.170038e-01 -3.585259e+00 1.431292e+00 92 81 63
1.498427e-01 -3.563889e+00 1.600672e+00 55 45 32
8.900010e-01 -3.608001e+00 1.231028e+00 134 116 95
4.297753e-01 -3.531891e+00 1.461644e+00 165 150 131
-2.746770e-01 -3.571038e+00 1.579580e+00 78 63 41
1.975269e-01 -3.295020e+00 1.528463e+00 113 97 81
5.093531e-01 -3.293658e+00 1.411794e+00 195 177 163
1.129616e-01 -3.272739e+00 1.512807e+00 81 68 49
2.440413e-01 -3.231585e+00 1.483633e+00 61 49 33
2.102063e-01 -3.237240e+00 1.485657e+00 139 121 102
-4.137257e-01 -3.118160e+00 1.623771e+00 131 115 97
-1.178624e+00 -3.167182e+00 1.806264e+00 76 64 48
-1.284354e+00 -3.169980e+00 1.833174e+00 67 60 44
-1.897860e+00 -3.190301e+00 1.821249e+00 159 146 130
3.211474e+00 -2.478199e+00 9.762455e-01 30 26 23
-1.331793e+00 -2.814136e+00 1.970432e+00 67 54 38
-1.331793e+00 -2.814136e+00 1.970432e+00 67 54 38
3.108583e+00 -2.337486e+00 1.038792e+00 182 168 155
2.088812e+00 -2.123032e+00 1.375398e+00 56 52 38
1.794303e+00 -2.114528e+00 1.488607e+00 150 133 117
1.582133e+00 -2.120606e+00 1.551013e+00 175 158 142
1.543720e+00 -2.140051e+00 1.544180e+00 49 41 31
1.499429e+00 -2.130939e+00 1.542720e+00 92 76 59
3.297074e+00 -1.976502e+00 1.109875e+00 153 137 121
3.312650e+00 -1.796376e+00 1.169683e+00 150 128 104
3.002349e+00 -1.736154e+00 1.222308e+00 84 71 54
1.942210e+00 -1.764090e+00 1.471341e+00 75 61 48
1.246587e+00 -1.805480e+00 1.596398e+00 87 71 57
1.019259e+00 -1.781158e+00 1.690032e+00 85 72 56
1.019259e+00 -1.781158e+00 1.690032e+00 85 72 56
7.560898e-01 -1.789090e+00 1.746347e+00 86 73 56
2.035237e+00 -1.738375e+00 1.312317e+00 83 71 54
-1.182337e-01 -1.830282e+00 1.923471e+00 78 65 49
4.451670e+00 4.891552e-01 2.492702e+00 86 70 54
1.953359e-02 4.088759e-01 3.882740e+00 56 53 38
5.335328e+00 5.510745e-01 2.142288e+00 182 167 152
-2.229165e+00 2.114147e-01 4.063595e+00 64 53 35
-2.994765e+00 1.829173e-01 4.224827e+00 128 111 93
-2.568010e+00 3.840125e-01 4.213742e+00 126 113 96
2.456156e+00 1.802522e-01 2.091269e+00 117 109 93
5.226078e+00 1.577106e+00 2.477332e+00 84 75 59
5.016568e+00 1.620504e+00 2.563139e+00 59 48 37
5.235178e+00 1.652445e+00 2.481178e+00 153 141 124
2.068887e+00 1.593518e+00 3.335577e+00 176 159 143
5.433258e+00 1.440831e+00 1.983150e+00 136 128 109
4.932018e+00 1.934524e+00 2.644788e+00 79 66 53
-4.432411e+00 6.036775e-01 4.495068e+00 157 140 122
-9.020185e-01 1.214761e+00 3.810907e+00 75 68 54
-9.020185e-01 1.214761e+00 3.810907e+00 75 68 54
-8.174092e-01 1.325405e+00 3.830928e+00 83 74 59
5.419061e+00 2.274660e+00 2.561823e+00 55 48 38
-9.319183e-01 1.493997e+00 3.929812e+00 173 159 146
-2.755634e+00 1.244840e+00 4.299952e+00 140 123 107
3.874192e+00 2.272432e+00 2.985371e+00 69 57 41
-3.135199e+00 1.332469e+00 4.474420e+00 63 54 39
-2.634395e+00 1.250573e+00 4.218784e+00 173 156 140
1.897809e+00 2.084935e+00 3.472042e+00 134 117 99
5.406592e+00 2.283802e+00 2.390539e+00 55 47 36
2.250679e+00 1.596831e+00 2.820717e+00 161 145 129
-2.899893e+00 1.333071e+00 4.310954e+00 90 76 59
-3.916081e+00 1.164558e+00 4.496245e+00 88 74 55
-3.143955e+00 1.410024e+00 4.428230e+00 137 121 105
4.221500e+00 2.687045e+00 3.038245e+00 183 172 162
1.113091e+00 2.202832e+00 3.627518e+00 58 51 39
1.113091e+00 2.202832e+00 3.627518e+00 58 51 39
5.527821e+00 3.144244e+00 2.941855e+00 120 104 89
-2.403865e+00 1.660400e+00 4.266695e+00 68 59 44
-4.795888e+00 1.381510e+00 4.738941e+00 17 20 23
5.543172e+00 3.361570e+00 3.009505e+00 120 107 90
-3.059914e+00 2.057948e+00 4.463374e+00 84 75 59
4.693906e+00 4.047586e+00 3.537854e+00 58 57 47
2.160944e+00 2.375961e+00 2.936878e+00 55 55 43
2.719972e+00 4.296261e+00 3.474766e+00 203 192 183
6.039783e+00 5.040444e+00 2.670925e+00 255 255 255
-4.169995e+00 4.176357e+00 5.374115e+00 71 62 53
-4.482704e+00 4.146986e+00 5.422936e+00 80 76 65
6.102879e+00 5.469059e+00 2.773512e+00 135 129 123
5.331914e+00 7.914826e+00 4.677693e+00 123 113 101
4.630759e+00 9.007390e+00 5.473676e+00 190 176 165
-4.145816e+00 7.517795e+00 6.789395e+00 93 86 78
-3.265905e+00 8.692158e+00 6.985540e+00 110 100 90
3.714715e-02 -3.806734e+00 1.669594e+00 38 32 20
8.603580e-01 -3.832155e+00 1.304466e+00 86 69 51
1.982331e+00 -3.749491e+00 8.511743e-01 50 40 28
6.437378e-01 -3.680259e+00 1.453027e+00 37 33 24
3.845677e-01 -3.549281e+00 1.549912e+00 123 107 91
3.978968e-01 -3.557399e+00 1.480454e+00 70 58 42
5.533961e-01 -3.515788e+00 1.454673e+00 82 68 46
4.382816e-02 -3.541459e+00 1.571644e+00 101 84 66
6.675601e-02 -3.532478e+00 1.570550e+00 160 144 129
1.310359e-01 -3.507991e+00 1.566568e+00 171 153 131
7.022529e-01 -3.440921e+00 1.306805e+00 91 78 61
4.496405e-02 -3.302636e+00 1.515227e+00 74 59 40
1.938228e-01 -3.239803e+00 1.514557e+00 69 56 39
6.943180e-01 -3.186183e+00 1.369778e+00 157 140 123
2.760583e+00 -3.008073e+00 9.102315e-01 139 122 102
2.418170e+00 -3.107429e+00 8.330850e-01 98 82 63
-2.908948e+00 -3.362664e+00 2.239096e+00 155 143 127
3.338126e-01 -3.123896e+00 1.477640e+00 150 134 119
-6.100586e-01 -3.201409e+00 1.680047e+00 174 159 146
-7.271797e-01 -3.202028e+00 1.715038e+00 180 166 157
-1.472858e+00 -3.271094e+00 1.849356e+00 138 123 107
3.780942e-01 -3.108762e+00 1.454833e+00 74 63 49
-3.077182e+00 -3.358749e+00 2.265295e+00 58 50 36
-1.129285e-01 -3.142669e+00 1.565626e+00 160 144 129
-8.224527e-01 -3.169309e+00 1.732754e+00 137 121 105
-5.195728e-01 -3.141726e+00 1.656714e+00 64 53 39
-2.502497e+00 -3.254437e+00 2.160708e+00 66 58 45
-3.073560e+00 -3.277362e+00 2.280965e+00 67 60 43
-1.964772e+00 -3.283646e+00 1.814872e+00 100 87 70
-1.715120e+00 -3.250327e+00 1.771319e+00 163 147 131
-3.817127e-01 -3.052356e+00 1.586622e+00 184 173 164
1.082268e+00 -2.820080e+00 1.390869e+00 178 160 138
-1.642038e+00 -3.152069e+00 1.755733e+00 132 119 102
-2.132395e+00 -3.175265e+00 1.862832e+00 74 62 46
1.947273e+00 -2.651399e+00 1.233890e+00 163 142 125
1.403415e+00 -2.649360e+00 1.417136e+00 98 80 60
6.711201e-01 -2.695358e+00 1.559100e+00 66 54 35
6.711201e-01 -2.695358e+00 1.559100e+00 66 54 35
-5.089270e-01 -2.787855e+00 1.832205e+00 192 174 158
-1.686779e+00 -3.105025e+00 1.758173e+00 104 88 72
-1.790437e+00 -3.118730e+00 1.771182e+00 111 98 81
3.575582e-01 -2.603311e+00 1.679702e+00 52 41 27
1.018428e+00 -2.359911e+00 1.573621e+00 91 76 57
1.018428e+00 -2.359911e+00 1.573621e+00 91 76 57
2.769025e+00 -2.038094e+00 1.291011e+00 86 71 52
2.769025e+00 -2.038094e+00 1.291011e+00 86 71 52
7.655076e-01 -2.313159e+00 1.591347e+00 193 174 159
1.914256e+00 -2.085998e+00 1.471249e+00 131 114 96
2.303671e+00 -2.030607e+00 1.271104e+00 94 80 60
1.555301e+00 -1.964829e+00 1.555061e+00 163 143 129
2.495208e+00 -2.007517e+00 1.161195e+00 78 64 48
2.338901e+00 -1.969972e+00 1.262177e+00 147 128 111
1.997431e+00 -1.973059e+00 1.323937e+00 84 70 51
-1.148021e+00 -2.152318e+00 2.143191e+00 62 49 32
4.736670e-01 -1.984732e+00 1.757207e+00 182 159 135
-3.330811e-01 -1.842911e+00 1.998120e+00 77 65 50
-2.218067e+00 -1.926609e+00 2.548169e+00 57 48 33
-9.072830e-01 -1.899977e+00 2.115360e+00 151 133 110
-1.597069e+00 -2.067650e+00 2.115279e+00 193 180 163
-4.960783e-01 -1.826139e+00 2.027977e+00 126 111 90
-9.218698e-01 -1.844693e+00 2.120606e+00 126 109 91
2.102722e+00 -1.313731e+00 1.712570e+00 70 60 48
2.118695e+00 1.342630e-01 3.019430e+00 84 73 53
2.302397e+00 1.923183e-01 2.916880e+00 69 57 38
2.160985e+00 2.118312e-01 2.884508e+00 97 85 67
2.421651e+00 -4.419394e-01 1.907605e+00 66 61 51
1.509661e+00 1.019002e+00 3.738560e+00 167 143 114
1.509661e+00 1.019002e+00 3.738560e+00 167 143 114
5.226725e+00 8.675458e-01 2.272353e+00 181 164 148
4.994939e+00 9.800555e-01 2.454983e+00 178 160 144
4.164504e+00 1.048545e+00 2.795240e+00 70 61 46
-3.297388e+00 -1.114593e-01 4.081105e+00 192 180 166
5.199380e+00 9.420091e-01 2.309392e+00 176 159 140
5.021060e+00 1.233074e+00 2.457374e+00 176 163 146
4.884968e+00 1.270288e+00 2.500417e+00 93 80 58
4.366054e+00 1.529354e+00 2.837872e+00 66 54 40
3.653176e+00 1.381759e+00 2.919815e+00 166 150 130
3.998788e+00 1.482434e+00 2.897817e+00 79 67 50
4.693944e+00 1.426789e+00 2.595592e+00 107 92 66
4.605265e+00 1.531050e+00 2.722884e+00 147 127 103
4.440667e+00 1.579340e+00 2.763548e+00 138 122 100
3.908157e+00 1.540147e+00 2.891733e+00 146 125 103
1.806660e+00 1.345014e+00 3.330873e+00 86 77 61
4.180328e+00 1.663698e+00 2.802783e+00 91 78 58
5.419012e+00 1.828332e+00 2.497955e+00 174 158 142
4.162374e+00 1.718080e+00 2.816914e+00 177 155 131
2.053551e+00 1.481414e+00 3.276563e+00 97 86 70
2.053551e+00 1.481414e+00 3.276563e+00 97 86 70
-7.253083e-01 1.224320e+00 3.835245e+00 105 92 75
2.231718e+00 9.032619e-01 2.483324e+00 198 184 171
2.297883e+00 2.041555e+00 3.384527e+00 146 130 115
2.297883e+00 2.041555e+00 3.384527e+00 146 130 115
-1.636380e+00 3.174396e-01 3.054712e+00 90 79 68
2.080432e+00 2.029527e+00 3.431734e+00 63 52 37
1.743819e+00 1.954401e+00 3.463940e+00 68 60 43
2.352661e+00 2.098128e+00 3.385099e+00 81 68 51
2.675745e-01 1.828235e+00 3.835583e+00 115 102 86
3.789663e-01 1.857224e+00 3.823904e+00 125 111 98
-2.736594e+00 1.260205e+00 4.249049e+00 102 85 65
-2.085910e+00 1.474847e+00 4.164096e+00 136 124 108
-3.289607e+00 1.393068e+00 4.469042e+00 86 76 60
-3.840612e+00 1.195226e+00 4.470230e+00 99 87 68
5.841606e+00 2.177477e+00 2.082110e+00 206 194 186
-8.489002e-01 1.757502e+00 3.979787e+00 70 60 49
-6.105122e-01 1.792410e+00 3.912907e+00 70 59 44
-3.729676e+00 1.277854e+00 4.474939e+00 86 77 58
-3.595935e+00 1.339385e+00 4.458476e+00 88 77 56
-2.428397e+00 1.531488e+00 4.226981e+00 90 85 66
-3.268329e+00 1.474722e+00 4.438746e+00 97 84 65
-4.623275e+00 1.259307e+00 4.673507e+00 168 159 146
5.501202e+00 3.036212e+00 2.853706e+00 184 172 158
6.013483e+00 2.383992e+00 2.020431e+00 112 110 97
6.013483e+00 2.383992e+00 2.020431e+00 112 110 97
5.493503e+00 3.442528e+00 3.166080e+00 145 128 108
2.993184e-02 2.173504e+00 3.849258e+00 73 65 50
6.747091e+00 4.101389e+00 2.839023e+00 253 251 252
5.579082e+00 3.971980e+00 3.012616e+00 70 63 47
2.357933e+00 3.909712e+00 3.981153e+00 57 47 36
5.514793e+00 4.104589e+00 3.047550e+00 67 60 50
5.577978e+00 4.143434e+00 3.023359e+00 48 42 36
5.547889e+00 4.192500e+00 3.038211e+00 126 117 100
2.431097e+00 3.912828e+00 3.825599e+00 58 46 30
3.867121e+00 4.555459e+00 3.660837e+00 141 129 115
4.945593e+00 4.700239e+00 3.402461e+00 152 134 118
4.666650e+00 4.678293e+00 3.462537e+00 149 132 112
4.595475e+00 4.690104e+00 3.487486e+00 149 132 113
-4.018450e-01 3.852054e+00 4.503419e+00 134 123 112
-2.691574e+00 3.780400e+00 5.213009e+00 89 85 78
4.706864e+00 4.685730e+00 3.433734e+00 99 83 62
4.241275e+00 4.676560e+00 3.576134e+00 159 143 127
1.211378e+00 4.215927e+00 4.211067e+00 198 183 176
4.012860e+00 4.694907e+00 3.621056e+00 93 80 63
-3.634302e-01 4.028094e+00 4.548601e+00 186 178 170
1.501263e+00 4.419225e+00 4.217768e+00 67 63 52
-3.914670e+00 3.549925e+00 5.172561e+00 171 162 147
1.880190e-01 4.481845e+00 4.513521e+00 162 153 143
5.349355e+00 5.196083e+00 3.174980e+00 57 53 46
-2.335175e-02 4.618036e+00 4.544605e+00 104 92 77
-3.857587e+00 3.967101e+00 5.228980e+00 87 79 65
2.154862e+00 5.173197e+00 4.075959e+00 78 71 62
-4.495731e+00 4.075204e+00 5.441810e+00 158 143 129
6.093603e+00 5.151115e+00 2.666952e+00 138 129 116
6.093603e+00 5.151115e+00 2.666952e+00 138 129 116
6.115078e+00 5.314798e+00 2.729207e+00 133 132 124
5.424140e+00 5.395877e+00 2.959025e+00 186 176 166
-5.095368e+00 3.515148e+00 5.062747e+00 135 115 100
-5.095368e+00 3.515148e+00 5.062747e+00 135 115 100
2.959398e+00 5.409057e+00 3.603517e+00 178 168 159
2.959398e+00 5.409057e+00 3.603517e+00 178 168 159
-5.290314e+00 3.948646e+00 5.205805e+00 153 142 127
4.212010e+00 8.212742e+00 5.045455e+00 105 95 84
4.212010e+00 8.212742e+00 5.045455e+00 105 95 84
5.413594e+00 9.164102e+00 4.901136e+00 175 162 153
5.251517e+00 9.241499e+00 4.991691e+00 179 168 158
-2.582773e+00 8.896204e+00 6.979011e+00 168 156 147
-2.884738e+00 8.558950e+00 6.770461e+00 175 162 152
6.048736e+00 9.085773e+00 3.998946e+00 110 111 101
6.048736e+00 9.085773e+00 3.998946e+00 110 111 101
2.690057e+00 1.000998e+01 5.266489e+00 254 254 254
-5.523505e+00 9.107637e+00 7.345107e+00 255 255 255
2.495094e-01 -3.650832e+00 1.648803e+00 42 34 22
8.139969e-01 -3.668078e+00 1.345920e+00 85 69 46
-5.754375e-01 -3.717832e+00 1.536009e+00 91 74 56
-1.907237e-01 -3.538989e+00 1.611034e+00 80 65 44
5.167911e-01 -3.353510e+00 1.385644e+00 169 150 132
2.823438e+00 -3.113170e+00 8.923314e-01 160 146 129
1.973342e+00 -3.166359e+00 1.076172e+00 84 71 54
3.004312e+00 -3.022228e+00 8.546620e-01 47 37 26
8.414539e-01 -3.180780e+00 1.334773e+00 168 152 139
1.654968e-01 -3.222437e+00 1.501138e+00 71 60 46
2.371533e-01 -3.189409e+00 1.498333e+00 79 70 55
3.288077e-01 -3.177429e+00 1.457948e+00 69 56 39
-2.749415e+00 -3.353262e+00 2.209499e+00 163 150 133
-8.095527e-01 -3.219452e+00 1.714311e+00 184 173 164
1.105611e-01 -3.134752e+00 1.519963e+00 144 128 113
2.858719e+00 -2.948420e+00 8.516080e-01 173 160 151
1.966730e+00 -3.088732e+00 9.165054e-01 162 143 128
-2.441845e+00 -3.275083e+00 2.157477e+00 135 124 108
-2.444845e+00 -3.263420e+00 2.144897e+00 56 48 37
-4.980588e-01 -3.139258e+00 1.654077e+00 64 52 38
2.426895e+00 -2.996994e+00 8.414204e-01 92 79 62
-2.992617e-01 -3.110919e+00 1.608205e+00 140 127 108
1.288231e+00 -3.001174e+00 1.229919e+00 95 79 63
-8.806093e-01 -3.154082e+00 1.739134e+00 80 66 51
-2.869536e+00 -3.283470e+00 2.234564e+00 138 124 110
2.296881e+00 -3.002818e+00 8.648956e-01 81 68 49
1.207465e+00 -3.001703e+00 1.225634e+00 150 140 130
-8.913890e-01 -3.141805e+00 1.733858e+00 134 119 103
8.095948e-01 -3.026411e+00 1.311198e+00 91 76 55
-2.442733e+00 -3.230289e+00 2.132921e+00 73 57 41
-1.193711e+00 -3.160807e+00 1.780936e+00 146 133 116
-1.713077e+00 -3.268764e+00 1.771769e+00 113 100 79
-1.771750e+00 -3.246554e+00 1.782710e+00 98 86 70
-1.740967e+00 -3.239433e+00 1.779866e+00 84 72 60
2.333319e+00 -2.938053e+00 8.215669e-01 176 165 156
-1.907605e+00 -3.225903e+00 1.821525e+00 172 155 139
2.380152e+00 -2.891510e+00 8.218302e-01 182 173 167
-1.648001e+00 -3.169736e+00 1.758974e+00 61 53 40
1.829138e+00 -2.695289e+00 1.270467e+00 81 68 52
1.789863e+00 -2.636821e+00 1.330791e+00 65 50 34
2.264514e+00 -2.675635e+00 1.082829e+00 161 144 128
6.889871e-01 -2.690294e+00 1.558931e+00 184 165 141
2.866836e-01 -2.682250e+00 1.669152e+00 59 44 25
1.779780e+00 -2.518924e+00 1.302611e+00 185 166 149
-5.221292e-01 -2.635342e+00 1.876879e+00 107 85 62
2.798823e+00 -2.306787e+00 1.172912e+00 121 103 83
2.798823e+00 -2.306787e+00 1.172912e+00 121 103 83
-1.836093e+00 -2.807575e+00 1.980780e+00 168 145 127
-1.776937e+00 -2.614476e+00 2.005508e+00 88 70 52
-1.772732e+00 -2.594779e+00 2.009034e+00 191 175 161
1.820356e-02 -2.126046e+00 1.909006e+00 81 69 55
2.114294e+00 -2.002618e+00 1.267539e+00 83 68 52
-3.491202e-01 -2.095295e+00 1.948819e+00 66 55 37
2.514682e+00 -1.917118e+00 1.161066e+00 174 159 139
2.273379e+00 -1.906284e+00 1.246579e+00 70 58 42
1.977296e+00 -1.952202e+00 1.265173e+00 192 179 167
-2.383827e+00 -2.171484e+00 2.444757e+00 76 68 54
5.530935e-01 -1.868504e+00 1.798370e+00 70 55 35
-1.365448e+00 -1.903111e+00 2.229176e+00 66 57 38
-1.365448e+00 -1.903111e+00 2.229176e+00 66 57 38
3.927295e+00 1.973425e-01 2.726495e+00 144 128 112
2.253889e+00 1.043291e-01 2.977472e+00 115 98 78
5.381066e+00 2.584269e-01 2.066511e+00 120 106 85
1.886363e+00 4.843812e-01 3.525243e+00 60 51 39
-3.098665e+00 -1.428633e+00 2.942917e+00 119 106 93
1.778176e+00 8.413651e-01 3.645850e+00 144 124 99
2.230829e+00 3.154728e-01 2.859077e+00 67 60 44
8.211694e-02 -6.701856e-01 2.465974e+00 206 195 189
3.993573e-01 -4.199795e-01 2.470049e+00 111 102 89
4.665330e+00 1.039843e+00 2.603008e+00 97 89 70
5.133003e+00 1.027464e+00 2.373333e+00 115 98 78
-2.588202e-01 1.034206e+00 4.138186e+00 62 54 38
3.431552e+00 1.152107e+00 2.900987e+00 165 149 133
2.203938e+00 9.799163e-01 3.124543e+00 156 138 124
4.355825e+00 1.555418e+00 2.819585e+00 134 121 104
-2.229641e+00 5.479582e-01 4.019750e+00 84 74 55
-3.692722e+00 3.927065e-01 4.312932e+00 102 90 78
4.184711e+00 1.614718e+00 2.857908e+00 99 84 63
5.440992e+00 1.032107e+00 1.799088e+00 75 66 53
4.962761e+00 1.625859e+00 2.554087e+00 171 155 142
4.325667e+00 1.626843e+00 2.749084e+00 99 85 62
5.364022e+00 1.784977e+00 2.492590e+00 68 61 43
2.138181e+00 1.529007e+00 3.266591e+00 110 95 76
2.154173e+00 1.629312e+00 3.329752e+00 176 163 147
1.818872e+00 1.573923e+00 3.349508e+00 91 83 67
1.020434e+00 1.705150e+00 3.726622e+00 76 65 47
2.036970e+00 1.745943e+00 3.390167e+00 85 75 58
-7.854369e-02 1.614554e+00 3.912418e+00 148 135 119
2.296500e+00 1.891030e+00 3.361309e+00 53 43 32
1.755549e+00 1.766342e+00 3.422440e+00 120 107 91
-8.401390e-01 1.290894e+00 3.838228e+00 156 139 122
1.980334e+00 1.861490e+00 3.430758e+00 65 54 42
5.907631e-01 1.857700e+00 3.765933e+00 116 104 90
2.175958e-01 1.801259e+00 3.838551e+00 137 125 111
-3.087331e+00 1.267215e+00 4.420576e+00 115 102 85
-7.530259e-01 1.575481e+00 3.890141e+00 51 38 25
2.009282e+00 2.161817e+00 3.460088e+00 81 66 46
1.221590e+00 2.105909e+00 3.624568e+00 153 136 120
2.322871e+00 2.127529e+00 3.229916e+00 88 76 53
5.523465e+00 2.234161e+00 2.175160e+00 88 80 69
5.023249e+00 3.580615e+00 3.390129e+00 82 76 60
2.282234e+00 2.177156e+00 3.047895e+00 91 78 59
4.683435e+00 3.616062e+00 3.524036e+00 114 110 97
-3.079568e+00 1.788128e+00 4.466409e+00 125 107 87
2.348490e+00 2.192906e+00 2.955976e+00 121 106 88
2.762275e+00 2.256163e+00 2.847183e+00 82 73 58
5.934113e+00 2.872002e+00 2.260467e+00 160 158 148
4.934981e+00 3.994127e+00 3.577820e+00 50 41 35
5.497267e+00 3.945210e+00 3.314714e+00 115 101 87
4.701529e+00 3.989683e+00 3.630903e+00 19 20 22
5.555930e+00 3.842706e+00 3.149834e+00 93 86 69
4.644478e+00 4.023495e+00 3.627566e+00 98 89 80
5.512069e+00 3.859897e+00 3.130230e+00 66 60 49
5.512069e+00 3.859897e+00 3.130230e+00 66 60 49
3.729802e+00 3.958142e+00 3.831839e+00 38 40 32
-4.268539e+00 1.917159e+00 4.741491e+00 83 71 57
6.789441e+00 4.091236e+00 2.760603e+00 103 112 102
4.123269e+00 4.111449e+00 3.523043e+00 177 163 150
3.498934e+00 3.878412e+00 3.539527e+00 95 84 66
2.352190e+00 3.847278e+00 3.901856e+00 133 116 100
2.352190e+00 3.847278e+00 3.901856e+00 133 116 100
5.752563e+00 3.758440e+00 2.642671e+00 117 107 94
5.145757e+00 4.316023e+00 3.289696e+00 49 44 40
5.928482e+00 3.831493e+00 2.604882e+00 152 139 123
5.588179e+00 4.218389e+00 2.994568e+00 116 107 96
4.075276e+00 4.281226e+00 3.554599e+00 52 48 38
5.546134e+00 4.223758e+00 2.967562e+00 40 37 28
5.445545e+00 4.481160e+00 3.192855e+00 133 119 106
-2.259123e+00 3.530831e+00 4.998957e+00 93 80 63
2.545678e+00 3.532179e+00 3.341676e+00 157 139 118
4.848303e+00 4.679269e+00 3.411681e+00 154 137 120
5.870244e+00 4.318314e+00 2.695129e+00 188 177 165
1.965486e+00 4.585673e+00 4.185168e+00 94 82 64
6.623131e-01 4.180342e+00 4.297460e+00 80 76 64
2.631577e+00 3.978947e+00 3.450637e+00 102 85 67
2.534425e+00 3.978638e+00 3.480472e+00 63 51 38
2.428534e+00 3.964994e+00 3.495093e+00 69 57 35
2.428534e+00 3.964994e+00 3.495093e+00 69 57 35
1.408553e+00 4.526987e+00 4.283547e+00 141 127 112
-1.051213e+00 3.989218e+00 4.679351e+00 82 73 56
-1.305423e-02 4.191625e+00 4.451386e+00 72 68 57
1.596492e+00 4.649571e+00 4.192242e+00 73 64 56
-9.228847e-01 4.162733e+00 4.659554e+00 173 158 145
-3.313353e-01 4.397978e+00 4.589741e+00 82 75 65
5.728056e+00 4.863589e+00 2.836240e+00 74 66 58
2.448786e+00 4.381703e+00 3.580615e+00 179 163 148
-2.042887e-01 4.556093e+00 4.582821e+00 159 142 127
-2.982623e-01 4.544280e+00 4.594032e+00 163 150 134
-2.982623e-01 4.544280e+00 4.594032e+00 163 150 134
-3.963121e-01 4.567135e+00 4.632220e+00 161 144 130
-3.418188e+00 3.986662e+00 5.174619e+00 143 131 114
-4.142345e+00 4.017884e+00 5.344696e+00 83 78 66
-4.482279e+00 4.006673e+00 5.421554e+00 56 56 48
-1.605555e+00 4.025091e+00 4.378349e+00 175 162 150
-1.613282e+00 4.035262e+00 4.340724e+00 51 47 38
-5.090264e+00 3.680134e+00 5.109603e+00 67 57 44
-5.090264e+00 3.680134e+00 5.109603e+00 67 57 44
2.179591e+00 5.235620e+00 3.782866e+00 68 61 51
-5.298694e+00 3.760228e+00 5.186736e+00 86 72 59
-5.270666e+00 3.860068e+00 5.207036e+00 85 73 62
-5.263743e+00 4.025042e+00 5.213466e+00 80 76 64
5.044561e+00 9.008359e+00 5.286761e+00 117 109 96
4.845705e+00 9.162026e+00 5.383066e+00 96 88 77
3.965734e+00 8.991835e+00 5.556961e+00 122 108 96
5.867549e+00 7.386724e+00 3.718247e+00 191 180 171
3.876124e+00 9.077873e+00 5.583226e+00 93 87 75
2.239590e+00 8.328036e+00 5.382252e+00 186 173 165
4.958255e+00 9.411668e+00 5.164949e+00 61 55 47
3.431263e+00 9.323853e+00 5.522186e+00 94 83 71
3.703869e+00 9.429513e+00 5.468991e+00 75 72 62
4.249101e+00 9.347353e+00 5.191350e+00 80 72 61
-2.525675e+00 8.791455e+00 6.922858e+00 17 28 30
-2.029262e+00 8.897038e+00 6.828793e+00 113 103 93
-2.090448e+00 9.044843e+00 6.896024e+00 101 91 81
-2.152765e+00 9.129904e+00 6.940072e+00 100 90 81
-2.498287e+00 9.049480e+00 6.995054e+00 121 113 104
-1.760070e+00 8.620552e+00 6.418778e+00 174 157 144
-2.666399e+00 9.090835e+00 6.916675e+00 144 131 122
-2.684854e+00 9.105637e+00 6.883955e+00 77 70 60
-2.565331e+00 9.248274e+00 6.893349e+00 63 59 52
-2.496062e+00 9.318070e+00 6.900296e+00 53 50 44
-6.877834e-01 9.425334e+00 6.345063e+00 250 254 254
-2.757045e+00 9.149536e+00 6.853877e+00 158 145 134
-3.868318e+00 9.164347e+00 7.200116e+00 131 121 112
-3.715196e+00 9.379866e+00 7.208679e+00 57 52 46
-3.958535e+00 9.212296e+00 7.136542e+00 145 136 123
-3.379238e+00 9.321609e+00 6.975997e+00 62 59 50
-3.625252e+00 9.524647e+00 7.071514e+00 62 64 52
-1.296799e+00 9.770372e+00 6.040766e+00 156 146 142
2.602065e-01 -3.677242e+00 1.638892e+00 46 33 17
9.957797e-01 -3.723778e+00 1.239011e+00 56 44 30
5.363405e-01 -3.490944e+00 1.461744e+00 152 135 115
8.483214e-01 -3.525197e+00 1.251678e+00 87 73 55
2.842868e+00 -3.055975e+00 9.006451e-01 83 69 49
-2.362135e+00 -3.314346e+00 2.128492e+00 78 67 49
-2.967929e+00 -3.359718e+00 2.250719e+00 92 80 63
2.194409e+00 -3.078154e+00 8.861203e-01 76 63 46
2.050794e+00 -3.075314e+00 9.314674e-01 85 69 49
1.966920e+00 -3.082325e+00 9.391630e-01 57 47 31
2.908781e+00 -2.943444e+00 8.387125e-01 172 161 148
-1.130479e-01 -3.122942e+00 1.565724e+00 89 74 55
2.459676e+00 -3.004474e+00 8.215435e-01 74 61 42
2.362642e+00 -3.004566e+00 8.549388e-01 97 81 63
1.473578e+00 -2.998713e+00 1.175263e+00 80 64 49
-1.736828e+00 -3.223056e+00 1.779741e+00 177 165 149
-1.709421e+00 -3.223526e+00 1.761696e+00 177 162 147
-1.808722e+00 -3.228633e+00 1.787471e+00 65 55 39
-1.796545e+00 -3.227940e+00 1.779431e+00 170 155 143
3.091617e+00 -2.664368e+00 9.516678e-01 68 55 41
3.088660e+00 -2.655859e+00 9.409202e-01 178 158 142
2.212045e+00 -2.631232e+00 1.139265e+00 136 120 104
-1.436388e-01 -2.744744e+00 1.761347e+00 168 151 131
-1.496742e-01 -2.730986e+00 1.755822e+00 82 64 47
3.321721e-01 -2.650204e+00 1.679710e+00 96 76 52
1.779376e+00 -2.544169e+00 1.285252e+00 86 69 49
1.553177e+00 -2.284632e+00 1.471834e+00 108 88 64
6.345746e-01 -2.244505e+00 1.702883e+00 189 173 150
2.772002e+00 -1.991131e+00 1.250954e+00 154 130 110
2.408933e+00 -2.050545e+00 1.275587e+00 165 145 130
1.925515e+00 -2.019076e+00 1.445975e+00 142 124 108
2.457095e+00 -2.045954e+00 1.218408e+00 105 90 77
1.488775e+00 -2.012749e+00 1.568475e+00 111 94 74
2.442963e+00 -1.986807e+00 1.166154e+00 171 154 135
1.991431e+00 -1.956242e+00 1.285758e+00 77 61 46
2.255320e+00 -1.906554e+00 1.253127e+00 124 108 93
4.345029e-01 -1.923419e+00 1.802614e+00 79 62 39
2.476839e+00 -1.818327e+00 1.220758e+00 151 131 107
4.999791e-01 -1.875777e+00 1.800770e+00 105 82 54
5.171481e-01 -1.854472e+00 1.805176e+00 141 121 95
5.319332e-01 -1.826115e+00 1.816919e+00 72 57 34
5.319332e-01 -1.826115e+00 1.816919e+00 72 57 34
5.022450e-01 -1.835507e+00 1.814986e+00 72 59 40
-4.564798e-01 -1.938365e+00 2.005237e+00 139 120 102
2.104737e+00 -1.753735e+00 1.339723e+00 71 60 40
-1.279130e+00 -1.904155e+00 2.218772e+00 67 52 29
2.016751e+00 -1.313399e+00 1.807111e+00 87 75 59
1.973700e+00 -1.342219e+00 1.777343e+00 134 118 105
1.851905e+00 -1.335657e+00 1.817490e+00 80 69 53
-1.674783e+00 -1.958575e+00 2.183926e+00 152 133 112
5.275443e+00 4.794569e-01 2.275778e+00 93 83 64
5.339657e+00 4.269029e-01 2.179872e+00 79 63 50
3.963719e+00 -4.346091e-01 1.616235e+00 196 182 174
2.297241e+00 2.600241e-01 2.867898e+00 120 108 94
2.241482e+00 2.454537e-01 2.862839e+00 143 131 115
2.241482e+00 2.454537e-01 2.862839e+00 143 131 115
1.000499e-01 5.834882e-01 3.916656e+00 127 115 101
7.155686e-01 -4.290294e-01 2.417142e+00 180 166 157
-3.934643e-01 7.282913e-01 4.060248e+00 81 68 52
4.838495e-01 -3.300938e-01 2.472994e+00 195 177 163
-5.806059e-02 1.167986e+00 4.114497e+00 153 135 117
5.472061e+00 1.325644e+00 2.352105e+00 78 68 50
4.155550e+00 1.472445e+00 2.931936e+00 128 115 96
4.697000e+00 1.406205e+00 2.639703e+00 152 135 115
4.070664e+00 1.477735e+00 2.893617e+00 65 53 37
4.118160e+00 1.528160e+00 2.867808e+00 68 56 38
2.008789e+00 1.294869e+00 3.240536e+00 145 131 119
5.510971e+00 1.742204e+00 2.307832e+00 94 77 64
5.510971e+00 1.742204e+00 2.307832e+00 94 77 64
2.230706e+00 8.203169e-01 2.464810e+00 201 189 177
1.095941e+00 1.679285e+00 3.667122e+00 147 135 119
5.529538e+00 2.156557e+00 2.560096e+00 70 58 41
2.242472e+00 1.028814e+00 2.525867e+00 192 171 153
5.468385e+00 1.781590e+00 2.120816e+00 79 72 55
5.417136e+00 2.302212e+00 2.523232e+00 125 115 105
2.160526e+00 2.122422e+00 3.424987e+00 149 132 114
2.074507e+00 2.121937e+00 3.445586e+00 160 145 126
2.074507e+00 2.121937e+00 3.445586e+00 160 145 126
2.040110e+00 2.132737e+00 3.462785e+00 156 141 120
1.120076e+00 1.975169e+00 3.608758e+00 80 75 61
1.782174e+00 2.119540e+00 3.507805e+00 160 147 130
1.782174e+00 2.119540e+00 3.507805e+00 160 147 130
1.738336e+00 2.118908e+00 3.519631e+00 177 162 143
1.738336e+00 2.118908e+00 3.519631e+00 177 162 143
1.657364e+00 2.114117e+00 3.528653e+00 169 153 134
1.615472e+00 2.113742e+00 3.543180e+00 171 155 139
1.556653e+00 2.104249e+00 3.546189e+00 167 153 142
1.417444e+00 2.110494e+00 3.584744e+00 165 153 135
-4.601892e+00 1.058650e+00 4.612261e+00 78 70 52
5.515176e+00 2.702278e+00 2.685659e+00 94 84 67
5.450920e+00 2.238359e+00 2.256986e+00 122 109 93
5.042336e+00 3.272879e+00 3.335886e+00 184 171 158
-2.134098e+00 1.641345e+00 4.190654e+00 65 57 38
-8.427703e-01 2.031903e+00 4.024514e+00 148 134 120
-8.813360e-01 2.034102e+00 4.038160e+00 142 133 118
2.370558e+00 3.138848e+00 3.697946e+00 133 116 98
5.505125e+00 3.820726e+00 3.082968e+00 148 135 116
3.709982e+00 4.019279e+00 3.851633e+00 84 82 71
5.528763e+00 3.875389e+00 3.082132e+00 85 77 60
3.225331e+00 3.839914e+00 3.670721e+00 112 95 74
2.368914e+00 3.803469e+00 3.901795e+00 162 145 129
5.563490e+00 4.030367e+00 2.996076e+00 79 72 56
2.552677e+00 3.141271e+00 3.248326e+00 153 135 115
5.058868e+00 4.225377e+00 3.303880e+00 73 61 44
5.283834e+00 4.243576e+00 3.229804e+00 112 98 87
2.409461e+00 3.813201e+00 3.836682e+00 162 143 126
4.406814e+00 4.214953e+00 3.469306e+00 74 63 45
1.900294e+00 3.874644e+00 3.992959e+00 63 56 45
2.547706e+00 3.322745e+00 3.291408e+00 155 138 116
5.923275e+00 3.930387e+00 2.631532e+00 97 85 69
4.190632e+00 4.228902e+00 3.472041e+00 183 169 154
1.521271e+00 4.011223e+00 4.168781e+00 72 68 60
5.683416e+00 3.987547e+00 2.695636e+00 64 57 46
3.977739e+00 4.466131e+00 3.682976e+00 94 84 74
3.502118e+00 4.290583e+00 3.688600e+00 83 75 60
2.422967e+00 4.008646e+00 3.823958e+00 81 69 55
2.261598e+00 4.210509e+00 4.051196e+00 142 129 115
5.641217e+00 4.034780e+00 2.721996e+00 160 139 128
3.399675e+00 4.366579e+00 3.764553e+00 46 42 31
5.671865e+00 4.098269e+00 2.729858e+00 65 57 51
1.907818e+00 4.106714e+00 4.027954e+00 62 54 39
3.417592e+00 4.397740e+00 3.734114e+00 79 69 57
5.632129e-01 3.821613e+00 4.230993e+00 81 73 62
1.446102e+00 4.181061e+00 4.214889e+00 73 66 52
2.283312e-01 3.852128e+00 4.351902e+00 62 55 46
4.793915e+00 4.640108e+00 3.415213e+00 157 144 125
-1.361093e+00 2.644535e+00 3.852169e+00 94 88 74
4.346627e+00 4.628987e+00 3.527300e+00 166 149 134
4.181635e+00 4.636346e+00 3.576894e+00 156 140 124
3.918893e+00 4.626309e+00 3.636768e+00 152 135 117
2.562271e+00 3.828084e+00 3.440135e+00 142 125 106
2.562271e+00 3.828084e+00 3.440135e+00 142 125 106
1.180029e+00 4.223566e+00 4.228006e+00 92 82 70
3.973602e+00 4.681784e+00 3.638739e+00 138 123 104
3.889751e+00 4.679653e+00 3.658989e+00 136 123 104
1.401397e+00 4.351283e+00 4.221692e+00 96 84 70
5.484030e+00 4.548517e+00 2.971933e+00 87 75 61
5.454606e-01 4.153283e+00 4.335468e+00 177 164 153
8.273526e-02 4.128656e+00 4.469290e+00 83 74 66
6.222479e+00 4.322487e+00 2.504017e+00 253 255 254
1.390386e+00 4.646920e+00 4.283169e+00 80 67 51
1.352600e+00 4.636450e+00 4.279974e+00 72 59 43
9.597091e-01 4.597583e+00 4.366431e+00 176 161 148
-2.440206e-01 4.297314e+00 4.537758e+00 102 92 78
2.784736e+00 4.162712e+00 3.352319e+00 91 79 63
2.636645e+00 4.273364e+00 3.489746e+00 194 180 167
-8.615673e-01 4.260277e+00 4.639118e+00 111 98 79
1.553118e-01 4.567393e+00 4.516667e+00 159 147 132
-1.099755e-01 4.556204e+00 4.563958e+00 166 153 140
2.398535e+00 4.456713e+00 3.574978e+00 128 111 94
-2.027787e+00 4.331960e+00 4.896158e+00 73 65 53
2.494873e+00 4.693260e+00 3.609392e+00 148 131 115
4.145006e+00 7.224928e+00 4.832264e+00 135 122 104
-1.445853e+00 4.066190e+00 4.315087e+00 160 150 135
5.280007e+00 7.599279e+00 4.667012e+00 141 125 111
5.282504e+00 7.795696e+00 4.722479e+00 139 125 109
-3.965830e+00 4.472591e+00 5.342606e+00 75 63 47
-1.347891e+00 4.313992e+00 4.332670e+00 133 119 101
4.167736e+00 8.172975e+00 5.105346e+00 136 118 102
-2.866151e+00 7.072239e+00 6.374126e+00 95 82 69
2.737939e+00 7.104652e+00 4.463662e+00 153 137 122
5.014692e+00 9.420400e+00 5.208125e+00 113 105 94
5.685480e+00 8.690473e+00 4.436598e+00 170 159 147
4.614521e+00 9.373604e+00 5.258746e+00 69 60 51
2.527605e+00 8.670863e+00 5.391217e+00 173 157 144
2.527605e+00 8.670863e+00 5.391217e+00 173 157 144
2.469153e+00 8.669110e+00 5.413729e+00 178 162 149
2.469153e+00 8.669110e+00 5.413729e+00 178 162 149
5.650935e+00 9.129320e+00 4.599700e+00 68 61 51
3.771783e+00 9.485221e+00 5.433871e+00 75 75 64
3.997722e+00 9.477824e+00 5.336809e+00 125 112 96
3.955039e+00 9.634898e+00 5.402712e+00 162 149 136
2.604233e+00 8.761271e+00 5.233363e+00 85 74 64
5.927466e+00 9.234615e+00 4.203626e+00 100 109 102
5.857511e+00 9.339182e+00 4.241715e+00 101 111 102
-2.629004e+00 9.317260e+00 6.876952e+00 133 126 114
-2.183461e+00 9.459027e+00 6.722758e+00 57 59 48
-2.683036e+00 9.356150e+00 6.819768e+00 85 81 70
-2.444015e+00 9.500677e+00 6.793478e+00 99 96 84
-3.279593e+00 9.319627e+00 6.926504e+00 89 81 70
2.698414e+00 9.703983e+00 5.139730e+00 118 112 99
-3.353749e+00 9.361560e+00 6.946680e+00 82 76 64
2.756973e+00 9.870266e+00 5.182941e+00 251 252 255
2.712361e+00 9.898739e+00 5.162356e+00 127 123 113
2.712361e+00 9.898739e+00 5.162356e+00 127 123 113
-4.075165e+00 9.840321e+00 7.184402e+00 67 63 53
-3.666275e+00 9.915466e+00 7.081994e+00 139 129 119
1.330037e+00 -3.140784e+00 1.244175e+00 96 80 58
4.702749e-01 -3.172088e+00 1.416848e+00 66 50 33
1.958493e+00 -3.089768e+00 9.442695e-01 147 131 118
-1.388156e+00 -3.235598e+00 1.842870e+00 75 62 45
-1.388156e+00 -3.235598e+00 1.842870e+00 75 62 45
2.325321e+00 -3.012580e+00 8.533147e-01 99 84 64
2.141364e+00 -2.991816e+00 8.968995e-01 85 70 51
3.084414e+00 -2.674560e+00 9.842226e-01 66 49 35
3.115746e+00 -2.362482e+00 1.022457e+00 95 83 69
3.536293e+00 -1.880695e+00 1.051353e+00 149 135 116
3.232997e+00 -1.752811e+00 1.194279e+00 78 64 45
5.789566e-01 -1.896612e+00 1.777131e+00 71 51 26
2.386889e+00 -1.826953e+00 1.229553e+00 81 64 42
6.142692e-01 -1.868756e+00 1.782809e+00 148 126 103
1.002321e+00 -1.812682e+00 1.705888e+00 88 70 45
7.549807e-01 -1.837020e+00 1.755435e+00 136 119 99
2.016064e+00 -1.812824e+00 1.348589e+00 133 117 93
2.193877e+00 -1.808767e+00 1.287196e+00 165 144 117
-3.768288e-01 -1.954301e+00 1.985126e+00 64 47 27
2.018809e+00 -1.754873e+00 1.355162e+00 78 65 49
-7.104772e-01 -1.913133e+00 2.076515e+00 165 144 120
2.135025e+00 -1.331070e+00 1.742286e+00 79 66 52
3.248396e+00 -1.251418e+00 1.442614e+00 94 83 66
1.884645e+00 5.350755e-01 3.541182e+00 73 56 35
1.884645e+00 5.350755e-01 3.541182e+00 73 56 35
4.014770e+00 4.628686e-01 2.580618e+00 200 188 176
3.844328e+00 5.741540e-01 2.657680e+00 130 115 93
4.882067e+00 6.811572e-01 2.403636e+00 193 181 169
-5.075770e-01 6.450126e-01 4.081674e+00 87 71 51
1.462228e+00 9.815358e-01 3.762145e+00 131 114 94
1.517794e+00 9.896647e-01 3.739958e+00 76 64 43
2.326697e+00 5.240173e-01 2.852100e+00 112 95 78
4.637978e+00 1.105163e+00 2.621293e+00 115 105 88
4.654816e+00 1.128021e+00 2.617318e+00 80 73 55
2.328866e+00 8.750670e-01 2.958800e+00 99 83 61
3.464329e+00 1.196137e+00 2.888980e+00 149 131 107
4.016314e+00 1.480413e+00 2.937534e+00 123 107 91
4.358272e+00 1.515739e+00 2.802267e+00 74 66 47
4.562370e+00 1.608986e+00 2.627424e+00 77 71 56
4.993026e+00 1.702884e+00 2.561656e+00 178 164 149
5.350464e+00 1.819388e+00 2.491546e+00 162 156 142
5.075236e+00 1.873871e+00 2.589181e+00 107 97 82
5.279333e+00 1.917143e+00 2.554764e+00 140 134 122
5.499671e+00 2.210676e+00 2.575425e+00 65 52 39
-2.714754e+00 1.087206e+00 4.266227e+00 81 72 53
5.734618e+00 1.791554e+00 2.003424e+00 112 102 90
5.734618e+00 1.791554e+00 2.003424e+00 112 102 90
-7.659598e-01 1.607365e+00 3.886000e+00 164 151 135
5.043787e+00 3.287780e+00 3.315532e+00 124 106 92
5.508723e+00 2.250913e+00 2.170605e+00 144 132 121
4.652615e-01 2.114187e+00 3.777805e+00 73 58 42
-8.722715e-01 1.860942e+00 3.987187e+00 58 48 34
4.744995e+00 3.320382e+00 3.404260e+00 181 163 151
-2.431240e+00 1.596401e+00 4.247593e+00 182 169 153
-3.024245e-01 2.051250e+00 3.917074e+00 160 146 133
-4.567912e-01 2.047335e+00 3.947495e+00 167 154 141
-4.292366e-01 2.066124e+00 3.931987e+00 84 72 56
-6.777641e-01 2.036343e+00 3.987875e+00 168 154 142
1.957424e+00 2.616977e+00 3.614779e+00 119 106 90
3.671679e+00 3.417724e+00 3.713362e+00 58 45 35
5.002647e+00 3.702660e+00 3.421624e+00 129 119 104
5.004111e+00 3.801904e+00 3.470887e+00 55 48 38
4.630694e+00 3.744607e+00 3.539011e+00 78 68 58
4.681080e+00 4.028725e+00 3.631489e+00 85 75 73
6.778075e+00 4.079355e+00 2.800517e+00 252 251 250
5.593350e+00 3.880434e+00 3.012286e+00 95 83 67
5.593350e+00 3.880434e+00 3.012286e+00 95 83 67
5.206158e+00 3.908851e+00 3.151119e+00 78 70 59
4.202072e+00 3.920265e+00 3.383904e+00 137 126 114
2.563595e+00 3.107937e+00 3.250258e+00 153 134 117
2.563595e+00 3.107937e+00 3.250258e+00 153 134 117
4.814690e+00 4.133952e+00 3.342858e+00 98 86 73
4.207427e+00 3.957459e+00 3.376493e+00 92 86 74
4.805994e+00 4.157151e+00 3.334550e+00 151 139 126
1.983866e+00 3.781008e+00 3.975190e+00 175 156 142
4.434040e+00 4.207155e+00 3.453685e+00 98 85 69
4.160444e+00 4.107263e+00 3.454972e+00 176 166 152
4.792750e+00 4.222780e+00 3.329136e+00 158 149 134
1.930226e+00 3.865239e+00 4.005428e+00 135 121 110
5.010590e+00 4.316791e+00 3.297516e+00 140 127 117
5.010590e+00 4.316791e+00 3.297516e+00 140 127 117
1.920060e+00 3.913297e+00 3.975690e+00 92 84 71
5.439333e+00 4.532400e+00 3.236881e+00 62 51 39
3.533067e+00 4.244471e+00 3.643814e+00 175 162 145
1.238425e+00 3.902064e+00 4.105464e+00 91 81 69
3.902734e+00 4.543942e+00 3.651876e+00 93 83 71
5.920073e+00 4.085687e+00 2.580327e+00 163 153 143
-1.368707e+00 2.614510e+00 3.854559e+00 196 178 170
2.103831e+00 4.372998e+00 4.108552e+00 98 82 61
5.926341e+00 4.290300e+00 2.671194e+00 100 93 77
5.491486e+00 4.579111e+00 3.022769e+00 90 82 69
3.422947e+00 4.619010e+00 3.765312e+00 139 124 108
6.649635e-01 4.164873e+00 4.323836e+00 163 150 141
2.572384e+00 3.930427e+00 3.476143e+00 108 89 72
6.220031e+00 4.267578e+00 2.482863e+00 112 122 119
1.126425e+00 4.327755e+00 4.272535e+00 104 94 82
2.728364e+00 4.046382e+00 3.422165e+00 145 130 111
1.584054e+00 4.698364e+00 4.238071e+00 128 115 101
9.137419e-01 4.571410e+00 4.360543e+00 164 148 134
1.201836e+00 4.653554e+00 4.295014e+00 138 125 109
5.400334e-02 4.427560e+00 4.506657e+00 103 86 72
1.019810e+00 4.639235e+00 4.326608e+00 140 122 108
4.809567e-01 4.574387e+00 4.458695e+00 164 152 138
2.649557e+00 4.482205e+00 3.569922e+00 136 121 101
-9.441773e-01 4.505957e+00 4.726881e+00 75 67 52
2.455185e+00 4.521500e+00 3.575423e+00 124 109 89
-2.651430e+00 4.523009e+00 5.051212e+00 72 62 46
4.155690e+00 7.699037e+00 5.003119e+00 172 159 143
4.162405e+00 8.197770e+00 5.174727e+00 140 123 107
-1.745446e+00 4.577649e+00 4.483456e+00 110 95 76
5.577705e+00 7.032328e+00 3.726015e+00 150 141 130
4.988000e+00 9.116817e+00 5.301332e+00 66 60 49
3.955184e+00 9.004870e+00 5.515885e+00 75 67 56
5.210564e+00 9.059751e+00 5.059019e+00 95 87 71
5.167917e+00 9.281904e+00 5.043117e+00 92 89 76
5.671611e+00 8.756880e+00 4.465944e+00 130 122 109
5.671611e+00 8.756880e+00 4.465944e+00 130 122 109
5.692869e+00 8.711196e+00 4.409468e+00 99 88 76
4.101119e+00 9.139447e+00 5.242142e+00 94 92 77
4.056543e+00 9.273419e+00 5.307859e+00 79 79 66
2.461777e+00 8.730592e+00 5.471849e+00 103 89 76
3.806360e+00 9.486265e+00 5.524089e+00 114 105 97
5.906673e+00 8.195266e+00 3.896863e+00 249 253 254
5.872021e+00 8.181097e+00 3.897113e+00 135 139 132
2.568600e+00 8.760008e+00 5.415178e+00 102 89 73
5.653089e+00 9.133299e+00 4.602092e+00 68 61 51
5.870729e+00 8.282105e+00 3.923439e+00 130 139 130
3.843388e+00 9.461232e+00 5.411057e+00 81 78 65
2.583498e+00 8.677701e+00 5.299869e+00 164 151 134
3.702452e+00 9.509362e+00 5.460166e+00 84 79 67
5.843935e+00 8.850077e+00 4.137765e+00 97 87 77
-2.559519e+00 9.025439e+00 6.975454e+00 96 83 74
-1.903152e+00 9.061483e+00 6.532529e+00 145 135 123
-7.204981e-01 9.464389e+00 6.359252e+00 147 139 136
-2.313143e+00 9.456752e+00 6.826577e+00 94 88 79
-2.754732e+00 9.181835e+00 6.786428e+00 141 133 122
2.343532e+00 -3.059302e+00 8.472926e-01 157 144 128
2.745774e+00 -1.906845e+00 1.264268e+00 144 135 116
3.536511e+00 -1.745253e+00 1.117423e+00 83 68 46
2.943587e+00 -1.754647e+00 1.269797e+00 83 69 45
1.204840e+00 -1.831467e+00 1.658017e+00 88 68 41
8.724203e-01 -1.860628e+00 1.724829e+00 99 77 46
1.295719e+00 -1.785678e+00 1.650257e+00 137 120 104
7.509375e-01 -1.250159e+00 2.042811e+00 127 114 98
5.227247e+00 4.327880e-01 2.253254e+00 164 153 134
5.147748e+00 9.522811e-01 2.329724e+00 93 81 65
1.449245e+00 1.157204e+00 3.803273e+00 134 117 92
4.325647e+00 1.308083e+00 2.847233e+00 135 126 109
4.956969e+00 1.193002e+00 2.445477e+00 118 105 86
7.611942e-01 1.414663e+00 4.050560e+00 110 95 71
4.621730e+00 1.489992e+00 2.623599e+00 134 118 92
5.213879e+00 1.512533e+00 2.440707e+00 175 168 154
4.501042e+00 1.560273e+00 2.679376e+00 115 103 80
4.993505e+00 1.677840e+00 2.554399e+00 90 80 68
4.466275e+00 2.203782e+00 2.851344e+00 111 98 79
5.452144e+00 1.806339e+00 2.083324e+00 155 146 134
1.977142e+00 1.970082e+00 3.411708e+00 171 162 147
1.890968e+00 2.012325e+00 3.452373e+00 80 68 54
1.577400e+00 2.156405e+00 3.568356e+00 78 66 50
5.972064e+00 2.210391e+00 2.047249e+00 253 253 252
3.702354e+00 3.158414e+00 3.645273e+00 105 95 88
5.985042e+00 2.341619e+00 2.092653e+00 128 127 113
3.670276e+00 3.204099e+00 3.656025e+00 71 56 42
3.689360e+00 3.379732e+00 3.685086e+00 113 103 94
5.966137e+00 2.751964e+00 2.196606e+00 174 174 167
6.785366e+00 4.056399e+00 2.761881e+00 246 245 241
2.546195e+00 3.000972e+00 3.202053e+00 162 148 132
2.546195e+00 3.000972e+00 3.202053e+00 162 148 132
4.150221e+00 4.154345e+00 3.504999e+00 161 147 136
3.978907e+00 4.276848e+00 3.607995e+00 147 137 125
3.474399e+00 4.199955e+00 3.656058e+00 136 127 112
3.425419e+00 4.335595e+00 3.729631e+00 75 65 53
3.909666e+00 4.513526e+00 3.666273e+00 75 65 55
1.450420e+00 4.176926e+00 4.186846e+00 153 145 136
7.034016e-01 4.132883e+00 4.320881e+00 150 140 131
1.245390e+00 4.246664e+00 4.224469e+00 110 94 84
6.243499e+00 4.265927e+00 2.483055e+00 251 255 255
1.152193e+00 4.436546e+00 4.270148e+00 90 82 69
-1.294079e-01 4.211352e+00 4.493819e+00 112 98 85
2.301059e+00 4.001391e+00 3.447040e+00 90 80 68
8.209877e-01 4.595992e+00 4.385145e+00 89 76 60
2.777454e+00 4.219698e+00 3.398649e+00 174 160 147
8.564582e-01 4.620934e+00 4.368541e+00 82 67 54
-6.300915e-03 4.615030e+00 4.547377e+00 79 67 52
5.232422e+00 9.075077e+00 4.973522e+00 121 115 103
4.008188e+00 9.316443e+00 5.356659e+00 104 99 94
5.574861e+00 8.374795e+00 4.106355e+00 144 138 124
5.574861e+00 8.374795e+00 4.106355e+00 144 138 124
2.583262e+00 8.723969e+00 5.348451e+00 104 91 78
4.041291e+00 9.431007e+00 5.317002e+00 137 122 109
2.590739e+00 8.752613e+00 5.304914e+00 94 81 67
3.936354e+00 9.549700e+00 5.385239e+00 122 111 97
2.767992e+00 8.789155e+00 4.936225e+00 124 107 90
2.566369e+00 8.883588e+00 4.955680e+00 93 79 68
2.700083e+00 9.101742e+00 4.994516e+00 140 131 120
5.336775e+00 4.701691e-01 2.132644e+00 128 113 95
5.336775e+00 4.701691e-01 2.132644e+00 128 113 95
3.403471e+00 1.333291e+00 2.854300e+00 106 92 75
4.069875e+00 1.739485e+00 2.803036e+00 102 90 73
4.159857e+00 1.772065e+00 2.794535e+00 131 122 107
1.089772e+00 2.130797e+00 3.652853e+00 103 87 71
6.791293e+00 4.065324e+00 2.736531e+00 248 254 252
3.791606e+00 4.656739e+00 3.686059e+00 120 101 83
1.485165e-01 -6.359952e+00 2.214250e+00 58 60 67
9.760216e-01 -6.274497e+00 2.013110e+00 62 64 68
5.987656e-01 -6.459830e+00 2.116329e+00 120 129 136
5.987656e-01 -6.459830e+00 2.116329e+00 120 129 136
1.537958e+00 -6.944240e+00 2.230096e+00 118 123 121
9.550379e-01 -5.025325e+00 1.957529e+00 163 167 163
8.263567e-01 -6.643300e+00 2.251365e+00 52 57 61
-2.355961e-01 -6.315786e+00 2.294371e+00 135 140 140
2.046207e+00 -5.310412e+00 8.456260e-01 159 160 155
4.896393e-01 -4.752282e+00 2.121717e+00 158 153 140
9.620963e-01 -4.414707e+00 1.596729e+00 141 135 127
1.403567e+00 -6.923176e+00 2.275390e+00 50 52 59
1.792260e+00 -6.718134e+00 1.884370e+00 118 122 123
1.532971e+00 -6.351917e+00 1.808632e+00 119 124 128
1.117429e+00 -6.086164e+00 1.985856e+00 38 38 40
1.396336e-01 -6.075276e+00 2.168641e+00 137 141 138
1.171190e-01 -5.867334e+00 2.113574e+00 143 144 139
-4.467272e-01 -5.541318e+00 2.134037e+00 141 141 133
-6.951721e-02 -5.139468e+00 2.199500e+00 150 148 132
1.567100e+00 -5.068092e+00 1.243086e+00 143 146 150
6.981100e-01 -5.025209e+00 1.984357e+00 155 150 130
6.981100e-01 -5.025209e+00 1.984357e+00 155 150 130
1.028835e+00 -4.894812e+00 1.813334e+00 81 77 68
1.581366e+00 -7.159903e+00 2.374718e+00 113 117 118
1.771353e+00 -6.979214e+00 2.150651e+00 122 132 132
1.416551e+00 -6.715546e+00 2.102682e+00 122 127 121
1.349793e+00 -6.713378e+00 2.187715e+00 52 57 61
1.917763e+00 -6.560050e+00 1.695479e+00 126 127 122
-5.745558e-01 -6.696319e+00 2.403030e+00 139 142 141
1.738613e+00 -6.106358e+00 1.508505e+00 59 59 54
4.114775e-01 -6.118639e+00 2.119215e+00 154 162 158
-1.360010e-01 -6.163497e+00 2.246032e+00 144 148 146
1.676820e+00 -5.913503e+00 1.467640e+00 105 101 99
-1.605317e-02 -5.878911e+00 2.148631e+00 139 145 143
1.405784e+00 -5.437455e+00 1.601360e+00 90 86 75
8.046173e-01 -4.204232e+00 1.696270e+00 143 140 134
6.669515e-01 -7.177970e+00 2.576743e+00 112 118 118
5.215794e-01 -6.797391e+00 2.398774e+00 44 46 54
6.925156e-01 -6.589873e+00 2.116598e+00 115 133 135
1.310286e+00 -6.292415e+00 1.963924e+00 120 127 123
-1.206652e-02 -6.103796e+00 2.211097e+00 153 161 157
1.232329e+00 -5.865157e+00 1.868786e+00 136 144 146
1.522129e+00 -5.624679e+00 1.505212e+00 143 148 141
-6.178471e-01 -5.737582e+00 2.066901e+00 73 70 64
-6.178471e-01 -5.737582e+00 2.066901e+00 73 70 64
1.376151e+00 -5.297902e+00 1.578845e+00 78 73 66
-8.403801e-01 -5.500796e+00 1.942171e+00 166 162 149
1.002164e+00 -5.185219e+00 1.932529e+00 117 114 113
1.651701e+00 -5.211896e+00 1.201912e+00 156 158 153
1.250457e+00 -5.054340e+00 1.606126e+00 96 89 83
6.015294e-01 -5.029365e+00 2.016001e+00 103 101 100
1.201856e+00 -4.849887e+00 1.618566e+00 149 149 141
3.050015e-01 -3.613229e+00 1.676799e+00 141 139 123
7.391925e-01 -7.072871e+00 2.429170e+00 126 133 136
1.872833e+00 -6.915107e+00 2.046498e+00 59 61 65
8.053024e-01 -6.978986e+00 2.370252e+00 108 119 128
-3.718689e-01 -7.040920e+00 2.642347e+00 102 104 99
7.614934e-01 -6.872386e+00 2.267821e+00 108 112 113
4.768682e-01 -6.502928e+00 2.146010e+00 115 117 113
1.293839e+00 -6.228613e+00 1.929042e+00 135 140 138
-1.639651e-01 -6.341539e+00 2.323356e+00 126 129 122
1.511022e+00 -6.179720e+00 1.786704e+00 110 114 115
-2.123386e-01 -6.199722e+00 2.282308e+00 96 97 98
-1.365824e-01 -6.036443e+00 2.233679e+00 137 148 145
-2.314903e-01 -5.985956e+00 2.243827e+00 146 151 144
-1.618187e-01 -5.846871e+00 2.211900e+00 138 143 138
1.090367e+00 -5.633075e+00 1.882270e+00 153 158 157
1.090367e+00 -5.633075e+00 1.882270e+00 153 158 157
6.880674e-01 -5.650900e+00 1.979669e+00 159 165 165
1.475816e+00 -5.427347e+00 1.537230e+00 153 157 153
1.273965e+00 -5.256275e+00 1.688625e+00 140 142 131
6.857321e-02 -4.608444e+00 2.075895e+00 91 83 73
8.919361e-01 -7.237687e+00 2.556718e+00 103 114 115
8.923222e-01 -7.164206e+00 2.520458e+00 119 123 121
6.128590e-01 -7.055953e+00 2.480560e+00 97 106 106
1.711079e+00 -6.915059e+00 2.128778e+00 60 61 57
1.711079e+00 -6.915059e+00 2.128778e+00 60 61 57
-4.484499e-02 -6.159328e+00 2.245751e+00 42 39 41
4.596564e-01 -6.106025e+00 2.089872e+00 155 165 166
4.256063e-01 -6.066219e+00 2.091090e+00 109 110 106
-1.290295e-01 -6.089447e+00 2.240313e+00 107 106 102
7.386507e-01 -5.935281e+00 1.980417e+00 152 155 152
1.863896e+00 -5.901273e+00 1.303359e+00 105 102 103
-3.332827e-02 -5.952094e+00 2.181868e+00 90 83 80
9.737177e-01 -5.852563e+00 1.927016e+00 121 117 113
1.266919e+00 -5.807028e+00 1.847985e+00 94 95 93
-8.364292e-02 -5.915905e+00 2.184201e+00 152 157 153
1.809948e-02 -5.896798e+00 2.149329e+00 154 160 160
1.835075e+00 -5.824527e+00 1.255584e+00 105 101 97
1.510399e+00 -5.795524e+00 1.567812e+00 146 149 146
1.112814e+00 -5.781536e+00 1.895128e+00 145 153 147
-2.780908e-01 -5.898093e+00 2.244169e+00 103 99 96
