ply
format ascii 1.0
element face 0
property list uchar int vertex_indices
element vertex 941
property float x
property float y
property float z
property uchar diffuse_red
property uchar diffuse_green
property uchar diffuse_blue
end_header
-1.694045e+00 -3.969230e+00 4.073227e+00 137 118 106
-1.694045e+00 -3.969230e+00 4.073227e+00 137 118 106
3.536649e-01 -3.856017e+00 3.511679e+00 118 97 77
-1.769974e+00 -3.952743e+00 4.018459e+00 66 59 49
1.737618e+00 -4.286878e+00 1.836741e-01 167 147 137
1.241891e+00 -4.034031e+00 1.904900e+00 130 122 103
-1.877465e+00 -3.868737e+00 4.381461e+00 66 50 41
-1.678839e+00 -3.882659e+00 4.120695e+00 151 143 132
-1.853334e+00 -3.827105e+00 4.359590e+00 131 127 115
1.360456e+00 -3.933700e+00 2.071428e+00 112 103 88
1.292361e+00 -3.905267e+00 2.061092e+00 72 67 61
-8.972919e-01 -3.734719e+00 3.895424e+00 111 99 79
1.322893e+00 -3.852326e+00 1.810896e+00 131 122 116
1.859677e+00 -3.846448e+00 1.222261e+00 32 33 25
1.342103e+00 -3.815342e+00 1.678874e+00 66 47 48
-1.569554e+00 -3.795936e+00 3.346800e+00 45 42 29
-1.569554e+00 -3.795936e+00 3.346800e+00 45 42 29
2.142577e+00 -3.868064e+00 7.867894e-01 3 3 17
-2.210195e+00 -3.636025e+00 4.484028e+00 157 145 149
1.193058e-01 -3.525013e+00 3.902940e+00 37 32 27
-2.442976e-01 -3.445922e+00 4.607475e+00 160 149 136
-2.652187e+00 -3.716545e+00 3.975877e+00 66 65 60
1.287055e+00 -3.707793e+00 1.935618e+00 16 23 15
1.331376e+00 -3.967209e+00 1.216887e-01 169 160 146
-2.073404e+00 -3.811308e+00 2.953463e+00 74 57 56
-1.628509e+00 -3.675335e+00 3.219857e+00 52 40 27
-1.628509e+00 -3.675335e+00 3.219857e+00 52 40 27
1.494743e+00 -3.534429e+00 2.245463e+00 157 154 156
-1.632474e+00 -3.420219e+00 4.282639e+00 128 118 93
-1.548247e+00 -3.382956e+00 4.363512e+00 64 57 42
-1.678706e+00 -3.394047e+00 4.295831e+00 73 66 60
-1.635361e+00 -3.377865e+00 4.382383e+00 73 66 60
-1.966156e-01 -3.173015e+00 4.505494e+00 80 71 58
-1.456345e+00 -3.246951e+00 4.475738e+00 63 51 45
-1.653838e+00 -3.231833e+00 4.455811e+00 87 70 63
-1.653838e+00 -3.231833e+00 4.455811e+00 87 70 63
-1.921115e+00 -3.157377e+00 4.223517e+00 71 66 47
1.224251e+00 -3.239352e+00 1.531188e+00 145 131 105
-2.620843e+00 -3.277187e+00 3.537804e+00 163 160 166
-4.330435e-01 -3.141838e+00 3.021326e+00 82 77 54
-1.872485e+00 -3.081104e+00 4.260797e+00 80 73 57
-2.585621e+00 -3.176787e+00 3.550934e+00 102 103 108
-1.808282e+00 -3.020473e+00 4.341101e+00 73 60 43
-4.066337e-01 -3.058385e+00 3.036339e+00 86 84 70
-1.551274e+00 -2.750998e+00 4.338740e+00 111 103 96
-1.136186e+00 -2.525173e+00 4.002100e+00 136 133 121
-1.251992e+00 -2.313307e+00 4.081667e+00 118 111 95
7.674872e-01 -2.291185e+00 2.290309e+00 57 57 41
-2.044938e+00 -2.238077e+00 4.540392e+00 138 131 121
-1.233774e+00 -2.163421e+00 4.108384e+00 177 174 164
-1.944933e+00 -2.156615e+00 4.580769e+00 83 88 83
2.265659e+00 -2.012710e+00 1.310375e+00 168 168 159
1.992520e+00 -1.913745e+00 2.143893e+00 77 68 60
-1.737720e+00 -1.953712e+00 4.549761e+00 94 85 79
-1.675832e+00 -1.951277e+00 4.668120e+00 94 85 79
-1.062623e+00 -1.908976e+00 4.106452e+00 63 50 41
1.582417e+00 -1.757131e+00 1.997972e+00 80 82 82
-1.371941e+00 -1.834408e+00 4.352562e+00 170 156 147
2.212766e+00 -1.730619e+00 2.629441e+00 40 38 45
2.177042e+00 -1.728274e+00 1.643967e+00 150 140 122
1.993678e+00 -1.683407e+00 2.326195e+00 157 150 130
-2.637010e+00 -1.791959e+00 2.344616e+00 64 61 55
-1.861515e+00 -1.783761e+00 4.558723e+00 163 161 166
-3.669806e+00 -1.795677e+00 2.158936e+00 98 86 76
2.184577e+00 -1.627713e+00 1.740503e+00 154 148 132
-7.284259e-01 -1.631008e+00 3.856433e+00 71 61 63
-2.336317e+00 -1.551242e+00 2.373493e+00 51 43 34
-2.930349e+00 -1.547135e+00 2.150938e+00 142 131 123
-3.626490e+00 -1.544957e+00 2.029176e+00 120 114 112
-2.616903e+00 -1.520277e+00 2.222958e+00 139 121 119
-2.325476e+00 -1.509067e+00 2.274585e+00 125 114 108
-3.409818e+00 -1.524331e+00 1.913943e+00 34 28 32
-2.386088e+00 -1.487335e+00 2.279653e+00 27 28 22
-1.419711e+00 -1.474398e+00 2.547408e+00 156 145 131
-2.924736e+00 -1.482929e+00 2.168645e+00 38 31 22
-8.863438e-01 -1.489059e+00 3.985524e+00 36 30 32
1.142092e-01 -1.451426e+00 3.360837e+00 144 125 115
-3.609936e+00 -1.483540e+00 2.051084e+00 29 30 30
1.265789e+00 -1.400759e+00 2.641641e+00 50 44 53
-5.735256e-01 -1.423925e+00 2.888058e+00 37 33 21
-1.562828e+00 -1.429013e+00 2.535056e+00 120 108 93
-1.562828e+00 -1.429013e+00 2.535056e+00 120 108 93
8.131527e-01 -1.373785e+00 2.956615e+00 133 115 101
2.002315e+00 -1.328682e+00 2.267387e+00 140 130 113
1.213795e+00 -1.352209e+00 2.664246e+00 145 132 122
2.436832e+00 -1.268491e+00 1.617854e+00 147 140 124
2.447599e+00 -1.277466e+00 1.854482e+00 147 140 124
1.731242e+00 -1.310114e+00 2.427861e+00 15 24 15
2.521161e+00 -1.267992e+00 2.134746e+00 35 30 26
2.426698e+00 -1.207798e+00 5.168937e-01 35 30 26
-2.650866e+00 -1.154469e+00 1.797538e+00 43 58 66
-8.620738e-01 -1.082376e+00 2.154492e+00 171 163 153
-3.581644e+00 -1.064356e+00 1.636578e+00 86 82 72
-3.578036e+00 -1.048504e+00 1.431725e+00 70 66 61
-3.578036e+00 -1.048504e+00 1.431725e+00 70 66 61
-3.901035e+00 -9.984958e-01 1.490460e+00 170 162 159
-9.012596e-01 -9.947347e-01 2.461248e+00 75 69 54
-8.656205e-01 -9.787331e-01 2.316802e+00 71 72 62
6.364655e-02 -1.050367e+00 3.643014e+00 74 65 56
2.244899e+00 -9.491115e-01 2.363347e+00 57 49 62
1.949293e+00 -8.700345e-01 2.589320e+00 149 145 134
9.212597e-01 -4.329837e+00 2.239733e+00 111 104 77
-1.763781e+00 -4.114035e+00 4.364827e+00 43 30 28
1.255755e+00 -4.092920e+00 1.957803e+00 111 99 82
-2.063238e+00 -4.034927e+00 3.833263e+00 52 52 33
2.179033e+00 -4.049468e+00 1.515347e+00 121 111 87
-1.717962e+00 -3.831997e+00 4.398195e+00 138 128 119
-1.914252e-01 -3.906651e+00 2.923321e+00 133 120 103
1.257474e+00 -3.886394e+00 2.141603e+00 130 131 115
1.248834e+00 -3.900990e+00 2.060416e+00 130 131 115
1.960514e+00 -4.030846e+00 8.894159e-01 136 125 119
-4.346198e-01 -3.784966e+00 2.953144e+00 79 71 56
-1.664322e+00 -3.647749e+00 4.398839e+00 106 99 89
-1.664322e+00 -3.647749e+00 4.398839e+00 106 99 89
-2.206516e+00 -3.833062e+00 3.534968e+00 120 111 102
-4.102304e-01 -3.760932e+00 2.874846e+00 112 103 92
-1.203306e+00 -3.618891e+00 4.072622e+00 120 108 86
-2.037801e+00 -3.604492e+00 4.160676e+00 94 85 64
1.764485e+00 -3.694835e+00 1.499012e+00 130 115 99
1.294725e+00 -3.909064e+00 1.411417e-01 91 79 74
1.344941e+00 -3.838439e+00 4.908251e-01 91 79 74
1.410098e+00 -3.702028e+00 1.164358e+00 177 171 163
4.741606e-01 -3.479176e+00 2.901034e+00 138 131 114
1.466128e+00 -3.468822e+00 2.408930e+00 73 59 53
-1.829325e+00 -3.410195e+00 4.457638e+00 136 125 113
-2.355703e+00 -3.641874e+00 3.063335e+00 136 125 114
2.529577e+00 -3.595764e+00 6.209910e-01 56 52 52
-2.003983e+00 -3.601327e+00 2.662386e+00 58 52 43
-9.246696e-02 -3.338007e+00 3.104485e+00 149 129 104
-1.944945e+00 -3.277958e+00 4.247131e+00 81 77 67
1.314705e+00 -3.497029e+00 3.803381e-01 71 61 52
-1.766194e+00 -3.194671e+00 4.248213e+00 112 104 91
1.570158e+00 -3.355557e+00 3.980519e-01 168 166 162
1.332331e+00 -3.364260e+00 4.556608e-01 57 53 47
-2.714442e+00 -3.246897e+00 3.612800e+00 43 39 40
-2.818715e+00 -3.115799e+00 3.432112e+00 195 184 183
-2.207951e-01 -2.591208e+00 3.075960e+00 181 171 176
-1.618381e+00 -2.540438e+00 3.303360e+00 62 47 57
-1.131324e+00 -2.341759e+00 3.982560e+00 185 182 178
1.602575e-01 -2.303897e+00 2.997971e+00 131 114 104
-1.271134e+00 -2.234415e+00 4.091522e+00 174 163 156
-1.315175e+00 -2.216517e+00 4.141691e+00 84 71 65
-1.339434e+00 -2.219191e+00 4.097868e+00 84 71 65
-3.167475e+00 -2.304649e+00 2.814941e+00 175 171 167
1.304733e+00 -1.968512e+00 1.794990e+00 134 126 110
-1.904010e+00 -1.948178e+00 2.641701e+00 150 142 132
-2.051978e+00 -1.950529e+00 2.654941e+00 30 37 29
-1.301343e+00 -1.916341e+00 4.258459e+00 30 37 29
-2.535410e+00 -1.965843e+00 2.553982e+00 71 73 57
-1.512306e+00 -1.920625e+00 4.573690e+00 71 73 57
-1.734492e+00 -1.925100e+00 2.870655e+00 155 137 126
-8.267394e-02 -1.854250e+00 3.357256e+00 133 123 113
-1.399486e+00 -1.878376e+00 4.386183e+00 77 71 61
1.315256e+00 -1.787187e+00 2.276576e+00 121 113 101
1.273035e+00 -1.785129e+00 2.458964e+00 145 132 124
1.250730e+00 -1.736317e+00 2.583111e+00 47 49 44
-1.636997e+00 -1.792687e+00 4.470257e+00 94 85 74
-1.463783e+00 -1.765839e+00 4.242512e+00 74 65 54
1.720918e+00 -1.635247e+00 2.055795e+00 137 131 120
-1.001263e+00 -1.704028e+00 3.935337e+00 95 87 74
1.151575e+00 -1.583437e+00 2.653089e+00 160 151 141
-3.109828e+00 -1.658310e+00 2.062592e+00 139 124 116
-3.682612e-01 -1.603554e+00 3.416600e+00 183 182 184
-1.730414e+00 -1.607269e+00 2.597061e+00 54 50 41
6.699890e-01 -1.537945e+00 2.984372e+00 153 141 141
4.435107e-01 -1.536657e+00 3.194786e+00 67 55 49
2.267290e+00 -1.450574e+00 1.824014e+00 158 150 137
1.257686e+00 -1.493460e+00 2.702315e+00 45 44 48
1.627987e+00 -1.430086e+00 2.119241e+00 146 133 127
-2.012745e+00 -1.475560e+00 2.524739e+00 38 32 23
-9.860425e-01 -1.476189e+00 4.148984e+00 29 25 23
-3.716183e+00 -1.459301e+00 2.017116e+00 92 95 105
-8.521771e-01 -1.455864e+00 3.941324e+00 31 26 20
1.789989e+00 -1.284233e+00 2.546023e+00 20 22 21
-3.226250e+00 -1.276006e+00 1.803725e+00 154 147 144
-3.407394e+00 -1.271160e+00 1.654861e+00 171 162 165
-1.218788e+00 -1.274680e+00 4.436144e+00 48 56 65
-1.728164e+00 -1.126782e+00 1.871707e+00 46 60 68
-1.390382e+00 -1.280030e+00 5.081386e+00 80 78 62
-3.084984e+00 -1.092515e+00 1.542540e+00 154 152 157
-2.088346e+00 -1.097288e+00 2.168058e+00 158 149 151
-2.690503e+00 -1.067487e+00 1.841128e+00 156 142 135
-8.215217e-01 -1.063403e+00 2.414744e+00 92 85 67
-1.731404e+00 -1.038733e+00 2.009518e+00 119 106 99
-3.311093e+00 -8.467224e-01 -1.475773e+00 124 114 102
-2.106753e+00 -1.040871e+00 2.154409e+00 81 75 59
1.453928e-01 -1.101212e+00 3.622666e+00 166 163 157
-8.829044e-01 -1.017884e+00 2.352214e+00 151 144 134
9.349145e-01 -1.043250e+00 3.279565e+00 157 145 134
-1.121507e+00 -9.900902e-01 2.318593e+00 57 70 59
2.499640e+00 -9.286520e-01 2.062472e+00 79 82 63
1.052691e+00 -9.882687e-01 3.118616e+00 67 65 59
2.270046e+00 -7.982717e-01 5.309789e-01 57 57 49
2.270046e+00 -7.982717e-01 5.309789e-01 57 57 49
1.199331e+00 -9.760207e-01 3.054974e+00 64 67 64
2.206289e+00 -9.220151e-01 2.408946e+00 155 150 135
1.981039e+00 -8.184897e-01 8.650049e-01 165 156 146
2.420616e+00 -8.915509e-01 2.094451e+00 171 161 163
2.230897e+00 -7.917038e-01 6.067620e-01 166 162 148
2.318391e+00 -7.340216e-01 8.631253e-01 164 161 163
4.357979e-01 -9.230182e-01 4.343848e+00 174 163 156
1.343872e-01 -3.693394e+00 4.107325e+00 64 57 54
1.939295e+00 -4.090062e+00 8.671128e-01 88 74 63
1.230046e+00 -3.871791e+00 2.133399e+00 61 54 61
-2.161175e+00 -3.954844e+00 3.376791e+00 143 121 107
2.037009e+00 -3.591091e+00 3.326697e+00 62 50 36
2.001705e+00 -3.912350e+00 1.039653e+00 116 113 93
3.310712e-02 -3.612371e+00 3.835935e+00 46 35 31
1.222811e+00 -3.780754e+00 2.062858e+00 35 36 36
-1.704287e+00 -3.800127e+00 3.121752e+00 128 109 97
1.626365e+00 -3.991527e+00 6.539199e-02 63 62 47
-1.108933e+00 -3.586062e+00 4.135546e+00 120 114 100
-1.913970e+00 -3.582948e+00 4.455456e+00 135 121 104
2.441106e+00 -3.739052e+00 8.422225e-01 13 1 17
-2.485441e+00 -3.659530e+00 3.992646e+00 162 156 160
-1.475252e-01 -3.356576e+00 4.670035e+00 163 157 153
-1.526399e+00 -3.487077e+00 4.458492e+00 77 71 45
-2.158403e+00 -3.513474e+00 4.462142e+00 106 98 85
-2.158403e+00 -3.513474e+00 4.462142e+00 106 98 85
5.797145e-01 -3.564296e+00 2.689140e+00 95 89 70
-1.773619e+00 -3.483695e+00 4.444654e+00 85 80 59
-2.038737e+00 -3.472257e+00 4.148582e+00 84 77 62
-1.904010e+00 -3.428315e+00 4.406585e+00 84 77 62
2.109685e+00 -3.561525e+00 1.025614e+00 66 54 48
2.057192e+00 -3.577017e+00 9.513153e-01 53 54 40
2.618142e+00 -3.495536e+00 1.194052e+00 35 27 18
-7.860942e-01 -3.415779e+00 3.622569e+00 60 46 43
-2.018011e+00 -3.320093e+00 4.211532e+00 156 144 130
-2.186109e+00 -3.294355e+00 4.452844e+00 168 167 162
-8.282372e-01 -3.271965e+00 3.829821e+00 109 102 85
1.349831e+00 -3.470969e+00 3.510418e-01 166 161 156
-1.738948e+00 -3.157132e+00 4.433996e+00 116 114 97
-7.919660e-02 -3.011145e+00 4.643454e+00 78 69 63
-2.132788e+00 -3.126981e+00 4.627665e+00 164 164 168
-2.132788e+00 -3.126981e+00 4.627665e+00 164 164 168
1.729490e+00 -3.324551e+00 5.953288e-01 147 128 109
-8.194101e-01 -3.155339e+00 3.609330e+00 92 82 73
-1.644136e+00 -3.015801e+00 5.345533e+00 41 44 39
-1.235359e+00 -3.049520e+00 4.373298e+00 65 49 56
-1.235359e+00 -3.049520e+00 4.373298e+00 65 49 56
-1.253215e+00 -3.029785e+00 4.404003e+00 121 114 96
-9.146531e-01 -2.980201e+00 3.892318e+00 60 52 46
-9.544284e-01 -2.998627e+00 3.485276e+00 81 74 55
-1.853105e+00 -2.902801e+00 4.417390e+00 177 165 170
-1.585847e+00 -2.728323e+00 4.339136e+00 66 56 46
-1.443177e+00 -2.691796e+00 3.127653e+00 70 61 68
1.984099e+00 -2.517257e+00 6.264803e-01 185 179 175
9.275173e-01 -2.434133e+00 1.969239e+00 181 175 177
2.268265e+00 -2.274061e+00 1.013960e+00 185 177 169
7.678130e-01 -2.250108e+00 2.278918e+00 175 164 148
-1.396385e+00 -2.264502e+00 4.169428e+00 168 152 134
2.424291e+00 -2.219339e+00 4.294972e-01 69 66 53
2.380477e+00 -2.203944e+00 5.122679e-01 163 165 151
1.267671e+00 -2.194720e+00 1.607569e+00 122 131 109
-5.737146e-01 -2.138333e+00 3.842719e+00 181 176 175
-1.140494e+00 -2.109616e+00 4.008648e+00 108 102 97
-2.007264e+00 -2.125193e+00 4.532521e+00 135 122 125
-1.500492e+00 -2.123677e+00 3.012014e+00 136 133 140
-7.006278e-01 -2.056598e+00 3.530932e+00 146 144 142
-1.674102e+00 -1.994150e+00 4.631747e+00 165 159 156
-2.692484e+00 -2.052283e+00 2.541628e+00 184 174 182
-3.133767e+00 -2.070600e+00 2.364798e+00 179 170 188
-3.439581e+00 -2.073291e+00 2.470620e+00 153 151 159
-3.536242e+00 -2.063050e+00 2.530644e+00 132 130 128
-2.757255e+00 -2.028276e+00 2.493300e+00 104 97 75
3.492785e-02 -1.873575e+00 3.261787e+00 61 64 50
4.300894e-01 -1.857891e+00 3.015969e+00 49 45 50
1.959481e+00 -1.794904e+00 1.992088e+00 163 159 156
1.828618e+00 -1.802144e+00 2.111125e+00 30 24 17
1.467961e+00 -1.811794e+00 1.910868e+00 168 168 175
1.624784e+00 -1.801047e+00 2.986098e+00 168 168 175
2.288608e+00 -1.778611e+00 1.750399e+00 29 35 25
2.055738e+00 -1.768801e+00 1.905799e+00 24 19 40
2.048522e+00 -1.769003e+00 2.473954e+00 71 65 47
1.220905e+00 -1.786392e+00 2.413078e+00 44 42 38
-1.439436e+00 -1.768277e+00 4.227874e+00 168 159 166
1.444610e+00 -1.656431e+00 2.097273e+00 144 135 122
-8.637050e-01 -1.660913e+00 3.943257e+00 123 109 98
1.517745e+00 -1.570813e+00 2.075588e+00 104 101 90
2.170119e+00 -1.541434e+00 1.859378e+00 166 166 166
-1.592945e+00 -1.656066e+00 4.489013e+00 131 121 107
2.264657e+00 -1.513146e+00 1.789732e+00 151 139 130
2.203455e+00 -1.501761e+00 1.761591e+00 170 163 157
7.679387e-01 -1.550595e+00 2.942351e+00 152 152 136
-5.498921e-01 -1.579967e+00 3.256668e+00 64 61 59
-1.320922e-01 -1.566906e+00 3.566172e+00 57 62 51
-1.320922e-01 -1.566906e+00 3.566172e+00 57 62 51
1.466277e+00 -1.485056e+00 2.276701e+00 151 137 134
2.234096e+00 -1.416673e+00 1.818013e+00 102 95 95
-2.953737e-01 -1.468913e+00 3.593098e+00 136 127 129
1.680057e+00 -1.317642e+00 2.350050e+00 158 150 134
1.075392e+00 -1.309786e+00 2.851554e+00 104 91 74
1.824359e+00 -1.264595e+00 2.421285e+00 103 86 60
-1.765849e+00 -1.181597e+00 2.021192e+00 146 148 142
-1.817889e+00 -1.121890e+00 2.018291e+00 116 103 108
2.655716e-01 -1.116802e+00 3.614775e+00 80 78 67
1.951289e-01 -1.115130e+00 3.653217e+00 74 72 61
-1.581546e+00 -1.038074e+00 2.140819e+00 117 107 95
-8.850807e-01 -1.010414e+00 2.172351e+00 138 125 110
2.060516e+00 -9.520271e-01 4.040605e+00 107 101 86
3.941368e-01 -8.208550e-01 4.557846e+00 171 164 175
1.930012e+00 -7.570299e-01 3.933073e+00 164 155 145
2.564057e+00 -4.467771e+00 1.698112e-01 54 40 33
3.356163e-02 -4.157743e+00 2.905374e+00 49 47 21
-6.212169e-02 -4.121418e+00 2.873960e+00 39 39 29
-1.492437e+00 -3.860665e+00 4.406045e+00 71 64 49
1.866602e+00 -3.977306e+00 1.061336e+00 47 37 28
-4.574672e-01 -3.858321e+00 2.918299e+00 73 65 49
2.032196e+00 -3.929730e+00 9.911892e-01 78 72 60
2.563911e+00 -3.874925e+00 8.783394e-01 106 104 84
1.169560e+00 -3.775312e+00 2.184941e+00 46 39 40
1.321183e+00 -3.762629e+00 2.122127e+00 22 30 26
2.537497e+00 -3.910846e+00 4.563216e-01 41 36 28
-2.252337e+00 -3.685908e+00 4.164570e+00 147 142 151
-2.292160e+00 -3.752962e+00 3.704504e+00 77 69 66
-5.802050e-01 -3.558771e+00 3.969010e+00 93 90 74
1.850298e+00 -3.806721e+00 1.047914e+00 150 146 134
-1.626113e+00 -3.757351e+00 3.195084e+00 39 32 24
-1.530016e+00 -3.781783e+00 2.962712e+00 53 49 35
-3.638229e-01 -3.633123e+00 2.926089e+00 109 91 81
2.434360e+00 -3.277061e+00 3.773425e+00 121 109 88
-2.203830e+00 -3.534737e+00 4.475403e+00 87 92 77
1.263587e+00 -3.808658e+00 5.642861e-01 148 148 146
-1.802065e+00 -3.425155e+00 4.440951e+00 95 82 70
-5.993344e-01 -3.394704e+00 3.952133e+00 89 71 57
2.316774e+00 -3.580341e+00 9.950464e-01 133 121 106
-7.163008e-01 -3.414757e+00 3.724919e+00 139 125 114
2.450626e+00 -3.577904e+00 6.565196e-01 50 43 36
-2.442974e+00 -3.459519e+00 4.062696e+00 100 97 85
1.289560e+00 -3.623321e+00 2.665322e-01 91 90 76
1.433815e+00 -3.533400e+00 2.799796e-01 178 173 168
-7.524898e-01 -3.348602e+00 3.051337e+00 186 174 170
-3.682295e-01 -3.321141e+00 2.965293e+00 162 150 140
-1.628645e+00 -3.198293e+00 4.460184e+00 70 57 48
-8.903161e-01 -3.154214e+00 3.998627e+00 55 51 35
1.683432e+00 -3.337958e+00 4.808244e-01 57 52 32
-1.650641e+00 -2.992710e+00 5.381516e+00 148 150 162
-2.105076e+00 -3.095918e+00 4.591887e+00 148 150 162
2.584880e+00 -3.147754e+00 9.594200e-01 79 73 59
-6.793349e-01 -3.078650e+00 3.066756e+00 88 79 82
-1.666709e+00 -2.955984e+00 4.391438e+00 68 59 47
2.633968e-01 -2.947797e+00 3.256187e+00 47 33 22
-1.308366e+00 -2.766939e+00 4.924393e+00 55 65 62
-2.880400e-01 -2.696069e+00 3.056557e+00 172 172 166
-7.799034e-03 -2.532976e+00 2.992223e+00 139 132 126
-2.165129e+00 -2.610114e+00 3.061625e+00 163 154 145
8.207654e-01 -2.423426e+00 2.324646e+00 64 49 42
1.383387e-01 -2.378316e+00 2.942813e+00 131 122 115
1.969823e-01 -2.367152e+00 2.925870e+00 66 54 42
2.722442e-01 -2.277757e+00 2.939321e+00 129 121 119
1.332841e-01 -2.236626e+00 2.919090e+00 62 53 49
2.503214e+00 -2.223839e+00 2.429209e-01 168 159 147
-3.399390e+00 -2.085729e+00 2.450843e+00 149 141 142
1.340882e+00 -1.925617e+00 1.813550e+00 80 74 61
-2.324552e+00 -2.035455e+00 2.763019e+00 159 148 148
-1.794962e+00 -2.006139e+00 2.813458e+00 147 144 143
-1.068942e+00 -1.960644e+00 4.035706e+00 165 159 161
-1.523021e+00 -1.969660e+00 4.310848e+00 88 83 74
-1.530675e+00 -1.976689e+00 2.864018e+00 86 79 64
-5.280981e-01 -1.916368e+00 3.499718e+00 165 163 161
-5.280981e-01 -1.916368e+00 3.499718e+00 165 163 161
6.565025e-01 -1.878014e+00 2.733833e+00 168 158 151
6.565025e-01 -1.878014e+00 2.733833e+00 168 158 151
1.824368e+00 -1.809699e+00 2.296973e+00 150 140 134
2.299869e-01 -1.848343e+00 3.099986e+00 174 164 166
2.152896e+00 -1.791033e+00 1.384121e+00 170 169 174
2.196138e+00 -1.776126e+00 1.531179e+00 49 48 45
2.609346e+00 -1.743537e+00 3.906634e+00 71 78 69
2.306794e+00 -1.746915e+00 2.214609e+00 141 128 120
-1.308486e+00 -1.722048e+00 4.291339e+00 136 126 116
-2.165692e+00 -1.691713e+00 2.496118e+00 77 86 82
9.280050e-01 -1.607745e+00 2.719208e+00 178 173 170
-1.051200e+00 -1.657960e+00 4.052960e+00 102 92 81
8.903063e-01 -1.593604e+00 2.712028e+00 117 119 95
-1.127047e+00 -1.644159e+00 3.942278e+00 147 134 125
2.178718e+00 -1.531444e+00 1.560034e+00 75 79 69
-5.207909e-01 -1.610731e+00 3.609979e+00 113 112 103
-2.636956e-01 -1.603175e+00 3.571979e+00 125 112 113
-1.062753e-01 -1.591193e+00 3.476272e+00 111 103 76
2.457961e+00 -1.482359e+00 1.509186e+00 168 165 154
-5.646772e-01 -1.308892e+00 3.061565e+00 57 65 53
-3.869516e+00 -1.133783e+00 1.610673e+00 152 143 136
2.330729e+00 -9.635836e-01 1.010989e+00 113 103 88
3.993196e-01 -1.054607e+00 3.523505e+00 118 112 95
-8.103803e-01 -9.817011e-01 4.785840e+00 180 178 180
4.454896e-01 -9.129760e-01 4.501050e+00 38 51 43
1.879307e+00 -8.053231e-01 3.302216e+00 116 118 103
-8.076162e-01 -8.736348e-01 4.796251e+00 171 166 161
-8.076162e-01 -8.736348e-01 4.796251e+00 171 166 161
-1.804690e+00 -4.101792e+00 4.376258e+00 134 121 121
-1.912300e+00 -4.190207e+00 3.981796e+00 140 141 137
1.215757e+00 -4.167510e+00 1.948983e+00 45 39 39
1.131640e+00 -4.060272e+00 2.384414e+00 38 28 27
1.890001e+00 -3.982186e+00 1.071911e+00 127 122 99
-5.858060e-02 -3.804628e+00 2.965061e+00 70 61 51
-5.858060e-02 -3.804628e+00 2.965061e+00 70 61 51
-1.909880e+00 -3.713043e+00 4.377656e+00 123 120 116
1.639825e+00 -3.977481e+00 3.560020e-01 146 129 115
-2.313312e+00 -3.706890e+00 3.683874e+00 94 82 62
1.251383e+00 -3.637549e+00 2.011802e+00 56 57 52
1.711814e+00 -3.691651e+00 1.373824e+00 46 39 40
1.777977e+00 -3.676954e+00 1.267905e+00 51 38 26
-2.202021e+00 -3.510123e+00 4.479552e+00 92 88 76
3.376431e-02 -3.521305e+00 3.037072e+00 76 63 34
-1.942111e+00 -3.496961e+00 4.186831e+00 146 140 133
2.496267e+00 -3.642730e+00 5.994511e-01 109 104 75
1.296702e+00 -3.583822e+00 1.398382e+00 149 141 130
1.777766e+00 -3.507630e+00 1.361959e+00 59 59 49
-3.862852e-01 -3.429346e+00 2.924304e+00 72 62 44
6.256448e-01 -3.245246e+00 2.892776e+00 68 54 49
-3.514933e-01 -3.268755e+00 3.006829e+00 155 144 127
-1.263690e-01 -2.966009e+00 4.665531e+00 134 130 114
-7.065872e-01 -3.180817e+00 3.062288e+00 134 130 114
-3.271082e-01 -3.129354e+00 3.035665e+00 98 103 83
-1.015366e-01 -3.092116e+00 3.096024e+00 136 130 118
-6.777446e-01 -3.111760e+00 3.040674e+00 157 156 158
-2.903166e-01 -3.068068e+00 2.995843e+00 139 123 109
-2.698668e-01 -3.044933e+00 3.028613e+00 76 64 53
9.118424e-01 -2.582737e+00 2.158183e+00 122 112 108
2.345781e+00 -1.872442e+00 2.381608e+00 57 56 46
-1.735477e+00 -1.989779e+00 2.860702e+00 157 156 149
-3.305892e-01 -1.914666e+00 3.242169e+00 173 170 170
2.010534e+00 -1.748060e+00 2.356667e+00 131 120 105
-1.380273e+00 -1.839498e+00 4.210719e+00 108 107 88
-1.884450e+00 -1.773392e+00 4.585021e+00 123 119 125
-3.100306e+00 -1.790111e+00 2.362505e+00 123 119 125
-2.910111e+00 -1.769283e+00 2.298843e+00 170 159 164
-3.190018e+00 -1.765829e+00 2.320132e+00 156 155 158
-6.094881e-01 -1.694571e+00 3.244328e+00 113 105 94
-2.463701e+00 -1.693914e+00 2.434168e+00 109 99 94
3.169367e-01 -1.601475e+00 3.137646e+00 97 89 79
8.664645e-01 -1.579269e+00 2.814759e+00 112 108 96
-2.522122e+00 -1.636215e+00 2.210072e+00 46 52 41
1.087161e+00 -1.558215e+00 2.755652e+00 89 90 76
1.473198e+00 -1.513513e+00 2.271978e+00 102 96 84
1.767905e+00 -1.493193e+00 2.134612e+00 99 97 82
2.485471e+00 -1.466117e+00 1.665344e+00 78 80 72
2.483026e+00 -1.467449e+00 1.602490e+00 78 80 72
5.631956e-01 -1.475723e+00 3.104652e+00 109 99 103
-2.217488e-01 -1.456105e+00 3.570773e+00 110 100 104
-1.069730e+00 -1.447656e+00 2.739225e+00 100 85 84
1.611648e+00 -1.358137e+00 2.296285e+00 119 110 96
-3.158797e-01 -1.120032e+00 3.873344e+00 92 90 79
4.200440e-01 -1.015488e+00 4.324644e+00 121 122 123
1.840694e+00 -8.731713e-01 2.569241e+00 121 112 112
1.380045e+00 -8.224053e-01 4.333732e+00 128 129 116
1.961914e+00 -7.520659e-01 4.011647e+00 112 108 98
1.781403e+00 -4.342383e+00 1.637548e+00 147 143 131
-1.791703e+00 -4.032990e+00 4.417038e+00 100 87 75
2.590120e+00 -3.899457e+00 6.595406e-01 98 80 75
1.956030e+00 -3.882846e+00 8.539547e-01 33 36 35
1.956030e+00 -3.882846e+00 8.539547e-01 33 36 35
2.048893e+00 -3.875028e+00 8.388968e-01 68 66 47
1.591546e+00 -3.674123e+00 1.387826e+00 151 155 144
2.615359e+00 -3.706716e+00 4.577780e-01 62 53 43
1.321765e+00 -3.538973e+00 1.527823e+00 58 57 39
1.261991e+00 -3.222750e+00 5.579288e-01 167 167 166
1.809399e+00 -3.076556e+00 7.005990e-01 54 53 37
1.809399e+00 -3.076556e+00 7.005990e-01 54 53 37
2.445130e+00 -1.853520e+00 2.319906e+00 122 122 118
2.261388e+00 -1.771269e+00 1.732243e+00 54 56 43
2.328202e+00 -1.236488e+00 1.915310e+00 148 130 114
2.348568e+00 -1.247945e+00 2.211957e+00 148 130 114
1.261025e+00 -3.887874e+00 2.293236e+00 55 51 43
2.190654e+00 -3.739039e+00 1.334908e+00 81 74 66
1.262051e+00 -3.704942e+00 1.828207e+00 94 98 88
1.468708e+00 -3.419342e+00 2.581916e+00 89 84 69
1.467834e+00 -3.310698e+00 1.618006e+00 152 137 133
1.925245e+00 -3.021140e-02 4.828277e+00 187 167 159
2.258702e+00 -4.085693e-01 3.852874e+00 54 58 70
3.464870e-02 1.504349e+00 6.805601e+00 8 7 12
2.048717e+00 3.359644e-01 4.325877e+00 152 128 124
-1.234868e+00 7.790678e-01 7.257702e+00 207 232 254
3.417691e+00 3.203853e+00 5.524271e+00 96 86 82
4.461052e-01 -1.652939e+00 4.344023e+00 108 93 81
5.458298e-01 -1.369254e+00 3.400901e+00 30 19 26
9.739701e-01 -4.874962e-01 5.123756e+00 56 56 63
-3.825398e-01 2.980957e-01 6.165173e+00 170 166 167
3.061142e+00 1.039047e+00 3.232803e+00 54 56 69
-4.740098e-01 6.268423e-01 6.658322e+00 182 174 164
-1.284941e-01 9.649471e-01 6.329500e+00 146 140 142
6.348824e-01 -1.980249e+00 2.802420e+00 85 66 60
2.145963e+00 -1.028423e+00 2.949616e+00 58 56 76
5.657988e-01 -8.935225e-01 4.644657e+00 41 43 55
2.474986e+00 1.033495e-01 3.484279e+00 122 107 110
-3.078911e-01 -1.992661e-01 5.952606e+00 167 159 156
2.131715e+00 1.108073e+00 4.515359e+00 14 13 18
2.370230e+00 1.182252e+00 4.507230e+00 176 166 159
2.722137e+00 1.447439e+00 3.985614e+00 8 9 11
2.118404e+00 1.343166e+00 4.500188e+00 45 41 41
2.118404e+00 1.343166e+00 4.500188e+00 45 41 41
2.355254e+00 1.420547e+00 4.497191e+00 63 42 51
2.651774e+00 1.514801e+00 4.143340e+00 73 63 74
2.937667e+00 1.657932e+00 3.573714e+00 110 104 107
2.073980e+00 1.430889e+00 4.948031e+00 37 34 32
3.677348e+00 1.973598e+00 4.444015e+00 119 114 137
3.677348e+00 1.973598e+00 4.444015e+00 119 114 137
5.922091e-01 -3.509716e+00 3.573798e+00 14 14 16
8.711005e-01 -3.006212e+00 2.762424e+00 113 103 101
1.399760e+00 -3.061580e+00 7.886676e-01 182 171 177
2.682983e+00 -1.614307e+00 1.281290e+00 189 170 155
1.337969e+00 -1.498813e+00 2.828619e+00 153 144 147
9.244104e-01 -1.529919e+00 2.911156e+00 197 178 164
3.389826e+00 -1.240311e+00 1.492299e+00 47 40 40
1.208527e+00 -8.662927e-01 4.480768e+00 38 40 55
1.336887e+00 -7.696005e-01 4.683916e+00 44 46 60
2.090358e+00 -5.480579e-01 3.831970e+00 171 158 146
-4.676130e-01 -5.892288e-01 5.975060e+00 107 93 84
3.932224e+00 -4.638826e-02 1.429020e+00 222 241 255
3.932224e+00 -4.638826e-02 1.429020e+00 222 241 255
2.238008e+00 -1.460348e-01 3.925294e+00 94 80 71
4.551977e-01 -1.333328e-01 3.235480e+00 40 40 48
8.685850e-01 -2.874067e-01 5.259024e+00 40 40 48
9.819959e-01 -2.417671e-01 5.188857e+00 43 44 50
1.061173e+00 -3.819205e-03 5.276766e+00 40 39 45
1.061173e+00 -3.819205e-03 5.276766e+00 40 39 45
-2.187577e-01 -5.716668e-02 5.865356e+00 169 164 168
2.136358e+00 6.544062e-01 4.538087e+00 175 161 156
2.294781e+00 1.095112e+00 4.660419e+00 15 15 20
-5.866882e-01 7.688095e-01 6.732467e+00 179 160 143
-1.670841e-01 8.664469e-01 6.428066e+00 32 32 40
6.444789e-01 1.007606e+00 6.065830e+00 186 162 154
2.286123e+00 1.338759e+00 4.578830e+00 48 48 48
2.268846e+00 1.369813e+00 4.410445e+00 48 48 48
-2.117591e-01 9.706270e-01 6.534325e+00 22 22 26
-2.117591e-01 9.706270e-01 6.534325e+00 22 22 26
-2.117591e-01 9.706270e-01 6.534325e+00 22 22 26
2.581010e+00 1.439359e+00 4.291833e+00 70 69 67
2.430283e+00 1.408459e+00 4.436738e+00 55 53 61
2.215796e+00 1.353188e+00 4.641085e+00 171 156 142
2.222227e+00 1.340784e+00 4.717210e+00 171 156 142
2.501791e+00 1.468860e+00 4.351408e+00 184 177 164
-2.747177e-01 1.025375e+00 6.583822e+00 137 130 125
-4.500092e-01 2.329649e+00 7.623665e+00 169 152 133
-2.029849e-01 2.786019e+00 7.307725e+00 114 104 105
3.435920e+00 -4.030572e+00 -2.684271e+00 160 153 145
-1.665008e+00 -1.995048e+00 4.831382e+00 168 157 153
-1.742735e+00 -1.933786e+00 5.045148e+00 77 62 69
1.435589e+00 -1.780349e+00 2.200426e+00 62 57 59
-1.818868e+00 -1.606737e+00 5.442634e+00 34 30 37
4.580341e-01 -1.471430e+00 3.194423e+00 59 50 48
-1.568172e+00 -1.558518e+00 5.064541e+00 141 124 108
-1.436213e+00 -1.543684e+00 4.895194e+00 142 130 114
3.230792e+00 -1.298365e+00 7.738775e-01 53 48 52
-1.486125e-01 -1.453965e+00 3.674369e+00 141 120 112
4.270328e-02 -1.440448e+00 3.556299e+00 150 127 112
2.559912e+00 -1.275186e+00 1.745359e+00 162 140 123
2.182088e+00 -5.994661e-01 4.234787e+00 60 57 70
-4.411529e-01 -7.562608e-01 6.009814e+00 98 82 76
2.641837e+00 -4.798257e-01 3.431362e+00 145 136 122
2.062125e+00 -4.975361e-01 4.053112e+00 115 93 80
2.577188e+00 -4.168110e-01 3.321542e+00 51 37 39
2.408735e+00 -3.956410e-01 3.641692e+00 114 103 104
-1.894271e-01 -4.357556e-01 5.485867e+00 145 142 143
-5.111614e-01 -2.439048e-01 6.182039e+00 157 148 143
-8.183130e-01 -1.524689e-01 6.321233e+00 184 171 163
-1.159533e-01 -5.368553e-02 5.771138e+00 140 138 139
3.014609e+00 5.652248e-01 3.049011e+00 139 135 134
-1.386436e+00 1.189117e-01 6.809134e+00 252 255 252
-1.195265e+00 6.022606e-01 7.084981e+00 90 89 130
2.074790e+00 1.311547e+00 4.758506e+00 153 134 112
2.363224e+00 1.367776e+00 4.565067e+00 131 120 109
-5.432360e-01 9.180752e-01 6.878967e+00 20 19 29
-4.006634e-02 1.072971e+00 6.383954e+00 141 136 131
1.273467e+00 1.349785e+00 5.545436e+00 108 99 90
-5.315979e-01 1.147127e+00 6.787948e+00 128 121 114
-1.827226e-01 1.208413e+00 6.604918e+00 133 125 124
2.227093e+00 1.795769e+00 4.538199e+00 136 120 113
-2.519920e-01 2.298919e+00 7.710311e+00 118 108 96
1.673554e+00 2.692824e+00 6.731563e+00 187 208 255
3.241859e+00 -4.466946e+00 -2.805477e+00 100 99 99
-2.642415e+00 -3.596970e+00 5.259220e+00 31 31 36
1.077555e+00 -3.840861e+00 4.727696e-01 102 99 105
2.615487e+00 -1.745442e+00 1.280782e+00 30 24 43
-2.986235e-01 -1.539131e+00 3.775698e+00 47 33 33
-2.761711e-02 -1.420426e+00 3.725797e+00 23 18 20
1.600895e+00 -1.318936e+00 2.602500e+00 34 25 31
1.998805e+00 -1.281751e+00 2.345843e+00 31 19 26
1.998805e+00 -1.281751e+00 2.345843e+00 31 19 26
3.154952e+00 -1.188257e+00 1.121475e+00 26 22 26
2.650834e+00 -5.689526e-01 3.322421e+00 147 138 131
3.475310e+00 -2.585819e-01 1.854006e+00 187 179 177
6.670981e-01 -5.747140e-01 5.320659e+00 48 35 52
3.087979e+00 -2.573910e-01 2.737846e+00 130 120 131
1.489387e+00 2.600320e-01 4.773917e+00 76 61 76
1.489387e+00 2.600320e-01 4.773917e+00 76 61 76
1.476310e+00 2.691986e-01 4.678876e+00 76 61 76
3.867598e-01 1.805210e-01 5.397370e+00 177 163 155
1.022394e+00 3.223300e-01 4.943922e+00 148 141 131
9.543650e-01 3.060467e-01 5.129664e+00 149 140 128
-6.641381e-02 4.204839e-01 6.202562e+00 19 23 34
-6.641381e-02 4.204839e-01 6.202562e+00 19 23 34
-2.303383e-02 4.305754e-01 6.200313e+00 134 132 135
2.037303e+00 7.735503e-01 4.228913e+00 220 203 186
-1.896746e-01 4.411338e-01 6.367449e+00 145 144 149
-8.219356e-02 8.128241e-01 6.320712e+00 20 19 28
1.588836e+00 1.253530e+00 5.385321e+00 146 147 147
2.684474e+00 1.521074e+00 4.193351e+00 153 147 139
7.323440e-01 1.261086e+00 5.860196e+00 144 131 117
-1.031717e+00 1.098143e+00 6.935628e+00 48 42 54
2.246619e+00 1.573906e+00 4.778637e+00 122 109 92
4.031321e-02 1.342549e+00 6.129511e+00 48 46 54
1.936727e+00 3.345900e+00 6.595341e+00 142 136 140
3.278352e+00 -4.274767e+00 -2.691401e+00 40 38 43
3.196543e+00 -4.188526e+00 -2.462650e+00 104 98 104
3.702926e+00 -4.188445e+00 -3.044347e+00 151 146 144
1.497539e+00 -3.171001e+00 1.585090e+00 199 191 175
1.031017e-02 -3.084220e+00 2.593455e+00 75 47 44
1.009559e+00 -2.612132e+00 1.854051e+00 79 64 64
5.337086e-01 -2.137635e+00 2.584746e+00 79 53 52
4.487099e-01 -2.124542e+00 2.381855e+00 67 43 45
-1.371878e+00 -1.914790e+00 5.168114e+00 90 77 84
-1.498788e+00 -1.907576e+00 5.438778e+00 206 199 181
-1.106411e-01 -1.843575e+00 3.481568e+00 158 140 126
6.363549e-01 -1.736073e+00 2.990326e+00 49 38 47
-1.577739e+00 -1.583189e+00 5.311133e+00 158 145 119
-1.720158e+00 -1.529948e+00 4.918028e+00 33 23 26
-1.771371e+00 -1.546634e+00 5.317135e+00 29 22 26
-4.361986e-01 -1.471862e+00 3.875783e+00 200 186 154
9.333777e-01 -1.403589e+00 3.100084e+00 192 178 152
-4.627993e-01 -1.458920e+00 3.974145e+00 43 22 29
5.028588e-01 -1.397658e+00 3.434964e+00 45 24 31
1.296455e+00 -1.347541e+00 2.923911e+00 31 19 22
1.951966e+00 -1.306618e+00 2.439712e+00 38 22 27
5.531209e-01 -1.372978e+00 3.404279e+00 28 17 24
2.394964e+00 -1.275931e+00 1.971849e+00 33 23 29
1.547717e+00 -1.292144e+00 2.636958e+00 32 22 21
-9.587169e-01 -8.839483e-01 5.857441e+00 161 152 137
-2.129400e-01 -7.742825e-01 5.531782e+00 45 43 60
1.045672e+00 -4.991035e-01 4.898539e+00 153 148 143
2.456112e+00 -3.262570e-01 3.590036e+00 92 75 86
2.440358e+00 -2.753213e-01 3.650892e+00 85 71 74
8.512356e-01 -4.290825e-01 5.121082e+00 46 38 61
9.787610e-01 -3.577872e-01 5.168118e+00 46 43 64
-4.478106e-01 -2.133084e-01 5.991430e+00 149 141 141
-1.369437e-01 -1.096991e-01 5.759152e+00 114 105 114
-3.521182e-01 -1.333021e-01 5.979017e+00 145 139 126
3.466133e+00 4.073736e-01 2.182604e+00 91 80 101
-4.094409e-01 2.193066e-02 6.029305e+00 185 177 174
-1.556360e-01 9.054927e-02 5.936837e+00 94 80 95
1.221407e+00 2.762846e-01 4.917323e+00 141 133 130
1.314284e+00 3.053728e-01 4.953791e+00 170 163 161
1.271503e+00 3.191565e-01 5.026882e+00 172 165 167
-2.735033e-01 1.707561e-01 6.089158e+00 101 91 92
1.584562e+00 3.942996e-01 4.846807e+00 66 53 62
1.431852e+00 4.181565e-01 4.612626e+00 92 77 83
3.063880e+00 6.807730e-01 3.045256e+00 141 142 142
-8.513911e-02 4.567993e-01 6.264703e+00 124 127 129
-1.181658e+00 4.318797e-01 6.994611e+00 157 159 179
-1.163740e+00 5.045655e-01 7.039569e+00 154 156 177
2.222522e+00 1.221823e+00 4.703870e+00 195 179 154
2.502766e+00 1.326723e+00 4.241137e+00 183 169 157
-4.057031e-01 8.922225e-01 6.699386e+00 165 154 145
1.546294e+00 1.259046e+00 4.994319e+00 58 52 59
1.456543e+00 1.294767e+00 5.048696e+00 142 142 142
2.107443e+00 1.347199e+00 4.871816e+00 166 149 129
2.712542e+00 1.547517e+00 3.989552e+00 38 37 45
2.242826e+00 1.501874e+00 4.408795e+00 78 70 75
2.589647e+00 1.591063e+00 4.050699e+00 127 114 106
-1.082079e+00 1.020874e+00 6.963335e+00 67 55 60
-4.399221e-01 1.082061e+00 6.722593e+00 133 122 111
-1.875478e-01 1.134542e+00 6.564529e+00 123 111 101
1.804075e+00 1.519861e+00 4.789467e+00 87 74 77
2.716955e+00 1.982339e+00 4.041543e+00 25 16 45
-1.824955e-01 1.838159e+00 7.130207e+00 96 90 101
-7.393392e-01 2.144470e+00 7.999341e+00 188 214 254
-1.864032e-01 2.827819e+00 7.291458e+00 114 110 109
-7.144340e-01 2.864341e+00 7.686527e+00 180 206 255
1.749876e+00 -4.429988e+00 -6.666372e-01 154 132 101
3.586544e+00 -4.084174e+00 -2.969320e+00 154 150 146
1.179465e+00 -3.679042e+00 1.985429e-01 149 134 124
9.664332e-01 -3.320222e+00 1.953361e+00 60 46 49
3.473614e+00 -3.402119e+00 -2.355864e+00 51 34 52
3.576825e+00 -3.344791e+00 -2.135229e+00 44 31 55
3.469438e+00 -3.209300e+00 -1.467695e+00 83 71 88
1.061744e+00 -2.725612e+00 1.693778e+00 95 73 81
9.162961e-01 -2.466617e+00 2.022356e+00 82 59 66
2.471473e+00 -2.405507e+00 1.025211e+00 41 32 31
7.374798e-01 -2.398482e+00 2.318919e+00 132 119 119
7.270633e-01 -2.227928e+00 2.350476e+00 180 162 149
1.762631e-01 -1.826141e+00 3.145820e+00 183 166 135
4.247333e-01 -1.559380e+00 3.460231e+00 40 5 29
1.080745e+00 -1.515685e+00 3.041633e+00 71 47 64
8.649174e-01 -1.522100e+00 3.088673e+00 50 30 44
4.138187e-01 -1.524329e+00 3.242342e+00 189 174 145
-1.742858e+00 -1.566698e+00 5.293349e+00 162 144 132
-1.430629e+00 -1.538976e+00 5.048240e+00 42 22 29
-1.293301e+00 -1.528946e+00 4.864386e+00 37 19 23
-1.424941e+00 -1.502244e+00 4.616828e+00 30 21 30
-1.465406e+00 -1.485385e+00 4.644228e+00 139 126 109
2.004796e-01 -1.376440e+00 3.600645e+00 125 98 77
9.835328e-01 -1.323246e+00 3.092777e+00 136 112 90
2.715946e+00 -1.203086e+00 1.590126e+00 130 112 91
1.230599e-01 -1.096732e+00 4.070529e+00 188 180 161
2.186756e+00 -9.395390e-01 2.580491e+00 74 53 74
3.306535e+00 -8.254585e-01 1.825884e+00 192 179 161
1.513892e+00 -9.160380e-01 3.165781e+00 179 173 170
1.284007e+00 -9.077317e-01 4.807973e+00 37 26 55
-1.344219e+00 -7.463425e-01 7.064768e+00 127 122 194
6.431120e-01 -5.463842e-01 5.309187e+00 41 25 42
1.480942e+00 -4.000997e-01 4.661507e+00 126 115 110
2.463416e-01 -4.596700e-01 5.263189e+00 156 124 112
-7.513063e-01 -5.270656e-01 5.995809e+00 131 118 109
9.442174e-01 -3.558737e-01 4.873874e+00 175 172 170
1.010579e+00 -3.797766e-01 5.165755e+00 175 172 170
1.036648e+00 -3.753238e-01 5.161041e+00 47 32 60
2.594213e+00 -9.736991e-02 3.479931e+00 165 155 153
1.120508e+00 -2.235527e-01 5.096051e+00 36 14 33
2.698155e+00 -1.539428e-02 3.445601e+00 169 167 168
2.698155e+00 -1.539428e-02 3.445601e+00 169 167 168
1.094909e+00 -2.070485e-01 5.139356e+00 176 168 169
9.578686e-01 -1.992735e-01 5.255123e+00 171 161 149
-6.754424e-01 -2.612615e-01 6.077496e+00 171 160 142
1.342166e+00 -7.797718e-02 5.006753e+00 123 114 98
1.342166e+00 -7.797718e-02 5.006753e+00 123 114 98
1.324967e+00 -5.131097e-02 5.045495e+00 118 103 86
7.510604e-01 -6.864881e-02 5.418266e+00 151 132 106
-4.253024e-01 -1.394716e-01 6.046332e+00 134 125 122
-6.351729e-01 -1.450459e-01 6.106011e+00 91 73 63
2.671961e+00 1.879908e-01 3.675745e+00 46 40 49
7.798957e-01 -3.289392e-02 5.431039e+00 145 125 98
2.686703e+00 2.173956e-01 3.673538e+00 129 126 118
1.125817e+00 1.542387e-02 5.242286e+00 138 133 111
1.443357e+00 7.902548e-02 4.801590e+00 72 61 65
1.147265e+00 3.358852e-02 5.150999e+00 134 126 107
-4.880601e-01 -9.603742e-02 6.125472e+00 81 68 66
-4.880601e-01 -9.603742e-02 6.125472e+00 81 68 66
9.697986e-01 3.047852e-02 5.350112e+00 150 140 118
2.602111e+00 2.642457e-01 3.593623e+00 42 30 41
2.610940e+00 2.700929e-01 3.849486e+00 133 117 111
-3.434770e-01 -1.052334e-02 5.970962e+00 181 176 172
-5.159280e-01 3.055249e-02 6.136821e+00 187 178 179
1.174533e+00 3.266424e-01 4.965445e+00 95 78 88
6.239543e-01 2.746147e-01 5.513735e+00 135 112 106
-8.094127e-02 4.145100e-01 6.265453e+00 119 120 119
2.912860e+00 9.363249e-01 3.317386e+00 191 191 195
3.092028e+00 9.734078e-01 3.238883e+00 36 34 70
-4.457091e-01 7.163460e-01 6.668463e+00 84 72 76
-1.151665e+00 6.246160e-01 7.355477e+00 201 232 255
-1.212390e+00 6.787236e-01 7.149260e+00 118 125 193
2.298779e+00 1.200604e+00 4.712762e+00 95 87 74
-3.774481e-01 8.548411e-01 6.623699e+00 137 130 122
2.675555e+00 1.373169e+00 3.955649e+00 24 19 33
-1.213303e+00 7.638586e-01 7.146818e+00 199 230 251
-1.247521e-01 8.989583e-01 6.477391e+00 108 104 95
-1.180328e+00 8.489849e-01 7.334633e+00 133 143 223
2.207665e+00 1.408013e+00 4.642592e+00 187 173 154
1.415737e+00 1.382434e+00 5.093365e+00 136 128 133
1.146817e+00 1.318895e+00 5.534564e+00 181 176 173
1.429700e+00 1.397749e+00 5.188968e+00 30 25 40
2.280096e+00 1.518680e+00 4.750766e+00 165 154 136
1.246696e+00 1.405293e+00 5.463329e+00 77 61 68
1.391982e+00 1.435868e+00 5.351908e+00 62 51 59
2.602559e+00 1.706358e+00 4.086204e+00 135 124 117
2.982002e+00 1.820817e+00 3.651542e+00 94 92 87
-5.377019e-01 1.600838e+00 7.262796e+00 180 173 157
-5.301301e-01 1.658719e+00 7.277277e+00 167 159 146
-1.566174e-01 1.897412e+00 7.108102e+00 163 154 152
2.479601e-01 2.197844e+00 7.110360e+00 118 116 119
-8.872093e-02 2.306831e+00 7.323579e+00 164 153 138
-7.598530e-01 2.188106e+00 7.989867e+00 107 119 208
1.735143e+00 2.512520e+00 7.051533e+00 60 59 166
2.448254e+00 3.049360e+00 6.351100e+00 148 142 142
9.508864e-01 -3.085943e+00 2.050453e+00 99 92 84
1.167157e+00 -2.986499e+00 1.293861e+00 141 131 129
1.424288e-01 -2.924789e+00 2.764476e+00 65 44 40
1.424288e-01 -2.924789e+00 2.764476e+00 65 44 40
9.617428e-01 -2.911529e+00 1.987435e+00 34 23 32
2.947161e+00 -2.576215e+00 -2.181223e-01 177 168 166
7.759955e-01 -2.429413e+00 2.276783e+00 107 101 95
4.294423e-01 -2.313444e+00 2.726161e+00 47 32 29
2.427053e+00 -2.147592e+00 3.320695e+00 198 181 173
2.294006e+00 -1.907148e+00 1.305495e+00 77 61 64
-1.738839e+00 -1.981795e+00 4.976980e+00 220 204 195
-3.294322e-01 -1.908793e+00 3.322592e+00 62 42 54
1.485979e+00 -1.824530e+00 2.131638e+00 209 201 197
1.257649e+00 -1.612945e+00 2.781288e+00 62 43 56
1.975927e-01 -1.461908e+00 3.576078e+00 64 46 53
-1.439595e+00 -1.507792e+00 5.067027e+00 129 113 98
1.641479e+00 -1.326007e+00 2.511310e+00 167 149 132
-1.710133e-01 -1.374405e+00 3.850683e+00 90 62 60
2.135820e+00 -1.218757e+00 2.252937e+00 92 73 69
4.877590e-01 -1.077628e+00 3.839238e+00 51 27 26
1.175753e+00 -9.290137e-01 4.432654e+00 158 152 159
2.047960e+00 -8.028112e-01 4.109020e+00 185 171 154
6.152345e-01 -8.750457e-01 5.182623e+00 166 158 155
1.115413e+00 -7.695001e-01 4.707418e+00 47 35 60
5.435796e-01 -7.753190e-01 5.259479e+00 174 170 161
2.063960e+00 -6.370988e-01 4.105912e+00 118 94 92
1.090343e+00 -6.794206e-01 4.706687e+00 38 12 38
7.568425e-01 -5.895221e-01 5.207904e+00 22 11 26
-1.553569e+00 -7.381770e-01 6.502174e+00 219 238 253
-6.662611e-01 -5.838486e-01 5.825558e+00 69 47 49
-6.757763e-01 -5.537156e-01 5.862803e+00 76 56 56
8.773757e-01 -4.082225e-01 5.093561e+00 203 193 193
7.004461e-01 -4.127232e-01 5.352841e+00 45 12 36
1.459499e+00 -3.373441e-01 4.815733e+00 31 20 28
-5.699965e-01 -4.497165e-01 5.845258e+00 117 105 116
8.145402e-01 -3.279389e-01 5.316673e+00 176 170 164
1.465888e+00 -2.661351e-01 4.782749e+00 124 113 95
-1.391235e-01 -3.222862e-01 5.570708e+00 153 153 151
2.425333e+00 -9.588508e-02 3.737054e+00 125 108 123
2.669051e+00 -4.421317e-02 3.494667e+00 171 161 160
9.212514e-01 -2.447775e-01 5.245460e+00 163 154 139
-1.598748e-01 -2.752457e-01 5.591044e+00 155 152 153
8.079646e-01 -2.237330e-01 5.327230e+00 52 27 47
-1.834398e-01 -2.150772e-01 5.696389e+00 161 157 156
2.728295e+00 1.099032e-01 3.543608e+00 95 82 98
-6.237651e-01 -2.360349e-01 6.292498e+00 102 82 76
-3.972997e-01 -2.053158e-01 6.190222e+00 105 91 92
-2.669217e-01 -1.187708e-01 5.834131e+00 147 137 135
1.129408e+00 1.052927e-02 5.134385e+00 26 19 25
1.031246e+00 1.241188e-02 5.300016e+00 35 21 33
1.057356e+00 3.851865e-02 5.244680e+00 33 22 27
-3.498688e-01 -3.299224e-02 5.936364e+00 79 66 78
2.367280e+00 2.384922e-01 4.077922e+00 97 71 70
-3.825474e-01 2.473413e-03 5.978970e+00 174 164 162
-1.031118e-01 4.223397e-02 5.833199e+00 69 58 69
-4.683565e-01 6.118913e-03 6.071405e+00 85 71 78
2.806816e+00 4.090430e-01 3.229935e+00 175 168 170
2.742863e+00 3.705205e-01 3.570507e+00 161 147 144
2.667354e+00 3.978403e-01 3.683046e+00 151 143 139
2.622066e+00 4.049732e-01 3.762581e+00 150 139 136
1.360589e+00 2.454440e-01 4.929225e+00 69 54 67
-9.175463e-03 1.771516e-01 5.847134e+00 130 110 112
1.394296e+00 4.177991e-01 4.675738e+00 162 155 155
-5.662801e-01 1.798429e-01 6.275108e+00 90 76 76
-5.662801e-01 1.798429e-01 6.275108e+00 90 76 76
9.552846e-01 3.337919e-01 5.316748e+00 162 148 132
8.286651e-01 3.738642e-01 5.404878e+00 71 57 57
8.286651e-01 3.738642e-01 5.404878e+00 71 57 57
1.268357e+00 4.311889e-01 5.126621e+00 76 67 68
8.463452e-01 4.316035e-01 5.102796e+00 188 168 162
1.457468e+00 4.640505e-01 4.987180e+00 73 62 70
1.627963e+00 6.742378e-01 4.175518e+00 160 144 136
-7.324587e-01 6.609780e-01 6.821127e+00 121 97 90
-7.370345e-01 6.773015e-01 6.748596e+00 197 183 164
-2.488517e-01 7.734163e-01 6.411458e+00 162 157 149
-4.847678e-01 7.464599e-01 6.619832e+00 170 159 141
-6.111639e-01 8.051671e-01 6.708070e+00 180 169 154
-1.128711e+00 6.962604e-01 7.377922e+00 126 139 214
-4.287368e-01 8.391703e-01 6.674934e+00 167 170 164
-1.225221e-01 9.077114e-01 6.345405e+00 142 135 133
-3.102885e-01 8.745613e-01 6.540210e+00 167 167 159
2.138888e+00 1.199745e+00 4.934359e+00 91 83 72
-2.991779e-01 9.372632e-01 6.584558e+00 95 78 78
-1.262015e-01 9.631786e-01 6.504814e+00 90 80 88
-7.339711e-01 9.064256e-01 6.875302e+00 55 52 52
-4.194009e-01 9.710850e-01 6.715893e+00 101 90 88
2.038906e+00 1.371369e+00 4.776346e+00 181 165 148
-1.695518e-01 1.015211e+00 6.562761e+00 101 90 98
2.230632e+00 1.424882e+00 4.579459e+00 40 18 30
6.976586e-01 1.140380e+00 6.012168e+00 90 78 86
-1.770221e-01 1.049908e+00 6.511777e+00 167 157 155
2.508514e+00 1.544662e+00 4.072100e+00 80 63 74
2.929826e+00 1.645826e+00 3.693623e+00 139 134 133
2.976634e+00 1.665383e+00 3.619438e+00 118 118 116
9.224405e-01 1.209424e+00 5.875007e+00 74 66 81
-6.882281e-01 1.007361e+00 6.860933e+00 82 66 59
6.098469e-01 1.200874e+00 5.949236e+00 58 45 60
3.399289e+00 1.834539e+00 3.010053e+00 165 154 148
2.135534e+00 1.485125e+00 4.699940e+00 86 75 81
1.182440e+00 1.316335e+00 5.521915e+00 48 29 48
-1.142556e-01 1.113523e+00 6.539555e+00 60 51 52
-9.728416e-01 1.047381e+00 6.879074e+00 81 67 69
4.779106e-01 1.217362e+00 6.185959e+00 79 58 47
8.559421e-01 1.277560e+00 5.945723e+00 83 70 69
1.293836e+00 1.350867e+00 5.613614e+00 146 134 125
4.305301e-01 1.286149e+00 5.956937e+00 173 156 136
1.171669e+00 1.338376e+00 5.727689e+00 89 71 74
3.807255e+00 1.665460e+00 4.874117e+00 122 128 204
3.161436e+00 2.049553e+00 3.448539e+00 57 45 50
-7.254718e-01 1.309697e+00 7.111512e+00 129 107 95
-1.759647e-01 1.477074e+00 6.960370e+00 102 91 99
-5.754091e-01 1.529155e+00 7.225215e+00 121 112 106
2.933995e+00 2.394196e+00 4.443876e+00 84 80 96
-5.504204e-01 1.752255e+00 7.288118e+00 122 105 98
-1.114448e-01 1.837602e+00 7.102547e+00 160 155 152
-5.160384e-01 1.787505e+00 7.309211e+00 166 159 140
2.424169e+00 2.429361e+00 4.858285e+00 89 85 102
-6.434967e-01 1.910750e+00 7.313848e+00 122 108 95
-5.181948e-01 2.032117e+00 7.364635e+00 124 112 110
-4.531304e-01 2.037895e+00 7.557262e+00 115 102 95
-3.345943e-02 2.312864e+00 7.391980e+00 58 43 48
2.555398e-01 2.459106e+00 6.990557e+00 56 46 54
1.776762e+00 2.846098e+00 6.636469e+00 126 126 125
-2.785960e-01 2.808044e+00 7.344720e+00 67 55 64
9.977577e-01 -4.494212e+00 -2.267424e-01 83 75 72
1.238083e+00 -4.064788e+00 -1.425963e+00 67 51 55
1.572121e+00 -3.835482e+00 1.947540e-03 116 84 84
1.522539e+00 -3.838680e+00 -6.988724e-02 116 82 81
2.487455e-01 -3.433636e+00 2.683452e+00 70 58 58
6.592659e-01 -2.873810e+00 2.861594e+00 55 49 51
6.592659e-01 -2.873810e+00 2.861594e+00 55 49 51
7.124818e-01 -2.786968e+00 2.945747e+00 94 84 82
1.946841e-01 -2.604579e+00 3.295925e+00 61 33 32
7.274098e-01 -2.373245e+00 2.381311e+00 131 124 121
2.618541e+00 -2.061529e+00 3.688397e+00 75 52 53
-1.743948e+00 -1.958008e+00 5.480347e+00 192 180 174
8.291775e-01 -1.894466e+00 2.719795e+00 41 7 35
2.683956e-01 -1.912056e+00 2.732690e+00 176 163 155
-1.431645e+00 -1.941713e+00 4.543676e+00 181 169 156
3.485183e+00 -1.717629e+00 1.822892e+00 186 180 182
8.390681e-01 -1.498428e+00 2.876403e+00 153 143 136
5.126830e-01 -1.472122e+00 3.299622e+00 65 44 45
5.802773e-01 -1.433259e+00 3.288407e+00 46 21 26
1.631401e+00 -1.368704e+00 2.551752e+00 176 159 146
1.173719e+00 -9.560297e-01 4.451240e+00 22 5 23
1.939478e+00 -8.094098e-01 3.670288e+00 141 111 110
5.914928e-01 -8.750110e-01 5.228199e+00 49 34 59
1.090100e+00 -7.926296e-01 4.599153e+00 169 167 163
7.302673e-01 -5.995657e-01 4.444554e+00 25 4 19
-4.543567e-01 -7.106841e-01 5.711595e+00 122 119 110
1.467436e+00 -4.753350e-01 4.759370e+00 23 11 23
8.821905e-01 -4.940791e-01 5.057689e+00 47 20 34
2.205892e+00 -3.588033e-01 4.088884e+00 48 37 42
1.022412e+00 -4.432805e-01 4.974821e+00 30 5 18
2.378489e+00 -2.164344e-01 3.763944e+00 60 42 40
-5.081170e-01 -4.097481e-01 5.817512e+00 159 156 154
2.450375e+00 -8.707814e-02 3.731232e+00 178 169 166
2.450375e+00 -8.707814e-02 3.731232e+00 178 169 166
2.434577e+00 -5.103752e-02 3.786085e+00 174 164 162
-5.433629e-01 -3.038063e-01 5.992151e+00 161 151 150
2.711292e+00 4.946494e-02 3.532565e+00 101 91 105
1.318399e+00 -7.548143e-02 5.016482e+00 34 20 29
7.750771e-01 -6.659015e-02 5.410841e+00 51 36 38
-3.733508e-01 -6.773135e-02 6.005001e+00 82 66 66
-9.217061e-02 -3.459268e-04 5.737486e+00 61 54 64
-1.025070e+00 -4.300179e-02 6.424388e+00 106 96 93
-8.606998e-01 -2.898662e-02 6.551387e+00 103 78 76
-1.306706e+00 6.165689e-02 6.745739e+00 128 124 131
1.112554e+00 2.987650e-01 5.198800e+00 174 155 151
1.010245e+00 3.376337e-01 5.291340e+00 158 143 137
-3.180189e-01 2.345539e-01 6.104343e+00 144 134 132
-3.469296e-01 2.344859e-01 6.123434e+00 154 143 146
-9.634057e-02 3.525190e-01 5.984149e+00 167 162 172
2.105537e+00 1.040690e+00 4.840909e+00 100 77 83
-2.283044e-01 7.511383e-01 6.546622e+00 98 81 85
2.621398e-02 8.011003e-01 6.390689e+00 64 56 63
-8.377591e-01 7.279064e-01 6.837588e+00 203 188 160
2.535288e-02 9.041115e-01 6.354452e+00 128 127 124
