ply
format ascii 1.0
element face 0
property list uchar int vertex_indices
element vertex 948
property float x
property float y
property float z
property uchar diffuse_red
property uchar diffuse_green
property uchar diffuse_blue
end_header
-1.831362e+00 9.195837e+00 8.946574e-01 172 161 145
-5.840396e-01 1.314513e+01 3.136559e+00 166 144 121
-6.871846e+00 1.399322e+01 3.384173e+00 107 91 70
-1.595052e+01 1.376105e+01 3.838308e+00 196 180 164
-1.291020e-01 1.553943e+01 4.624023e+00 89 45 14
8.398541e-01 1.568174e+01 4.558321e+00 72 61 44
1.185458e+01 1.663895e+01 4.156375e+00 161 151 132
8.860423e-01 1.594603e+01 4.668118e+00 64 62 50
-5.104433e+00 1.593817e+01 4.393211e+00 160 137 113
-5.104433e+00 1.593817e+01 4.393211e+00 160 137 113
-3.421779e+00 1.629099e+01 4.821139e+00 111 85 57
-5.061791e+00 1.655232e+01 4.580153e+00 144 123 100
3.524424e+00 1.731471e+01 4.937178e+00 80 77 65
-9.663783e+00 1.727310e+01 4.757273e+00 141 127 110
8.078879e+00 2.023568e+01 4.601650e+00 152 134 114
-2.459895e+00 1.960848e+01 5.412531e+00 141 128 108
-1.347616e+01 1.933004e+01 6.035169e+00 119 112 93
9.731677e+00 2.071688e+01 5.353555e+00 166 145 119
-1.421883e+01 1.931865e+01 6.049769e+00 176 164 146
-4.675700e+00 2.004098e+01 5.494167e+00 109 97 81
-4.498061e+00 2.007067e+01 5.502732e+00 115 98 74
-9.955594e-02 2.053289e+01 5.489590e+00 135 126 108
-4.262509e+00 2.037188e+01 5.552328e+00 154 141 128
8.549955e+00 2.134299e+01 5.398102e+00 188 176 151
-5.074463e+00 2.074027e+01 5.683774e+00 109 98 82
-5.281022e+00 2.083632e+01 5.689339e+00 148 135 116
-5.077785e+00 2.085157e+01 5.708710e+00 165 149 131
1.415364e+01 2.259643e+01 6.075705e+00 131 119 99
1.415364e+01 2.259643e+01 6.075705e+00 131 119 99
7.550047e+00 2.352455e+01 5.902866e+00 204 186 163
1.026246e+01 2.400241e+01 5.868693e+00 208 197 177
-1.339441e+01 2.407469e+01 6.653137e+00 146 128 107
-1.909730e+01 2.358319e+01 7.895854e+00 169 155 158
-1.036117e+01 2.456300e+01 6.872698e+00 84 73 49
-7.058188e+00 2.503547e+01 6.849594e+00 158 142 120
9.387292e+00 2.629232e+01 6.992291e+00 129 138 129
-6.851238e+00 2.577480e+01 6.007478e+00 179 162 141
-1.036103e+01 2.550415e+01 7.151591e+00 157 147 129
-2.943521e+00 2.591442e+01 7.144691e+00 126 106 93
-4.855330e+00 2.644184e+01 7.293307e+00 126 113 97
-6.651542e+00 2.695756e+01 7.406534e+00 200 176 154
7.927219e+00 2.781406e+01 7.606322e+00 65 59 53
7.927219e+00 2.781406e+01 7.606322e+00 65 59 53
9.334594e+00 2.825420e+01 7.677122e+00 113 98 86
2.149085e+00 2.799165e+01 7.712610e+00 152 129 112
-7.606067e+00 2.792226e+01 7.664607e+00 184 177 163
7.514169e+00 2.878980e+01 7.727920e+00 136 145 131
4.619352e+00 2.858817e+01 7.963915e+00 191 169 147
3.991648e+00 2.869195e+01 7.946380e+00 167 161 137
7.465013e+00 2.902581e+01 7.729246e+00 157 145 117
8.067500e+00 2.906861e+01 8.034479e+00 111 103 83
3.851347e+00 2.906578e+01 8.029826e+00 90 79 58
1.582582e+01 3.043496e+01 8.804731e+00 128 125 112
-8.676001e+00 2.933461e+01 8.357347e+00 141 129 115
4.305629e+00 3.129577e+01 8.791976e+00 125 110 93
-1.442524e+01 3.809396e+01 1.090864e+01 168 152 130
-1.450871e+01 3.829469e+01 1.097408e+01 174 157 139
2.073726e+00 4.018209e+01 1.173891e+01 150 139 123
2.073726e+00 4.018209e+01 1.173891e+01 150 139 123
-1.125549e+01 3.952936e+01 1.137203e+01 157 147 132
-1.212733e+01 4.107755e+01 1.183775e+01 144 136 126
7.147824e-04 8.394536e+00 3.142865e+00 156 155 150
-1.271362e+01 9.693145e+00 1.126798e+00 69 68 73
-9.351438e+00 3.923201e+01 6.313169e+00 157 159 164
-6.918718e+00 1.002035e+01 2.279455e+00 89 89 86
-1.109675e+01 3.632768e+01 4.817930e+00 51 67 82
-1.433285e+01 1.396740e+01 2.243501e+00 138 134 133
-3.111257e+00 1.565004e+01 2.600847e+00 61 71 84
-1.989537e+00 -1.391235e+00 1.253900e+00 50 49 45
-1.341296e+01 4.245974e-01 6.835104e-01 97 93 84
1.747512e+00 9.359867e+00 4.212070e+00 163 160 157
-7.540740e+00 9.306815e+00 2.822545e+00 149 148 144
1.029960e+01 1.099208e+01 6.233905e+00 127 122 112
8.147783e+00 2.722244e+01 6.989372e+00 76 86 95
-9.901097e+00 4.120709e+01 8.344257e+00 168 168 170
1.295810e+01 9.017996e+00 5.970571e+00 110 105 112
-1.931196e+00 1.610533e+01 2.914460e+00 175 174 171
-1.931196e+00 1.610533e+01 2.914460e+00 175 174 171
1.188603e+01 1.958905e+01 6.052270e+00 110 109 108
-1.666196e+01 1.970674e+01 4.166723e+00 114 112 112
1.155309e+01 2.663741e+01 7.164170e+00 91 97 105
-1.516622e+00 -1.737471e+00 1.035036e+00 61 61 51
-2.796180e+00 -1.435176e+00 1.202761e+00 53 52 48
-6.030021e+00 9.090209e+00 2.205875e+00 92 91 87
2.164706e+00 9.555676e+00 4.242454e+00 159 153 147
6.858378e+00 9.633772e+00 5.590879e+00 169 163 160
-1.337979e+01 1.116972e+01 1.254659e+00 137 139 135
-8.327018e+00 1.134922e+01 2.669971e+00 74 73 79
1.375061e+00 1.781358e+01 3.906278e+00 170 169 166
4.422711e+00 -1.229313e+00 2.628141e+00 113 115 102
-7.572568e+00 -1.431476e+00 -3.960930e-02 77 77 70
5.701934e+00 1.352639e+00 3.705508e+00 88 84 72
-6.838484e+00 1.212322e+00 9.361054e-01 97 92 89
-1.244252e+01 1.752639e+00 8.098219e-01 136 132 127
-1.367994e+01 6.905361e+00 7.852520e-01 110 104 104
1.526823e+00 7.685327e+00 3.365330e+00 168 166 162
-1.291320e+01 6.911366e+00 2.039916e+00 140 137 131
8.715747e+00 7.969546e+00 5.151096e+00 150 155 149
7.720907e+00 7.995064e+00 4.929510e+00 93 89 86
7.282938e+00 8.190203e+00 5.015106e+00 74 75 79
-1.297550e+01 7.732091e+00 2.153838e+00 150 145 139
-1.301520e+01 8.226687e+00 2.404867e+00 138 135 126
-9.710863e+00 8.892237e+00 1.816824e+00 136 133 124
-7.765694e+00 8.851471e+00 2.593806e+00 134 133 129
3.448052e+00 1.422325e+01 3.213774e+00 64 65 67
-1.506513e+01 1.304174e+01 3.459001e+00 72 73 76
2.504870e+00 1.596162e+01 3.477966e+00 70 71 83
3.944238e+00 1.688662e+01 3.888450e+00 75 73 75
-1.616759e+01 1.453083e+01 3.484240e+00 173 174 179
-2.775192e+00 1.765799e+01 3.193547e+00 134 129 133
-1.044651e+01 1.856808e+01 2.717692e+00 87 82 79
1.383951e+01 1.976306e+01 6.596102e+00 129 128 126
-1.156101e+00 1.940036e+01 3.929373e+00 147 144 133
1.355997e+01 1.986778e+01 6.735479e+00 132 130 132
-2.061335e+00 2.060075e+01 5.127918e+00 110 108 109
-8.594492e+00 2.337465e+01 5.310155e+00 148 146 147
1.212317e+01 2.756408e+01 7.291305e+00 132 135 143
8.822780e+00 2.806175e+01 7.994702e+00 166 168 173
-6.996541e-01 2.749494e+01 6.744993e+00 173 173 173
5.265038e+00 4.482317e+01 1.152028e+01 113 116 125
-1.162981e+01 -3.474388e+00 -6.441180e-01 66 69 61
-1.228498e+01 -2.281078e+00 -5.391599e-02 61 57 53
1.158303e+00 -1.236752e+00 2.023851e+00 59 56 51
-6.294951e+00 -2.998154e-01 9.342425e-01 92 86 81
4.506865e+00 2.446274e-01 3.453393e+00 87 81 71
-4.482263e+00 1.175039e+00 1.562179e+00 163 167 170
-2.543943e-01 7.066884e+00 3.203709e+00 97 94 86
-1.572400e+01 6.651927e+00 6.911487e-01 174 174 180
-1.340591e+01 6.930213e+00 6.877537e-01 90 90 91
-1.600493e+01 6.789436e+00 6.691582e-01 80 81 85
-1.176930e+01 7.218152e+00 8.666058e-01 82 81 83
1.110723e+01 7.983115e+00 6.096815e+00 110 109 108
1.325314e+01 1.004475e+01 6.538988e+00 152 151 147
-1.585165e+01 1.403317e+01 3.382267e+00 124 127 131
-1.585165e+01 1.403317e+01 3.382267e+00 124 127 131
-1.455930e+01 1.494866e+01 2.327992e+00 108 104 102
-1.465078e+01 1.688251e+01 2.123752e+00 106 106 105
-8.264482e+00 1.762918e+01 4.403240e+00 109 109 109
-1.160888e+01 1.835026e+01 4.505614e+00 161 159 152
-6.693661e-01 2.111247e+01 5.404318e+00 155 154 152
7.157835e+00 2.819713e+01 7.114728e+00 164 162 164
8.266318e-01 2.780399e+01 6.779260e+00 170 173 180
1.288638e+01 2.932606e+01 7.709678e+00 176 175 181
-1.132458e+01 2.601911e+01 6.335149e+00 164 162 165
-1.252420e+01 2.614583e+01 6.503560e+00 105 105 105
7.268831e+00 2.922309e+01 7.392240e+00 112 112 112
1.430595e+01 2.969137e+01 1.045624e+01 126 125 133
8.143064e+00 -3.401782e-02 3.793526e+00 98 93 84
-5.313626e+00 7.594862e-02 1.902869e+00 92 88 92
-4.747934e+00 1.286168e+00 1.284124e+00 150 149 154
-5.538944e+00 1.252797e+00 1.188892e+00 150 152 151
3.148697e+00 7.887077e+00 3.987762e+00 154 150 149
6.960875e+00 8.019964e+00 4.902091e+00 171 171 168
-1.280084e+01 8.162658e+00 1.144119e+00 164 165 167
-9.326564e+00 9.255793e+00 2.761108e+00 67 62 63
6.446104e+00 9.963401e+00 6.102459e+00 122 117 111
-7.222544e+00 1.347638e+01 1.774076e+00 151 150 146
-7.323326e+00 1.468625e+01 1.938838e+00 142 143 137
3.580919e+00 1.547761e+01 3.510916e+00 78 77 82
4.023777e+00 1.595871e+01 2.904478e+00 150 152 152
7.870800e-01 1.664332e+01 3.215332e+00 123 121 115
3.897697e+00 1.737652e+01 4.000475e+00 77 73 72
1.970104e+00 1.749852e+01 3.787988e+00 181 180 184
2.242798e+00 2.078610e+01 5.236959e+00 160 157 156
-9.588198e+00 2.020449e+01 5.068544e+00 101 101 101
-7.968888e+00 2.043017e+01 5.178733e+00 100 100 98
-8.022488e+00 2.056420e+01 5.169992e+00 146 146 144
-1.277416e+01 2.467023e+01 4.023847e+00 126 125 128
-1.256727e+01 2.504294e+01 4.243936e+00 104 105 105
-1.353154e+01 2.533411e+01 4.715680e+00 156 156 154
-2.920259e+00 2.707517e+01 6.275784e+00 95 96 101
7.399768e+00 2.791032e+01 7.487402e+00 175 173 174
7.570981e+00 2.814265e+01 7.478787e+00 164 164 166
1.314166e+01 2.905525e+01 8.118814e+00 123 124 126
1.498678e+00 2.878664e+01 7.264688e+00 162 163 165
-1.384562e+01 2.709178e+01 6.754587e+00 97 97 101
1.360273e+01 3.100584e+01 1.090636e+01 144 143 151
-1.553929e+01 3.243197e+01 4.524028e+00 113 113 121
-9.075735e+00 3.439644e+01 5.896354e+00 113 111 120
-9.176160e+00 3.510416e+01 5.995266e+00 117 117 125
-8.981521e+00 3.510453e+01 6.283595e+00 121 121 128
-9.047671e+00 3.597502e+01 6.465545e+00 116 115 121
8.100880e+00 4.593895e-01 3.900169e+00 104 100 90
-1.613462e+01 6.900059e+00 6.575333e-01 177 177 176
-9.316678e+00 7.800644e+00 2.506098e+00 154 154 146
6.629045e+00 9.827444e+00 6.068948e+00 116 112 106
-1.388848e+01 9.551322e+00 1.393234e+00 117 115 118
-1.531088e+01 1.901458e+01 3.243848e+00 72 71 76
-1.006568e+01 2.084499e+01 5.084099e+00 197 197 199
-1.263348e+01 2.100397e+01 4.801751e+00 134 135 146
-1.486455e+01 2.544826e+01 4.198367e+00 131 130 131
-1.318883e+01 2.514112e+01 6.135887e+00 163 163 163
-1.131416e+01 3.952211e+01 1.028452e+01 116 115 120
1.711096e+01 7.805708e+00 6.832319e+00 106 108 105
1.829171e+01 7.308119e+00 4.747027e+00 194 194 196
1.756752e+01 2.820906e+00 1.082449e+00 81 75 63
-7.905598e+00 2.568438e+01 8.205536e+00 141 131 129
-1.284907e+01 7.342157e+00 2.040601e+00 87 79 72
-1.314694e+00 2.280893e+01 4.159362e+00 114 109 109
-2.976016e+00 1.704044e+01 6.130824e+00 26 37 50
8.289781e+00 3.791529e+01 1.031030e+01 100 100 102
-7.931130e+00 1.868628e+01 4.230817e+00 129 118 116
-8.410897e+00 1.935260e+01 4.342630e+00 126 120 118
-1.043197e+01 2.562375e+01 7.736402e+00 113 107 107
-1.710073e+01 -9.443446e+00 7.404549e+01 36 30 31
3.812419e+00 1.113129e+01 1.176576e+00 40 31 36
-4.832395e+00 1.854077e+01 6.672989e+00 126 117 108
3.531084e+00 2.699349e+01 6.304380e+00 70 71 69
1.402505e+01 2.897190e+01 7.328086e+00 111 109 109
5.486684e+00 2.969529e+01 8.243352e+00 84 81 85
-9.430845e+00 3.216694e+01 5.167817e+00 20 25 46
-9.747898e+00 2.986029e+01 1.129896e+01 110 110 114
5.412839e+00 4.270113e+01 1.282664e+01 122 117 129
-1.268571e+01 6.840646e+00 2.309245e+00 43 37 39
1.734848e+00 1.802768e+01 3.843045e+00 40 39 61
-3.093976e+00 1.702091e+01 7.206489e+00 97 87 76
9.587600e+00 2.068204e+01 2.391061e+00 78 75 71
-3.540820e+00 1.855099e+01 6.813899e+00 66 58 53
1.272670e+01 3.206147e+01 7.755453e+00 30 26 36
-1.231210e+01 2.693387e+01 1.099646e+01 132 131 136
4.257798e+00 -1.522710e+00 1.582989e+00 35 35 27
3.622883e+00 1.493958e+01 5.099038e+00 114 108 97
3.034853e+00 1.791517e+01 1.763141e+00 34 33 45
8.566020e+00 1.977381e+01 4.627834e+00 131 124 118
9.041348e+00 2.061259e+01 4.934702e+00 75 68 68
1.129108e+01 2.235696e+01 3.257370e+00 119 111 98
-1.001189e+01 2.399240e+01 4.491420e+00 114 115 115
-1.068824e+01 2.392411e+01 6.252971e+00 61 59 63
-1.685105e+01 2.470587e+01 5.675399e+00 133 133 132
4.534320e-01 2.731231e+01 7.707932e+00 116 116 126
-5.099886e+00 2.651477e+01 8.501984e+00 107 105 104
1.369630e+01 3.492165e+01 8.026794e+00 72 72 79
1.597076e-01 1.643527e+01 4.280856e+00 29 21 23
2.837303e+00 1.807263e+01 2.815500e+00 129 130 131
1.731400e+00 1.697475e+01 5.895703e+00 17 20 39
1.338572e+01 2.057753e+01 1.429272e+00 143 138 135
5.224982e+00 1.890308e+01 4.031673e+00 69 66 68
1.272065e+01 2.097838e+01 1.775932e+00 124 117 115
1.299207e+01 2.115169e+01 1.690449e+00 118 114 105
-4.502556e+00 1.859648e+01 3.943269e+00 80 73 70
4.628294e+00 1.977070e+01 4.236720e+00 63 57 56
-1.186986e+00 2.176617e+01 7.114738e+00 130 126 133
-6.769824e+00 2.466830e+01 8.062956e+00 59 63 64
-9.188475e+00 2.402072e+01 8.987030e+00 115 111 108
-1.341917e+00 2.648186e+01 7.895324e+00 55 54 68
7.515552e-01 2.833167e+01 5.965937e+00 58 58 56
2.146134e+00 2.797285e+01 7.496224e+00 48 49 51
-1.074501e+00 2.703970e+01 8.352743e+00 125 124 129
-3.050259e+00 2.682760e+01 8.141301e+00 118 116 124
-1.238849e+01 2.647664e+01 1.064180e+01 64 64 77
-6.183337e+00 1.617689e+01 4.623233e+00 158 151 150
2.842985e+00 1.902496e+01 1.192273e+00 32 39 48
1.482186e+00 1.796513e+01 3.599294e+00 116 112 106
-7.727006e+00 1.738274e+01 3.905772e+00 76 71 68
1.250920e+01 2.215460e+01 2.293540e+00 91 87 78
9.056951e+00 2.192548e+01 3.548592e+00 118 113 109
8.771935e+00 2.614794e+01 5.126796e+00 63 70 72
8.184543e+00 2.762499e+01 5.585662e+00 75 73 81
-1.468576e+01 2.493163e+01 5.124331e+00 121 119 113
6.050566e+00 2.774942e+01 7.457766e+00 89 84 88
5.261039e+00 2.791329e+01 7.328358e+00 141 137 128
1.334231e+01 2.936982e+01 7.686029e+00 51 53 56
-1.261534e+01 2.391628e+01 9.644832e+00 101 101 104
-4.288451e+00 2.689493e+01 7.267082e+00 103 106 112
-3.911759e+00 2.678751e+01 7.732308e+00 119 117 123
1.567059e+01 3.705894e+01 1.002929e+01 136 133 141
-6.175590e+00 1.594516e+01 4.272653e+00 117 105 97
-1.222740e-01 1.784945e+01 4.440724e+00 173 162 142
2.865147e+00 1.904077e+01 3.430817e+00 135 115 100
1.977079e+00 1.902836e+01 4.155771e+00 41 35 27
3.699308e+00 1.468589e+01 1.702908e+00 52 55 52
1.439947e+01 2.304668e+01 5.315722e+00 109 96 79
7.874212e+00 2.957047e+01 7.039586e+00 70 61 44
-2.690176e+00 1.792836e+01 4.948761e+00 73 58 40
-2.625830e-01 2.093691e+01 5.381088e+00 161 150 134
1.110360e+00 2.840644e+01 7.123296e+00 160 147 131
-9.193815e+00 2.599663e+01 7.061270e+00 166 157 140
-4.341835e+00 2.018485e+00 1.892846e+00 179 163 140
2.632605e+00 -1.644427e+00 3.196182e+00 119 106 87
-5.038833e+00 1.433661e+00 1.416319e+00 50 42 29
5.669249e+00 -2.325288e+00 3.271406e+00 32 27 20
3.407369e+00 5.027017e+00 5.493144e+00 158 148 127
-4.323320e+00 2.969709e+00 2.183587e+00 191 188 173
-1.855675e+01 2.380143e+01 1.215515e+01 234 240 238
-1.752877e+01 2.085689e+01 1.774769e+01 103 102 87
-1.805418e+01 2.015223e+01 1.740102e+01 108 101 96
1.303785e+01 2.978886e+01 8.212184e+00 145 144 126
-1.270018e+01 9.259751e+00 2.857007e+01 130 130 125
-1.270018e+01 9.259751e+00 2.857007e+01 130 130 125
6.268261e-01 -1.121110e+00 3.108439e+01 102 98 77
7.906912e+00 -6.593376e-01 2.421174e+01 80 77 68
-8.775328e+00 6.595095e-01 5.609010e-01 192 195 202
-1.230043e+01 3.535356e-01 2.120745e-01 189 190 195
1.760863e+00 -2.924254e+00 1.307871e+00 164 164 168
-1.568811e+01 -1.820660e+00 -3.340103e-01 186 193 209
6.710335e-01 -4.922658e-01 1.322531e+00 193 194 196
-4.481593e+00 -4.802122e+00 1.016670e-01 59 45 65
6.117752e-01 -1.727268e-02 1.415617e+00 129 130 135
-1.027153e+01 2.800767e+00 7.998719e-01 77 67 68
-1.280615e+00 -2.383249e+00 1.584951e+00 127 115 102
-1.461660e+01 -2.826733e+00 2.285852e-01 176 172 171
1.106686e-02 1.139592e+01 2.911277e+00 184 171 162
-1.642612e+01 5.866610e+00 1.138998e+00 72 69 70
-1.628431e+01 6.844100e+00 1.322179e+00 104 93 91
-5.714698e-01 1.213029e+01 2.916417e+00 64 54 46
-6.619283e-01 1.195294e+01 3.173426e+00 64 54 46
-5.020213e+00 4.977491e-01 3.016323e-01 165 154 160
5.228658e+00 7.190285e+00 2.091724e+00 169 163 149
-9.184600e+00 6.518554e+00 1.708085e+00 71 73 72
-9.184600e+00 6.518554e+00 1.708085e+00 71 73 72
-3.505411e-02 7.786642e+00 2.098518e+00 178 174 170
-1.635604e+01 7.454824e+00 1.420143e+00 103 84 76
-1.635604e+01 7.454824e+00 1.420143e+00 103 84 76
-1.150030e+01 8.978710e+00 7.886518e-01 159 146 139
-3.545077e+00 9.528970e+00 2.492142e+00 59 54 50
-2.354514e+00 9.687467e+00 2.562562e+00 53 40 48
1.919999e+00 1.002733e+01 2.979782e+00 66 59 50
-5.038829e+00 1.235852e+01 2.731555e+00 186 185 179
3.699697e+00 8.137471e+00 2.429665e+00 166 159 150
-4.772376e+00 9.308182e+00 2.500441e+00 36 36 31
-5.351768e+00 9.521895e+00 2.366124e+00 57 47 41
-4.979687e+00 9.702419e+00 2.497649e+00 163 151 143
-3.063097e+00 1.006879e+01 2.489606e+00 47 33 30
1.954628e+00 1.056728e+01 2.756877e+00 49 31 35
-1.168346e+01 -2.287668e-01 4.587083e-01 63 51 45
-1.010498e+01 5.038253e+00 1.058678e+00 118 111 95
-7.137711e+00 8.783685e+00 1.977922e+00 71 61 63
1.708419e+00 1.039161e+01 2.633835e+00 144 128 115
-3.234700e+00 1.122127e+01 2.317731e-01 41 28 33
7.604199e-01 1.096432e+01 2.768987e+00 67 63 51
-1.412113e-01 1.188686e+01 3.058674e+00 138 136 136
-9.577191e-01 1.197288e+01 2.855267e+00 153 146 138
5.830918e+00 1.249125e+01 3.784227e+00 73 66 50
-5.574963e+00 1.179894e+01 2.752144e+00 75 69 54
-5.175622e+00 1.190272e+01 2.725601e+00 71 72 62
-2.455746e+00 -2.519963e+00 5.803829e-01 133 120 103
-5.235721e+00 2.411195e-01 2.169620e-01 81 73 69
-4.805483e+00 6.383280e-01 1.939188e-01 179 175 176
-1.001226e+01 4.063646e+00 1.372574e+00 62 47 57
1.096500e+00 8.254494e+00 2.022636e+00 27 28 21
-1.160796e+01 7.902599e+00 1.569557e+00 74 65 54
-5.234825e-01 9.322801e+00 2.497915e+00 152 142 132
-2.558768e+00 9.415662e+00 2.461240e+00 150 134 119
2.150092e+00 9.747791e+00 3.043212e+00 156 131 120
3.299984e-01 1.138719e+01 2.978298e+00 195 182 182
3.639790e-01 1.144595e+01 2.887752e+00 195 182 182
-8.182031e+00 1.101422e+01 2.227521e+00 46 60 68
-1.642513e+00 1.134628e+01 2.939623e+00 106 104 95
4.566379e-01 1.152572e+01 3.122129e+00 121 111 99
-7.548131e-01 1.147343e+01 2.943309e+00 123 111 106
-8.451095e+00 1.141732e+01 2.321266e+00 119 106 99
-2.309694e+00 1.179664e+01 2.938129e+00 166 163 157
-1.459707e+00 1.191235e+01 3.000531e+00 152 151 149
-6.328628e+00 1.178373e+01 2.631601e+00 57 70 59
4.230160e+00 -2.434762e+00 1.375046e+01 62 50 36
-7.570971e+00 -1.532308e+00 5.666489e-01 68 59 57
-1.516220e+01 -1.801753e+00 3.344228e-01 162 156 160
-1.268292e+01 1.417795e+00 4.090920e-01 68 59 47
4.632647e+00 8.241419e+00 2.259662e+00 182 172 181
4.787443e+00 8.299107e+00 2.276657e+00 27 29 26
-1.145147e+01 7.892911e+00 1.581626e+00 168 159 166
1.963030e+00 9.461168e+00 2.847574e+00 152 152 136
-4.498095e+00 9.769023e+00 2.264407e+00 136 127 129
-8.590640e+00 1.076853e+01 2.170157e+00 146 148 142
-8.813613e+00 1.101074e+01 2.240867e+00 116 103 108
-1.668055e+00 1.175786e+01 2.970361e+00 80 78 67
-2.097300e+00 1.175006e+01 2.961392e+00 74 72 61
-8.035013e+00 1.144459e+01 2.410861e+00 117 107 95
-2.529877e+00 1.199231e+01 2.862169e+00 174 167 156
-5.146883e+00 1.586032e+00 8.910679e-01 88 79 82
-1.268288e+01 1.417824e+00 4.088502e-01 68 59 47
-1.215948e+01 2.337157e+00 3.790550e-01 65 61 45
2.302107e+00 6.661088e+00 1.486992e+00 175 161 159
-9.176335e+00 6.963927e+00 1.461200e+00 165 159 161
-1.204673e+01 6.782030e+00 1.331838e+00 88 83 74
-8.915896e+00 6.960140e+00 1.743566e+00 86 79 64
-1.105105e+01 8.328009e+00 1.671299e+00 77 86 82
3.046054e+00 9.176822e+00 2.912961e+00 178 173 170
-9.159513e+00 8.572247e+00 1.813785e+00 102 92 81
2.658371e+00 1.001130e+01 2.615476e+00 129 113 115
-4.269418e+00 9.720907e+00 2.398262e+00 118 108 109
4.773911e-01 1.161365e+01 2.884149e+00 109 92 75
-8.537306e-01 1.208040e+01 3.164051e+00 118 112 95
-3.224520e+00 -2.502798e+00 3.269687e-01 123 124 108
-1.235650e+01 7.136597e+00 6.683091e-01 149 141 134
-1.109630e+01 7.515406e+00 1.548385e+00 108 107 88
-5.697518e-01 9.198977e+00 2.398908e+00 97 89 79
3.040062e-01 9.323782e+00 2.520662e+00 99 88 81
7.855300e+00 9.810356e+00 3.796429e+00 99 97 82
-4.052933e+00 9.849450e+00 2.323505e+00 110 100 104
-5.179588e+00 1.163664e+01 2.693765e+00 92 90 79
-1.960603e+00 1.250923e+01 3.238888e+00 121 122 123
-9.833651e+00 -3.171792e+00 8.405715e-02 12 9 9
-9.757442e+00 -3.080318e+00 1.971226e-01 100 92 84
4.886935e+00 1.758304e+00 9.280541e-01 85 82 62
9.290541e+00 8.021371e+00 3.162733e+00 149 140 141
2.070349e+01 3.704398e+01 1.038239e+01 254 254 254
1.741104e+01 1.562767e+01 3.984544e+00 201 192 177
2.023002e+01 3.109893e+01 8.365612e+00 253 253 255
1.395649e+01 3.440327e+01 8.884109e+00 161 149 133
1.044700e+01 1.460519e+01 3.097860e+00 77 76 71
5.416218e+00 2.088496e+01 6.748020e+00 199 183 167
-1.932220e+01 3.732776e+01 1.167959e+01 255 255 255
2.716582e+00 2.100445e+01 5.656973e+00 190 174 158
-7.024546e+00 4.013329e+01 1.224738e+01 105 101 88
1.120684e+01 8.373502e+00 2.089609e+00 107 92 69
1.883294e+01 3.162178e+01 8.506343e+00 114 80 45
4.186662e+00 4.083278e+01 1.152823e+01 130 112 97
-2.891005e+01 -3.400017e-01 5.909896e+00 170 153 134
-2.967401e+01 -1.388802e-01 5.242707e+00 175 160 139
9.332844e+00 1.143056e+01 3.134450e+00 64 48 19
1.689256e-01 1.131305e+01 2.559186e+00 176 160 145
9.928294e+00 1.285748e+01 3.529259e+00 112 109 99
1.492972e+01 1.344215e+01 3.763114e+00 114 107 99
1.509224e+00 2.235291e+01 6.209885e+00 162 147 134
2.940265e+00 2.580763e+01 6.656623e+00 255 254 250
2.962707e+00 2.789451e+01 7.697591e+00 167 153 135
-1.471508e+01 -1.507072e+00 4.280442e-02 196 180 165
-1.471508e+01 -1.507072e+00 4.280442e-02 196 180 165
-2.923726e+01 -7.283651e-01 5.488984e+00 78 79 66
-2.836346e+01 5.510321e+00 9.122232e+00 161 150 140
-8.558373e+00 8.869384e+00 6.334543e-01 182 161 140
1.687809e+00 1.294260e+01 4.810829e+00 66 67 60
3.841083e+00 1.682690e+01 4.945089e+00 78 77 72
4.777583e+00 2.085315e+01 5.465577e+00 135 117 99
-8.714660e+00 2.342801e+01 6.856299e+00 164 146 125
1.273356e+01 2.882983e+01 7.490430e+00 184 178 154
1.799398e+01 2.932191e+01 7.769662e+00 181 165 148
1.889787e+01 3.070854e+01 9.066315e+00 253 254 254
9.372118e+00 3.943121e+01 1.113437e+01 166 148 130
1.950537e+01 8.055031e+00 2.041529e+00 205 193 181
1.547420e+01 1.012585e+01 1.907362e+00 181 157 134
5.228507e-01 9.805802e+00 1.979202e+00 171 156 133
1.939759e+01 1.186221e+01 3.119616e+00 116 101 75
1.505756e+01 1.157687e+01 4.716033e+00 169 147 120
1.835073e+01 1.200481e+01 3.334866e+00 85 72 50
1.881905e+01 1.282755e+01 3.221834e+00 112 95 72
3.112072e-01 1.331077e+01 2.968450e+00 184 176 158
3.112072e-01 1.331077e+01 2.968450e+00 184 176 158
1.097245e+01 1.397578e+01 3.710774e+00 73 76 65
-9.127298e-01 1.342536e+01 3.794018e+00 201 184 168
5.979264e+00 2.215772e+01 5.763484e+00 205 189 177
-3.695568e+00 2.554410e+01 7.564228e+00 73 66 49
6.838807e+00 2.770259e+01 7.254062e+00 71 62 42
-1.284110e+01 2.732411e+01 8.566303e+00 47 43 41
1.257375e+01 2.976873e+01 7.908988e+00 57 51 32
-1.426761e+01 -1.822034e+00 -8.138834e-03 119 102 78
-4.637204e+00 -1.009312e+00 6.962940e-01 186 169 155
-2.735725e+01 3.026393e+00 8.721196e+00 190 179 167
-2.735725e+01 3.026393e+00 8.721196e+00 190 179 167
-1.048032e+01 6.866069e+00 8.096659e-01 204 188 173
-1.117056e+01 5.268992e+00 9.088262e+00 189 174 159
-1.616272e+01 7.920180e+00 2.037659e+00 199 180 166
-2.311556e+00 9.796262e+00 1.959286e+00 89 72 48
2.144551e+00 1.027304e+01 1.970322e+00 106 90 68
-1.364190e+00 1.022848e+01 1.934810e+00 167 143 117
5.518942e+00 1.042141e+01 2.962749e+00 86 70 49
3.637646e+00 1.074444e+01 2.069488e+00 171 154 129
-4.860185e+00 1.038579e+01 1.958209e+00 114 104 79
1.915287e+01 1.150491e+01 2.937750e+00 185 178 157
1.243298e+01 1.122394e+01 3.140607e+00 98 82 57
1.408813e+01 1.115114e+01 4.476067e+00 93 76 54
1.298078e+01 1.166726e+01 2.768189e+00 166 150 122
1.372155e+01 1.141767e+01 4.504202e+00 165 146 120
1.109760e+01 1.463588e+01 3.496772e+00 71 71 65
1.872845e+01 1.673442e+01 4.302311e+00 112 96 68
5.279606e+00 1.667697e+01 4.360990e+00 127 110 89
1.234030e+01 2.525241e+01 6.498202e+00 54 43 31
1.234030e+01 2.525241e+01 6.498202e+00 54 43 31
1.228695e+01 2.585438e+01 6.620784e+00 61 49 40
1.228695e+01 2.585438e+01 6.620784e+00 61 49 40
-1.307215e+01 2.459682e+01 7.096925e+00 180 159 140
2.312564e+00 2.620215e+01 7.099832e+00 96 83 66
5.815475e+00 2.732215e+01 7.471597e+00 119 106 89
-1.033918e+01 2.691628e+01 7.719633e+00 173 154 139
1.411876e+01 3.132007e+01 9.142386e+00 89 82 63
-9.719363e+00 3.739394e+01 1.138282e+01 174 163 149
1.649654e+01 3.925248e+01 1.250100e+01 250 255 254
-1.798362e+01 4.057735e+01 1.360138e+01 140 129 113
-1.798362e+01 4.057735e+01 1.360138e+01 140 129 113
8.919770e+00 4.363889e+01 1.280200e+01 179 166 146
6.640400e+00 -2.930339e+00 3.426144e-01 79 62 36
8.482712e+00 -2.568025e-02 -1.659169e-02 179 168 155
6.586491e+00 -3.459763e-01 1.162721e+00 184 171 154
-8.684299e+00 1.019389e+01 -3.062677e+00 67 52 29
8.459385e+00 1.085385e+01 2.788822e+00 85 70 44
1.546332e+01 1.168728e+01 4.713200e+00 66 46 16
1.731163e+01 1.180240e+01 4.928792e+00 161 149 126
4.736325e-01 1.511147e+01 4.408176e+00 33 30 19
1.247000e+01 2.465551e+01 6.307404e+00 59 45 33
1.324819e+01 2.520985e+01 6.445390e+00 185 172 155
1.377991e+01 2.528150e+01 6.456020e+00 156 148 129
1.411225e+01 2.538215e+01 6.507181e+00 72 69 59
-1.599034e+01 2.429624e+01 6.142087e+00 197 183 169
1.207635e+01 2.669951e+01 7.094371e+00 46 34 25
1.207158e+01 2.705212e+01 7.111357e+00 40 24 16
1.240547e+01 2.724079e+01 7.057222e+00 138 133 117
2.496873e+00 2.676605e+01 7.046596e+00 81 72 60
8.772446e+00 2.725543e+01 7.098939e+00 45 26 18
1.292365e+01 2.797220e+01 7.158978e+00 180 165 146
1.485977e+01 2.914799e+01 8.318070e+00 156 145 128
1.240614e+01 2.953750e+01 7.674647e+00 179 167 143
1.737879e+01 2.984797e+01 7.967876e+00 175 159 138
1.543402e+01 2.979461e+01 7.740196e+00 120 103 91
7.696259e+00 3.009849e+01 7.918491e+00 103 92 83
8.321541e+00 4.198606e+01 1.205231e+01 103 91 78
1.511515e+00 4.176324e+01 1.208321e+01 160 149 138
-1.802016e+01 4.085290e+01 1.383373e+01 252 255 255
1.559596e+01 4.464571e+01 1.338734e+01 251 255 255
-9.935264e+00 -2.843667e+00 2.536376e-01 14 14 8
1.991274e+00 -1.245583e+00 -1.922593e-01 144 136 114
-5.782928e+00 -1.045518e+00 -5.204225e-02 177 162 143
9.039338e+00 9.199223e+00 2.805692e+00 97 79 61
1.135428e+01 9.480310e+00 2.314304e+00 172 147 117
1.067389e+01 9.565721e+00 2.827120e+00 177 165 145
-1.244504e+01 8.952865e+00 1.841667e+00 160 143 124
-1.129061e+01 9.058338e+00 1.597912e+00 153 138 121
-1.005067e+01 9.272367e+00 1.240922e+00 157 142 122
-6.889699e+00 9.530625e+00 1.877269e+00 142 133 112
-7.210547e+00 9.551461e+00 2.071040e+00 59 40 13
3.712192e+00 1.020397e+01 1.957121e+00 173 148 126
1.207287e+01 1.038945e+01 5.307023e+00 171 156 132
-4.967427e+00 1.133856e+01 2.522344e+00 192 174 150
1.017316e+00 1.172063e+01 2.549118e+00 146 127 112
-1.066226e+01 1.123352e+01 2.566981e+00 185 172 155
2.580831e+00 1.218595e+01 3.915915e+00 181 165 142
7.144998e+00 1.278778e+01 3.493427e+00 126 112 90
-1.066119e+01 1.208701e+01 3.973406e+00 202 191 174
1.551687e+00 1.441408e+01 4.906301e+00 188 179 162
1.238922e+01 1.592958e+01 3.823022e+00 195 178 150
3.933793e-01 1.542087e+01 4.157957e+00 202 189 170
-3.832512e-01 1.524682e+01 5.407540e+00 202 189 170
2.239297e+00 1.556112e+01 5.486195e+00 65 32 14
1.883791e+01 1.698360e+01 4.321306e+00 198 195 179
1.196202e+01 1.657249e+01 4.593224e+00 119 96 77
4.192429e+00 1.652958e+01 3.845582e+00 165 150 133
8.676514e+00 1.958434e+01 5.310803e+00 135 116 93
-3.512967e+00 1.968249e+01 5.117056e+00 194 181 165
7.402765e+00 2.170908e+01 5.379023e+00 116 94 69
5.115145e+00 2.214760e+01 5.730089e+00 200 190 173
1.773514e+01 2.392766e+01 6.179376e+00 137 104 76
1.263681e+01 2.480001e+01 6.459346e+00 164 165 149
-4.428339e+00 2.585217e+01 7.098961e+00 71 59 42
1.151632e+01 2.675708e+01 7.146632e+00 118 103 80
7.899413e+00 2.844492e+01 7.480706e+00 101 88 75
1.038187e+01 2.861333e+01 7.772411e+00 195 183 159
6.663866e+00 2.872712e+01 7.443558e+00 155 140 120
-1.456037e+01 2.771645e+01 8.778850e+00 181 166 146
9.743241e+00 2.922443e+01 8.019190e+00 180 173 151
8.650929e+00 2.960937e+01 7.896468e+00 167 149 127
6.429401e+00 3.005635e+01 7.993124e+00 160 153 138
5.744875e+00 3.078569e+01 7.600896e+00 102 86 72
9.039898e+00 3.097178e+01 8.069432e+00 85 75 62
9.681744e+00 3.158569e+01 8.782336e+00 173 168 154
1.008384e+01 3.174313e+01 8.635507e+00 169 159 143
-4.623210e+00 3.615970e+01 1.242317e+01 129 131 125
4.681846e+00 4.171130e+01 1.241993e+01 121 105 90
5.452723e+00 4.256647e+01 1.252013e+01 117 103 92
2.076527e+01 -2.586006e+00 1.665299e+00 84 84 76
-2.868180e+00 -1.615925e+00 2.074582e-01 149 136 114
6.771674e+00 -6.878529e-01 4.147782e-01 162 162 145
1.847903e+01 -1.404902e-01 4.403282e+00 131 119 104
6.459284e+00 -7.826743e-02 9.394323e-01 104 84 61
1.658508e+01 2.400805e+00 5.184302e+00 187 180 162
1.840739e+01 2.623862e+00 5.295913e+00 122 111 98
1.059277e+01 5.785767e+00 2.237488e+00 197 177 156
-8.609290e+00 8.368729e+00 1.510918e+00 118 99 77
1.844752e+01 9.481524e+00 3.050786e+00 206 189 172
-8.036517e+00 8.864208e+00 8.850348e-01 98 79 54
-4.066140e+00 9.130883e+00 1.803370e+00 185 165 141
-1.684683e+01 8.294872e+00 2.558159e+00 171 159 140
2.509067e-01 9.528046e+00 1.821679e+00 166 156 137
-1.114298e+00 9.568702e+00 1.839750e+00 91 69 43
1.596464e+01 1.059346e+01 3.015925e+00 104 80 61
-4.106553e+00 1.000668e+01 1.967000e+00 66 55 33
1.971366e+00 1.045605e+01 2.053878e+00 97 72 34
1.474328e+01 1.100942e+01 2.803517e+00 165 158 146
1.425047e+01 1.101351e+01 4.316950e+00 150 149 137
1.070562e-01 1.143469e+01 2.555602e+00 209 195 176
-4.511730e+00 1.143516e+01 3.923131e+00 192 177 152
-5.450766e+00 1.200429e+01 2.412033e+00 192 175 158
3.785290e+00 1.228420e+01 3.743471e+00 119 95 78
7.721369e+00 1.307108e+01 3.394316e+00 183 173 153
1.159536e+01 1.342538e+01 3.612185e+00 108 85 60
1.837266e+00 1.272266e+01 4.707776e+00 48 44 36
2.388796e+00 1.308194e+01 3.224072e+00 48 44 36
-1.435416e+00 1.284605e+01 3.851014e+00 200 182 161
-1.747094e+00 1.287124e+01 4.230095e+00 67 40 19
1.802209e+01 1.426447e+01 3.789484e+00 179 167 145
-1.895815e+00 1.339213e+01 4.161807e+00 174 164 145
3.728481e+00 1.417673e+01 3.510406e+00 177 168 153
-2.567599e+00 1.393284e+01 4.480779e+00 188 171 155
1.720780e+00 1.417987e+01 5.538222e+00 174 165 150
7.947119e+00 1.560926e+01 3.764193e+00 192 178 155
-1.247616e+00 1.532209e+01 4.530466e+00 186 173 155
7.821776e+00 1.722842e+01 4.437786e+00 133 112 85
4.961279e+00 1.793618e+01 4.526832e+00 127 112 94
2.838319e-01 1.783165e+01 4.960478e+00 24 13 5
-8.698326e+00 1.742700e+01 4.923392e+00 128 110 89
-9.035005e+00 1.760977e+01 5.007698e+00 120 105 83
1.128427e+01 1.895142e+01 4.753973e+00 141 116 95
1.543615e+01 1.935356e+01 4.826227e+00 117 100 77
1.395241e+00 1.940895e+01 5.171039e+00 148 134 109
9.780279e+00 2.002179e+01 5.574344e+00 126 101 74
1.425350e+01 2.059652e+01 5.096638e+00 120 104 85
-2.785405e+00 2.002208e+01 5.633696e+00 118 100 85
1.348056e+01 2.111236e+01 5.135383e+00 118 104 84
4.588040e+00 2.082245e+01 5.247859e+00 126 104 84
4.588040e+00 2.082245e+01 5.247859e+00 126 104 84
1.260188e+01 2.141767e+01 5.336215e+00 115 102 82
1.519170e+01 2.286491e+01 5.771737e+00 108 97 85
1.406796e+01 2.464050e+01 6.308007e+00 191 180 166
1.406796e+01 2.464050e+01 6.308007e+00 191 180 166
1.762795e+01 2.490304e+01 6.392170e+00 94 91 72
-7.580146e+00 2.555214e+01 6.406756e+00 197 181 161
1.329047e+01 2.663178e+01 6.915360e+00 76 41 27
-5.776185e-01 2.604948e+01 6.946330e+00 84 74 55
-1.820226e+01 2.523340e+01 7.554046e+00 171 157 141
1.079524e+01 2.835194e+01 7.587067e+00 104 89 68
1.079524e+01 2.835194e+01 7.587067e+00 104 89 68
-2.282529e+00 2.767064e+01 7.650495e+00 104 93 75
-1.696138e+00 2.780452e+01 7.618606e+00 109 98 76
-1.696138e+00 2.780452e+01 7.618606e+00 109 98 76
-1.168212e+00 2.788351e+01 7.674005e+00 106 93 76
2.259625e-01 2.813668e+01 7.736080e+00 107 96 80
1.299711e+01 2.891371e+01 7.799400e+00 151 135 117
1.284762e+01 2.905738e+01 7.837231e+00 111 80 56
1.876726e+00 2.844918e+01 7.798844e+00 99 83 67
1.931771e+01 3.065018e+01 9.027447e+00 132 134 139
1.931771e+01 3.065018e+01 9.027447e+00 132 134 139
8.877134e+00 3.154169e+01 8.524792e+00 139 146 133
9.508858e+00 3.174614e+01 8.652835e+00 127 118 106
9.681218e+00 3.213777e+01 8.775058e+00 177 168 152
9.373573e+00 3.597046e+01 1.005630e+01 142 122 106
-1.312486e+01 3.751520e+01 1.177727e+01 182 172 152
1.396758e+00 3.966397e+01 1.152515e+01 255 239 223
-1.791312e+01 4.042090e+01 1.349542e+01 150 120 101
5.039300e+00 4.218917e+01 1.247168e+01 125 107 97
1.554781e+01 4.326237e+01 1.258253e+01 153 150 135
8.816958e+00 4.323015e+01 1.272866e+01 118 99 85
-1.232673e+01 -3.999619e+00 -2.522387e-01 170 152 124
-1.243099e+01 3.438293e+00 7.735891e-01 186 164 140
8.386425e+00 8.658401e+00 2.164932e+00 89 68 44
1.048477e+01 9.934256e+00 3.008936e+00 180 172 152
-6.857872e+00 9.715340e+00 6.268092e-01 153 133 111
6.237785e+00 9.821424e+00 3.433696e+00 136 116 101
-2.081135e+00 9.789477e+00 1.886325e+00 108 94 77
-2.081135e+00 9.789477e+00 1.886325e+00 108 94 77
1.125132e+01 1.042940e+01 4.267739e+00 96 72 41
1.125132e+01 1.042940e+01 4.267739e+00 96 72 41
1.766026e+01 1.140609e+01 4.782775e+00 165 136 110
-1.007732e+00 1.132935e+01 2.460027e+00 206 192 179
5.967495e-01 1.153117e+01 2.375579e+00 198 182 162
1.863134e+01 1.449316e+01 3.799677e+00 136 122 105
8.107872e+00 1.514826e+01 3.866374e+00 160 132 105
8.107872e+00 1.514826e+01 3.866374e+00 160 132 105
2.248344e+00 1.685970e+01 4.446377e+00 64 68 58
-7.835201e+00 1.674335e+01 4.588930e+00 132 114 93
3.612014e+00 1.702750e+01 5.876638e+00 84 62 40
-1.373995e+01 1.669820e+01 4.958717e+00 114 99 79
1.578479e+01 1.864633e+01 4.704627e+00 118 102 85
1.222351e+01 1.875650e+01 4.693409e+00 136 121 107
1.081496e+01 1.877188e+01 4.552785e+00 144 125 110
1.255518e+01 1.895130e+01 4.755512e+00 131 118 106
1.047204e+01 1.893421e+01 4.677089e+00 141 128 110
5.166566e+00 1.862318e+01 4.841316e+00 135 116 100
8.210397e+00 1.938133e+01 4.671896e+00 135 113 88
8.500500e+00 2.002496e+01 5.102063e+00 127 105 88
1.021246e+01 2.044684e+01 4.932794e+00 130 104 77
-1.354952e+00 2.089045e+01 5.455030e+00 176 157 142
-7.761196e-01 2.085696e+01 5.731817e+00 123 106 88
1.258907e+00 2.109938e+01 5.442539e+00 109 98 83
5.252052e-01 2.110596e+01 5.484105e+00 113 96 78
-4.253097e-01 2.108496e+01 5.712723e+00 167 151 132
-9.445434e+00 2.064008e+01 5.721844e+00 149 132 119
-4.309668e+00 2.181651e+01 5.674070e+00 190 176 157
6.565152e+00 2.304565e+01 5.497613e+00 100 87 71
8.063109e+00 2.364425e+01 6.128036e+00 160 136 111
1.527024e+01 2.411707e+01 6.144395e+00 145 131 112
1.411296e+01 2.450407e+01 6.284831e+00 120 111 93
1.429342e+01 2.453435e+01 6.286723e+00 127 119 105
2.023300e+01 2.660660e+01 7.699810e+00 232 252 254
1.999678e+01 2.676557e+01 7.855161e+00 230 254 255
-3.199342e+00 2.606118e+01 6.821702e+00 161 158 141
2.601952e+00 2.656823e+01 6.937034e+00 239 254 250
-1.405021e+00 2.673136e+01 7.008873e+00 245 240 229
-3.683868e+00 2.703159e+01 7.393265e+00 79 55 42
8.072213e+00 2.803999e+01 7.300125e+00 139 140 125
-3.274165e+00 2.755963e+01 7.526116e+00 102 90 73
3.938428e+00 2.840485e+01 7.876490e+00 177 168 147
9.978486e+00 2.883996e+01 7.393659e+00 90 72 46
1.565030e+01 2.904020e+01 8.287820e+00 118 101 87
1.194429e+01 2.926536e+01 7.930817e+00 149 136 119
1.083763e+01 2.966294e+01 8.094124e+00 90 70 50
8.055985e+00 2.960702e+01 8.151605e+00 101 87 69
1.939473e+01 3.053899e+01 8.998600e+00 224 244 245
9.484266e+00 3.202406e+01 8.764000e+00 121 112 99
9.401536e+00 3.258860e+01 8.908084e+00 137 120 104
6.051306e+00 3.243914e+01 8.925090e+00 141 124 102
5.875399e+00 3.379790e+01 9.375565e+00 147 126 104
1.310945e+01 3.541229e+01 9.381394e+00 121 111 100
9.085079e+00 3.501544e+01 9.733442e+00 141 124 112
1.296190e+01 3.547623e+01 9.880186e+00 135 115 104
-3.832554e+00 3.411477e+01 1.191239e+01 252 255 255
1.314561e+01 3.587885e+01 9.287642e+00 131 115 101
1.283078e+01 3.600620e+01 1.001517e+01 144 123 106
1.300024e+01 3.694143e+01 9.624236e+00 123 111 96
1.295950e+01 3.719977e+01 9.715527e+00 129 118 106
5.498083e+00 3.673018e+01 1.033249e+01 141 124 105
1.262538e+01 3.735263e+01 1.047662e+01 136 119 105
1.289015e+01 3.774872e+01 9.890760e+00 129 115 99
1.259804e+01 3.760236e+01 1.055202e+01 129 115 99
1.250983e+01 3.814204e+01 1.076100e+01 126 113 96
5.393435e+00 3.774848e+01 1.063420e+01 148 127 111
5.178662e+00 3.951513e+01 1.120154e+01 144 122 105
-1.898463e+01 3.791024e+01 1.253337e+01 133 130 133
-1.898463e+01 3.791024e+01 1.253337e+01 133 130 133
-5.582219e+00 3.895672e+01 1.311367e+01 150 149 150
8.376199e+00 4.022061e+01 1.141311e+01 136 122 106
3.825029e+00 4.113023e+01 1.207111e+01 160 154 139
1.540825e+01 4.498383e+01 1.358837e+01 219 253 253
1.145510e+01 4.950287e+01 1.599745e+01 242 255 255
-5.262251e+00 8.902227e+00 1.531014e+00 116 89 64
-4.522896e+00 8.916421e+00 1.685061e+00 117 102 89
-7.989746e+00 8.851538e+00 1.718554e+00 154 133 110
-9.338306e+00 8.905499e+00 1.762576e+00 144 132 116
4.393707e+00 1.039947e+01 2.089994e+00 132 108 85
-3.127502e+00 1.046897e+01 2.133951e+00 111 93 71
-4.531072e+00 1.083880e+01 2.371610e+00 167 149 137
-1.751371e+00 1.226722e+01 3.780387e+00 155 139 121
1.811082e+00 1.268339e+01 3.639754e+00 86 68 51
1.811082e+00 1.268339e+01 3.639754e+00 86 68 51
2.543615e-01 1.558586e+01 4.368375e+00 158 143 122
1.031924e+01 1.907682e+01 4.741649e+00 159 138 120
-1.569521e+01 1.961916e+01 5.557872e+00 160 141 125
8.582080e+00 2.120319e+01 5.129043e+00 132 119 105
4.474752e+00 2.100812e+01 5.369302e+00 122 103 90
-7.649172e+00 2.051273e+01 5.394643e+00 146 137 122
4.260148e+00 2.134215e+01 5.504567e+00 143 131 113
7.027407e-01 2.114913e+01 5.673367e+00 169 158 139
4.314011e+00 2.150054e+01 5.372332e+00 104 86 62
8.691669e+00 2.208183e+01 5.658021e+00 193 182 160
1.031013e+01 2.386793e+01 5.951907e+00 170 158 142
1.986584e+01 2.660939e+01 7.778542e+00 218 200 182
5.215919e+00 2.694405e+01 7.425994e+00 192 170 146
4.564685e+00 2.742946e+01 7.554533e+00 137 120 101
9.531275e+00 2.792757e+01 7.168555e+00 178 169 152
8.244812e+00 2.798488e+01 7.253749e+00 118 119 104
1.027491e+01 2.829699e+01 7.626635e+00 116 114 95
8.204437e+00 2.863255e+01 7.720965e+00 171 152 137
8.941527e+00 2.930533e+01 7.643759e+00 158 148 130
1.214276e+01 2.980259e+01 8.179835e+00 104 78 51
1.101065e+00 3.912138e+01 1.130371e+01 251 235 231
3.570750e+00 4.103256e+01 1.186069e+01 165 146 128
6.189677e+00 4.219466e+01 1.208950e+01 100 88 71
1.085905e+00 1.944131e+01 4.461813e+00 155 152 145
1.085905e+00 1.944131e+01 4.461813e+00 155 152 145
-1.665262e+01 3.849918e+01 7.563138e+00 96 99 108
1.245226e+01 -5.151062e-01 3.214006e+00 117 111 104
1.848453e+00 2.094074e+01 5.463687e+00 112 107 110
8.491194e+00 -3.088152e+00 3.237987e+00 74 73 68
-9.428930e+00 4.803356e-01 -3.678590e-01 66 65 60
-1.426447e+01 1.388659e+01 3.833893e+00 114 110 112
1.335275e+01 2.976498e+01 7.172451e+00 123 122 131
-6.183530e+00 3.517570e+01 6.146070e+00 132 131 136
-8.113252e+00 2.321071e+01 5.716767e+00 100 99 97
-9.378216e+00 3.728038e+01 6.465346e+00 117 121 130
3.978125e+00 3.630578e+01 9.837412e+00 136 134 136
-1.177933e+01 4.059725e+01 6.882668e+00 131 140 139
-8.934402e+00 3.994039e+01 7.836440e+00 96 96 106
1.036479e+01 4.277988e+01 1.064401e+01 145 149 158
9.695719e+00 2.361970e+01 6.281539e+00 156 155 160
5.062374e+00 2.904505e+01 8.217526e+00 132 129 130
-1.864306e+01 2.229859e+01 5.356674e+00 253 253 253
-1.524350e+01 -4.798481e-01 5.874467e-01 144 144 142
5.687336e+00 3.284716e+01 8.634208e+00 107 104 110
3.793222e+00 2.943252e+01 7.446657e+00 44 44 56
-1.596767e+01 4.077789e+01 1.381792e+01 236 245 253
-1.734051e+01 4.016070e+01 1.374528e+01 110 109 115
1.524895e+01 3.247808e+01 6.592438e+00 36 40 51
1.684605e+01 1.393402e+01 3.558528e+00 95 87 89
-1.344604e+01 1.105442e+01 4.175563e+00 127 120 116
7.831295e+00 3.195937e+01 7.316964e+00 28 34 51
1.282047e+01 4.221398e+01 1.271647e+01 57 61 73
-1.690916e+01 9.054810e+00 1.932828e+00 57 56 62
1.583139e+01 2.600781e+01 3.220591e+00 104 103 108
1.698791e+01 2.628489e+01 4.354042e+00 138 130 127
6.109657e+00 2.880631e+01 7.066121e+00 137 133 139
6.270679e+00 2.979860e+01 8.212498e+00 38 41 47
1.947632e+01 3.517136e+01 6.330376e+00 235 239 251
9.984612e+00 3.958899e+01 1.111054e+01 21 34 54
-3.947394e+00 8.953048e+00 8.340337e-01 129 121 117
2.366515e+00 1.782830e+01 6.298415e+00 40 40 55
2.128745e+01 3.177157e+01 3.366433e+00 71 70 84
-1.314518e+01 2.374452e+01 7.393096e+00 27 28 48
1.509054e+01 3.112240e+01 7.089328e+00 50 51 53
5.358270e+00 3.063083e+01 8.869500e+00 70 70 79
4.282039e+00 3.078629e+01 8.299343e+00 66 70 81
9.382666e+00 3.394695e+01 7.612321e+00 108 110 107
1.239842e+01 3.871290e+01 9.888464e+00 110 108 114
5.751173e+00 3.701085e+01 1.080324e+01 113 112 118
2.241002e+01 2.754716e+01 2.026766e+00 224 236 252
1.433207e+01 2.581846e+01 4.110099e+00 129 127 125
1.972538e+01 3.116125e+01 4.709552e+00 124 121 122
-2.510485e+00 2.590868e+01 9.153980e+00 33 39 54
1.949546e+01 3.215023e+01 5.420376e+00 80 79 86
5.487702e+00 3.064263e+01 7.872189e+00 106 106 106
1.430043e+01 3.175413e+01 9.236855e+00 116 115 116
8.363214e+00 3.247287e+01 8.965357e+00 22 35 52
7.425102e+00 3.312562e+01 7.715610e+00 29 41 66
1.041303e+01 3.759356e+01 9.740595e+00 11 23 49
1.375883e+01 -2.830275e+00 4.733497e+00 82 75 57
5.202222e+00 2.351330e+01 5.398244e+00 135 128 126
2.115064e+01 3.249159e+01 4.560395e+00 227 239 248
2.106598e+01 3.241062e+01 4.674894e+00 227 239 248
2.001050e+01 3.276414e+01 5.279930e+00 122 118 119
-9.809959e-01 2.764903e+01 7.660329e+00 97 97 95
1.953835e+01 3.458909e+01 6.199547e+00 64 68 91
5.964846e+00 3.078447e+01 8.458122e+00 125 124 129
6.866094e+00 3.299372e+01 9.067368e+00 16 24 50
1.186233e+01 3.965035e+01 1.005113e+01 9 24 44
1.500447e+01 4.329064e+01 1.274971e+01 107 108 116
1.287678e+01 4.261190e+01 1.316189e+01 51 58 69
5.735737e+00 -2.454548e+00 1.700653e+00 97 87 75
-1.431532e+01 9.998984e+00 4.128422e+00 110 107 99
-1.180047e+00 1.531861e+01 5.923430e+00 23 26 37
-1.117871e+00 1.575738e+01 6.021752e+00 35 32 50
1.757908e+01 1.911900e+01 4.447116e+00 54 57 64
2.206683e+01 2.420451e+01 1.624401e+00 127 131 136
4.561654e+00 2.096047e+01 4.880032e+00 71 69 65
8.181869e+00 2.381157e+01 4.771669e+00 133 129 130
1.428511e+01 2.643978e+01 3.591291e+00 18 26 46
1.620426e+01 2.963171e+01 5.965188e+00 122 118 118
1.506824e+01 3.269961e+01 7.587930e+00 123 120 119
1.522515e+01 3.299465e+01 8.113910e+00 64 62 77
1.563225e+01 3.402780e+01 7.317247e+00 56 60 73
5.244507e+00 3.125843e+01 8.488069e+00 118 117 117
4.422889e+00 3.113790e+01 8.427288e+00 129 124 128
7.859960e+00 4.105511e+01 1.311425e+01 43 46 61
7.320713e+00 4.277505e+01 1.270915e+01 74 75 77
-2.960088e+00 -2.869686e+00 3.575970e-01 36 27 20
-1.721649e+00 -2.487723e+00 5.983057e-01 43 34 27
-6.414375e+00 -2.283997e+00 6.608294e-01 94 92 79
9.485223e+00 -1.133728e-01 -1.824571e+00 53 47 47
-1.283954e+01 -8.663778e-01 9.765016e-01 50 41 32
6.410001e+00 1.659181e+01 3.307891e+00 70 62 60
3.075882e+00 1.718733e+01 6.164889e+00 24 19 20
-1.201193e+01 1.665100e+01 5.713113e+00 51 47 44
1.170239e+01 2.169007e+01 2.423124e+00 42 38 39
1.446814e+01 2.204648e+01 2.839212e+00 71 60 50
-1.942610e+00 1.790104e+01 7.736919e+00 81 75 63
-8.767141e+00 1.898658e+01 5.776918e+00 61 56 52
-6.419071e-01 2.008294e+01 6.629432e+00 60 54 54
7.320724e+00 2.349755e+01 4.591836e+00 56 50 53
6.454564e+00 2.375216e+01 5.214831e+00 132 124 117
1.427201e+01 2.612855e+01 3.460228e+00 30 33 52
2.213771e+01 2.821257e+01 2.184075e+00 226 238 248
-1.324328e+01 2.141893e+01 6.935606e+00 115 116 117
1.396324e+01 2.896513e+01 4.467943e+00 14 17 25
-2.494418e+00 2.510692e+01 8.911869e+00 134 135 145
1.259450e+01 2.975510e+01 5.457689e+00 125 120 119
2.131700e+01 3.193788e+01 4.652416e+00 239 243 253
1.699360e+01 3.075004e+01 6.145542e+00 129 125 123
4.326982e+00 2.796331e+01 7.378463e+00 133 133 133
1.804642e+01 3.114455e+01 6.573848e+00 138 136 141
2.256423e+00 2.793847e+01 7.949527e+00 34 30 40
1.530676e+01 3.140703e+01 7.140584e+00 58 57 56
1.162605e+00 2.821269e+01 8.329944e+00 101 99 98
1.705447e+01 3.254087e+01 7.461207e+00 90 88 91
5.708741e+00 3.082220e+01 8.165532e+00 23 20 40
1.503442e+01 3.373054e+01 7.930067e+00 111 110 124
-1.634229e+01 3.706939e+01 1.224297e+01 60 69 76
1.176336e-01 9.860874e+00 1.051847e+00 33 23 22
-2.885427e-02 1.748802e+01 6.314031e+00 31 28 43
1.501784e+01 2.259055e+01 2.368748e+00 82 75 65
1.454014e+01 2.257581e+01 2.764180e+00 73 68 63
9.832491e+00 2.101711e+01 5.429420e+00 116 108 98
1.369777e+01 2.298028e+01 2.673073e+00 76 68 62
1.323677e+01 2.294003e+01 2.963585e+00 74 69 66
-8.977838e+00 2.087588e+01 4.055568e+00 95 94 91
9.050354e+00 2.367495e+01 4.521538e+00 114 108 110
6.486535e+00 2.310823e+01 5.755796e+00 116 115 113
6.486535e+00 2.310823e+01 5.755796e+00 116 115 113
7.067456e+00 2.348367e+01 5.470342e+00 44 40 36
1.878987e+01 2.595386e+01 4.768328e+00 155 150 146
1.388855e+01 2.671304e+01 3.355997e+00 122 122 120
-1.277916e+01 2.337717e+01 7.505867e+00 115 111 110
2.256335e+01 3.226042e+01 2.323170e+00 52 62 97
1.859724e+01 2.987248e+01 7.327372e+00 57 57 72
-2.897007e+00 2.547076e+01 8.482961e+00 249 252 255
8.967959e-01 2.653428e+01 8.011598e+00 55 53 66
6.382845e+00 2.823119e+01 6.858603e+00 122 117 123
4.370600e+00 2.785588e+01 7.182404e+00 72 67 72
7.957112e+00 2.911203e+01 6.567069e+00 95 94 99
6.791955e+00 2.911251e+01 7.044565e+00 102 97 102
4.132602e+00 2.844989e+01 7.494981e+00 82 76 76
-4.332778e+00 2.612843e+01 9.878940e+00 61 56 63
-1.076893e+00 2.742886e+01 8.956603e+00 106 106 105
1.760658e+00 2.837429e+01 8.242872e+00 98 99 104
1.760658e+00 2.837429e+01 8.242872e+00 98 99 104
1.800343e+01 3.240993e+01 6.852786e+00 113 115 132
4.372323e+00 3.172893e+01 8.668968e+00 82 84 91
4.138641e+00 4.412945e+01 5.120313e-01 42 55 98
2.699234e+00 3.719308e+01 1.295495e+01 135 133 143
1.397866e+01 4.325981e+01 1.323782e+01 117 115 125
1.324154e+01 4.303195e+01 1.325206e+01 109 113 124
8.217607e+00 4.241433e+01 1.230076e+01 62 66 71
1.237430e+01 4.333287e+01 1.302815e+01 40 40 52
1.597063e+01 8.245699e+00 7.125924e+00 129 123 123
1.081533e+01 2.109090e+01 2.771114e+00 69 60 63
-1.565521e+00 1.857457e+01 6.411794e+00 83 77 67
3.115006e+00 2.101784e+01 5.599474e+00 83 73 74
7.057795e-01 2.093891e+01 6.250179e+00 132 127 123
2.986324e+00 2.209941e+01 5.575260e+00 46 43 42
-1.214971e+00 2.096107e+01 6.929208e+00 111 108 106
-1.578799e+00 2.086692e+01 7.046476e+00 120 116 123
-1.938869e+00 2.073820e+01 7.199347e+00 106 107 109
2.545212e+00 2.201101e+01 5.903494e+00 111 103 106
2.176473e+00 2.195664e+01 5.888594e+00 111 110 106
1.335764e+00 2.160434e+01 6.416690e+00 120 115 119
9.577148e-01 2.150744e+01 6.500800e+00 119 115 116
3.636055e+00 2.227984e+01 5.703950e+00 104 98 102
3.270424e+00 2.220217e+01 5.751108e+00 97 96 93
2.880261e+00 2.209439e+01 5.871927e+00 99 99 101
2.880261e+00 2.209439e+01 5.871927e+00 99 99 101
1.161860e+01 2.427491e+01 4.114606e+00 107 109 106
1.404393e+01 2.476361e+01 3.961790e+00 116 113 116
1.558828e+01 2.531598e+01 3.316674e+00 105 107 102
1.781755e+01 2.547948e+01 4.749433e+00 103 99 97
1.733257e+01 2.537336e+01 4.806253e+00 91 89 92
1.825390e+01 2.549433e+01 4.898252e+00 110 108 109
1.051307e+01 2.481874e+01 4.058841e+00 158 152 153
1.458417e+01 2.476228e+01 5.628617e+00 77 76 81
2.195778e+01 2.790810e+01 2.261912e+00 123 137 141
-1.305524e+01 2.382471e+01 7.707951e+00 50 45 51
5.433608e+00 2.811302e+01 6.367525e+00 69 69 70
1.485787e+01 3.035807e+01 5.677192e+00 72 69 70
-2.149042e+00 2.588256e+01 8.992522e+00 111 115 125
-5.809590e-02 2.722706e+01 8.047416e+00 59 57 60
8.492268e+00 2.885899e+01 7.900352e+00 129 129 124
-4.621031e+00 2.720026e+01 8.215682e+00 118 119 123
8.077834e+00 3.132489e+01 7.507266e+00 93 90 97
1.681129e+01 3.443209e+01 7.291589e+00 120 121 118
5.262168e+00 3.174785e+01 8.370996e+00 83 82 85
4.962775e+00 3.223545e+01 9.165546e+00 93 90 94
1.527551e+01 3.533216e+01 8.460481e+00 129 127 133
-9.466805e+00 3.721860e+01 6.956298e+00 68 67 75
-9.603329e+00 3.874592e+01 7.152503e+00 71 72 84
