ply
format ascii 1.0
element face 0
property list uchar int vertex_indices
element vertex 957
property float x
property float y
property float z
property uchar diffuse_red
property uchar diffuse_green
property uchar diffuse_blue
end_header
5.917674e-01 2.183665e+00 2.792736e+00 193 186 179
5.326490e-01 2.233268e+00 2.609736e+00 193 186 178
5.444130e-01 2.234633e+00 2.603082e+00 121 113 94
5.039759e-01 2.240475e+00 2.595582e+00 164 148 133
5.467596e-01 2.235366e+00 2.602500e+00 166 158 135
4.084880e-01 2.241563e+00 2.630952e+00 191 188 183
5.572391e-01 2.213888e+00 2.692532e+00 212 209 200
5.122027e-01 2.241350e+00 2.596413e+00 160 152 132
5.930487e-01 2.186729e+00 2.802011e+00 109 97 88
4.560690e-01 2.243953e+00 2.611672e+00 78 66 48
4.961954e-01 2.243879e+00 2.598847e+00 109 100 83
5.870641e-01 2.181211e+00 2.830400e+00 136 128 128
5.118969e-01 2.242112e+00 2.602416e+00 52 44 32
5.173508e-01 2.243273e+00 2.596329e+00 52 44 32
1.799626e-01 2.244111e+00 2.725791e+00 185 177 172
5.724572e-01 2.203052e+00 2.746295e+00 88 82 78
-1.981312e-01 2.248168e+00 2.871254e+00 90 80 78
3.638719e-01 2.246221e+00 2.646561e+00 150 137 121
5.926346e-01 2.192972e+00 2.787401e+00 61 48 40
5.572792e-01 2.231410e+00 2.636645e+00 170 162 153
5.672353e-01 2.209108e+00 2.736005e+00 188 183 174
5.864995e-01 2.198425e+00 2.779262e+00 196 190 176
-1.622952e-01 2.255541e+00 2.865304e+00 95 78 69
-2.419671e-01 2.258600e+00 2.892257e+00 51 41 42
4.439280e-01 2.248317e+00 2.624906e+00 104 97 82
4.439280e-01 2.248317e+00 2.624906e+00 104 97 82
3.221626e-01 2.249919e+00 2.673099e+00 185 178 169
5.586288e-01 2.227352e+00 2.672212e+00 77 61 49
5.586288e-01 2.227352e+00 2.672212e+00 77 61 49
5.628692e-01 2.216782e+00 2.721758e+00 178 174 165
4.324205e-01 2.251826e+00 2.627206e+00 129 121 104
-2.397955e-01 2.266218e+00 2.898822e+00 94 75 65
3.589424e-01 2.253718e+00 2.665267e+00 176 165 145
3.589424e-01 2.253718e+00 2.665267e+00 176 165 145
4.626446e-01 2.252124e+00 2.626710e+00 182 173 163
5.743041e-01 2.219140e+00 2.728140e+00 183 175 159
5.487578e-01 2.237574e+00 2.655174e+00 178 171 155
5.453281e-01 2.243718e+00 2.628264e+00 169 161 148
5.453281e-01 2.243718e+00 2.628264e+00 169 161 148
5.438178e-01 2.245454e+00 2.626973e+00 166 159 149
4.643420e-01 2.253632e+00 2.626961e+00 52 38 34
5.859699e-01 2.213751e+00 2.762559e+00 185 181 170
4.639389e-01 2.255717e+00 2.628035e+00 205 207 201
-8.473961e-02 2.278628e+00 2.838011e+00 195 195 187
-8.473961e-02 2.278628e+00 2.838011e+00 195 195 187
3.524649e-01 2.260818e+00 2.671917e+00 184 184 178
3.603920e-01 2.260509e+00 2.670266e+00 100 92 80
-3.487368e-02 2.280400e+00 2.818083e+00 188 185 179
3.949516e-01 2.263732e+00 2.652560e+00 206 204 198
3.967500e-01 2.263129e+00 2.656268e+00 193 186 174
5.395736e-01 2.246190e+00 2.658304e+00 161 155 140
5.828296e-01 2.226066e+00 2.737941e+00 91 81 73
5.828296e-01 2.226066e+00 2.737941e+00 91 81 73
5.446751e-01 2.247711e+00 2.654793e+00 173 165 155
5.844044e-01 2.228956e+00 2.734610e+00 172 159 141
2.401986e-01 2.274153e+00 2.726993e+00 164 159 152
8.495008e-02 2.287375e+00 2.768748e+00 80 65 58
8.495008e-02 2.287375e+00 2.768748e+00 80 65 58
5.796457e-01 2.231696e+00 2.728535e+00 169 158 138
5.796457e-01 2.231696e+00 2.728535e+00 169 158 138
2.857507e-01 2.274280e+00 2.702428e+00 69 53 46
5.135211e-01 2.261877e+00 2.617409e+00 158 149 134
9.168154e-02 2.297062e+00 2.772343e+00 182 179 168
4.283744e-01 2.271495e+00 2.652379e+00 189 182 174
5.458019e-01 2.248528e+00 2.696498e+00 90 80 71
4.219021e-01 2.273072e+00 2.655117e+00 201 198 190
2.958535e-01 2.283137e+00 2.706345e+00 199 194 184
4.253339e-01 2.275220e+00 2.650823e+00 83 75 73
1.745540e-01 2.297574e+00 2.733844e+00 73 64 62
1.956078e-01 2.295545e+00 2.728467e+00 109 104 98
1.956078e-01 2.295545e+00 2.728467e+00 109 104 98
1.404227e-01 2.305845e+00 2.752487e+00 95 76 61
5.317303e-01 2.265113e+00 2.645827e+00 164 157 147
2.028895e-01 2.301184e+00 2.728207e+00 74 56 53
2.028895e-01 2.301184e+00 2.728207e+00 74 56 53
3.038399e-01 2.293070e+00 2.697885e+00 152 148 137
1.603458e-01 2.308516e+00 2.747164e+00 102 87 85
5.400919e-01 2.261418e+00 2.680606e+00 192 186 174
5.214879e-01 2.270930e+00 2.640671e+00 92 83 67
3.430610e-01 2.289535e+00 2.696096e+00 182 178 166
5.711802e-01 2.255451e+00 2.702537e+00 101 89 77
5.464075e-01 2.266264e+00 2.670977e+00 202 193 185
2.166084e-01 2.311064e+00 2.727219e+00 74 61 52
4.042672e-01 2.290685e+00 2.674354e+00 102 88 69
2.739681e-01 2.311598e+00 2.703549e+00 62 53 46
2.739681e-01 2.311598e+00 2.703549e+00 62 53 46
2.482254e-01 2.315054e+00 2.715630e+00 100 82 69
2.482254e-01 2.315054e+00 2.715630e+00 100 82 69
3.264096e-01 2.310337e+00 2.685612e+00 112 95 78
2.327613e-01 2.339475e+00 2.649500e+00 169 170 174
4.248117e-01 2.297762e+00 2.670809e+00 202 202 190
5.596952e-01 2.272604e+00 2.692622e+00 148 137 120
3.210162e-01 2.314405e+00 2.688881e+00 72 59 49
5.077380e-01 2.288401e+00 2.653278e+00 95 78 61
5.077380e-01 2.288401e+00 2.653278e+00 95 78 61
5.485313e-01 2.280317e+00 2.678285e+00 171 162 150
5.075432e-01 2.291649e+00 2.655451e+00 176 168 157
5.075432e-01 2.291649e+00 2.655451e+00 176 168 157
3.195567e-01 2.322705e+00 2.691174e+00 120 110 100
5.519844e-01 2.281866e+00 2.680269e+00 105 91 65
4.054664e-01 2.311273e+00 2.663838e+00 179 164 146
3.777676e-01 2.316335e+00 2.674183e+00 80 66 64
5.480946e-01 2.289246e+00 2.651669e+00 79 61 48
3.874201e-01 2.317305e+00 2.671815e+00 161 153 139
5.361317e-01 2.292132e+00 2.660152e+00 176 162 142
5.062887e-01 2.300633e+00 2.646303e+00 192 185 175
4.048839e-01 2.319655e+00 2.665592e+00 105 86 71
5.393598e-01 2.293971e+00 2.668266e+00 161 150 128
4.983737e-01 2.304490e+00 2.645618e+00 126 111 105
4.175369e-01 2.317590e+00 2.669063e+00 178 167 148
5.453265e-01 2.294581e+00 2.671252e+00 127 116 112
4.172200e-01 2.322991e+00 2.664370e+00 85 67 49
4.252229e-01 2.320917e+00 2.669540e+00 179 171 144
4.377977e-01 2.320417e+00 2.656607e+00 179 171 144
4.817312e-01 2.313568e+00 2.641803e+00 86 69 51
3.764709e-01 1.705494e+00 2.891894e+00 52 42 47
3.764709e-01 1.705494e+00 2.891894e+00 52 42 47
4.231855e-01 1.804903e+00 2.794361e+00 33 31 31
4.327052e-01 1.801182e+00 2.825284e+00 162 158 154
4.599251e-01 1.848331e+00 2.785297e+00 175 176 172
4.013325e-01 1.874863e+00 2.734298e+00 84 79 72
3.228975e-01 1.827328e+00 2.774280e+00 125 122 115
3.649864e-01 1.864658e+00 2.750059e+00 183 185 184
3.649864e-01 1.864658e+00 2.750059e+00 183 185 184
4.445685e-01 1.911880e+00 2.714747e+00 106 106 94
4.445685e-01 1.911880e+00 2.714747e+00 106 106 94
4.547525e-01 1.916714e+00 2.712312e+00 186 185 180
4.861160e-01 1.937990e+00 2.696131e+00 190 189 185
3.890587e-01 1.892084e+00 2.731678e+00 186 185 183
5.068561e-01 1.966110e+00 2.688987e+00 61 60 57
4.413565e-01 1.946415e+00 2.696234e+00 172 172 170
4.775204e-01 1.875312e+00 2.823647e+00 173 170 163
3.692470e-01 1.907412e+00 2.740389e+00 152 149 139
4.037746e-01 1.635483e+00 3.181907e+00 167 161 141
4.130246e-01 1.666500e+00 3.136861e+00 156 152 140
5.383758e-01 2.001272e+00 2.660203e+00 67 66 62
5.002529e-01 1.913763e+00 2.785149e+00 174 169 164
4.266922e-01 1.706344e+00 3.097740e+00 52 45 46
4.360819e-01 1.737003e+00 3.068692e+00 77 71 60
4.458978e-01 1.736011e+00 3.081721e+00 189 187 175
4.410812e-01 1.734856e+00 3.084020e+00 89 84 74
4.410812e-01 1.734856e+00 3.084020e+00 89 84 74
5.146393e-01 2.012709e+00 2.657042e+00 185 182 177
2.712317e-01 1.919118e+00 2.730656e+00 182 179 174
5.242953e-01 1.954585e+00 2.762019e+00 123 118 114
2.498933e-01 1.910663e+00 2.743839e+00 171 169 159
4.614343e-01 1.798685e+00 3.003726e+00 172 171 162
4.614343e-01 1.798685e+00 3.003726e+00 172 171 162
4.123076e-01 1.977748e+00 2.688312e+00 178 177 170
2.519152e-01 1.912522e+00 2.747244e+00 164 164 153
4.726940e-01 1.809169e+00 3.004612e+00 186 185 180
4.384773e-01 1.709727e+00 3.171985e+00 168 162 147
3.544665e-01 1.982706e+00 2.677789e+00 154 147 137
4.337972e-01 1.658837e+00 3.261632e+00 179 165 146
3.665990e-01 1.470432e+00 3.583540e+00 170 167 159
5.238263e-01 1.948196e+00 2.804005e+00 136 132 123
5.238263e-01 1.948196e+00 2.804005e+00 136 132 123
4.598203e-01 2.031973e+00 2.638415e+00 177 176 172
3.745558e-01 1.468346e+00 3.592538e+00 52 48 35
4.985957e-01 1.861330e+00 2.948426e+00 93 87 73
5.166936e-01 1.943426e+00 2.812698e+00 159 154 151
2.797579e-01 2.008830e+00 2.629109e+00 79 70 61
5.394695e-01 2.060993e+00 2.620430e+00 186 181 165
4.496271e-01 2.044169e+00 2.626496e+00 75 73 61
5.759019e-01 2.072239e+00 2.617528e+00 72 62 58
5.759019e-01 2.072239e+00 2.617528e+00 72 62 58
5.076930e-01 1.903297e+00 2.899878e+00 83 75 65
5.492716e-01 2.025425e+00 2.698277e+00 105 98 82
5.492716e-01 2.025425e+00 2.698277e+00 105 98 82
5.617732e-01 2.073781e+00 2.617121e+00 68 60 49
4.741370e-01 1.802042e+00 3.085701e+00 130 121 121
5.397487e-01 1.997571e+00 2.751373e+00 130 120 108
5.400469e-01 1.998897e+00 2.758277e+00 90 82 64
5.400469e-01 1.998897e+00 2.758277e+00 90 82 64
5.433224e-01 2.081289e+00 2.611379e+00 86 75 67
5.733555e-01 2.088403e+00 2.608191e+00 104 93 82
4.366809e-01 2.067463e+00 2.615342e+00 89 83 72
4.519288e-01 2.077540e+00 2.601563e+00 89 83 72
4.769927e-01 2.073201e+00 2.621705e+00 179 175 164
4.728775e-01 2.077617e+00 2.615148e+00 164 160 151
5.526205e-01 2.037820e+00 2.715695e+00 106 97 84
5.157116e-01 1.910873e+00 2.950625e+00 186 179 161
4.788822e-01 1.785754e+00 3.187863e+00 167 159 151
5.623465e-01 2.069812e+00 2.662147e+00 190 185 175
5.623465e-01 2.069812e+00 2.662147e+00 190 185 175
4.215197e-01 2.081061e+00 2.607168e+00 174 170 163
5.163070e-01 1.918859e+00 2.949509e+00 176 169 146
5.553052e-01 2.047734e+00 2.709447e+00 65 62 51
5.553052e-01 2.047734e+00 2.709447e+00 65 62 51
4.373564e-01 2.088056e+00 2.600151e+00 171 169 155
5.185381e-01 1.918268e+00 2.954922e+00 161 152 134
5.668571e-01 2.080779e+00 2.651754e+00 102 91 73
4.834597e-01 2.089512e+00 2.614437e+00 161 154 141
5.711950e-01 2.092627e+00 2.630661e+00 135 126 113
4.877817e-01 1.819111e+00 3.159728e+00 161 157 136
5.581667e-01 2.049441e+00 2.720087e+00 83 74 62
4.894525e-01 1.815280e+00 3.171524e+00 182 177 174
4.513926e-01 2.113391e+00 2.569399e+00 119 120 115
5.367398e-01 2.112552e+00 2.591662e+00 107 103 98
4.030526e-01 2.111605e+00 2.561986e+00 112 103 93
5.527753e-01 2.113904e+00 2.594579e+00 177 169 150
5.322554e-01 2.111509e+00 2.596247e+00 180 177 168
5.239030e-01 2.108568e+00 2.599816e+00 184 178 167
4.223899e-01 2.119107e+00 2.559597e+00 88 76 66
4.896889e-01 2.112461e+00 2.589235e+00 122 113 102
4.406770e-01 2.104802e+00 2.593109e+00 173 170 165
4.245539e-01 2.113099e+00 2.575183e+00 164 154 145
4.209566e-01 2.115512e+00 2.569762e+00 177 164 138
4.441565e-01 2.129692e+00 2.546346e+00 176 169 152
4.195324e-01 2.116376e+00 2.568157e+00 173 166 148
4.607343e-01 2.103180e+00 2.606888e+00 192 187 183
4.700866e-01 2.119699e+00 2.575851e+00 130 120 106
4.577518e-01 2.112676e+00 2.586600e+00 130 120 106
4.700866e-01 2.119699e+00 2.575851e+00 130 120 106
4.193121e-01 2.130619e+00 2.542336e+00 109 99 90
4.193121e-01 2.130619e+00 2.542336e+00 109 99 90
5.252398e-01 2.118309e+00 2.591403e+00 193 190 184
4.481074e-01 2.127988e+00 2.555787e+00 120 107 91
5.012189e-01 2.109199e+00 2.606610e+00 129 124 113
5.382640e-01 1.980679e+00 2.883244e+00 71 68 63
5.815934e-01 2.119655e+00 2.605094e+00 177 168 159
4.269994e-01 2.120025e+00 2.571689e+00 168 157 136
5.626621e-01 2.045669e+00 2.760884e+00 152 146 126
5.569648e-01 2.052510e+00 2.749471e+00 72 60 53
5.673205e-01 2.080208e+00 2.697123e+00 63 56 50
5.048733e-01 1.815393e+00 3.248653e+00 114 106 98
4.826102e-01 2.119765e+00 2.596235e+00 118 109 102
4.948164e-01 2.126864e+00 2.584225e+00 118 109 102
4.874182e-01 2.120896e+00 2.596365e+00 123 118 113
5.766312e-01 2.108378e+00 2.643737e+00 134 122 106
5.756467e-01 2.106851e+00 2.648360e+00 157 149 130
5.023136e-01 2.137257e+00 2.570169e+00 112 101 85
5.785202e-01 2.114926e+00 2.635422e+00 183 175 156
5.798928e-01 2.125983e+00 2.613087e+00 63 52 47
1.054706e-02 2.026852e+00 2.741867e+00 89 83 87
2.266228e-01 2.085741e+00 2.647648e+00 94 87 77
2.266228e-01 2.085741e+00 2.647648e+00 94 87 77
4.374163e-01 2.148693e+00 2.546727e+00 114 101 85
5.775168e-01 2.120376e+00 2.641634e+00 129 118 100
5.135195e-01 2.148128e+00 2.569314e+00 99 83 69
5.135195e-01 2.148128e+00 2.569314e+00 99 83 69
5.765318e-01 2.121423e+00 2.644143e+00 72 60 59
5.140707e-01 2.143747e+00 2.583523e+00 182 176 164
4.364844e-01 2.153840e+00 2.548556e+00 89 73 50
5.658912e-01 2.086252e+00 2.728119e+00 122 117 110
5.658912e-01 2.086252e+00 2.728119e+00 122 117 110
5.695080e-01 2.161250e+00 2.560348e+00 63 60 53
5.690191e-01 2.098114e+00 2.707907e+00 70 64 53
5.690191e-01 2.098114e+00 2.707907e+00 70 64 53
5.073273e-01 2.150768e+00 2.577708e+00 180 173 162
4.914514e-01 2.163642e+00 2.545669e+00 177 177 167
5.155867e-01 2.165256e+00 2.548461e+00 152 149 142
5.814628e-01 2.137102e+00 2.623156e+00 174 163 134
5.528066e-01 2.015175e+00 2.906077e+00 126 116 116
5.025181e-01 2.165717e+00 2.548101e+00 79 63 48
5.802470e-01 2.150213e+00 2.597638e+00 142 126 110
4.408385e-01 2.159734e+00 2.555455e+00 160 149 129
2.133610e-01 2.106998e+00 2.648887e+00 153 145 126
5.546424e-01 2.163421e+00 2.562413e+00 170 156 132
4.390160e-01 2.160388e+00 2.555762e+00 94 83 66
4.390160e-01 2.160388e+00 2.555762e+00 94 83 66
5.588446e-01 2.165343e+00 2.561875e+00 102 88 73
4.490967e-01 2.165437e+00 2.549275e+00 171 164 153
5.124852e-01 2.173613e+00 2.538668e+00 131 125 110
3.734834e-01 2.150143e+00 2.584746e+00 156 135 110
5.707301e-01 2.116076e+00 2.690665e+00 160 154 140
4.954068e-01 2.174858e+00 2.540008e+00 170 166 154
5.618869e-01 2.174781e+00 2.551341e+00 143 135 127
5.483572e-01 2.175015e+00 2.549226e+00 110 109 105
1.678741e-01 2.107501e+00 2.677273e+00 55 46 42
5.712699e-01 2.117811e+00 2.695193e+00 75 66 53
5.803589e-01 2.167309e+00 2.574607e+00 155 137 115
5.803589e-01 2.167309e+00 2.574607e+00 155 137 115
5.812434e-01 2.152608e+00 2.612302e+00 173 160 138
5.469527e-01 2.183819e+00 2.531611e+00 47 43 34
4.573164e-01 2.174720e+00 2.550966e+00 51 41 32
4.769768e-01 2.178948e+00 2.545079e+00 170 155 122
5.771148e-01 2.154861e+00 2.617497e+00 155 142 126
5.717061e-01 2.132306e+00 2.675312e+00 171 163 157
3.566985e-01 2.156371e+00 2.596967e+00 44 31 28
5.740937e-01 2.096240e+00 2.766544e+00 65 60 54
5.740937e-01 2.096240e+00 2.766544e+00 65 60 54
3.515251e-01 2.154579e+00 2.603448e+00 81 70 51
3.566448e-01 2.155668e+00 2.603631e+00 80 73 72
5.764339e-01 2.167096e+00 2.596062e+00 101 93 84
3.679365e-01 2.159963e+00 2.597291e+00 181 185 186
5.628625e-01 2.080943e+00 2.824853e+00 163 158 151
5.667468e-01 2.084668e+00 2.815731e+00 163 158 151
5.609027e-01 2.073719e+00 2.846312e+00 188 183 172
3.482770e-01 2.160666e+00 2.606612e+00 76 66 56
5.604432e-01 2.072264e+00 2.853135e+00 180 175 170
4.848458e-01 2.187153e+00 2.548108e+00 158 143 125
2.182426e-01 2.137296e+00 2.664915e+00 179 175 164
5.303963e-01 2.193427e+00 2.536427e+00 181 172 155
3.696847e-01 2.170615e+00 2.595628e+00 85 76 71
5.522071e-01 2.194687e+00 2.541260e+00 170 161 151
3.885396e-01 2.173794e+00 2.591915e+00 44 37 27
5.768669e-01 2.172065e+00 2.607175e+00 102 93 76
3.877963e-01 2.174210e+00 2.595831e+00 104 95 89
3.955950e-01 2.176498e+00 2.589773e+00 104 95 89
5.771523e-01 2.171224e+00 2.610556e+00 173 160 139
4.185270e-01 2.181743e+00 2.577140e+00 55 50 47
5.717614e-01 2.189680e+00 2.561031e+00 135 123 109
5.727627e-01 2.157076e+00 2.653756e+00 77 66 55
5.673921e-01 2.188313e+00 2.568788e+00 75 63 58
5.076200e-01 2.197157e+00 2.542915e+00 69 52 45
5.793761e-01 2.196823e+00 2.548166e+00 158 149 130
5.225345e-01 2.201426e+00 2.534839e+00 154 142 116
3.890615e-01 2.181224e+00 2.593575e+00 97 87 80
3.890615e-01 2.181224e+00 2.593575e+00 97 87 80
3.020151e-01 2.168677e+00 2.631572e+00 63 54 49
5.719492e-01 2.159130e+00 2.662628e+00 172 168 165
5.692643e-01 2.196707e+00 2.557502e+00 62 49 32
5.757337e-01 2.188836e+00 2.580894e+00 164 148 123
5.736125e-01 2.146655e+00 2.702346e+00 150 145 140
5.673974e-01 2.198091e+00 2.557049e+00 133 120 103
5.730462e-01 2.145239e+00 2.707969e+00 66 56 43
3.928454e-01 2.185502e+00 2.594350e+00 166 160 146
4.222349e-01 2.189696e+00 2.584748e+00 95 77 65
5.241954e-01 2.204476e+00 2.544157e+00 78 64 40
4.883074e-01 2.201345e+00 2.555497e+00 186 175 157
5.896461e-01 2.051546e+00 2.990001e+00 184 175 158
5.896461e-01 2.051546e+00 2.990001e+00 184 175 158
5.649017e-01 2.166092e+00 2.658372e+00 174 165 152
5.713222e-01 2.152145e+00 2.703087e+00 88 81 72
5.912380e-01 2.057196e+00 2.986751e+00 166 160 148
4.136592e-01 2.193316e+00 2.592749e+00 77 65 56
5.916920e-01 2.065149e+00 2.966340e+00 144 130 117
5.921353e-01 2.074615e+00 2.938355e+00 88 78 73
5.921353e-01 2.074615e+00 2.938355e+00 88 78 73
5.702288e-01 2.154321e+00 2.702986e+00 158 153 133
5.702288e-01 2.154321e+00 2.702986e+00 158 153 133
5.702288e-01 2.154321e+00 2.702986e+00 158 153 133
5.372740e-01 2.208705e+00 2.544044e+00 141 124 104
5.064121e-01 2.208106e+00 2.546832e+00 182 172 145
2.122874e-01 2.171919e+00 2.667932e+00 73 63 53
1.520909e-01 2.159813e+00 2.709411e+00 179 174 167
5.668482e-01 2.170599e+00 2.659744e+00 197 191 180
5.739559e-01 2.174532e+00 2.648435e+00 197 191 180
5.702606e-01 2.132818e+00 2.773585e+00 178 172 154
5.717972e-01 2.178295e+00 2.637990e+00 79 69 60
5.619286e-01 2.208606e+00 2.547722e+00 70 60 45
3.293051e-01 2.185108e+00 2.630256e+00 62 56 44
5.729058e-01 2.189929e+00 2.605239e+00 90 82 77
5.399686e-01 2.208725e+00 2.547381e+00 149 136 120
5.640422e-01 2.208434e+00 2.550795e+00 117 106 88
2.529249e-01 2.180405e+00 2.662914e+00 176 172 160
2.529249e-01 2.180405e+00 2.662914e+00 176 172 160
5.130103e-01 2.210787e+00 2.555937e+00 99 86 70
5.130103e-01 2.210787e+00 2.555937e+00 99 86 70
5.128226e-01 2.211947e+00 2.557491e+00 160 142 115
4.403099e-01 2.204550e+00 2.586477e+00 89 82 77
5.624427e-01 2.205402e+00 2.577534e+00 173 162 140
5.632822e-01 2.205016e+00 2.580246e+00 165 156 141
5.133723e-01 2.216637e+00 2.551953e+00 146 131 103
5.510364e-01 2.214531e+00 2.556784e+00 168 159 145
5.533460e-01 2.211988e+00 2.564743e+00 66 56 46
5.706553e-01 2.124044e+00 2.846910e+00 193 186 166
3.910445e-01 2.203864e+00 2.610331e+00 164 157 150
3.910445e-01 2.203864e+00 2.610331e+00 164 157 150
2.406648e-01 2.189164e+00 2.674816e+00 185 178 170
3.905096e-01 2.203800e+00 2.613546e+00 59 49 38
3.979155e-03 2.163702e+00 2.785061e+00 153 150 135
5.687699e-01 2.203122e+00 2.599965e+00 180 172 158
5.932866e-01 2.110918e+00 2.897250e+00 120 106 93
2.303267e-01 2.191761e+00 2.677622e+00 100 93 78
-6.832449e-02 2.163336e+00 2.812775e+00 104 97 92
4.269181e-01 2.211551e+00 2.595711e+00 127 116 95
3.979660e-01 2.206997e+00 2.616242e+00 170 165 162
5.076873e-01 2.215470e+00 2.572240e+00 166 163 141
5.746300e-01 2.135180e+00 2.831374e+00 58 45 31
5.673131e-01 2.207013e+00 2.596244e+00 163 155 136
4.960058e-01 2.214355e+00 2.579901e+00 69 53 38
5.104081e-01 2.216311e+00 2.571919e+00 158 147 129
5.734666e-01 2.144960e+00 2.804470e+00 175 167 157
3.049809e-01 2.201873e+00 2.653532e+00 128 118 106
5.941555e-01 2.133355e+00 2.848480e+00 206 206 207
5.926218e-01 2.126515e+00 2.874077e+00 176 163 144
5.494045e-01 2.219212e+00 2.571899e+00 86 73 57
5.653965e-01 2.187071e+00 2.677949e+00 108 99 93
5.026935e-01 2.220456e+00 2.576116e+00 82 66 48
4.168764e-01 2.217330e+00 2.598783e+00 39 29 28
5.736311e-01 2.148095e+00 2.810907e+00 96 87 83
5.464731e-01 2.219321e+00 2.573492e+00 130 122 108
4.349560e-01 2.217911e+00 2.596806e+00 168 153 134
5.175915e-01 2.222011e+00 2.572246e+00 78 61 51
5.466968e-01 2.222054e+00 2.567213e+00 151 140 117
5.280680e-01 2.223038e+00 2.569005e+00 183 176 154
5.730545e-01 2.153937e+00 2.797924e+00 161 155 141
4.356198e-01 2.218786e+00 2.602966e+00 43 32 27
5.942818e-01 2.143862e+00 2.840900e+00 158 148 136
4.306841e-01 2.219529e+00 2.608263e+00 176 162 136
5.466940e-01 2.221636e+00 2.579833e+00 87 74 63
5.445725e-01 2.226568e+00 2.564131e+00 97 83 57
5.552088e-01 2.220376e+00 2.586297e+00 123 116 101
4.283952e-01 2.221805e+00 2.608470e+00 175 167 154
9.819124e-02 2.199261e+00 2.755891e+00 172 165 155
5.515824e-01 2.211414e+00 2.621997e+00 55 42 36
1.643880e-01 2.205516e+00 2.726909e+00 52 46 41
1.173321e-01 2.204512e+00 2.749419e+00 182 179 173
5.950757e-01 2.156745e+00 2.823085e+00 81 69 64
5.471097e-01 2.214972e+00 2.620481e+00 175 163 140
5.471097e-01 2.214972e+00 2.620481e+00 175 163 140
5.543229e-01 2.224210e+00 2.586196e+00 82 69 52
5.492956e-01 2.214533e+00 2.623064e+00 172 165 147
5.764473e-01 2.172102e+00 2.772340e+00 82 75 73
5.656815e-01 2.190426e+00 2.711520e+00 171 164 147
5.934459e-01 2.162213e+00 2.810899e+00 188 180 168
3.257495e-01 2.222926e+00 2.652396e+00 126 122 116
5.584287e-01 2.209809e+00 2.647759e+00 177 170 152
5.468578e-01 2.218440e+00 2.618574e+00 183 174 162
1.424407e-01 2.218081e+00 2.735438e+00 98 93 88
3.552363e-01 2.227170e+00 2.646645e+00 59 48 44
5.700984e-01 2.194739e+00 2.712739e+00 198 197 192
5.930884e-01 2.166274e+00 2.817981e+00 176 169 144
5.930884e-01 2.166274e+00 2.817981e+00 176 169 144
5.652473e-01 2.201886e+00 2.688390e+00 75 60 55
5.620332e-01 2.219112e+00 2.623582e+00 150 138 125
5.641845e-01 2.203137e+00 2.689416e+00 178 173 165
5.667401e-01 2.212707e+00 2.652256e+00 134 127 111
2.357554e-01 2.225612e+00 2.696952e+00 79 71 63
5.576042e-01 2.218909e+00 2.633563e+00 161 153 141
4.795339e-01 2.233759e+00 2.599392e+00 157 150 123
5.596276e-01 2.223851e+00 2.616130e+00 96 80 66
5.386393e-01 2.227348e+00 2.608532e+00 29 20 6
1.837562e-01 2.224786e+00 2.723093e+00 187 188 189
4.269715e-01 2.235039e+00 2.613791e+00 166 164 150
5.586601e-01 2.224187e+00 2.619281e+00 122 107 83
5.789592e-01 2.183337e+00 2.775203e+00 184 175 162
5.355758e-01 2.229077e+00 2.609408e+00 71 59 50
5.355758e-01 2.229077e+00 2.609408e+00 71 59 50
4.803148e-01 2.234445e+00 2.607729e+00 51 39 28
4.457890e-01 2.239048e+00 2.606161e+00 144 128 102
2.555704e-01 2.231938e+00 2.697410e+00 168 167 156
2.523016e-01 2.233615e+00 2.698743e+00 175 169 157
5.316702e-01 2.234937e+00 2.604461e+00 54 47 31
4.253481e-01 2.240555e+00 2.625367e+00 60 47 39
3.883158e-01 2.242118e+00 2.635447e+00 128 124 121
-3.311525e-01 2.238259e+00 2.927572e+00 94 84 75
5.415531e-01 2.237445e+00 2.601171e+00 112 104 88
5.309378e-01 2.237342e+00 2.605688e+00 178 170 156
3.968051e-01 2.241399e+00 2.638859e+00 201 200 195
5.457468e-01 2.229746e+00 2.633237e+00 157 146 131
5.638482e-01 2.222769e+00 2.655053e+00 129 119 95
-1.903036e-01 2.242194e+00 2.870890e+00 170 164 140
5.706931e-01 2.205452e+00 2.729873e+00 160 148 139
4.184894e-01 2.243394e+00 2.631071e+00 56 43 33
4.184894e-01 2.243394e+00 2.631071e+00 56 43 33
5.703296e-01 2.205945e+00 2.733612e+00 167 163 152
4.361889e-01 2.244468e+00 2.623816e+00 170 159 139
5.546890e-01 2.230918e+00 2.637707e+00 82 75 68
5.428861e-01 2.232911e+00 2.634574e+00 186 180 166
5.552809e-01 2.224891e+00 2.672948e+00 78 68 59
2.112929e-01 2.250190e+00 2.714161e+00 160 150 130
5.623555e-01 2.226176e+00 2.674873e+00 164 156 145
-1.103977e-01 2.259523e+00 2.842052e+00 84 76 67
2.269417e-01 2.253028e+00 2.710625e+00 158 147 134
5.534693e-01 2.233063e+00 2.652434e+00 78 68 56
1.465800e-01 2.253552e+00 2.750259e+00 57 48 44
5.886697e-01 2.204066e+00 2.776909e+00 195 188 167
1.288941e-01 2.256172e+00 2.759740e+00 188 183 178
5.607148e-01 2.229285e+00 2.675482e+00 72 64 53
3.413103e-01 2.253818e+00 2.672383e+00 182 178 169
3.663983e-01 2.253856e+00 2.662897e+00 175 169 152
5.466587e-01 2.242469e+00 2.628687e+00 169 161 145
5.306558e-01 2.245047e+00 2.624887e+00 86 75 65
-1.397943e-01 2.271078e+00 2.857276e+00 204 207 190
5.866055e-01 2.211209e+00 2.758189e+00 172 164 153
5.414294e-01 2.245025e+00 2.621642e+00 163 155 145
3.622591e-01 2.255655e+00 2.663945e+00 55 43 36
5.888368e-01 2.209034e+00 2.770198e+00 170 163 149
5.593172e-01 2.224342e+00 2.711880e+00 204 199 186
5.593172e-01 2.224342e+00 2.711880e+00 204 199 186
5.511124e-01 2.236325e+00 2.661442e+00 188 183 176
4.651186e-01 2.252788e+00 2.628280e+00 169 161 148
3.348672e-01 2.257162e+00 2.675541e+00 196 192 189
5.625280e-01 2.222107e+00 2.726702e+00 192 186 172
1.969326e-01 2.261020e+00 2.738050e+00 147 144 127
5.482766e-01 2.235103e+00 2.675329e+00 198 193 186
4.300494e-01 2.258146e+00 2.628604e+00 104 91 75
-1.260792e-01 2.276091e+00 2.855883e+00 175 171 162
4.248239e-02 2.272126e+00 2.780610e+00 124 118 103
5.233938e-01 2.249907e+00 2.624303e+00 107 95 81
3.763630e-01 2.258858e+00 2.661722e+00 95 82 75
2.017843e-01 2.263626e+00 2.736066e+00 87 77 74
2.017843e-01 2.263626e+00 2.736066e+00 87 77 74
1.792268e-01 2.266234e+00 2.747313e+00 83 70 69
5.864070e-01 2.220595e+00 2.743663e+00 177 171 158
4.381615e-01 2.261045e+00 2.628676e+00 142 126 103
5.717314e-01 2.226467e+00 2.723901e+00 153 143 139
5.606011e-01 2.236637e+00 2.680688e+00 138 125 101
5.451210e-01 2.245860e+00 2.652623e+00 76 66 58
5.609090e-01 2.232462e+00 2.713919e+00 206 205 192
4.102858e-01 2.262998e+00 2.653120e+00 144 134 124
5.228523e-01 2.255952e+00 2.620915e+00 183 184 171
2.014826e-01 2.275646e+00 2.731361e+00 126 119 113
5.355112e-01 2.251922e+00 2.641063e+00 152 146 124
5.345687e-01 2.254929e+00 2.626245e+00 82 67 46
5.837532e-01 2.231083e+00 2.721160e+00 95 78 72
5.053007e-01 2.260116e+00 2.619459e+00 60 49 44
5.341032e-01 2.250558e+00 2.653860e+00 93 80 76
5.325232e-01 2.252615e+00 2.648311e+00 149 146 131
2.807839e-01 2.273943e+00 2.703641e+00 160 154 137
5.808482e-01 2.232996e+00 2.721931e+00 108 94 84
5.328501e-01 2.252450e+00 2.657566e+00 151 145 131
1.245048e-01 2.289970e+00 2.753365e+00 79 69 64
3.160195e-01 2.276206e+00 2.695100e+00 47 36 36
1.147673e-01 2.292733e+00 2.762707e+00 174 171 155
5.419732e-01 2.255311e+00 2.651798e+00 114 104 94
5.802766e-01 2.237501e+00 2.726736e+00 99 81 67
5.238489e-01 2.261328e+00 2.638357e+00 172 162 150
7.982398e-02 2.300634e+00 2.770155e+00 178 178 162
7.982398e-02 2.300634e+00 2.770155e+00 178 178 162
5.184580e-01 2.265149e+00 2.623763e+00 123 116 98
4.189530e-01 2.274279e+00 2.651260e+00 97 85 80
5.790689e-01 2.245619e+00 2.695655e+00 103 91 83
1.181066e-01 2.299052e+00 2.763675e+00 183 180 163
4.621972e-01 2.271252e+00 2.643418e+00 178 174 162
5.729742e-01 2.245642e+00 2.706548e+00 180 175 152
4.483758e-01 2.273327e+00 2.643906e+00 175 167 156
4.557159e-01 2.272433e+00 2.646184e+00 50 40 38
4.572113e-01 2.272797e+00 2.644252e+00 50 40 38
4.572113e-01 2.272797e+00 2.644252e+00 50 40 38
1.054641e-01 2.304538e+00 2.765299e+00 94 80 69
1.054641e-01 2.304538e+00 2.765299e+00 94 80 69
5.454841e-01 2.254274e+00 2.687363e+00 112 107 104
3.053850e-01 2.287366e+00 2.701049e+00 172 170 157
2.176798e-01 2.298030e+00 2.722112e+00 103 92 89
2.046754e-01 2.300713e+00 2.730132e+00 168 157 138
5.447451e-01 2.257858e+00 2.682686e+00 186 183 175
1.567080e-01 2.305950e+00 2.748094e+00 191 189 177
5.154225e-01 2.269916e+00 2.640516e+00 210 201 192
5.103833e-01 2.270781e+00 2.637627e+00 135 123 114
3.176433e-01 2.289358e+00 2.701478e+00 183 180 171
2.950412e-01 2.293656e+00 2.699602e+00 192 190 179
3.476886e-01 2.288291e+00 2.689615e+00 57 44 42
5.773723e-01 2.249995e+00 2.725021e+00 137 133 132
1.619678e-01 2.311272e+00 2.746396e+00 192 193 179
5.315048e-01 2.268208e+00 2.654521e+00 136 124 108
1.603139e-01 2.312654e+00 2.744431e+00 118 114 117
5.773019e-01 2.251690e+00 2.721639e+00 145 135 139
5.670780e-01 2.256902e+00 2.696026e+00 87 74 58
5.726420e-01 2.258141e+00 2.686081e+00 87 74 58
2.821216e-01 2.300522e+00 2.697649e+00 91 89 87
5.768631e-01 2.253502e+00 2.719090e+00 126 118 120
5.056096e-01 2.276905e+00 2.635294e+00 78 64 55
4.356881e-01 2.284712e+00 2.652011e+00 164 148 132
5.335893e-01 2.265077e+00 2.682619e+00 90 81 73
5.642770e-01 2.259801e+00 2.691023e+00 188 181 163
2.822112e-01 2.302394e+00 2.699787e+00 185 192 181
3.977420e-01 2.288269e+00 2.676108e+00 174 165 148
3.977420e-01 2.288269e+00 2.676108e+00 174 165 148
4.451821e-01 2.285412e+00 2.648174e+00 152 137 117
5.230297e-01 2.274825e+00 2.644829e+00 67 53 46
5.324766e-01 2.268050e+00 2.681232e+00 201 195 179
5.229827e-01 2.274941e+00 2.648212e+00 106 94 78
2.054585e-01 2.314360e+00 2.732754e+00 174 170 158
5.461640e-01 2.266912e+00 2.678232e+00 188 184 173
3.147513e-01 2.303485e+00 2.688692e+00 125 116 107
5.672897e-01 2.266315e+00 2.673474e+00 171 166 140
5.620216e-01 2.264094e+00 2.694716e+00 104 89 70
5.620216e-01 2.264094e+00 2.694716e+00 104 89 70
5.665641e-01 2.267337e+00 2.672404e+00 181 176 147
3.127861e-01 2.305247e+00 2.689361e+00 185 180 160
3.901981e-01 2.294788e+00 2.679814e+00 145 139 125
5.667952e-01 2.262863e+00 2.708607e+00 103 89 79
5.655979e-01 2.269147e+00 2.672161e+00 76 64 65
5.152762e-01 2.279829e+00 2.658417e+00 85 72 62
2.518245e-01 2.317126e+00 2.714840e+00 195 190 171
5.558806e-01 2.272626e+00 2.678775e+00 78 65 58
5.558806e-01 2.272626e+00 2.678775e+00 78 65 58
4.924371e-01 2.288158e+00 2.641019e+00 148 132 108
5.165983e-01 2.281759e+00 2.661994e+00 89 75 65
3.624788e-01 2.306981e+00 2.673696e+00 109 96 85
3.624788e-01 2.306981e+00 2.673696e+00 109 96 85
5.145057e-01 2.283516e+00 2.666901e+00 78 70 62
4.652082e-01 2.293811e+00 2.657931e+00 80 67 58
5.507617e-01 2.277005e+00 2.677174e+00 194 188 165
3.221473e-01 2.315574e+00 2.690378e+00 181 174 156
5.480891e-01 2.277908e+00 2.674276e+00 157 144 125
3.361028e-01 2.315198e+00 2.687923e+00 175 170 158
3.852399e-01 2.310103e+00 2.668197e+00 178 165 148
3.357217e-01 2.317196e+00 2.688814e+00 176 173 150
3.079417e-01 2.322308e+00 2.694443e+00 127 117 121
5.501500e-01 2.285518e+00 2.655868e+00 74 59 53
3.631055e-01 2.316764e+00 2.677666e+00 80 62 43
3.829473e-01 2.318258e+00 2.673615e+00 91 77 68
5.441848e-01 2.288349e+00 2.675063e+00 81 75 61
5.068490e-01 2.298901e+00 2.646340e+00 108 94 88
3.479041e-01 2.326930e+00 2.677464e+00 225 229 232
3.997626e-01 2.317755e+00 2.669517e+00 203 195 180
4.105636e-01 2.317717e+00 2.666174e+00 177 168 154
4.627757e-01 2.311254e+00 2.647373e+00 117 103 81
5.330840e-01 2.296291e+00 2.662278e+00 173 166 145
4.374640e-01 2.316520e+00 2.656289e+00 168 158 138
5.266202e-01 2.300201e+00 2.652637e+00 183 172 158
4.760944e-01 2.311215e+00 2.642975e+00 94 78 64
4.226909e-01 2.319666e+00 2.670672e+00 100 82 70
5.243103e-01 2.303772e+00 2.651352e+00 161 147 120
5.299535e-01 2.303615e+00 2.655697e+00 81 70 61
2.690407e-01 1.745002e+00 2.819445e+00 131 128 121
4.681666e-01 1.866285e+00 2.772806e+00 103 103 101
4.681666e-01 1.866285e+00 2.772806e+00 103 103 101
4.068985e-01 1.879301e+00 2.731468e+00 148 146 132
3.922104e-01 1.866290e+00 2.748284e+00 80 77 70
2.417319e-01 1.785276e+00 2.807917e+00 97 93 83
3.970728e-01 1.871005e+00 2.749598e+00 121 121 113
3.970728e-01 1.871005e+00 2.749598e+00 121 121 113
4.577130e-01 1.832337e+00 2.845662e+00 107 99 97
4.497120e-01 1.832313e+00 2.850842e+00 163 156 145
4.497120e-01 1.832313e+00 2.850842e+00 163 156 145
4.558881e-01 1.839345e+00 2.844441e+00 99 89 81
4.558881e-01 1.839345e+00 2.844441e+00 99 89 81
4.724005e-01 1.844396e+00 2.851841e+00 184 181 172
4.674626e-01 1.864981e+00 2.822571e+00 168 162 146
4.346834e-01 1.937158e+00 2.699624e+00 79 78 74
4.722153e-01 1.861504e+00 2.831468e+00 184 179 150
4.680997e-01 1.869011e+00 2.819943e+00 91 87 77
4.680997e-01 1.869011e+00 2.819943e+00 91 87 77
4.462267e-01 1.782269e+00 2.952489e+00 161 156 153
4.462267e-01 1.782269e+00 2.952489e+00 161 156 153
4.489900e-01 1.777734e+00 2.965964e+00 173 169 156
3.735891e-01 1.903869e+00 2.741545e+00 188 188 174
4.558929e-01 1.956053e+00 2.691444e+00 122 118 109
4.558929e-01 1.956053e+00 2.691444e+00 122 118 109
4.790884e-01 1.963201e+00 2.691463e+00 186 183 176
1.598088e-01 1.829730e+00 2.788848e+00 189 189 182
3.774028e-01 1.549376e+00 3.329431e+00 140 134 121
4.367188e-01 1.719293e+00 3.095555e+00 57 50 47
4.367188e-01 1.719293e+00 3.095555e+00 57 50 47
4.351264e-01 1.738218e+00 3.064476e+00 168 161 146
5.097023e-01 1.947284e+00 2.760368e+00 173 168 160
4.122287e-01 1.976865e+00 2.681264e+00 100 93 83
2.747796e-01 1.916456e+00 2.733848e+00 191 190 186
2.486877e-01 1.932200e+00 2.703042e+00 102 100 92
4.972787e-01 1.898113e+00 2.850501e+00 80 77 73
4.373864e-01 1.996128e+00 2.665556e+00 124 118 104
5.090661e-01 1.901112e+00 2.851418e+00 72 68 63
4.703374e-01 1.816664e+00 2.988363e+00 194 191 184
4.770797e-01 1.825738e+00 2.984404e+00 75 70 66
4.392188e-01 1.717687e+00 3.169005e+00 78 65 59
3.696166e-01 1.464406e+00 3.589633e+00 66 62 58
5.408993e-01 2.053896e+00 2.625117e+00 187 180 162
4.781832e-01 2.034520e+00 2.637874e+00 194 191 188
4.722348e-01 2.038717e+00 2.631211e+00 89 88 86
4.951781e-01 1.866121e+00 2.941975e+00 186 186 175
4.424768e-01 2.031773e+00 2.639929e+00 155 151 140
3.755052e-01 1.490019e+00 3.577079e+00 189 186 175
4.818364e-01 2.049891e+00 2.626643e+00 177 172 171
5.527454e-01 2.066818e+00 2.620481e+00 188 181 162
5.335718e-01 2.077155e+00 2.613264e+00 175 164 146
5.274293e-01 2.075726e+00 2.614680e+00 92 83 79
5.308109e-01 2.076576e+00 2.615727e+00 115 107 90
4.577848e-01 2.052886e+00 2.638466e+00 176 174 169
4.910144e-01 2.074166e+00 2.611404e+00 163 160 152
5.405071e-01 2.082648e+00 2.610473e+00 190 184 168
5.406985e-01 2.086059e+00 2.605599e+00 138 130 117
4.631809e-01 1.743731e+00 3.227322e+00 162 159 155
4.631809e-01 1.743731e+00 3.227322e+00 162 159 155
5.741103e-01 2.092141e+00 2.606376e+00 168 158 146
3.671857e-01 2.069167e+00 2.593691e+00 96 88 79
5.732592e-01 2.092700e+00 2.607079e+00 74 67 56
3.695061e-01 2.074481e+00 2.585855e+00 173 168 155
4.261860e-01 2.066987e+00 2.623051e+00 98 93 84
5.124445e-01 1.897921e+00 2.974008e+00 128 120 112
5.159997e-01 1.914964e+00 2.942203e+00 91 80 75
5.692069e-02 1.973548e+00 2.716059e+00 104 95 86
5.628982e-01 2.065203e+00 2.667778e+00 182 176 162
5.628982e-01 2.065203e+00 2.667778e+00 182 176 162
4.675798e-01 2.079791e+00 2.616176e+00 178 175 166
5.573250e-01 2.103950e+00 2.595637e+00 181 175 161
5.710733e-01 2.105755e+00 2.596534e+00 100 92 76
5.544137e-01 2.103477e+00 2.596546e+00 84 80 69
5.355033e-01 2.101355e+00 2.597113e+00 100 95 90
5.144930e-01 2.099456e+00 2.596472e+00 52 48 44
4.155943e-01 2.092450e+00 2.584775e+00 185 180 164
4.608009e-01 2.096009e+00 2.590083e+00 175 175 163
3.978213e-01 2.101420e+00 2.564641e+00 95 79 74
5.747407e-01 2.105192e+00 2.601854e+00 82 74 68
5.674334e-01 2.107063e+00 2.596842e+00 87 79 72
5.190780e-01 1.923248e+00 2.946881e+00 68 63 59
5.190780e-01 1.923248e+00 2.946881e+00 68 63 59
4.837488e-01 2.101875e+00 2.590482e+00 59 55 49
4.032182e-01 2.100794e+00 2.574246e+00 185 173 152
5.723695e-01 2.095096e+00 2.630593e+00 55 41 40
4.860888e-01 1.819111e+00 3.165725e+00 85 79 71
4.506051e-01 2.100832e+00 2.593598e+00 100 96 93
4.533847e-01 2.109113e+00 2.578294e+00 103 99 95
4.533847e-01 2.109113e+00 2.578294e+00 103 99 95
5.811696e-01 2.110062e+00 2.609938e+00 162 151 128
4.495594e-01 2.100495e+00 2.596474e+00 179 175 172
4.521089e-01 2.112502e+00 2.573866e+00 180 179 184
5.772485e-01 2.106368e+00 2.616643e+00 98 87 72
5.805765e-01 2.121379e+00 2.587243e+00 184 183 186
4.599442e-01 2.115502e+00 2.573139e+00 78 73 67
4.599442e-01 2.115502e+00 2.573139e+00 78 73 67
5.290061e-01 1.954758e+00 2.917052e+00 99 96 89
5.484458e-01 2.117264e+00 2.591675e+00 195 185 174
5.637350e-01 2.121400e+00 2.587234e+00 193 182 169
5.812115e-01 2.113865e+00 2.608391e+00 174 166 147
5.668307e-01 2.120069e+00 2.591190e+00 190 185 174
4.401873e-01 2.106159e+00 2.590392e+00 180 176 173
4.938583e-01 2.129680e+00 2.557976e+00 166 159 147
4.196968e-01 2.127158e+00 2.547113e+00 177 165 149
4.604852e-01 2.101315e+00 2.608701e+00 128 124 115
4.917133e-01 2.104099e+00 2.611216e+00 191 188 181
5.705825e-01 2.085012e+00 2.668186e+00 92 81 77
5.817764e-01 2.118071e+00 2.605419e+00 176 168 157
5.346130e-01 1.972578e+00 2.898013e+00 185 182 177
5.347338e-01 2.123905e+00 2.584943e+00 134 131 119
4.263056e-01 2.121287e+00 2.569403e+00 171 160 140
5.409686e-01 1.987258e+00 2.873812e+00 193 186 179
4.293469e-01 2.123379e+00 2.569909e+00 60 51 40
4.293469e-01 2.123379e+00 2.569909e+00 60 51 40
5.448541e-01 1.997522e+00 2.861448e+00 87 78 64
5.448541e-01 1.997522e+00 2.861448e+00 87 78 64
4.239537e-01 2.122209e+00 2.573616e+00 168 157 140
4.710256e-01 2.112171e+00 2.605901e+00 173 171 160
4.873890e-01 2.134440e+00 2.564292e+00 183 173 154
4.942822e-01 2.121332e+00 2.596054e+00 110 106 101
4.942822e-01 2.121332e+00 2.596054e+00 110 106 101
5.233842e-01 1.928200e+00 3.015460e+00 63 55 53
5.113389e-01 2.145345e+00 2.549156e+00 58 48 42
3.563487e-01 2.114897e+00 2.590154e+00 170 163 145
5.593359e-01 2.062109e+00 2.744507e+00 63 53 43
5.580319e-01 2.059669e+00 2.754426e+00 175 168 149
3.689175e-01 2.125075e+00 2.579785e+00 154 145 130
5.783398e-01 2.112639e+00 2.644977e+00 173 163 151
5.508851e-01 2.020077e+00 2.849948e+00 170 164 150
5.617558e-01 2.074656e+00 2.734497e+00 56 49 42
5.794871e-01 2.138344e+00 2.597783e+00 144 136 118
5.358555e-01 2.148018e+00 2.569317e+00 67 51 48
5.504626e-01 2.031491e+00 2.837180e+00 182 175 165
5.643272e-01 2.079858e+00 2.737436e+00 105 102 95
5.419176e-01 1.988442e+00 2.941907e+00 179 172 162
4.467532e-01 2.159196e+00 2.538988e+00 136 125 98
5.654872e-01 2.083595e+00 2.730785e+00 198 195 187
5.431780e-01 1.985658e+00 2.958166e+00 195 186 180
5.582464e-01 2.050002e+00 2.820972e+00 115 106 97
5.828654e-01 2.152235e+00 2.588559e+00 59 42 34
5.808210e-01 2.137111e+00 2.625683e+00 97 84 66
5.819436e-01 2.143630e+00 2.612467e+00 139 127 106
3.892309e-01 2.149230e+00 2.573388e+00 117 106 88
5.797818e-01 2.139031e+00 2.624053e+00 97 83 69
5.583013e-01 2.067738e+00 2.790613e+00 181 171 161
5.506673e-01 2.163938e+00 2.563498e+00 63 53 47
5.419754e-01 1.966043e+00 3.033189e+00 89 80 75
5.788242e-01 2.137877e+00 2.630045e+00 157 146 124
5.778064e-01 2.138723e+00 2.628374e+00 157 150 133
5.783894e-01 2.155836e+00 2.589010e+00 69 57 41
5.509181e-01 2.165546e+00 2.563598e+00 43 39 35
4.056615e-01 2.154960e+00 2.571127e+00 137 122 99
4.056615e-01 2.154960e+00 2.571127e+00 137 122 99
5.063331e-01 2.167154e+00 2.556000e+00 35 31 35
5.799165e-01 2.145399e+00 2.619908e+00 75 65 61
5.788277e-01 2.161793e+00 2.580702e+00 164 155 139
1.289356e-01 2.094032e+00 2.695113e+00 87 77 64
5.747560e-01 2.139748e+00 2.633200e+00 61 53 50
1.961004e-01 2.108996e+00 2.664154e+00 145 139 121
1.961004e-01 2.108996e+00 2.664154e+00 145 139 121
5.391534e-01 2.170858e+00 2.555777e+00 177 176 171
5.767162e-01 2.135605e+00 2.646912e+00 79 69 67
5.767313e-01 2.138447e+00 2.643295e+00 60 51 43
5.479021e-01 1.982952e+00 3.021277e+00 83 74 67
3.733479e-01 2.153432e+00 2.586143e+00 151 139 117
5.537910e-01 2.039876e+00 2.883691e+00 166 159 153
1.582799e-01 2.106913e+00 2.681966e+00 165 160 152
3.694862e-01 2.153667e+00 2.589276e+00 65 56 41
5.469639e-01 2.183425e+00 2.533048e+00 167 161 142
5.670830e-01 2.154090e+00 2.612323e+00 183 179 166
3.785985e-01 2.156067e+00 2.586807e+00 53 46 27
4.918387e-01 2.185335e+00 2.540100e+00 101 87 60
5.634729e-01 2.063324e+00 2.859030e+00 179 176 170
5.758522e-01 2.171023e+00 2.585101e+00 39 28 24
5.700944e-01 2.108316e+00 2.745940e+00 79 72 64
4.452289e-01 2.177266e+00 2.561328e+00 139 130 114
5.632744e-01 2.078930e+00 2.825073e+00 92 83 78
5.738533e-01 2.156194e+00 2.627478e+00 88 74 69
5.720119e-01 2.157096e+00 2.632112e+00 192 185 177
5.718815e-01 2.175830e+00 2.583221e+00 176 171 164
5.751846e-01 2.137948e+00 2.684038e+00 185 180 174
5.603517e-01 2.075412e+00 2.848211e+00 94 85 81
4.227367e-01 2.178229e+00 2.572215e+00 56 46 35
5.634980e-01 2.084517e+00 2.830601e+00 83 73 69
5.634980e-01 2.084517e+00 2.830601e+00 83 73 69
3.914101e-01 2.171182e+00 2.592780e+00 116 111 106
5.616768e-01 2.037212e+00 2.961324e+00 121 119 122
5.636242e-01 2.085522e+00 2.835247e+00 89 82 76
5.269165e-01 2.198176e+00 2.532316e+00 105 92 76
5.269165e-01 2.198176e+00 2.532316e+00 105 92 76
2.619732e-01 2.152181e+00 2.647130e+00 171 167 152
5.759541e-01 2.176127e+00 2.596656e+00 107 93 85
5.745130e-01 2.150439e+00 2.665983e+00 70 58 53
5.846720e-01 2.022225e+00 3.015270e+00 107 92 80
5.653471e-01 2.095191e+00 2.815627e+00 110 103 96
5.749605e-01 2.154292e+00 2.657424e+00 181 168 160
5.712830e-01 2.170919e+00 2.612975e+00 83 76 75
5.657657e-01 2.188455e+00 2.571605e+00 170 166 155
2.979805e-01 2.162712e+00 2.637073e+00 56 43 37
5.761993e-01 2.163651e+00 2.640343e+00 78 68 58
5.726359e-01 2.157776e+00 2.662261e+00 54 44 45
5.693487e-01 2.103568e+00 2.814259e+00 94 91 84
5.762583e-01 2.157041e+00 2.665018e+00 73 65 55
5.282341e-01 2.203937e+00 2.534041e+00 165 149 125
5.282341e-01 2.203937e+00 2.534041e+00 165 149 125
5.695070e-01 2.102753e+00 2.818450e+00 186 186 178
5.716720e-01 2.161352e+00 2.655136e+00 184 177 162
5.671939e-01 2.104364e+00 2.816874e+00 204 200 197
5.010486e-01 2.198546e+00 2.552754e+00 149 144 124
4.252811e-01 2.189061e+00 2.580056e+00 148 136 113
2.781513e-01 2.166538e+00 2.643724e+00 67 57 55
2.781513e-01 2.166538e+00 2.643724e+00 67 57 55
5.725837e-01 2.181324e+00 2.606695e+00 152 143 127
4.732405e-01 2.199595e+00 2.555021e+00 151 141 118
5.672660e-01 2.200861e+00 2.552387e+00 123 107 86
1.801648e-01 2.155381e+00 2.692344e+00 61 51 47
3.337039e-01 2.182014e+00 2.630280e+00 174 167 141
2.471599e-01 2.175536e+00 2.656263e+00 159 150 136
3.395771e-01 2.188313e+00 2.614133e+00 164 161 142
1.980159e-01 2.166457e+00 2.689377e+00 101 89 82
1.980159e-01 2.166457e+00 2.689377e+00 101 89 82
4.299131e-01 2.198768e+00 2.582878e+00 99 85 65
5.717123e-01 2.179368e+00 2.636205e+00 156 143 134
5.717123e-01 2.179368e+00 2.636205e+00 156 143 134
5.728373e-01 2.177226e+00 2.645001e+00 107 95 83
5.728373e-01 2.177226e+00 2.645001e+00 107 95 83
5.727283e-01 2.158959e+00 2.703568e+00 131 127 115
5.727715e-01 2.101371e+00 2.881195e+00 133 126 117
5.732549e-01 2.164371e+00 2.691483e+00 87 77 72
5.524016e-01 2.215370e+00 2.537679e+00 142 126 103
5.332218e-01 2.211550e+00 2.552152e+00 90 72 57
5.914693e-01 2.089675e+00 2.925016e+00 186 178 165
5.914693e-01 2.089675e+00 2.925016e+00 186 178 165
5.712162e-01 2.150048e+00 2.740871e+00 178 171 158
4.890825e-01 2.210303e+00 2.561376e+00 176 169 156
3.748312e-01 2.198373e+00 2.609052e+00 70 57 48
5.616877e-01 2.182940e+00 2.645229e+00 177 173 163
3.550162e-01 2.195398e+00 2.623904e+00 167 167 156
3.444847e-01 2.196213e+00 2.624474e+00 142 133 121
4.078405e-01 2.202678e+00 2.601673e+00 84 72 62
3.868430e-01 2.199336e+00 2.613725e+00 141 133 104
5.657219e-01 2.207783e+00 2.573338e+00 89 76 60
5.630672e-01 2.205251e+00 2.582503e+00 112 103 85
3.890327e-01 2.200648e+00 2.613225e+00 58 46 46
-7.997708e-02 2.148846e+00 2.819354e+00 176 176 166
5.522714e-01 2.218885e+00 2.544504e+00 50 40 31
5.578583e-01 2.211658e+00 2.573141e+00 56 43 33
5.702625e-01 2.155540e+00 2.754046e+00 190 189 187
-3.860919e-02 2.163770e+00 2.798988e+00 111 106 100
5.712534e-01 2.134793e+00 2.822631e+00 169 160 144
5.352811e-01 2.218649e+00 2.556761e+00 80 68 55
5.666205e-01 2.178767e+00 2.685008e+00 187 183 175
2.949683e-01 2.197844e+00 2.656908e+00 68 58 56
5.946409e-01 2.111152e+00 2.907363e+00 108 98 89
5.938146e-01 2.117431e+00 2.893600e+00 55 44 40
-1.978145e-02 2.172931e+00 2.792470e+00 84 76 74
4.885218e-01 2.219930e+00 2.569062e+00 73 64 49
2.925367e-01 2.201128e+00 2.660517e+00 193 189 178
5.683988e-01 2.202793e+00 2.624201e+00 188 180 157
5.710947e-01 2.148490e+00 2.816008e+00 105 95 92
5.667441e-01 2.197110e+00 2.650394e+00 176 166 145
5.569531e-01 2.216277e+00 2.588994e+00 171 163 149
5.597388e-01 2.208305e+00 2.617826e+00 180 173 158
2.857956e-01 2.207656e+00 2.669585e+00 132 126 119
5.682094e-01 2.174066e+00 2.736870e+00 185 179 173
5.580699e-01 2.212196e+00 2.610695e+00 174 162 136
5.943816e-01 2.146360e+00 2.838399e+00 58 47 45
5.943816e-01 2.146360e+00 2.838399e+00 58 47 45
5.538170e-01 2.208998e+00 2.625510e+00 194 190 178
5.440485e-01 2.227256e+00 2.563260e+00 139 132 112
1.656444e-01 2.203552e+00 2.724796e+00 172 165 141
4.319352e-01 2.221749e+00 2.609915e+00 170 164 151
5.670144e-01 2.183754e+00 2.720867e+00 90 79 68
5.670144e-01 2.183754e+00 2.720867e+00 90 79 68
5.740377e-01 2.160602e+00 2.805567e+00 106 102 101
5.743218e-01 2.161979e+00 2.800589e+00 203 200 193
5.757232e-01 2.170454e+00 2.778226e+00 184 181 173
4.420986e-01 2.226944e+00 2.604012e+00 85 76 68
5.679025e-01 2.188166e+00 2.722105e+00 130 125 113
5.663649e-01 2.190412e+00 2.717165e+00 200 194 183
5.491553e-01 2.219779e+00 2.613440e+00 82 70 54
3.731634e-01 2.225497e+00 2.638657e+00 174 166 150
1.396846e-01 2.215593e+00 2.736924e+00 192 187 181
5.664960e-01 2.192441e+00 2.715509e+00 202 197 191
5.563251e-01 2.221532e+00 2.610792e+00 67 53 43
3.464593e-01 2.227526e+00 2.642396e+00 160 156 145
1.497975e-01 2.217956e+00 2.733881e+00 193 192 189
3.688260e-01 2.227909e+00 2.641532e+00 65 52 44
3.688260e-01 2.227909e+00 2.641532e+00 65 52 44
5.436789e-01 2.227315e+00 2.602850e+00 129 119 99
2.134200e-01 2.223936e+00 2.708428e+00 136 132 128
5.934468e-01 2.169388e+00 2.818528e+00 179 172 154
4.814837e-01 2.232150e+00 2.604667e+00 53 42 45
5.708508e-01 2.187558e+00 2.755728e+00 70 57 53
5.406936e-01 2.234329e+00 2.583410e+00 120 105 84
5.730611e-01 2.184413e+00 2.768022e+00 175 167 146
5.540646e-01 2.216451e+00 2.649976e+00 193 185 174
-9.399166e-02 2.216248e+00 2.847559e+00 85 76 75
4.809178e-01 2.234685e+00 2.601988e+00 91 81 70
5.934092e-01 2.180680e+00 2.790854e+00 75 63 57
5.347081e-01 2.234930e+00 2.593522e+00 91 73 59
5.814824e-01 2.186857e+00 2.771940e+00 131 124 116
5.913199e-01 2.185726e+00 2.776184e+00 109 104 102
3.765017e-01 2.237172e+00 2.641397e+00 60 56 55
2.666111e-01 2.233869e+00 2.692684e+00 165 157 144
4.871606e-01 2.236715e+00 2.609013e+00 195 192 187
5.874645e-01 2.186525e+00 2.781337e+00 111 107 104
2.677577e-01 2.235368e+00 2.692781e+00 87 79 77
1.687881e-02 2.229460e+00 2.807314e+00 72 62 64
9.525071e-02 2.232167e+00 2.769241e+00 112 102 91
5.875469e-01 2.188264e+00 2.781577e+00 183 178 158
5.444173e-01 2.229416e+00 2.629568e+00 80 70 60
4.107128e-01 2.242783e+00 2.630820e+00 94 87 79
5.710750e-01 2.201874e+00 2.742491e+00 179 175 164
5.404236e-01 2.232343e+00 2.627231e+00 76 65 59
5.727075e-01 2.199947e+00 2.752690e+00 78 71 78
-1.065372e-02 2.237042e+00 2.824066e+00 206 206 196
-2.638733e-01 2.244460e+00 2.901557e+00 177 168 159
5.643648e-01 2.217715e+00 2.683603e+00 206 203 199
5.648094e-01 2.219066e+00 2.681501e+00 123 119 108
5.167172e-01 2.242289e+00 2.601800e+00 73 62 56
4.246799e-01 2.245635e+00 2.629577e+00 86 79 69
4.218746e-01 2.246420e+00 2.630245e+00 186 181 161
1.912101e-01 2.247740e+00 2.719899e+00 98 87 82
5.904211e-01 2.195494e+00 2.784269e+00 111 95 80
-2.863259e-01 2.253869e+00 2.911960e+00 187 180 172
5.916583e-01 2.194442e+00 2.789776e+00 162 160 149
-2.441801e-01 2.253390e+00 2.895957e+00 66 56 59
5.409814e-01 2.235075e+00 2.636378e+00 143 136 130
5.640655e-01 2.213869e+00 2.724846e+00 154 145 136
5.550290e-01 2.230546e+00 2.654055e+00 103 94 77
5.888269e-01 2.204660e+00 2.757124e+00 114 97 86
5.185553e-01 2.247930e+00 2.595653e+00 125 112 95
5.185553e-01 2.247930e+00 2.595653e+00 125 112 95
5.510291e-01 2.229720e+00 2.662908e+00 176 167 156
1.167734e-01 2.251733e+00 2.765279e+00 196 193 188
5.532938e-01 2.226896e+00 2.678264e+00 198 195 187
5.882816e-01 2.203158e+00 2.772634e+00 185 180 167
5.394110e-01 2.241731e+00 2.624543e+00 200 199 194
3.458692e-01 2.251813e+00 2.669000e+00 168 162 147
5.675681e-01 2.217258e+00 2.725380e+00 181 171 154
5.736814e-01 2.215293e+00 2.732532e+00 136 127 119
-9.321908e-02 2.265293e+00 2.836161e+00 163 154 142
5.314850e-01 2.243673e+00 2.623909e+00 143 136 110
3.483862e-01 2.253226e+00 2.667967e+00 75 65 64
5.667907e-01 2.224902e+00 2.692834e+00 159 151 132
5.631348e-01 2.217865e+00 2.729243e+00 77 68 61
5.624858e-01 2.230100e+00 2.674821e+00 181 171 150
5.326420e-01 2.244787e+00 2.626515e+00 45 35 26
-1.426448e-01 2.273805e+00 2.859567e+00 96 86 85
5.293676e-01 2.247818e+00 2.621586e+00 129 118 105
5.320527e-01 2.246921e+00 2.625987e+00 106 96 86
5.475619e-01 2.236320e+00 2.669451e+00 76 69 62
4.852707e-01 2.252728e+00 2.624135e+00 185 173 153
3.773342e-01 2.257516e+00 2.660099e+00 199 194 173
5.849780e-01 2.216483e+00 2.750417e+00 150 142 132
-4.007098e-02 2.274992e+00 2.819717e+00 186 179 169
