ply
format ascii 1.0
element face 0
property list uchar int vertex_indices
element vertex 941
property float x
property float y
property float z
property uchar diffuse_red
property uchar diffuse_green
property uchar diffuse_blue
end_header
-3.428592e-01 1.030503e+00 1.013963e+00 100 86 74
3.986412e+00 2.526340e-01 4.623579e+00 172 165 148
-9.752749e-03 1.034198e+00 1.220798e+00 115 113 99
2.378838e-03 1.047285e+00 1.207102e+00 115 113 99
2.576267e+00 1.013166e+00 2.660849e+00 177 174 167
-2.712827e-01 1.075349e+00 1.021533e+00 92 82 68
3.510879e+00 5.349903e-01 3.949955e+00 90 83 75
2.915053e+00 8.357333e-01 3.148699e+00 167 157 142
2.510279e-01 9.916870e-01 1.457269e+00 115 111 102
-6.960437e-01 9.806074e-01 9.434850e-01 107 100 90
4.303048e+00 9.949459e-02 5.090403e+00 49 45 40
-2.965665e+00 2.409948e-01 8.914672e-01 176 171 167
2.261921e+00 1.018659e+00 2.526834e+00 154 148 135
3.099390e+00 7.437567e-01 3.435385e+00 103 97 92
-3.039430e+00 2.254056e-01 8.888337e-01 187 182 160
-3.039430e+00 2.254056e-01 8.888337e-01 187 182 160
2.926917e+00 8.585330e-01 3.164674e+00 90 81 67
2.322778e+00 1.049937e+00 2.575768e+00 176 168 158
3.910927e-01 1.017686e+00 1.585617e+00 186 180 174
7.702296e-01 1.077168e+00 1.708788e+00 40 34 37
2.841751e+00 9.046224e-01 3.123932e+00 172 163 148
-1.375907e+00 8.312179e-01 9.855432e-01 122 110 98
1.444027e+00 1.143888e+00 2.071078e+00 170 166 155
1.710368e+00 1.148353e+00 2.218167e+00 177 171 157
8.385431e-01 1.079336e+00 1.852482e+00 174 166 154
4.313729e-01 1.125382e+00 1.573216e+00 107 103 103
3.070179e+00 8.835440e-01 3.392153e+00 62 49 40
1.528581e+00 1.173530e+00 2.114106e+00 113 110 104
6.434763e-01 1.151425e+00 1.658344e+00 63 53 43
1.944929e+00 1.198177e+00 2.310356e+00 173 166 147
-5.656820e+00 -3.759524e-01 7.134514e-01 182 180 170
-1.843472e+00 7.390450e-01 1.017522e+00 147 134 113
3.946052e+00 4.273404e-01 4.673051e+00 101 95 87
3.506771e+00 7.170088e-01 4.046194e+00 119 118 107
3.188865e+00 8.828942e-01 3.623676e+00 94 87 81
8.138874e-02 1.277021e+00 1.343178e+00 89 75 66
1.309395e+00 1.220907e+00 2.124344e+00 112 105 96
1.982956e+00 1.257684e+00 2.421036e+00 127 116 104
-1.989713e+00 7.858110e-01 1.026446e+00 123 109 89
1.641646e+00 1.293839e+00 2.248648e+00 91 82 81
-2.862165e+00 5.633847e-01 9.928502e-01 162 156 145
2.668019e+00 1.123407e+00 3.086000e+00 151 144 128
-2.633195e-01 1.309957e+00 1.215829e+00 52 44 43
1.528438e+00 1.335344e+00 2.175719e+00 135 127 113
4.165418e+00 4.065511e-01 5.117423e+00 189 184 180
-3.336662e-01 1.347273e+00 1.172102e+00 105 101 98
-3.585535e+00 4.048743e-01 9.665955e-01 57 48 44
3.103004e+00 9.856446e-01 3.622552e+00 64 59 48
4.565553e+00 2.639048e-01 5.629899e+00 187 181 159
3.055667e+00 1.012328e+00 3.610788e+00 150 141 126
-2.757006e-01 1.368678e+00 1.255184e+00 50 38 32
7.460669e-01 1.359452e+00 1.864182e+00 173 168 162
-2.474530e+00 7.812256e-01 1.063899e+00 79 70 63
4.120484e+00 4.956031e-01 5.104955e+00 66 65 60
-3.592191e+00 4.890734e-01 1.004531e+00 149 134 113
-2.473856e+00 8.163966e-01 1.075607e+00 171 166 153
7.724801e-01 1.388184e+00 1.899050e+00 180 181 166
-2.677546e+00 7.690718e-01 1.067880e+00 155 146 129
1.202571e+00 1.420203e+00 2.122010e+00 69 61 59
1.160259e+00 1.379495e+00 2.159891e+00 69 61 59
-2.971007e-01 1.369435e+00 1.415205e+00 165 157 138
8.679376e-01 1.431776e+00 1.958600e+00 186 180 174
3.227780e+00 1.009301e+00 3.925563e+00 122 116 112
-2.911062e+00 7.557052e-01 1.068211e+00 153 150 141
9.524861e-02 1.535960e+00 1.444486e+00 180 175 165
-2.464818e+00 9.157720e-01 1.117973e+00 175 163 144
2.858191e+00 1.218988e+00 3.466322e+00 131 121 109
3.641675e+00 8.508359e-01 4.512155e+00 185 175 164
-3.550884e+00 6.253966e-01 1.055369e+00 98 90 83
3.668797e+00 8.475191e-01 4.546507e+00 121 113 111
2.441265e+00 1.439657e+00 2.898632e+00 78 69 56
-1.001530e+00 1.359657e+00 1.231712e+00 140 137 122
2.422083e+00 1.455231e+00 2.896346e+00 148 139 122
-9.469375e-01 1.392740e+00 1.214006e+00 60 52 43
-2.726531e+00 8.887873e-01 1.130052e+00 67 55 41
2.419475e+00 1.499891e+00 2.936851e+00 86 80 57
3.140049e+00 1.146160e+00 3.934370e+00 193 185 173
-1.549724e+00 1.278424e+00 1.214650e+00 38 29 26
1.165225e+00 1.613119e+00 2.121776e+00 73 59 48
-2.369311e-01 1.591260e+00 1.396262e+00 171 163 144
-6.085751e+00 7.691370e-02 8.799778e-01 104 104 100
2.381467e+00 1.524848e+00 2.900968e+00 144 131 114
-1.595886e+00 1.268662e+00 1.230857e+00 163 156 158
-1.667107e+00 1.262524e+00 1.207390e+00 93 87 89
3.219012e+00 1.128215e+00 4.035988e+00 81 70 61
5.950030e-01 1.693462e+00 1.734526e+00 162 151 139
3.558923e+00 9.862958e-01 4.507609e+00 164 153 135
3.558923e+00 9.862958e-01 4.507609e+00 164 153 135
2.368164e+00 1.560608e+00 2.921912e+00 55 46 41
-2.347108e+00 1.112981e+00 1.221084e+00 167 160 154
1.115796e+00 1.662145e+00 2.163206e+00 160 148 126
-3.542040e+00 8.098546e-01 1.138352e+00 191 183 171
-5.670893e+00 2.751823e-01 9.729985e-01 108 103 100
1.090851e+00 1.667747e+00 2.159476e+00 54 43 37
2.774378e+00 1.397987e+00 3.494694e+00 166 164 152
-4.333205e+00 6.317924e-01 1.094618e+00 103 93 90
2.397556e+00 1.568614e+00 3.076467e+00 170 162 153
8.740878e-01 1.731638e+00 2.013811e+00 157 145 117
2.872647e+00 1.418209e+00 3.625418e+00 125 116 110
-4.094552e+00 7.929907e-01 1.151072e+00 77 66 66
-4.275413e+00 7.575946e-01 1.142732e+00 165 157 136
-3.224839e+00 1.045794e+00 1.226142e+00 113 96 82
-4.759200e+00 6.639027e-01 1.103978e+00 169 165 153
9.679310e-01 1.827098e+00 2.105327e+00 181 171 161
4.761081e-01 1.884409e+00 1.792768e+00 185 178 161
3.015215e+00 1.422964e+00 3.929799e+00 165 158 150
1.684522e+00 1.834935e+00 2.526933e+00 185 180 177
3.850682e+00 1.037412e+00 5.048275e+00 178 171 160
8.968124e-01 1.862015e+00 2.086656e+00 172 162 150
-6.777947e+00 2.543879e-01 9.013986e-01 70 64 65
2.575116e+00 1.623951e+00 3.408456e+00 103 98 95
2.703746e-01 1.923507e+00 1.688079e+00 85 70 52
-4.125294e+00 9.054301e-01 1.210990e+00 69 56 51
-4.125294e+00 9.054301e-01 1.210990e+00 69 56 51
2.625515e+00 1.601045e+00 3.513999e+00 173 167 154
3.342932e+00 1.300082e+00 4.446730e+00 175 166 152
-3.441015e+00 1.103951e+00 1.263905e+00 97 90 82
-3.441015e+00 1.103951e+00 1.263905e+00 97 90 82
2.905949e+00 1.507373e+00 3.909891e+00 202 196 193
2.435651e-01 1.967899e+00 1.732590e+00 133 127 122
2.729900e-01 1.995514e+00 1.788548e+00 167 155 139
2.034414e+00 1.922586e+00 2.843729e+00 168 159 142
1.348204e+00 2.006235e+00 2.371207e+00 197 194 190
-5.143570e+00 8.096504e-01 1.197402e+00 162 157 149
-3.267988e+00 1.270153e+00 1.340116e+00 179 178 175
2.397671e+00 1.816243e+00 3.276659e+00 155 146 125
1.017901e+00 2.056147e+00 2.165305e+00 50 46 43
-2.357008e+00 1.508950e+00 1.431281e+00 175 162 143
3.736082e+00 1.237468e+00 5.075049e+00 90 83 77
2.860489e+00 1.630760e+00 3.928053e+00 165 158 146
9.942608e-01 2.070248e+00 2.176099e+00 174 173 169
-2.263684e+00 1.547988e+00 1.448970e+00 179 171 163
3.753493e+00 1.253573e+00 5.095337e+00 107 105 106
2.415548e+00 1.820688e+00 3.392843e+00 173 169 167
2.870091e+00 1.636306e+00 3.968695e+00 185 178 171
-5.108027e+00 8.975551e-01 1.233986e+00 189 187 190
2.896566e+00 1.644194e+00 4.000515e+00 189 181 176
3.200961e+00 1.502616e+00 4.417375e+00 182 172 160
3.006000e+00 1.638287e+00 4.087289e+00 186 181 175
2.914662e+00 1.654095e+00 4.028957e+00 180 176 164
-6.373705e+00 6.491572e-01 1.068987e+00 167 164 155
-6.373705e+00 6.491572e-01 1.068987e+00 167 164 155
-1.682871e+00 1.773416e+00 1.502316e+00 106 99 87
-2.121892e+00 1.699486e+00 1.508061e+00 116 108 86
-6.608114e+00 7.032127e-01 1.099450e+00 165 158 131
-2.282019e+00 1.687608e+00 1.497792e+00 121 118 113
2.424774e+00 1.914374e+00 3.510540e+00 84 74 62
-1.251127e+00 1.936303e+00 1.600582e+00 59 48 34
-6.153865e-01 2.089467e+00 1.656338e+00 92 77 64
-2.901531e+00 1.566564e+00 1.470638e+00 173 165 155
-2.213933e+00 1.737211e+00 1.551252e+00 185 179 167
2.635602e+00 1.857978e+00 3.871365e+00 168 162 149
3.160997e+00 1.677929e+00 4.483969e+00 99 90 77
3.160997e+00 1.677929e+00 4.483969e+00 99 90 77
-3.030641e+00 1.591532e+00 1.498028e+00 165 161 152
2.815805e+00 1.818441e+00 4.062685e+00 195 193 180
1.629796e+00 2.255196e+00 2.632163e+00 161 152 135
2.624757e+00 1.879011e+00 3.871749e+00 95 87 84
2.714251e+00 1.857814e+00 3.972039e+00 153 145 132
-1.924401e+00 1.867974e+00 1.583832e+00 46 37 32
-3.118925e+00 1.590729e+00 1.504417e+00 175 168 160
9.812772e-01 2.311750e+00 2.228557e+00 193 193 195
-7.320846e-01 2.128989e+00 1.718935e+00 164 157 140
-1.389384e+00 1.993435e+00 1.663969e+00 192 186 173
-1.934528e+00 1.885009e+00 1.607724e+00 168 164 160
-2.840091e+00 1.687149e+00 1.542934e+00 68 60 58
-2.840091e+00 1.687149e+00 1.542934e+00 68 60 58
1.763223e+00 2.195373e+00 2.943426e+00 161 148 132
-3.123090e+00 1.633961e+00 1.523010e+00 168 165 154
2.191851e-01 2.336894e+00 1.895651e+00 72 60 46
3.441564e+00 1.600825e+00 4.938462e+00 166 159 144
1.752433e+00 2.222583e+00 2.912178e+00 84 73 66
3.027923e+00 1.779849e+00 4.404436e+00 169 159 147
-2.070090e+00 1.895515e+00 1.649493e+00 187 183 178
2.695842e+00 1.918617e+00 4.019988e+00 95 88 81
2.669517e+00 1.934266e+00 3.983588e+00 199 191 180
-8.248430e-01 2.187870e+00 1.727262e+00 120 110 79
-2.046393e+00 1.912901e+00 1.656013e+00 63 55 50
2.245391e+00 2.096991e+00 3.486771e+00 167 159 146
1.242354e+00 2.357459e+00 2.474622e+00 191 188 183
7.416291e-01 2.410132e+00 2.141360e+00 77 61 36
-6.261094e+00 1.032500e+00 1.247278e+00 183 180 177
8.426594e-01 2.414921e+00 2.217259e+00 86 67 54
-1.406082e+00 2.097170e+00 1.702695e+00 160 157 142
1.194405e+00 2.388110e+00 2.459530e+00 178 177 178
3.500946e+00 1.634526e+00 5.073637e+00 175 171 161
-6.155022e+00 1.082369e+00 1.268256e+00 181 178 168
-6.365559e+00 1.053760e+00 1.250820e+00 121 117 114
-2.657246e+00 1.842952e+00 1.609608e+00 107 103 92
-2.719030e+00 1.825356e+00 1.626497e+00 189 183 166
2.928135e+00 1.890529e+00 4.386777e+00 162 154 138
2.928135e+00 1.890529e+00 4.386777e+00 162 154 138
2.541539e+00 2.066972e+00 3.902186e+00 159 151 132
9.220864e-01 2.498970e+00 2.261210e+00 155 140 107
2.458958e+00 2.099056e+00 3.858530e+00 190 180 173
3.415639e+00 1.732101e+00 5.049046e+00 182 175 160
-3.901983e+00 1.652294e+00 1.575803e+00 78 69 61
-1.564607e-01 2.442348e+00 1.931446e+00 163 154 124
-1.170641e+00 2.275143e+00 1.833939e+00 126 121 117
1.557506e+00 2.439808e+00 2.907464e+00 39 25 16
-1.907333e-01 2.478799e+00 1.960393e+00 94 76 56
-1.187424e+00 2.284307e+00 1.864214e+00 202 201 194
1.691106e+00 2.430980e+00 3.046689e+00 164 152 130
1.824742e+00 2.407253e+00 3.224358e+00 71 57 41
2.764998e+00 2.076906e+00 4.354504e+00 87 76 66
1.959252e+00 2.371986e+00 3.422889e+00 178 174 165
-3.596694e+00 1.865745e+00 1.693508e+00 117 116 114
-3.631492e+00 1.862385e+00 1.685626e+00 193 192 190
1.498072e+00 2.491493e+00 2.972481e+00 122 108 94
1.498072e+00 2.491493e+00 2.972481e+00 122 108 94
-8.932246e-01 2.406122e+00 1.968934e+00 177 170 155
-1.771714e+00 2.242260e+00 1.863940e+00 126 116 104
3.279797e+00 1.918513e+00 5.004190e+00 203 199 196
2.291131e+00 2.257183e+00 3.868324e+00 62 53 49
2.355403e+00 2.258156e+00 3.918714e+00 181 176 173
-1.630714e+00 2.294328e+00 1.871148e+00 135 121 100
7.153075e-01 2.653368e+00 2.283031e+00 155 139 122
2.226971e+00 2.284392e+00 3.823631e+00 197 189 178
2.723012e+00 2.136777e+00 4.375881e+00 184 177 160
2.772763e+00 2.129000e+00 4.424100e+00 124 116 105
2.772763e+00 2.129000e+00 4.424100e+00 124 116 105
-4.454563e+00 1.745461e+00 1.641515e+00 97 87 81
-1.831576e+00 2.280376e+00 1.889488e+00 165 157 136
-2.005855e+00 2.254079e+00 1.849406e+00 159 155 146
-1.817016e+00 2.299627e+00 1.895642e+00 79 69 57
4.236138e+00 1.644315e+00 6.186312e+00 185 175 165
-2.680801e+00 2.142112e+00 1.826597e+00 117 108 102
-2.680801e+00 2.142112e+00 1.826597e+00 117 108 102
-2.627495e-01 2.589034e+00 2.131385e+00 79 68 51
-1.865898e+00 2.336348e+00 1.931500e+00 169 163 151
-1.761226e+00 2.358295e+00 1.948486e+00 48 36 36
-6.596029e-01 2.571459e+00 2.073106e+00 150 138 113
-2.379105e+00 2.254052e+00 1.887787e+00 184 175 166
2.658881e+00 2.238913e+00 4.413044e+00 102 95 85
3.069454e+00 2.107186e+00 4.892008e+00 189 183 170
1.064361e+00 2.686445e+00 2.739273e+00 110 95 84
-6.195205e+00 1.565671e+00 1.506744e+00 106 97 90
3.178220e+00 2.081315e+00 5.003796e+00 133 129 121
-2.525752e+00 2.246250e+00 1.902929e+00 178 175 160
1.071845e-02 2.690760e+00 2.243149e+00 163 147 123
-2.593158e+00 2.244836e+00 1.902213e+00 104 98 84
-3.646880e+00 2.042435e+00 1.805480e+00 142 141 139
-2.557992e+00 2.272595e+00 1.899311e+00 175 167 151
-2.557992e+00 2.272595e+00 1.899311e+00 175 167 151
-4.472028e+00 1.906533e+00 1.743501e+00 181 174 171
3.441392e+00 1.999085e+00 5.391366e+00 110 101 96
3.054423e+00 2.148063e+00 4.903369e+00 202 193 184
2.555730e+00 2.319854e+00 4.327056e+00 166 160 145
-2.608614e+00 2.286487e+00 1.905504e+00 176 167 151
-2.608614e+00 2.286487e+00 1.905504e+00 176 167 151
-5.912991e+00 1.683457e+00 1.563078e+00 121 117 105
-5.912991e+00 1.683457e+00 1.563078e+00 121 117 105
-1.650649e+00 2.466680e+00 2.028665e+00 60 52 42
-5.821654e+00 1.700869e+00 1.571872e+00 76 70 71
2.964901e+00 2.198702e+00 4.829949e+00 62 49 40
2.964901e+00 2.198702e+00 4.829949e+00 62 49 40
1.702680e+00 2.594191e+00 3.424250e+00 90 78 67
-2.784508e+00 2.278122e+00 1.876240e+00 91 88 87
-2.286229e+00 2.374322e+00 1.974050e+00 167 157 148
2.947341e+00 2.216366e+00 4.833119e+00 134 126 115
4.145863e+00 1.819770e+00 6.215045e+00 151 144 125
-1.851836e+00 2.470735e+00 2.005765e+00 172 168 160
1.468537e+00 2.698464e+00 3.269079e+00 174 170 169
2.878983e+00 2.291833e+00 4.811517e+00 69 58 52
-8.036381e-01 2.690078e+00 2.220768e+00 179 172 152
-4.578385e-01 2.747297e+00 2.257220e+00 146 130 107
2.421843e+00 2.443989e+00 4.322685e+00 97 86 77
-3.328993e+00 2.271381e+00 1.925572e+00 44 40 37
4.040276e+00 1.937663e+00 6.150235e+00 157 149 136
3.926149e+00 1.976065e+00 6.018753e+00 173 167 155
3.912820e+00 1.988023e+00 5.986072e+00 72 63 58
1.867044e+00 2.633379e+00 3.715102e+00 172 165 151
-3.234085e+00 2.313419e+00 1.946216e+00 83 75 73
-2.064393e+00 2.533686e+00 2.059727e+00 84 76 71
2.944234e-01 2.861459e+00 2.497884e+00 150 136 110
-4.635745e+00 2.071885e+00 1.830514e+00 134 130 128
1.477215e+00 2.748859e+00 3.346883e+00 94 89 83
1.477215e+00 2.748859e+00 3.346883e+00 94 89 83
-3.384824e+00 2.304339e+00 1.946121e+00 166 161 155
2.851128e+00 2.342927e+00 4.869429e+00 102 94 89
-1.699210e+00 2.625456e+00 2.105055e+00 127 125 114
-3.441406e+00 2.309285e+00 1.954096e+00 182 177 173
2.464448e+00 2.504935e+00 4.390887e+00 148 145 140
3.940397e+00 2.039187e+00 6.092160e+00 89 77 65
1.896104e+00 2.687967e+00 3.823402e+00 193 184 177
1.827261e+00 2.704078e+00 3.762168e+00 95 88 72
3.834989e+00 2.096421e+00 5.993007e+00 190 180 151
-5.945953e-01 2.831901e+00 2.374153e+00 176 164 145
-1.515355e+00 2.712743e+00 2.170739e+00 122 115 96
-3.255179e+00 2.409556e+00 2.027410e+00 99 88 74
2.851727e+00 2.410735e+00 4.929497e+00 90 83 79
2.851727e+00 2.410735e+00 4.929497e+00 90 83 79
1.845812e+00 2.717570e+00 3.811004e+00 113 107 93
-1.310574e+00 2.742589e+00 2.271865e+00 60 51 44
3.888307e+00 2.109435e+00 6.103557e+00 185 176 151
1.736174e+00 2.756938e+00 3.737479e+00 170 158 133
1.837249e+00 2.741864e+00 3.819410e+00 187 180 162
1.108012e+00 2.910617e+00 3.112684e+00 148 141 130
-5.441372e+00 2.103032e+00 1.786032e+00 123 109 100
3.863113e+00 2.138474e+00 6.091699e+00 176 167 157
-3.403833e+00 2.440345e+00 2.034487e+00 161 159 147
-2.138920e+00 2.679364e+00 2.185962e+00 126 119 108
-5.382599e+00 2.144085e+00 1.819319e+00 133 124 117
-3.123885e+00 2.521673e+00 2.103604e+00 78 71 66
-2.463747e-01 2.958437e+00 2.507615e+00 134 122 107
-2.142797e+00 2.694556e+00 2.205556e+00 187 180 172
2.183798e+00 2.689564e+00 4.263808e+00 169 165 156
-2.249664e+00 2.685016e+00 2.172851e+00 79 75 64
-5.904876e+00 2.092132e+00 1.779251e+00 129 122 128
1.781660e-01 3.006725e+00 2.607986e+00 96 80 64
3.726442e+00 2.232052e+00 5.968906e+00 167 156 138
9.138801e-01 2.982964e+00 3.044506e+00 150 142 129
3.765552e+00 2.229809e+00 6.022034e+00 179 170 155
9.664683e-01 2.969094e+00 3.125671e+00 154 144 135
2.696576e+00 2.551509e+00 4.876665e+00 200 197 195
3.715013e+00 2.262665e+00 5.980729e+00 176 168 148
3.777874e+00 2.264876e+00 6.021687e+00 159 149 137
3.436520e-01 3.052675e+00 2.692110e+00 152 139 118
-4.168771e+00 2.403145e+00 2.029338e+00 116 111 105
-5.361497e-02 3.008476e+00 2.640634e+00 51 35 20
3.162411e+00 2.417368e+00 5.458064e+00 172 165 146
2.581032e+00 2.607583e+00 4.794166e+00 187 178 166
-2.032817e+00 2.770893e+00 2.275615e+00 62 49 43
2.137227e+00 2.760745e+00 4.273338e+00 97 89 78
-5.082397e+00 2.301420e+00 1.905206e+00 131 127 124
2.624374e+00 2.611374e+00 4.835156e+00 64 54 53
-4.244079e-01 3.000526e+00 2.551644e+00 119 106 87
-5.117578e+00 2.304282e+00 1.908643e+00 189 185 176
-2.136822e+00 2.789564e+00 2.294309e+00 181 175 162
2.092850e+00 2.791147e+00 4.277055e+00 151 144 125
-1.949791e+00 2.831568e+00 2.333153e+00 175 169 146
-3.914822e+00 2.525473e+00 2.107706e+00 64 55 52
2.447258e+00 2.685518e+00 4.727254e+00 75 67 64
2.108274e+00 2.801281e+00 4.315085e+00 190 183 179
-3.975503e+00 2.528462e+00 2.114823e+00 151 144 129
-1.951471e+00 2.853978e+00 2.345805e+00 85 74 68
-1.737454e+00 2.888907e+00 2.370144e+00 67 57 47
-2.011343e+00 2.857689e+00 2.330526e+00 93 84 75
-2.015277e+00 2.854106e+00 2.335643e+00 93 84 75
-1.980043e+00 2.865962e+00 2.336507e+00 164 157 140
-1.980043e+00 2.865962e+00 2.336507e+00 164 157 140
3.030382e+00 2.540109e+00 5.399101e+00 150 142 129
-9.337048e-01 3.011704e+00 2.540236e+00 152 140 114
-3.711820e-01 3.081459e+00 2.627902e+00 176 171 164
-2.932916e+00 2.733753e+00 2.250548e+00 187 179 166
2.405681e+00 2.732377e+00 4.733263e+00 79 69 59
-1.686148e-01 3.093597e+00 2.739972e+00 170 161 142
-7.877189e-01 3.044942e+00 2.579749e+00 170 162 150
1.824082e+00 2.930189e+00 4.040762e+00 114 101 83
-1.026374e+00 3.024315e+00 2.523507e+00 76 69 64
-2.080281e+00 2.886840e+00 2.371427e+00 191 188 183
1.410167e+00 3.024698e+00 3.687660e+00 114 102 88
2.106524e-01 3.150930e+00 2.834074e+00 86 74 62
2.530685e+00 2.735745e+00 4.874753e+00 193 189 180
1.308826e+00 3.039002e+00 3.628323e+00 159 150 137
-7.562671e-01 3.069747e+00 2.606279e+00 176 164 144
3.531174e+00 2.466502e+00 5.920360e+00 156 148 128
1.259396e+00 3.060736e+00 3.588565e+00 71 62 51
2.319912e+00 2.795476e+00 4.705814e+00 180 171 164
-1.862596e+00 2.956549e+00 2.436688e+00 182 181 177
-5.042392e+00 2.491167e+00 2.016726e+00 162 150 128
3.837623e-02 3.186773e+00 2.764247e+00 122 109 86
-1.905083e+00 2.954026e+00 2.441324e+00 115 108 106
-1.905083e+00 2.954026e+00 2.441324e+00 115 108 106
-8.645377e-01 3.093413e+00 2.625354e+00 148 135 122
-2.652205e+00 2.861462e+00 2.349909e+00 108 100 90
-2.652205e+00 2.861462e+00 2.349909e+00 108 100 90
2.328315e+00 2.830891e+00 4.724267e+00 179 171 156
7.130687e-01 3.163671e+00 3.206844e+00 186 184 167
-5.167315e+00 2.506051e+00 2.028832e+00 158 150 131
1.857218e+00 2.976862e+00 4.182220e+00 98 90 78
1.175168e+00 3.108278e+00 3.598885e+00 71 60 54
-1.952395e+00 2.988539e+00 2.454616e+00 128 128 126
1.349435e+00 3.090216e+00 3.733926e+00 68 58 56
4.064636e-01 3.215659e+00 2.985118e+00 83 74 60
-1.006301e+00 3.113742e+00 2.601438e+00 60 51 47
1.849114e+00 2.991294e+00 4.195721e+00 167 160 149
1.173300e+00 3.121931e+00 3.613756e+00 177 170 148
1.173300e+00 3.121931e+00 3.613756e+00 177 170 148
1.218838e+00 3.118325e+00 3.648135e+00 183 172 150
-4.055602e+00 2.711186e+00 2.237212e+00 67 61 60
-7.430168e-01 3.151889e+00 2.730748e+00 170 161 146
-8.941989e-01 3.146846e+00 2.675871e+00 100 92 89
-4.011540e+00 2.731479e+00 2.255102e+00 121 113 109
-4.011540e+00 2.731479e+00 2.255102e+00 121 113 109
1.610824e+00 3.067346e+00 4.040270e+00 186 182 174
-2.977440e+00 2.892747e+00 2.360156e+00 184 181 176
3.355390e+00 2.626225e+00 5.818016e+00 168 159 142
1.574182e+00 3.091552e+00 4.029595e+00 173 166 146
-1.639322e+00 3.094553e+00 2.567287e+00 179 175 163
-6.811384e-01 3.204626e+00 2.749590e+00 181 173 163
1.663618e+00 3.083889e+00 4.137437e+00 81 68 61
3.561093e+00 2.592258e+00 6.120921e+00 142 142 145
1.667030e+00 3.098183e+00 4.168686e+00 183 175 164
1.625271e+00 3.112504e+00 4.132593e+00 157 146 125
-7.686569e-01 3.230183e+00 2.783470e+00 95 88 80
-9.761952e-01 3.227193e+00 2.682090e+00 124 112 96
-4.984444e+00 2.697324e+00 2.152724e+00 119 109 103
-1.537642e+00 3.161773e+00 2.632673e+00 177 169 151
-1.537642e+00 3.161773e+00 2.632673e+00 177 169 151
2.771492e+00 2.839082e+00 5.354891e+00 98 83 84
-4.954775e+00 2.723953e+00 2.158465e+00 179 171 166
1.017817e+00 3.248903e+00 3.618937e+00 156 144 130
-1.579709e+00 3.182064e+00 2.652029e+00 192 188 177
-1.579071e+00 3.183341e+00 2.650908e+00 192 188 177
-1.517501e+00 3.205654e+00 2.672923e+00 173 163 141
1.578570e+00 3.166032e+00 4.176972e+00 204 199 193
3.462903e+00 2.710277e+00 6.100016e+00 213 214 218
1.738745e+00 3.162675e+00 4.280281e+00 168 161 151
-3.744682e+00 2.949919e+00 2.396101e+00 131 130 127
1.558600e+00 3.191308e+00 4.188323e+00 148 142 130
-1.656990e+00 3.222113e+00 2.679388e+00 181 174 164
-1.656990e+00 3.222113e+00 2.679388e+00 181 174 164
-3.219020e-01 3.346131e+00 2.972200e+00 152 144 127
-3.779115e-01 3.342483e+00 2.947748e+00 147 135 121
3.174415e+00 2.815421e+00 5.798132e+00 148 140 121
3.218695e+00 2.801397e+00 5.874506e+00 101 88 70
8.397427e-01 3.329569e+00 3.573371e+00 185 173 151
8.397427e-01 3.329569e+00 3.573371e+00 185 173 151
-3.728427e-01 3.359052e+00 2.964801e+00 75 66 52
3.200976e+00 2.813275e+00 5.844909e+00 179 172 154
-1.702196e+00 3.238669e+00 2.683036e+00 173 166 156
-1.706835e+00 3.241234e+00 2.688019e+00 173 166 156
-4.869389e+00 2.835898e+00 2.244819e+00 108 99 93
-3.680789e+00 3.000581e+00 2.428669e+00 171 158 133
-2.054113e-01 3.380918e+00 3.045318e+00 76 66 64
-4.834200e+00 2.862603e+00 2.253092e+00 192 190 177
-2.152253e+00 3.217656e+00 2.632234e+00 103 88 72
-3.542021e+00 3.037032e+00 2.466800e+00 112 105 99
-4.787766e+00 2.886888e+00 2.277729e+00 148 140 128
-4.521605e-01 3.384141e+00 3.003890e+00 161 152 142
2.476512e+00 3.017680e+00 5.209895e+00 197 194 180
1.999209e+00 3.145448e+00 4.696816e+00 160 154 138
3.882986e+00 2.734983e+00 6.463791e+00 169 170 172
-3.542387e+00 3.052328e+00 2.484606e+00 191 187 177
1.977846e+00 3.159170e+00 4.682859e+00 99 92 88
1.977846e+00 3.159170e+00 4.682859e+00 99 92 88
-2.433186e+00 3.209150e+00 2.633128e+00 89 80 83
5.076812e-01 3.424003e+00 3.382260e+00 28 21 13
3.048889e+00 2.921612e+00 5.732542e+00 170 159 137
-2.403554e+00 3.218221e+00 2.645197e+00 88 83 85
1.967760e+00 3.172955e+00 4.695428e+00 193 189 180
5.959880e-01 3.413721e+00 3.500455e+00 166 155 133
-1.933811e-01 3.431540e+00 3.101382e+00 52 44 38
-4.804402e+00 2.948523e+00 2.310011e+00 69 61 66
-4.804402e+00 2.948523e+00 2.310011e+00 69 61 66
1.944770e+00 3.197365e+00 4.685202e+00 115 105 97
5.529585e-01 3.432170e+00 3.481924e+00 100 87 70
-3.407729e+00 3.114981e+00 2.532054e+00 63 52 48
-3.416299e+00 3.117375e+00 2.541481e+00 63 52 48
-5.497743e-01 3.438166e+00 2.996002e+00 64 57 51
-3.871352e+00 3.076553e+00 2.447922e+00 199 196 189
-1.400572e+00 3.367631e+00 2.836017e+00 52 48 50
-1.400572e+00 3.367631e+00 2.836017e+00 52 48 50
-3.461841e+00 3.125450e+00 2.532464e+00 62 52 50
3.158717e+00 2.923300e+00 5.915475e+00 164 152 136
-2.272550e+00 3.285085e+00 2.711575e+00 128 121 111
-3.481230e+00 3.141235e+00 2.543225e+00 184 177 173
1.873961e+00 3.225483e+00 4.697333e+00 178 171 148
2.119227e+00 3.204673e+00 4.834993e+00 140 131 116
2.119227e+00 3.204673e+00 4.834993e+00 140 131 116
1.385983e+00 3.348301e+00 4.175118e+00 207 202 198
-1.262348e+00 3.413987e+00 2.899118e+00 155 152 139
1.856132e+00 3.247450e+00 4.709658e+00 121 114 109
1.273629e+00 3.387117e+00 4.090274e+00 190 186 175
2.381373e+00 3.138568e+00 5.208114e+00 143 136 125
1.869040e+00 3.268621e+00 4.700111e+00 198 195 187
-2.422378e+00 3.317053e+00 2.732116e+00 186 185 179
-2.174174e+00 3.347936e+00 2.768096e+00 180 173 144
-1.140287e+00 3.453317e+00 2.953479e+00 103 93 84
-1.236365e+00 3.447270e+00 2.918196e+00 183 179 176
-4.247790e+00 3.122842e+00 2.432208e+00 114 105 96
1.099016e+00 3.431599e+00 4.008619e+00 75 59 45
1.099016e+00 3.431599e+00 4.008619e+00 75 59 45
-2.181448e+00 3.364802e+00 2.772885e+00 79 71 62
9.693416e-01 3.454314e+00 3.940045e+00 77 68 61
-4.653460e+00 3.095222e+00 2.417794e+00 95 83 79
-9.597782e-02 3.543313e+00 3.254733e+00 128 123 117
2.285885e+00 3.205490e+00 5.177885e+00 98 88 82
1.691272e+00 3.336067e+00 4.606216e+00 79 72 66
1.395661e-01 3.556430e+00 3.336461e+00 68 51 42
-1.127270e-01 3.555164e+00 3.252605e+00 178 175 170
1.739324e+00 3.341744e+00 4.624804e+00 145 142 133
2.277152e+00 3.217952e+00 5.193960e+00 184 174 162
-9.264003e-01 3.517731e+00 3.047848e+00 177 166 147
9.356738e-01 3.485805e+00 3.954609e+00 182 174 151
-9.944279e-01 3.518660e+00 3.029587e+00 183 174 158
-2.018593e+00 3.426629e+00 2.842392e+00 169 162 152
-3.121423e+00 3.298220e+00 2.689049e+00 90 80 79
1.256088e+00 3.465705e+00 4.150410e+00 113 106 100
8.045941e-01 3.529712e+00 3.819117e+00 169 163 149
-4.584044e+00 3.171136e+00 2.464846e+00 146 138 126
-4.324131e+00 3.202823e+00 2.485014e+00 79 69 70
8.364702e-01 3.533488e+00 3.898414e+00 182 176 173
-2.123227e+00 3.456799e+00 2.879909e+00 189 184 178
-9.465995e-01 3.568908e+00 3.107078e+00 122 115 96
2.308782e+00 3.272807e+00 5.266696e+00 132 128 127
1.457126e+00 3.451345e+00 4.524714e+00 193 186 165
2.697430e+00 3.226155e+00 5.631985e+00 189 177 166
2.266965e+00 3.307001e+00 5.265200e+00 205 203 198
-4.556777e+00 3.257652e+00 2.526999e+00 199 196 184
-1.001692e+00 3.607529e+00 3.126409e+00 127 121 113
-3.125974e+00 3.417908e+00 2.763771e+00 184 181 174
-9.578275e-01 3.620306e+00 3.162670e+00 174 166 154
1.344429e+00 3.512079e+00 4.428297e+00 95 86 81
-1.191149e+00 3.614830e+00 3.078220e+00 131 125 113
-4.673184e+00 3.273331e+00 2.536347e+00 180 180 170
8.237963e-01 3.608802e+00 4.000992e+00 126 122 110
8.674454e-01 3.609504e+00 4.027270e+00 110 104 99
-4.375590e+00 3.328949e+00 2.581228e+00 172 163 148
1.280662e+00 3.555971e+00 4.420092e+00 166 156 144
-9.160369e-01 3.669915e+00 3.226431e+00 192 188 179
-1.676316e+00 3.628324e+00 3.070814e+00 94 81 73
1.938398e+00 3.445207e+00 5.071912e+00 67 60 51
1.938398e+00 3.445207e+00 5.071912e+00 67 60 51
1.968935e+00 3.443344e+00 5.098997e+00 113 106 95
-3.043779e+00 3.507767e+00 2.843166e+00 159 152 130
1.893262e+00 3.463852e+00 5.022637e+00 187 183 170
1.328513e+00 3.571961e+00 4.527019e+00 196 190 175
-9.530559e-01 3.700934e+00 3.237517e+00 183 180 174
-3.056732e+00 3.538868e+00 2.859336e+00 175 172 161
1.937221e+00 3.483108e+00 5.091144e+00 47 40 34
-1.806702e+00 3.659373e+00 3.090609e+00 104 99 94
3.779677e-01 3.729326e+00 3.808197e+00 96 86 81
-8.007064e-01 3.742835e+00 3.299436e+00 204 201 195
-1.590319e+00 3.689234e+00 3.147510e+00 83 72 70
-3.925668e+00 3.487343e+00 2.711309e+00 160 151 138
2.693413e-01 3.753282e+00 3.730734e+00 71 58 42
-1.842694e+00 3.678504e+00 3.095373e+00 133 131 127
1.966421e+00 3.495426e+00 5.176181e+00 197 192 177
-4.295650e-01 3.767053e+00 3.447245e+00 78 62 57
4.083293e-01 3.767907e+00 3.814598e+00 109 99 90
2.057540e-01 3.777405e+00 3.724230e+00 81 67 56
-2.389365e-01 3.788400e+00 3.511980e+00 156 144 135
2.404930e+00 3.458535e+00 5.529956e+00 79 71 66
2.404930e+00 3.458535e+00 5.529956e+00 79 71 66
-1.875153e+00 3.713793e+00 3.119434e+00 178 175 166
-4.266823e+00 3.503208e+00 2.719415e+00 134 130 124
3.708598e-01 3.773345e+00 3.873467e+00 186 182 170
1.128576e+00 3.695542e+00 4.422956e+00 118 109 100
-5.978375e-01 3.796221e+00 3.428510e+00 77 68 66
-1.571721e+00 3.742097e+00 3.196368e+00 71 58 52
-4.014557e+00 3.538551e+00 2.755048e+00 78 71 66
-5.789541e-01 3.799731e+00 3.450294e+00 193 190 183
-6.563346e-01 3.831424e+00 3.435334e+00 146 139 130
-2.614900e+00 3.708325e+00 3.074563e+00 121 112 110
-3.705933e-01 3.845282e+00 3.576039e+00 192 188 180
-3.792578e+00 3.622904e+00 2.816280e+00 162 150 131
3.789909e-01 3.834721e+00 3.927679e+00 166 158 139
1.898190e+00 3.609204e+00 5.187403e+00 205 196 187
2.449541e+00 3.512788e+00 5.679599e+00 77 66 63
-1.727913e+00 3.798899e+00 3.238811e+00 125 121 118
-2.041367e-01 3.870871e+00 3.646986e+00 179 176 168
-3.168515e+00 3.697854e+00 2.957275e+00 137 127 117
-8.260418e-02 3.876195e+00 3.686408e+00 66 58 51
-3.871965e+00 3.646007e+00 2.829523e+00 61 50 55
-1.333025e+00 3.850065e+00 3.344910e+00 197 188 176
-1.385909e+00 3.865009e+00 3.344650e+00 104 95 91
-1.385909e+00 3.865009e+00 3.344650e+00 104 95 91
-3.511586e+00 3.718474e+00 2.900496e+00 176 168 156
6.783347e-01 3.853633e+00 4.231066e+00 34 28 16
-6.072441e-02 3.925030e+00 3.753591e+00 173 168 163
2.336050e+00 3.610273e+00 5.659442e+00 95 84 81
2.336050e+00 3.610273e+00 5.659442e+00 95 84 81
-4.078967e+00 3.707551e+00 2.870095e+00 188 186 178
-5.782018e-02 3.941039e+00 3.770763e+00 177 169 156
2.119723e+00 3.673391e+00 5.461886e+00 181 171 158
-2.506868e+00 3.848697e+00 3.178316e+00 179 172 154
1.259471e+00 3.826255e+00 4.746644e+00 71 59 45
-2.524987e+00 3.859966e+00 3.207445e+00 67 54 54
2.079175e+00 3.702690e+00 5.454894e+00 173 161 139
2.329192e+00 3.668585e+00 5.677803e+00 215 209 195
2.329192e+00 3.668585e+00 5.677803e+00 215 209 195
2.287560e+00 3.664761e+00 5.680927e+00 200 195 180
2.287560e+00 3.664761e+00 5.680927e+00 200 195 180
-1.086652e+00 3.967500e+00 3.533360e+00 171 165 140
-3.282324e+00 3.839818e+00 3.017701e+00 115 106 99
-4.823528e-03 3.995599e+00 3.841575e+00 149 141 122
-6.525857e-02 3.999944e+00 3.815884e+00 94 76 72
-1.384962e+00 3.968906e+00 3.452976e+00 194 190 180
-3.513920e+00 3.839573e+00 3.015458e+00 89 79 78
-1.314142e+00 3.984354e+00 3.488392e+00 190 185 165
1.336857e+00 3.863571e+00 4.939825e+00 108 101 94
-1.304542e+00 4.001572e+00 3.498054e+00 110 102 94
4.257304e-01 4.003070e+00 4.240590e+00 182 176 160
2.154464e+00 3.765096e+00 5.621051e+00 183 176 160
1.271765e+00 3.901019e+00 4.934592e+00 126 121 117
-2.207983e+00 4.002039e+00 3.365055e+00 82 73 63
2.129437e+00 3.801366e+00 5.652931e+00 109 99 94
1.506614e+00 3.920818e+00 5.130384e+00 155 151 149
2.778846e-01 4.068304e+00 4.227180e+00 73 63 54
-2.008350e+00 4.053927e+00 3.454325e+00 175 168 150
1.504571e+00 3.932810e+00 5.143602e+00 212 209 202
-5.599262e-01 4.104641e+00 3.834208e+00 116 108 106
-3.187824e+00 3.997155e+00 3.157281e+00 108 103 101
-3.624551e+00 3.982329e+00 3.115147e+00 164 158 142
5.159485e-02 4.115443e+00 4.105773e+00 129 116 108
-3.323313e+00 4.025513e+00 3.178878e+00 184 179 170
-2.392858e-01 4.157330e+00 3.981670e+00 69 60 45
-2.490228e+00 4.093091e+00 3.358377e+00 143 136 133
1.068123e+00 4.044644e+00 4.860337e+00 141 138 132
1.862197e+00 3.939585e+00 5.524424e+00 191 183 163
-2.626949e-01 4.177390e+00 4.013094e+00 186 181 162
-8.712581e-01 4.182356e+00 3.780745e+00 162 154 140
-4.868721e-02 4.173900e+00 4.114894e+00 83 69 60
1.226930e+00 4.048971e+00 5.004615e+00 203 199 189
-3.619027e+00 4.079526e+00 3.182565e+00 220 225 228
-3.364982e+00 4.097344e+00 3.241321e+00 172 162 146
-3.160393e+00 4.110298e+00 3.269123e+00 86 76 75
1.574309e+00 4.023041e+00 5.303086e+00 183 178 167
6.434749e-02 4.193920e+00 4.234168e+00 194 185 182
7.691815e-01 4.122390e+00 4.756530e+00 202 197 179
7.691815e-01 4.122390e+00 4.756530e+00 202 197 179
-6.805688e-02 4.201828e+00 4.161125e+00 86 82 82
8.440096e-01 4.141523e+00 4.845912e+00 68 58 54
7.261875e-01 4.161225e+00 4.771546e+00 68 59 53
-1.705508e+00 4.224747e+00 3.678307e+00 118 112 100
-3.366216e+00 4.155926e+00 3.283419e+00 111 101 89
-2.005603e+00 4.223346e+00 3.597555e+00 183 181 169
-1.696765e+00 4.240054e+00 3.685734e+00 203 199 184
-3.439770e-01 4.263080e+00 4.080935e+00 201 194 179
-1.868841e+00 4.242616e+00 3.628918e+00 199 196 191
-1.520372e+00 4.250617e+00 3.737000e+00 72 57 57
5.996882e-01 4.196763e+00 4.712076e+00 170 159 142
5.996882e-01 4.196763e+00 4.712076e+00 170 159 142
-1.869884e+00 4.252491e+00 3.648335e+00 136 128 126
7.665562e-01 4.183442e+00 4.840120e+00 203 199 192
6.815814e-01 4.198689e+00 4.795273e+00 170 164 152
6.815814e-01 4.198689e+00 4.795273e+00 170 164 152
7.437513e-01 4.195694e+00 4.829030e+00 121 116 110
7.898084e-01 4.195346e+00 4.853121e+00 116 109 102
1.317203e+00 4.148822e+00 5.165214e+00 160 154 133
3.563362e+00 3.918639e+00 6.753886e+00 198 197 194
-4.675855e-01 4.307473e+00 4.043535e+00 105 96 89
1.314399e+00 4.162901e+00 5.185529e+00 83 73 74
-2.835083e+00 4.267399e+00 3.431386e+00 169 163 141
-1.389924e+00 4.328903e+00 3.862579e+00 73 63 52
-1.389924e+00 4.328903e+00 3.862579e+00 73 63 52
-2.518360e+00 4.325820e+00 3.549754e+00 91 80 80
-2.912104e+00 4.312771e+00 3.466144e+00 71 62 51
1.308897e+00 4.229855e+00 5.316630e+00 196 186 153
1.508415e+00 4.212223e+00 5.493315e+00 120 117 128
-2.924847e+00 4.358074e+00 3.515344e+00 181 178 162
-1.106080e+00 4.402475e+00 3.994650e+00 127 116 113
3.323380e-01 4.352418e+00 4.668831e+00 196 189 168
-2.977557e+00 4.371003e+00 3.517167e+00 192 189 174
-8.761026e-01 4.413440e+00 4.067283e+00 79 68 68
1.205647e+00 4.281442e+00 5.272928e+00 94 87 79
-1.066972e+00 4.419919e+00 4.020730e+00 195 191 175
-1.171309e+00 4.429238e+00 3.999199e+00 190 184 170
9.998962e-01 4.332145e+00 5.126258e+00 175 170 150
-8.943845e-01 4.459986e+00 4.129536e+00 118 109 89
-8.934147e-01 4.475759e+00 4.148581e+00 162 151 133
8.562335e-01 4.383607e+00 5.061037e+00 110 99 82
-1.590701e-01 4.465605e+00 4.421309e+00 129 117 99
-9.122289e-01 4.489759e+00 4.155315e+00 122 109 99
-1.020539e+00 4.492027e+00 4.131820e+00 192 187 175
1.361614e+00 4.339654e+00 5.454843e+00 229 229 231
-6.634245e-01 4.497787e+00 4.229365e+00 74 61 53
1.012858e+00 4.380744e+00 5.224978e+00 68 58 54
-2.155644e+00 4.493661e+00 3.754169e+00 169 162 146
-2.542929e+00 4.495743e+00 3.697276e+00 176 164 148
-6.444772e-01 4.515643e+00 4.261284e+00 174 166 148
-6.960258e-01 4.521241e+00 4.244881e+00 115 107 86
-6.960258e-01 4.521241e+00 4.244881e+00 115 107 86
-7.555062e-01 4.525894e+00 4.238235e+00 175 167 155
-1.468916e-01 4.507487e+00 4.507111e+00 146 138 114
-9.277316e-01 4.529540e+00 4.173247e+00 216 212 200
1.249702e+00 4.389216e+00 5.432909e+00 226 228 227
-1.840679e+00 4.563266e+00 3.883749e+00 153 142 117
-2.271079e+00 4.559161e+00 3.814479e+00 63 53 44
5.370672e-01 4.503459e+00 4.937116e+00 155 141 121
-2.104817e+00 4.582832e+00 3.865893e+00 161 146 125
-1.835296e+00 4.597067e+00 3.925364e+00 158 146 127
5.644202e-01 4.523579e+00 5.003666e+00 170 164 156
-2.974622e-01 4.583948e+00 4.497301e+00 95 84 83
-1.946898e+00 4.608207e+00 3.921045e+00 61 49 50
6.296210e-01 4.546955e+00 5.083202e+00 81 68 64
7.420689e-01 4.535588e+00 5.182798e+00 113 101 90
5.585367e-01 4.590994e+00 5.096334e+00 163 147 126
5.585367e-01 4.590994e+00 5.096334e+00 163 147 126
5.430535e-01 4.609103e+00 5.091451e+00 101 79 60
5.259094e-01 4.622564e+00 5.107276e+00 148 132 111
-2.075256e+00 4.718720e+00 3.997579e+00 137 123 110
-1.242615e+00 4.740440e+00 4.226284e+00 158 142 109
-1.630110e+00 4.742303e+00 4.137301e+00 78 67 66
-5.604519e-02 4.721317e+00 4.762798e+00 154 138 114
1.663937e-01 4.707512e+00 4.910397e+00 145 134 109
-1.542333e+00 4.778984e+00 4.194185e+00 180 173 154
-1.464402e+00 4.784836e+00 4.212317e+00 172 163 141
-1.450984e+00 4.787803e+00 4.227206e+00 57 35 40
-1.410261e+00 4.797068e+00 4.256416e+00 196 194 182
-1.951207e-01 4.781699e+00 4.737343e+00 60 41 34
3.624558e-01 4.753768e+00 5.132133e+00 111 101 120
-7.635456e-01 4.865147e+00 4.513270e+00 101 85 63
-4.381617e-01 4.858604e+00 4.660179e+00 138 120 99
-9.411619e-01 4.886199e+00 4.480262e+00 84 66 46
-6.796836e+00 -4.851627e+00 -3.770931e-01 176 174 178
-4.462359e+00 -4.017191e+00 1.508571e-01 155 151 148
3.982496e+00 -2.195077e+00 3.431756e+00 165 165 160
9.352417e-01 -1.687190e+00 1.033716e+00 73 67 74
3.104840e+00 -1.712654e+00 2.415512e+00 176 175 170
1.079301e+00 -1.603296e+00 1.108656e+00 50 46 43
3.072253e+00 -1.635057e+00 2.392206e+00 117 114 109
3.072253e+00 -1.635057e+00 2.392206e+00 117 114 109
4.427392e+00 -2.336142e+00 4.106764e+00 173 172 168
4.392249e+00 -2.315152e+00 4.090386e+00 168 164 160
4.532742e+00 -2.338761e+00 4.207578e+00 87 86 84
-1.645531e+00 -3.009412e+00 1.124912e+00 133 130 126
2.883984e+00 -1.444461e+00 2.186693e+00 147 146 143
4.485742e+00 -2.284971e+00 4.187203e+00 75 75 68
4.513518e+00 -2.285392e+00 4.207533e+00 97 98 93
3.026856e+00 -1.418946e+00 2.358315e+00 149 149 148
3.006387e+00 -1.419181e+00 2.347597e+00 86 86 86
1.384585e+00 -1.444638e+00 1.415210e+00 158 158 158
4.420340e+00 -2.221281e+00 4.152868e+00 162 158 155
1.246335e+00 -1.390880e+00 1.302751e+00 117 116 111
2.997450e+00 -1.403043e+00 2.360531e+00 163 161 164
3.314080e+00 -1.444210e+00 2.613020e+00 84 84 80
3.286703e+00 -1.427574e+00 2.580960e+00 82 84 81
4.425503e+00 -2.167176e+00 4.165480e+00 177 178 180
3.293677e+00 -1.410485e+00 2.603096e+00 88 87 85
1.887429e+00 -1.189016e+00 1.523540e+00 156 151 145
1.869714e+00 -1.152812e+00 1.525886e+00 170 167 160
-2.147517e+00 -2.416029e+00 6.123163e-01 75 73 78
7.545006e-01 -1.172929e+00 9.775634e-01 218 218 218
2.881031e+00 -1.194774e+00 2.281437e+00 190 188 185
2.335845e+00 -1.032877e+00 1.854641e+00 98 99 93
3.554554e+00 -1.454181e+00 3.113573e+00 103 98 93
1.451474e-02 -1.373789e+00 8.826783e-01 99 97 87
1.451474e-02 -1.373789e+00 8.826783e-01 99 97 87
2.297444e+00 -1.008423e+00 1.838870e+00 194 194 195
2.265484e+00 -1.004655e+00 1.821926e+00 195 196 191
3.144246e+00 -1.123956e+00 2.494333e+00 116 116 116
2.225875e+00 -9.995869e-01 1.799285e+00 195 196 191
9.614040e-01 -1.037205e+00 1.095806e+00 167 163 150
2.032611e-02 -1.339978e+00 8.842493e-01 184 184 179
2.243822e+00 -9.904004e-01 1.812620e+00 111 110 106
1.471148e-02 -1.307508e+00 8.560333e-01 99 96 91
7.487778e-01 -1.021656e+00 9.982807e-01 149 143 134
2.193424e+00 -9.586590e-01 1.780764e+00 109 102 96
2.966788e+00 -9.915316e-01 2.358381e+00 126 127 123
2.966788e+00 -9.915316e-01 2.358381e+00 126 127 123
5.581041e-01 -9.960293e-01 9.397613e-01 66 65 60
2.145376e+00 -8.980247e-01 1.783596e+00 163 158 155
9.611959e-01 -9.281597e-01 1.115712e+00 173 173 162
1.943874e+00 -8.611149e-01 1.630186e+00 180 180 176
1.882601e+00 -8.287147e-01 1.574392e+00 177 178 172
1.990436e+00 -8.595263e-01 1.681439e+00 187 189 185
1.292285e+00 -8.686854e-01 1.292648e+00 115 114 97
1.462036e-01 -1.102578e+00 8.952173e-01 124 123 119
1.210960e+00 -8.599723e-01 1.277073e+00 127 126 122
1.210960e+00 -8.599723e-01 1.277073e+00 127 126 122
1.392553e+00 -8.438638e-01 1.375075e+00 192 189 175
1.155012e+00 -8.013364e-01 1.193612e+00 132 132 122
4.380854e+00 -1.717804e+00 4.258176e+00 177 173 171
1.218883e+00 -8.064978e-01 1.249560e+00 195 194 192
1.846468e+00 -8.015669e-01 1.622151e+00 141 140 135
1.152578e+00 -8.228200e-01 1.251746e+00 196 197 192
1.109352e+00 -7.782261e-01 1.185204e+00 128 126 114
1.109352e+00 -7.782261e-01 1.185204e+00 128 126 114
1.844491e+00 -7.573431e-01 1.594137e+00 135 132 125
2.639815e+00 -7.903850e-01 2.134906e+00 143 144 139
3.343111e+00 -1.021864e+00 2.874143e+00 142 137 133
1.911104e+00 -7.424863e-01 1.668825e+00 140 141 136
1.882205e+00 -7.514196e-01 1.659270e+00 177 177 175
4.226304e+00 -1.584949e+00 4.132661e+00 166 165 164
3.432208e+00 -9.933649e-01 3.028496e+00 162 156 150
4.116309e+00 -1.424957e+00 4.010311e+00 159 156 152
3.438446e+00 -9.804094e-01 3.041903e+00 127 122 114
3.468834e+00 -9.780561e-01 3.072474e+00 133 129 120
7.494225e-01 -6.861476e-01 1.103922e+00 139 140 135
7.494225e-01 -6.861476e-01 1.103922e+00 139 140 135
3.281160e+00 -8.926797e-01 2.872616e+00 119 112 104
-3.214566e+00 -2.067443e+00 5.268179e-01 142 138 135
3.761497e-01 -6.577162e-01 9.188607e-01 191 188 175
4.537511e+00 -1.610912e+00 4.608691e+00 111 107 97
4.142120e-01 -5.622974e-01 8.527550e-01 180 177 161
1.751187e+00 -5.794460e-01 1.650875e+00 174 172 160
2.841480e+00 -6.165539e-01 2.360946e+00 131 130 126
2.746822e+00 -5.191105e-01 2.264129e+00 166 165 160
4.897011e-01 -5.249778e-01 9.958749e-01 152 149 139
2.422359e+00 -4.593225e-01 2.053049e+00 167 162 158
4.506984e+00 -1.488443e+00 4.628000e+00 165 164 160
4.517802e+00 -1.476815e+00 4.638378e+00 116 115 113
3.258180e+00 -7.255061e-01 2.926692e+00 162 159 152
9.406481e-01 -5.388951e-01 1.320626e+00 107 101 97
-2.121192e+00 -1.880786e+00 1.151723e+00 173 172 167
9.027007e-01 -5.165211e-01 1.308055e+00 76 73 64
4.450847e+00 -1.382199e+00 4.548562e+00 166 165 162
4.427405e+00 -1.375482e+00 4.525755e+00 172 171 166
1.750907e+00 -4.169745e-01 1.705580e+00 157 153 142
2.615515e+00 -3.691244e-01 2.185049e+00 113 113 101
1.763820e+00 -3.937650e-01 1.728659e+00 87 83 74
1.467890e+00 -3.884304e-01 1.597572e+00 100 93 82
1.467890e+00 -3.884304e-01 1.597572e+00 100 93 82
8.640343e-01 -4.811361e-01 1.361379e+00 174 174 163
1.752821e+00 -3.636113e-01 1.745341e+00 110 108 96
8.594335e-01 -4.734295e-01 1.415434e+00 110 110 99
2.939350e+00 -3.506419e-01 2.488351e+00 152 146 130
3.237016e+00 -5.469486e-01 2.941194e+00 123 115 102
3.279971e+00 -5.302994e-01 2.994532e+00 152 146 138
1.991280e+00 -2.167262e-01 1.853830e+00 189 188 183
4.653936e-01 -4.846830e-01 1.308116e+00 137 133 121
4.421651e+00 -1.113941e+00 4.562126e+00 153 147 137
3.272283e+00 -4.373573e-01 3.008210e+00 92 91 86
-2.676071e+00 -1.215876e+00 6.119265e-01 185 180 174
3.650149e+00 -5.816993e-01 3.505437e+00 111 110 106
4.013101e+00 -7.761883e-01 4.023556e+00 175 170 151
3.984423e+00 -7.725480e-01 4.009309e+00 100 94 79
1.084696e+00 -1.765577e-01 1.516315e+00 185 183 172
4.405007e+00 -1.013708e+00 4.603296e+00 88 82 77
4.001060e+00 -7.635622e-01 4.033515e+00 105 102 88
1.933987e+00 -6.860314e-02 1.910415e+00 172 171 167
4.058524e+00 -7.566822e-01 4.090081e+00 95 91 82
4.002770e+00 -7.436515e-01 4.044148e+00 150 144 133
4.002770e+00 -7.436515e-01 4.044148e+00 150 144 133
2.632786e+00 -8.559932e-02 2.365532e+00 168 165 156
2.478262e+00 -1.777797e-02 2.246720e+00 113 108 99
1.807362e+00 1.855326e-02 1.887406e+00 183 178 172
3.349099e+00 -2.415091e-01 3.144482e+00 128 126 113
3.307528e+00 -2.227709e-01 3.108194e+00 118 114 105
3.307528e+00 -2.227709e-01 3.108194e+00 118 114 105
3.563462e+00 -3.770904e-01 3.479385e+00 155 150 146
-2.362423e+00 -7.862344e-01 6.526759e-01 147 142 138
3.355064e+00 -2.240223e-01 3.160737e+00 125 121 110
2.108350e+00 7.574105e-02 2.043344e+00 92 87 81
9.541604e-01 -1.003768e-01 1.617861e+00 151 150 146
3.251941e+00 -1.728080e-01 3.068109e+00 124 119 113
1.619313e+00 1.144600e-01 1.777866e+00 115 116 110
1.453783e+00 9.028729e-02 1.731211e+00 173 173 173
8.574593e-01 -1.953789e-02 1.530223e+00 106 107 105
3.974938e+00 -5.270006e-01 4.073333e+00 157 153 150
4.722919e+00 -9.457121e-01 5.133816e+00 155 151 141
3.624711e+00 -2.899232e-01 3.598703e+00 161 158 151
3.644927e+00 -2.841888e-01 3.625153e+00 151 148 144
3.130062e+00 -1.265064e-03 2.953229e+00 172 164 146
3.150741e+00 7.231581e-03 2.992052e+00 163 156 146
3.856583e+00 -3.721340e-01 4.008595e+00 114 109 103
3.787680e+00 -2.927917e-01 3.883673e+00 157 154 147
2.566589e+00 2.864110e-01 2.376519e+00 89 84 78
-9.162478e-01 -3.952177e-02 8.366247e-01 79 75 78
-2.350129e+00 -4.330117e-01 6.776062e-01 170 163 156
3.292648e+00 5.803792e-02 3.176916e+00 144 140 129
2.872604e+00 2.873563e-01 2.622689e+00 175 168 157
3.782654e+00 -2.280827e-01 3.891620e+00 122 115 104
1.573121e+00 3.613463e-01 1.788804e+00 173 172 167
3.756453e-01 3.461522e-01 1.143518e+00 98 86 77
-9.586025e-01 4.865425e-02 8.003981e-01 80 76 73
2.102486e+00 3.932372e-01 2.090014e+00 129 126 119
1.677384e+00 3.762259e-01 1.873385e+00 192 191 186
-7.672033e-03 3.412375e-01 9.920144e-01 122 117 114
2.431778e+00 3.350126e-01 2.371239e+00 210 207 197
-6.666852e-01 2.112539e-01 8.004040e-01 124 117 107
-1.753083e+00 -2.083208e-01 7.896384e-01 162 157 151
3.862691e+00 -2.370005e-01 4.053887e+00 121 117 113
3.862691e+00 -2.370005e-01 4.053887e+00 121 117 113
2.255222e+00 4.181777e-01 2.198139e+00 129 120 106
-3.239258e+00 -6.562906e-01 6.392954e-01 92 85 70
3.412601e+00 8.753557e-03 3.458307e+00 158 151 148
-1.972209e-01 4.456463e-01 7.999460e-01 75 67 55
-1.972209e-01 4.456463e-01 7.999460e-01 75 67 55
2.024356e+00 4.425654e-01 2.058595e+00 111 107 104
4.234797e-01 2.625364e-01 1.414059e+00 139 136 129
2.759886e-02 4.804184e-01 9.081742e-01 160 144 128
2.243689e+00 3.853358e-01 2.272906e+00 122 114 109
1.269950e-02 4.330043e-01 9.790973e-01 66 61 54
2.044858e+00 4.713302e-01 2.070375e+00 148 145 138
1.161547e-02 4.989202e-01 9.007936e-01 74 60 48
-7.187193e-01 2.875462e-01 7.793289e-01 133 125 105
3.755211e+00 -1.396455e-01 3.954744e+00 170 167 156
1.894103e+00 4.842985e-01 2.002180e+00 188 183 177
1.453700e+00 4.517823e-01 1.801507e+00 127 125 119
1.453700e+00 4.517823e-01 1.801507e+00 127 125 119
1.225458e+00 4.042951e-01 1.750092e+00 86 80 73
-7.864246e-01 2.919430e-01 7.947722e-01 193 187 172
-5.490327e-02 5.017261e-01 9.335002e-01 74 66 64
-3.230674e+00 -5.398508e-01 6.631379e-01 152 141 123
1.298326e+00 4.529868e-01 1.769804e+00 180 176 167
-1.647111e+00 -2.513489e-02 8.029272e-01 59 53 42
-6.123425e+00 -1.406645e+00 3.628649e-01 158 154 144
2.797843e+00 4.683642e-01 2.634234e+00 98 89 82
-1.178054e+00 1.589861e-01 8.239184e-01 109 101 90
2.561981e+00 5.059633e-01 2.456297e+00 93 85 72
1.490895e+00 5.161589e-01 1.845970e+00 33 28 29
1.490895e+00 5.161589e-01 1.845970e+00 33 28 29
-1.721138e+00 -1.534839e-02 7.999691e-01 92 83 74
3.038866e+00 3.272091e-01 2.991783e+00 99 93 81
-3.140634e+00 -4.405426e-01 6.796978e-01 152 144 124
1.372279e+00 5.089130e-01 1.826913e+00 172 169 157
2.860820e+00 4.939955e-01 2.691642e+00 105 102 97
3.041422e+00 3.495812e-01 3.033380e+00 172 166 153
3.063167e+00 3.467399e-01 3.062342e+00 167 161 145
6.656858e-01 4.918311e-01 1.533381e+00 187 183 174
2.596411e+00 5.687269e-01 2.527934e+00 125 120 114
2.596411e+00 5.687269e-01 2.527934e+00 125 120 114
7.061922e-01 5.602689e-01 1.523605e+00 86 82 70
3.749215e-01 4.644139e-01 1.477161e+00 112 108 97
3.749215e-01 4.644139e-01 1.477161e+00 112 108 97
-1.712600e+00 1.190481e-01 8.159401e-01 117 114 109
-6.021319e-01 5.528887e-01 8.220476e-01 133 124 109
-3.429312e+00 -4.251577e-01 7.046765e-01 178 170 163
2.785554e+00 6.234739e-01 2.643603e+00 124 117 107
2.972902e+00 4.358252e-01 3.041198e+00 171 161 151
-1.208431e+00 3.440445e-01 8.232997e-01 103 94 86
-2.202922e+00 1.901546e-05 8.040592e-01 81 70 66
1.184040e+00 6.347448e-01 1.762390e+00 177 173 163
2.193144e-01 5.467035e-01 1.378590e+00 186 182 169
1.905628e+00 6.999830e-01 2.115481e+00 171 165 152
4.468439e+00 -3.092347e-01 5.051946e+00 138 131 119
-3.088230e+00 -2.325495e-01 7.362482e-01 142 131 111
2.623327e+00 6.643863e-01 2.583253e+00 114 107 88
4.424382e+00 -2.876674e-01 5.022024e+00 162 154 153
1.912632e+00 7.037166e-01 2.139943e+00 81 74 66
1.893221e+00 6.195092e-01 2.253950e+00 114 109 105
1.355830e+00 6.539823e-01 1.925017e+00 112 109 98
1.205951e+00 6.438421e-01 1.855360e+00 178 177 173
4.424970e+00 -2.643793e-01 5.031694e+00 67 62 59
1.731126e+00 7.290961e-01 2.046080e+00 88 82 70
2.364397e+00 7.355083e-01 2.391300e+00 170 157 143
1.573518e+00 7.474269e-01 1.932571e+00 87 84 75
2.319927e+00 7.394807e-01 2.373316e+00 74 64 58
1.012756e+00 6.555514e-01 1.772400e+00 120 118 114
-7.082584e-01 6.390246e-01 8.381793e-01 193 186 178
-2.084104e+00 1.300239e-01 8.322714e-01 90 87 81
1.734276e+00 7.541641e-01 2.049028e+00 187 180 172
5.621637e-01 6.213423e-01 1.579607e+00 126 123 114
2.060859e-01 6.499429e-01 1.340152e+00 163 158 151
-7.275923e-01 6.401902e-01 8.352254e-01 92 88 84
1.644949e-01 6.669184e-01 1.303836e+00 174 170 158
-5.939757e-01 6.802162e-01 8.733583e-01 112 105 95
2.442172e+00 7.487811e-01 2.467840e+00 93 86 66
2.201987e+00 7.641527e-01 2.312471e+00 114 106 96
2.966100e+00 5.600988e-01 3.051141e+00 122 114 100
-8.662100e-01 6.043523e-01 8.545877e-01 161 157 146
-9.537853e-01 5.788488e-01 8.423188e-01 164 161 152
3.618422e+00 2.328634e-01 3.928951e+00 109 102 90
3.618422e+00 2.328634e-01 3.928951e+00 109 102 90
-3.217071e+00 -1.851074e-01 7.621553e-01 169 161 153
5.438219e-01 7.010342e-01 1.518095e+00 176 172 160
1.513117e+00 7.948901e-01 1.938602e+00 116 110 98
