ply
format ascii 1.0
element face 0
property list uchar int vertex_indices
element vertex 939
property float x
property float y
property float z
property uchar diffuse_red
property uchar diffuse_green
property uchar diffuse_blue
end_header
-7.269098e-01 3.041106e+00 2.757164e+00 151 138 119
-7.918219e-01 3.040162e+00 2.732999e+00 158 149 133
-7.918219e-01 3.040162e+00 2.732999e+00 158 149 133
-2.756095e+00 2.779507e+00 2.348266e+00 93 84 77
-7.660653e-01 3.044667e+00 2.738183e+00 77 69 55
-3.944622e+00 2.598846e+00 2.164570e+00 86 76 70
-2.845754e+00 2.784329e+00 2.340523e+00 69 60 55
1.813424e+00 2.816934e+00 4.316246e+00 187 179 166
1.502719e+00 2.941638e+00 3.953951e+00 180 173 154
1.368036e+00 2.954181e+00 3.880214e+00 188 183 164
-2.802536e+00 2.801273e+00 2.369833e+00 136 128 119
-2.852782e+00 2.795713e+00 2.362616e+00 156 150 142
-2.815104e+00 2.810817e+00 2.363693e+00 91 86 80
-2.859378e+00 2.810576e+00 2.343589e+00 72 69 66
-2.866963e+00 2.804617e+00 2.352785e+00 72 69 66
-2.784383e+00 2.814456e+00 2.381253e+00 84 80 78
-3.015446e+00 2.797524e+00 2.305080e+00 92 89 87
-1.648619e+00 2.987208e+00 2.573186e+00 128 125 118
5.240943e-01 3.133978e+00 3.242369e+00 170 163 144
-6.552353e-01 3.094651e+00 2.842431e+00 90 76 70
-8.212299e-01 3.101756e+00 2.769344e+00 119 111 102
1.762756e+00 2.863733e+00 4.315795e+00 165 156 147
1.128704e+00 3.049953e+00 3.708467e+00 63 49 30
-2.679061e+00 2.864892e+00 2.430152e+00 189 183 171
3.475355e+00 2.239350e+00 6.184831e+00 116 107 101
1.632535e+00 2.910360e+00 4.222695e+00 166 155 137
-6.581245e-01 3.136750e+00 2.881909e+00 176 169 153
-8.617548e-01 3.140568e+00 2.786442e+00 114 106 93
1.614788e+00 2.927176e+00 4.248020e+00 166 159 146
1.546004e+00 2.951655e+00 4.201610e+00 102 92 90
-1.583893e+00 3.059906e+00 2.681501e+00 152 148 148
-5.321688e-01 3.172355e+00 2.917719e+00 127 115 94
-1.275886e+00 3.103146e+00 2.731930e+00 83 72 55
-4.756817e+00 2.644989e+00 2.101668e+00 120 113 96
-5.968858e-01 3.176029e+00 2.902117e+00 152 143 123
-1.469582e+00 3.090156e+00 2.720672e+00 55 49 44
2.715006e+00 2.559733e+00 5.454628e+00 196 188 179
-2.570402e+00 2.961395e+00 2.532933e+00 91 89 83
-4.153874e-01 3.218274e+00 3.011758e+00 190 186 173
2.098588e+00 2.796174e+00 4.873369e+00 208 202 185
1.107576e+00 3.122657e+00 3.850130e+00 142 130 114
9.223777e-01 3.154465e+00 3.720134e+00 191 179 163
7.680813e-01 3.186802e+00 3.613040e+00 144 133 108
-4.307140e-01 3.238278e+00 3.035033e+00 187 179 165
2.005940e+00 2.864451e+00 4.757149e+00 65 57 54
8.256946e-01 3.185512e+00 3.672727e+00 141 130 113
2.062124e+00 2.845223e+00 4.828815e+00 175 166 155
-1.596112e+00 3.140861e+00 2.754396e+00 64 56 54
-1.598239e+00 3.143144e+00 2.756576e+00 64 56 54
1.548593e+00 3.005393e+00 4.335926e+00 199 194 185
-1.223174e+00 3.178193e+00 2.860000e+00 179 170 156
6.944677e-01 3.216698e+00 3.580499e+00 169 162 134
2.017624e+00 2.861389e+00 4.806107e+00 76 72 61
7.464047e-01 3.206424e+00 3.631129e+00 167 158 147
-7.401455e-02 3.298561e+00 3.101800e+00 133 120 111
1.995804e+00 2.865568e+00 4.813360e+00 181 176 170
8.344560e-01 3.197134e+00 3.702510e+00 172 164 143
-1.300159e+00 3.181925e+00 2.849750e+00 127 120 102
2.088858e+00 2.846176e+00 4.889147e+00 101 96 90
-9.779588e-02 3.270354e+00 3.178264e+00 121 110 104
1.411037e+00 3.061972e+00 4.216310e+00 157 153 143
2.024162e+00 2.856314e+00 4.863291e+00 191 185 179
-4.859700e+00 2.759530e+00 2.195030e+00 131 123 123
-2.298725e-01 3.276690e+00 3.160036e+00 175 165 150
1.888059e+00 2.914163e+00 4.760093e+00 184 177 170
-3.619510e+00 2.935283e+00 2.453115e+00 169 166 157
1.561447e+00 3.044863e+00 4.396851e+00 155 150 147
2.538562e+00 2.703106e+00 5.439167e+00 174 168 152
1.966223e+00 2.923544e+00 4.791646e+00 83 75 62
1.902369e+00 2.932966e+00 4.753012e+00 144 137 131
-3.306985e+00 2.979113e+00 2.521480e+00 174 167 149
-3.588865e+00 2.943193e+00 2.469891e+00 170 166 154
-2.289454e+00 3.109170e+00 2.697054e+00 188 181 170
-3.528611e+00 2.954380e+00 2.483402e+00 114 109 100
-5.497977e-02 3.310441e+00 3.252255e+00 78 68 63
2.001862e+00 2.898617e+00 4.897914e+00 105 100 94
-2.309003e+00 3.119584e+00 2.708406e+00 106 101 97
-3.484872e-01 3.307966e+00 3.176166e+00 178 175 167
1.932332e+00 2.949361e+00 4.805359e+00 66 55 44
5.654559e-01 3.292154e+00 3.589804e+00 66 53 43
-2.445824e+00 3.126630e+00 2.678914e+00 203 200 195
-4.613732e+00 2.866975e+00 2.279296e+00 110 105 109
4.958272e-01 3.304601e+00 3.557301e+00 151 135 106
-2.084471e+00 3.173958e+00 2.778943e+00 71 61 51
-1.346590e+00 3.256230e+00 2.928048e+00 178 176 174
6.621610e-01 3.298428e+00 3.698444e+00 197 191 176
-1.277779e+00 3.272798e+00 2.971968e+00 193 187 184
1.284449e+00 3.167742e+00 4.224246e+00 172 163 154
-3.232602e+00 3.049776e+00 2.606064e+00 77 68 64
1.232733e+00 3.170371e+00 4.214875e+00 176 170 148
-3.217333e+00 3.065630e+00 2.616580e+00 189 185 172
-4.711319e-02 3.412176e+00 3.263698e+00 165 153 132
-9.968116e-02 3.377382e+00 3.321381e+00 165 153 132
1.094190e+00 3.217930e+00 4.137023e+00 87 76 62
-2.143336e+00 3.217231e+00 2.816412e+00 185 177 171
-3.559518e+00 3.065570e+00 2.571601e+00 69 64 64
-2.230088e+00 3.222321e+00 2.819897e+00 181 176 156
-2.246955e+00 3.234702e+00 2.831777e+00 100 96 95
5.893144e-01 3.367406e+00 3.707612e+00 166 158 137
-2.149007e+00 3.253304e+00 2.842993e+00 174 168 147
-3.360805e+00 3.105698e+00 2.654222e+00 183 180 172
-3.495230e+00 3.094513e+00 2.612964e+00 107 103 100
-1.051210e+00 3.364001e+00 3.114082e+00 170 162 145
2.426596e-01 3.418148e+00 3.529458e+00 135 128 110
9.990669e-01 3.288589e+00 4.149343e+00 97 87 77
2.649589e-01 3.426056e+00 3.571703e+00 167 159 140
2.219087e-01 3.431299e+00 3.545507e+00 107 98 83
2.629202e-01 3.448968e+00 3.525388e+00 159 151 130
-1.192756e-01 3.434942e+00 3.412025e+00 189 186 181
-2.191201e+00 3.284980e+00 2.894736e+00 186 181 171
-9.363423e-01 3.407561e+00 3.181045e+00 100 91 74
8.870179e-01 3.327834e+00 4.075454e+00 70 62 60
1.104641e+00 3.286898e+00 4.245912e+00 186 179 163
1.945850e-01 3.446281e+00 3.552693e+00 147 137 127
1.033802e+00 3.306032e+00 4.214724e+00 128 121 112
1.500895e-01 3.456415e+00 3.545289e+00 169 157 144
1.160046e+00 3.288687e+00 4.303684e+00 176 169 161
-2.091582e+00 3.322115e+00 2.947244e+00 107 102 91
1.766434e+00 3.118272e+00 4.891931e+00 210 206 197
-8.468138e-01 3.434268e+00 3.239633e+00 181 171 159
1.458291e+00 3.222087e+00 4.630413e+00 77 67 50
-1.025435e+00 3.438996e+00 3.212406e+00 205 203 191
1.595498e+00 3.191230e+00 4.780595e+00 115 105 98
-2.032698e+00 3.368340e+00 2.996226e+00 130 125 120
1.420914e+00 3.240224e+00 4.622283e+00 158 150 140
-8.043106e-01 3.465437e+00 3.286622e+00 104 95 78
1.566146e+00 3.199873e+00 4.766914e+00 124 116 104
1.566146e+00 3.199873e+00 4.766914e+00 124 116 104
1.424076e+00 3.249767e+00 4.654091e+00 169 158 145
1.378146e+00 3.261808e+00 4.607048e+00 161 148 138
2.666085e+00 2.906022e+00 5.824398e+00 191 183 163
-2.952103e+00 3.308889e+00 2.831873e+00 120 113 102
1.352989e+00 3.277932e+00 4.606551e+00 160 150 140
7.292763e-01 3.429207e+00 4.073195e+00 141 128 111
-3.917082e+00 3.238789e+00 2.621017e+00 128 122 108
1.357503e+00 3.287339e+00 4.635110e+00 177 171 158
-6.545857e-01 3.526891e+00 3.375031e+00 173 163 150
1.962670e+00 3.127407e+00 5.240931e+00 134 125 117
6.718078e-01 3.454970e+00 4.075685e+00 180 172 161
1.445360e+00 3.274171e+00 4.754863e+00 126 117 108
-3.282630e+00 3.323898e+00 2.817628e+00 187 186 182
5.952448e-01 3.481236e+00 4.023357e+00 71 59 44
-3.084597e+00 3.355485e+00 2.890233e+00 153 149 147
-2.865012e+00 3.384857e+00 2.946923e+00 109 101 89
-5.787251e-01 3.559467e+00 3.471575e+00 91 81 70
1.339146e+00 3.328290e+00 4.706188e+00 112 101 100
-5.372395e-01 3.566188e+00 3.480681e+00 129 116 101
1.979606e+00 3.162227e+00 5.320685e+00 107 100 90
1.313883e+00 3.345837e+00 4.700712e+00 116 110 109
-1.641966e+00 3.514027e+00 3.217726e+00 177 170 152
-6.023102e-01 3.573798e+00 3.492617e+00 122 112 102
4.485051e-01 3.534017e+00 4.008290e+00 142 129 108
2.041456e+00 3.155767e+00 5.411500e+00 188 184 176
-4.721144e-01 3.585767e+00 3.558896e+00 145 133 119
2.023406e+00 3.162315e+00 5.406116e+00 130 124 118
1.970968e+00 3.175589e+00 5.371535e+00 141 133 121
4.368577e-01 3.541898e+00 4.023091e+00 103 91 74
5.840333e-01 3.530882e+00 4.122556e+00 175 169 157
-2.676449e+00 3.466675e+00 3.032448e+00 81 72 67
-1.493375e+00 3.561302e+00 3.305630e+00 176 168 156
-4.181826e+00 3.345337e+00 2.721110e+00 119 116 110
1.920901e+00 3.212573e+00 5.348680e+00 105 97 89
-5.052615e-01 3.612088e+00 3.583994e+00 161 150 128
1.144934e+00 3.443687e+00 4.587019e+00 157 145 133
4.083150e-01 3.599417e+00 3.983361e+00 141 131 112
5.071843e-01 3.590044e+00 4.067374e+00 201 195 189
2.878324e-01 3.600712e+00 3.971633e+00 81 72 65
1.889864e+00 3.240315e+00 5.358462e+00 150 144 143
-2.531718e-01 3.640863e+00 3.730466e+00 95 83 82
-1.581278e+00 3.596477e+00 3.336071e+00 102 85 70
-4.857969e-01 3.652166e+00 3.647146e+00 136 133 128
-2.549487e-01 3.648604e+00 3.749282e+00 188 181 173
2.380711e+00 3.159536e+00 5.794208e+00 187 175 166
3.153175e-01 3.636596e+00 4.002041e+00 92 87 81
-3.418377e-01 3.669231e+00 3.745226e+00 99 94 85
-2.917880e+00 3.533496e+00 3.076557e+00 168 164 159
9.785972e-01 3.525311e+00 4.569202e+00 67 57 44
-1.318889e-02 3.681312e+00 3.859064e+00 60 51 44
-1.291175e+00 3.661055e+00 3.464882e+00 195 190 174
9.331207e-01 3.541557e+00 4.565603e+00 165 157 137
1.017112e+00 3.530293e+00 4.629169e+00 116 106 94
-1.295052e+00 3.699279e+00 3.515706e+00 149 140 136
9.241181e-01 3.577156e+00 4.631040e+00 126 117 107
-3.567178e+00 3.571079e+00 2.969067e+00 84 75 65
-1.104496e-01 3.731676e+00 3.907988e+00 165 157 138
2.256782e+00 3.265473e+00 5.793458e+00 165 152 143
-5.377296e-02 3.736908e+00 3.933493e+00 110 101 93
3.280414e-02 3.736677e+00 3.970601e+00 167 153 140
1.419988e+00 3.477847e+00 5.078978e+00 66 55 51
-1.145949e+00 3.733821e+00 3.583906e+00 159 149 136
-2.451951e+00 3.669880e+00 3.285152e+00 123 115 108
-1.108999e+00 3.745831e+00 3.616558e+00 132 122 108
1.663594e+00 3.439120e+00 5.310372e+00 209 204 197
-1.150047e+00 3.754037e+00 3.605345e+00 101 91 88
1.369889e+00 3.519076e+00 5.070310e+00 99 86 71
2.168266e+00 3.323604e+00 5.787167e+00 115 104 94
-1.114933e+00 3.777059e+00 3.663695e+00 183 174 158
1.243690e+00 3.568063e+00 5.007222e+00 114 103 89
-1.113736e+00 3.788101e+00 3.675656e+00 140 129 111
-2.253869e+00 3.735698e+00 3.392138e+00 195 190 181
4.170800e-01 3.749720e+00 4.375105e+00 55 46 38
-1.230754e+00 3.806372e+00 3.662809e+00 102 93 83
-2.246932e+00 3.762137e+00 3.413592e+00 212 203 194
-2.309686e+00 3.760454e+00 3.400053e+00 125 121 112
2.082536e+00 3.396504e+00 5.773908e+00 151 135 119
3.811978e-01 3.760892e+00 4.365983e+00 67 58 49
-2.015124e+00 3.780723e+00 3.494903e+00 150 142 123
1.358901e+00 3.572324e+00 5.180811e+00 181 175 161
-3.433716e+00 3.724702e+00 3.140104e+00 90 80 79
4.712384e-01 3.763693e+00 4.458002e+00 122 116 104
-2.144381e+00 3.792016e+00 3.476787e+00 157 147 138
2.155611e+00 3.397303e+00 5.877390e+00 124 117 101
2.155611e+00 3.397303e+00 5.877390e+00 124 117 101
-1.911077e+00 3.811706e+00 3.563671e+00 166 160 146
-2.083673e+00 3.806559e+00 3.504140e+00 82 73 63
3.772681e-01 3.785406e+00 4.430722e+00 159 150 139
4.204922e-01 3.780411e+00 4.467064e+00 146 134 117
3.984262e-01 3.783137e+00 4.452500e+00 168 158 137
-2.176356e+00 3.812013e+00 3.486425e+00 167 162 149
-1.042791e+00 3.860592e+00 3.790033e+00 131 122 116
-1.976386e+00 3.830739e+00 3.567547e+00 80 68 69
-1.214668e+00 3.873684e+00 3.730854e+00 178 173 160
-2.061307e+00 3.833007e+00 3.538956e+00 117 106 93
-1.971490e+00 3.836630e+00 3.585691e+00 187 180 171
-7.980928e-01 3.882503e+00 3.882808e+00 118 114 103
-3.775139e+00 3.758729e+00 3.130543e+00 173 171 163
-3.775139e+00 3.758729e+00 3.130543e+00 173 171 163
3.940557e-01 3.808439e+00 4.498509e+00 169 161 142
-2.099740e+00 3.849471e+00 3.542025e+00 117 105 95
-2.142011e+00 3.844926e+00 3.545463e+00 156 146 132
-7.965194e-01 3.890797e+00 3.901452e+00 195 190 171
-2.070188e+00 3.863887e+00 3.579037e+00 143 130 112
-3.377321e+00 3.812879e+00 3.222169e+00 128 120 101
-6.728012e-01 3.904107e+00 3.976021e+00 103 93 83
1.120633e+00 3.693088e+00 5.097391e+00 144 135 130
1.939038e+00 3.519460e+00 5.786841e+00 81 68 58
-3.281767e+00 3.844437e+00 3.268717e+00 79 72 76
1.797696e+00 3.589631e+00 5.682318e+00 157 150 139
-7.799211e-01 3.943656e+00 3.988034e+00 177 170 166
1.767610e+00 3.612681e+00 5.706585e+00 174 167 157
-3.825494e-01 3.972256e+00 4.161159e+00 98 84 71
7.588912e-01 3.839926e+00 4.981823e+00 103 96 90
-3.289710e+00 3.952920e+00 3.389292e+00 63 53 52
-2.602837e-01 4.008545e+00 4.275165e+00 179 169 159
7.565013e-01 3.875223e+00 5.036657e+00 144 135 127
-1.630085e-01 4.016697e+00 4.367572e+00 69 55 46
-3.183925e+00 3.993767e+00 3.456748e+00 107 101 93
1.789865e+00 3.688852e+00 5.843508e+00 138 134 143
6.292950e-01 3.908218e+00 4.955965e+00 91 82 64
7.883977e-01 3.883822e+00 5.076563e+00 116 112 107
1.797820e+00 3.690172e+00 5.861844e+00 210 215 220
7.954395e-01 3.885280e+00 5.096779e+00 180 177 162
-2.848277e+00 4.026480e+00 3.520166e+00 87 76 83
-2.848277e+00 4.026480e+00 3.520166e+00 87 76 83
7.324904e-01 3.901727e+00 5.062449e+00 175 170 160
-2.147142e-01 4.051828e+00 4.349981e+00 134 126 113
-3.100127e+00 4.023025e+00 3.493233e+00 58 43 37
8.155150e-01 3.894938e+00 5.121541e+00 202 195 183
-2.658295e+00 4.058765e+00 3.583772e+00 189 182 172
6.698724e-01 3.925584e+00 5.052432e+00 98 89 82
6.698724e-01 3.925584e+00 5.052432e+00 98 89 82
1.482639e+00 3.797234e+00 5.615089e+00 58 46 33
-2.696992e+00 4.066288e+00 3.592416e+00 192 189 184
6.474208e-01 3.935791e+00 5.049451e+00 97 86 82
1.360123e+00 3.830657e+00 5.529970e+00 87 77 68
1.662965e+00 3.769679e+00 5.824135e+00 211 210 215
-1.477047e+00 4.099765e+00 4.028757e+00 158 148 137
-1.532011e+00 4.107773e+00 4.011495e+00 115 106 99
4.807106e-01 4.007394e+00 4.948941e+00 118 110 101
4.498966e-01 4.013860e+00 4.920276e+00 168 158 146
-1.287879e+00 4.129530e+00 4.102326e+00 180 178 162
3.488720e-01 4.056220e+00 4.911424e+00 135 127 116
-1.066619e+00 4.163598e+00 4.216309e+00 202 193 183
3.223079e-01 4.066336e+00 4.902884e+00 115 106 98
-8.380086e-01 4.164664e+00 4.279537e+00 182 179 163
-8.995671e-01 4.176770e+00 4.292705e+00 88 77 75
1.351020e-01 4.109388e+00 4.806562e+00 186 176 149
1.027473e+00 4.011706e+00 5.376423e+00 72 67 60
-9.054211e-01 4.199316e+00 4.325817e+00 95 81 71
-2.497486e+00 4.212135e+00 3.803273e+00 171 159 143
-2.744480e+00 4.227074e+00 3.762945e+00 97 83 74
-9.648816e-01 4.233384e+00 4.353893e+00 120 112 98
-2.116512e+00 4.266852e+00 3.932179e+00 89 78 75
-2.352538e+00 4.263474e+00 3.899302e+00 101 96 87
1.250200e+00 4.002923e+00 5.689449e+00 129 125 132
-2.733856e+00 4.269536e+00 3.812482e+00 180 175 161
-6.671932e-01 4.260161e+00 4.472404e+00 138 128 117
-8.334570e-01 4.260730e+00 4.441366e+00 99 89 77
2.184383e-02 4.205563e+00 4.886027e+00 119 109 103
-1.889667e+00 4.321926e+00 4.058434e+00 161 145 125
9.239713e-01 4.104302e+00 5.501506e+00 138 122 99
9.239713e-01 4.104302e+00 5.501506e+00 138 122 99
-1.407764e-01 4.256684e+00 4.791795e+00 176 169 159
-4.782229e-01 4.289448e+00 4.621726e+00 163 157 141
-2.698471e+00 4.326429e+00 3.887903e+00 220 221 225
-1.917042e+00 4.338589e+00 4.081008e+00 163 151 133
5.205823e-01 4.212347e+00 5.224515e+00 100 87 79
-1.921602e+00 4.383313e+00 4.150263e+00 153 140 125
-1.872438e+00 4.398510e+00 4.178433e+00 131 116 98
5.263617e-01 4.248250e+00 5.306885e+00 168 155 135
-1.917055e+00 4.423235e+00 4.209911e+00 152 142 131
-1.917055e+00 4.423235e+00 4.209911e+00 152 142 131
2.961606e-01 4.305160e+00 5.164128e+00 89 76 73
-1.997756e+00 4.449260e+00 4.215574e+00 173 166 147
4.685763e-01 4.313240e+00 5.360628e+00 69 56 45
-1.949748e+00 4.480988e+00 4.252033e+00 165 152 140
-1.565037e+00 4.484654e+00 4.373488e+00 89 80 72
-1.964026e+00 4.498230e+00 4.281954e+00 190 184 174
-1.426123e+00 4.523888e+00 4.465322e+00 161 144 131
-1.855561e+00 4.532417e+00 4.349837e+00 130 117 104
2.943621e-01 4.398651e+00 5.343044e+00 95 79 62
-1.628747e+00 4.559127e+00 4.456119e+00 160 148 129
2.181590e-02 4.460446e+00 5.175682e+00 66 57 52
2.181590e-02 4.460446e+00 5.175682e+00 66 57 52
-2.200018e-01 4.497600e+00 5.029128e+00 166 160 134
-1.287028e+00 4.566545e+00 4.569895e+00 73 62 47
-1.276283e+00 4.574506e+00 4.582918e+00 163 153 135
-9.410098e-01 4.615329e+00 4.779165e+00 135 115 90
3.809010e+00 -2.109784e+00 2.713072e+00 91 90 85
4.559876e+00 -2.496468e+00 3.762377e+00 97 93 93
3.092545e+00 -1.436630e+00 1.925374e+00 107 105 106
1.286219e+00 -1.357294e+00 8.159715e-01 117 112 109
4.989804e+00 -2.753976e+00 4.344463e+00 157 156 152
1.419753e+00 -1.364846e+00 9.518328e-01 99 98 94
4.992880e+00 -2.754509e+00 4.362723e+00 133 132 131
1.271786e+00 -1.290277e+00 8.182037e-01 159 156 151
4.490996e+00 -2.336252e+00 3.729562e+00 146 142 130
1.969708e+00 -1.186720e+00 1.146642e+00 84 82 78
1.105415e+00 -1.186989e+00 6.921245e-01 126 124 125
3.074363e+00 -1.252066e+00 1.973472e+00 75 72 67
-2.738798e+00 -2.415205e+00 -2.064737e-01 78 74 71
1.467343e+00 -1.088110e+00 1.030811e+00 184 183 181
2.820908e+00 -1.063107e+00 1.815554e+00 148 148 148
9.277563e-01 -9.633242e-01 6.586850e-01 188 189 180
2.540611e+00 -9.639154e-01 1.641702e+00 174 174 174
2.526121e+00 -9.468285e-01 1.630650e+00 140 140 140
6.236866e-01 -9.279977e-01 5.712790e-01 112 108 101
3.652621e+00 -1.379913e+00 2.811917e+00 161 162 157
-1.678672e+00 -2.505400e+00 6.724733e-01 155 153 148
2.073510e+00 -8.038456e-01 1.370281e+00 185 186 181
2.437033e+00 -8.244058e-01 1.622841e+00 127 126 121
1.253366e+00 -7.864629e-01 8.920869e-01 165 162 159
1.633650e+00 -7.414033e-01 1.081333e+00 121 118 99
3.520491e+00 -1.329808e+00 2.774977e+00 151 151 151
-2.780729e+00 -2.114374e+00 -1.411933e-01 127 128 132
1.751209e+00 -7.560522e-01 1.164342e+00 118 117 107
4.280374e-01 -8.477594e-01 5.283412e-01 160 157 148
-9.167958e-01 -1.857083e+00 7.526010e-01 125 124 120
-4.222780e+00 -2.428367e+00 -4.610586e-01 103 101 101
2.025643e+00 -6.527423e-01 1.373666e+00 177 177 166
2.895695e+00 -7.347184e-01 1.989546e+00 126 125 120
1.234459e+00 -6.198833e-01 9.251761e-01 163 160 145
4.256005e+00 -1.653596e+00 3.741412e+00 159 154 150
3.289270e-02 -8.407901e-01 5.665584e-01 160 159 155
4.406725e+00 -1.646030e+00 3.967815e+00 128 128 122
4.437314e+00 -1.645987e+00 3.999980e+00 149 148 143
4.349385e+00 -1.600727e+00 3.912849e+00 163 164 159
2.974173e+00 -6.253994e-01 2.106770e+00 106 101 95
2.974173e+00 -6.253994e-01 2.106770e+00 106 101 95
1.520904e+00 -5.329497e-01 1.173001e+00 145 142 135
4.390781e+00 -1.625575e+00 3.959384e+00 155 155 145
-2.697253e+00 -1.812130e+00 2.099998e-02 129 124 119
1.566232e+00 -4.005701e-01 1.110961e+00 183 180 175
1.793109e+00 -3.447933e-01 1.247312e+00 125 120 106
1.438826e+00 -4.628500e-01 1.172021e+00 139 135 124
2.856013e+00 -4.981920e-01 2.041641e+00 187 187 179
1.746535e+00 -4.058072e-01 1.313488e+00 116 111 108
3.952826e+00 -1.143429e+00 3.355319e+00 158 157 153
1.799827e+00 -3.202062e-01 1.330824e+00 170 168 156
2.314983e+00 -3.670315e-01 1.683483e+00 170 170 166
2.514355e+00 -3.901396e-01 1.827474e+00 127 122 116
-1.854970e+00 -1.768312e+00 6.738164e-01 159 158 154
4.566925e+00 -1.597611e+00 4.316269e+00 133 132 128
4.320865e+00 -1.320912e+00 3.914777e+00 181 179 171
4.188508e+00 -1.219163e+00 3.769994e+00 114 108 97
4.313440e+00 -1.267089e+00 3.918957e+00 155 153 142
3.831140e+00 -9.149901e-01 3.304209e+00 113 108 104
3.059726e+00 -3.443297e-01 2.274104e+00 147 144 139
3.783200e+00 -8.540207e-01 3.245227e+00 145 138 120
1.588980e+00 -2.873102e-01 1.393214e+00 129 124 118
1.586412e+00 -2.883132e-01 1.418993e+00 182 177 171
1.052872e+00 -3.804796e-01 1.212257e+00 116 115 110
1.456778e+00 -2.787650e-01 1.348815e+00 114 110 101
1.052546e+00 -3.710352e-01 1.225856e+00 175 174 169
3.327694e+00 -4.789041e-01 2.648949e+00 125 119 103
1.445065e+00 -2.668452e-01 1.351012e+00 181 178 166
1.445065e+00 -2.668452e-01 1.351012e+00 181 178 166
3.337787e+00 -4.625015e-01 2.678542e+00 93 87 73
2.309381e+00 -1.670802e-01 1.786920e+00 177 174 165
1.020061e+00 -2.870511e-01 1.181015e+00 128 127 123
3.082509e-01 -2.531386e-01 7.677550e-01 186 185 180
2.027824e+00 -8.386211e-02 1.649839e+00 191 191 181
-1.750126e+00 -8.089194e-01 3.909084e-01 134 131 126
1.235690e+00 -8.062090e-02 1.323056e+00 108 103 98
2.801546e+00 -6.744236e-02 2.203260e+00 119 115 106
-1.533654e+00 -9.472500e-01 6.313502e-01 88 84 77
3.068528e+00 -1.089372e-01 2.415523e+00 124 123 120
3.068528e+00 -1.089372e-01 2.415523e+00 124 123 120
3.141889e+00 -1.279507e-01 2.478401e+00 136 136 128
4.819423e+00 -1.404847e+00 4.867897e+00 122 116 104
1.629958e+00 6.026178e-02 1.498297e+00 126 119 105
1.409770e+00 5.902056e-02 1.418651e+00 191 191 179
-3.145356e+00 -1.049206e+00 8.414060e-02 136 131 112
3.409644e+00 -2.874263e-01 2.933182e+00 162 159 150
2.263061e+00 1.475181e-01 1.842503e+00 148 145 135
2.617207e+00 6.812417e-02 2.137159e+00 135 132 127
3.363214e+00 -2.279192e-01 2.901942e+00 156 153 148
1.047360e+00 -3.088228e-02 1.406196e+00 187 184 176
2.265504e+00 1.588822e-01 1.903999e+00 115 113 102
3.387590e+00 -2.150491e-01 2.951554e+00 162 157 151
1.928770e+00 1.239572e-01 1.757726e+00 139 136 123
2.237315e+00 1.978993e-01 1.927666e+00 119 119 109
2.237315e+00 1.978993e-01 1.927666e+00 119 119 109
3.287326e+00 -6.013712e-02 2.837248e+00 165 159 147
3.946610e+00 -5.565775e-01 3.776614e+00 159 154 150
2.229981e+00 2.307101e-01 1.945243e+00 136 135 132
4.782786e+00 -1.166903e+00 4.974410e+00 148 145 136
4.074565e+00 -6.106212e-01 3.966933e+00 125 124 117
4.730522e+00 -1.117953e+00 4.913202e+00 194 190 179
2.487835e+00 3.028188e-01 2.123124e+00 172 168 160
1.123485e+00 2.427420e-01 1.431306e+00 198 197 193
-1.071206e+00 -1.058984e-01 6.000877e-01 112 107 97
2.815479e+00 3.088706e-01 2.357301e+00 178 174 164
1.505847e+00 3.510019e-01 1.583343e+00 184 182 184
-2.147798e+00 -3.460095e-01 3.714684e-01 97 89 84
2.995726e+00 3.326299e-01 2.476847e+00 112 107 101
2.307992e+00 4.345695e-01 2.017072e+00 166 164 157
2.673995e+00 3.973572e-01 2.275811e+00 172 166 154
3.849768e+00 -2.941951e-01 3.729251e+00 124 118 106
2.325746e+00 4.475941e-01 2.042027e+00 199 196 190
2.278207e+00 4.508753e-01 2.014588e+00 185 184 179
2.394119e+00 4.482163e-01 2.080538e+00 131 124 111
1.680251e+00 4.761735e-01 1.699260e+00 165 162 156
1.999266e-01 5.293938e-01 8.307573e-01 191 187 176
1.393653e-04 6.147147e-01 6.330380e-01 184 179 170
-2.243731e-01 5.282001e-01 6.006221e-01 184 176 169
1.971069e+00 4.786527e-01 1.865579e+00 129 126 119
2.083004e-01 5.145194e-01 8.593916e-01 99 94 85
2.083004e-01 5.145194e-01 8.593916e-01 99 94 85
2.578423e+00 4.790968e-01 2.262709e+00 115 106 96
1.567484e-01 6.353093e-01 7.698352e-01 92 84 79
4.851566e+00 -9.646182e-01 5.209500e+00 135 133 120
1.682475e+00 5.289005e-01 1.746247e+00 179 176 169
1.682475e+00 5.289005e-01 1.746247e+00 179 176 169
1.491975e-01 6.423460e-01 7.833719e-01 179 174 165
5.582825e-01 3.650945e-01 1.311060e+00 198 194 188
-1.451661e+00 1.083074e-01 5.439234e-01 162 155 148
3.177754e+00 2.615292e-01 2.919005e+00 162 155 145
2.591828e+00 5.216497e-01 2.306360e+00 114 105 90
-3.032584e+00 -3.979057e-01 3.022169e-01 147 137 120
3.819389e+00 -1.883876e-01 3.822094e+00 95 88 78
2.698884e+00 5.286379e-01 2.378473e+00 173 167 151
3.169471e+00 3.051082e-01 2.975641e+00 137 131 117
-1.566067e+00 2.189820e-01 5.740597e-01 158 154 151
-1.566067e+00 2.189820e-01 5.740597e-01 158 154 151
8.774499e-01 5.820062e-01 1.485053e+00 141 138 132
-8.456431e-02 7.748495e-01 7.679324e-01 153 145 132
-1.527011e+00 2.620592e-01 5.805622e-01 112 108 104
-3.217955e+00 -2.933971e-01 3.442924e-01 169 165 156
3.949091e-01 6.623066e-01 1.209277e+00 116 110 98
-2.147039e+00 1.016243e-01 5.188409e-01 151 135 122
2.916326e+00 6.296853e-01 2.637768e+00 99 95 83
2.866963e+00 6.668695e-01 2.570663e+00 93 88 82
3.689126e-01 6.791440e-01 1.211730e+00 117 113 101
2.885521e+00 6.682129e-01 2.620210e+00 167 163 151
4.547482e+00 -5.354590e-01 4.986680e+00 138 133 124
2.876503e+00 6.780527e-01 2.626016e+00 101 96 84
2.578133e+00 7.478919e-01 2.393312e+00 155 144 122
1.769785e+00 7.756647e-01 1.928931e+00 133 128 125
-4.279728e+00 -5.414051e-01 2.258937e-01 165 160 152
4.189227e+00 -2.740767e-01 4.504217e+00 151 142 135
1.410562e+00 7.822932e-01 1.784074e+00 180 179 174
-3.097058e+00 -1.044276e-01 4.173138e-01 173 167 160
2.518801e+00 7.901052e-01 2.377260e+00 135 128 118
2.866308e+00 7.332180e-01 2.640771e+00 89 82 63
1.551023e+00 7.839132e-01 1.888076e+00 114 110 101
-1.159482e+00 5.965505e-01 6.983634e-01 149 144 138
1.521342e+00 8.442583e-01 1.850647e+00 177 173 164
3.717629e+00 1.383767e-01 3.899830e+00 134 124 113
9.405869e-01 8.043761e-01 1.622752e+00 107 104 95
6.091373e-01 8.361450e-01 1.404145e+00 137 136 131
-2.706019e+00 1.152819e-01 5.041042e-01 101 85 71
1.123787e+00 8.405233e-01 1.687504e+00 181 180 175
1.352504e+00 8.840050e-01 1.779610e+00 68 65 60
3.776319e+00 1.263073e-01 4.007438e+00 163 156 139
7.820891e-01 8.448329e-01 1.518187e+00 161 154 137
5.281563e-01 9.107521e-01 1.318271e+00 76 73 68
4.044806e+00 -5.580656e-02 4.399105e+00 144 137 122
1.442624e+00 8.723948e-01 1.872691e+00 130 127 113
-4.686135e+00 -4.615212e-01 2.398973e-01 137 132 126
1.865655e+00 8.177443e-01 2.163707e+00 125 122 115
1.865655e+00 8.177443e-01 2.163707e+00 125 122 115
1.929722e+00 9.412831e-01 2.085716e+00 182 178 168
1.671826e+00 9.327683e-01 2.003717e+00 170 169 164
1.263243e+00 9.461923e-01 1.782547e+00 120 117 108
2.702175e+00 9.153118e-01 2.607479e+00 91 84 75
1.686565e+00 9.810928e-01 1.999232e+00 166 165 161
3.985894e+00 3.842762e-02 4.389421e+00 93 84 69
3.424378e+00 4.778353e-01 3.546437e+00 92 85 75
2.378138e+00 9.878185e-01 2.363623e+00 127 123 107
4.020973e+00 2.256745e-02 4.443549e+00 172 164 157
4.009032e+00 4.116852e-02 4.419209e+00 101 94 84
6.220375e-01 9.600707e-01 1.484814e+00 106 105 102
2.725824e+00 9.525813e-01 2.657856e+00 149 140 131
4.029519e+00 4.817592e-02 4.490232e+00 161 153 140
1.954382e+00 1.061822e+00 2.139746e+00 175 171 161
1.371285e-01 1.129298e+00 1.107123e+00 157 151 134
3.327565e+00 5.454553e-01 3.533742e+00 162 155 137
2.139809e+00 1.074981e+00 2.252951e+00 119 112 107
1.221133e+00 1.047874e+00 1.797674e+00 114 111 104
3.982538e+00 9.844562e-02 4.451846e+00 117 107 93
2.230645e+00 1.066551e+00 2.311170e+00 89 81 79
2.230645e+00 1.066551e+00 2.311170e+00 89 81 79
5.436630e-01 1.064753e+00 1.431823e+00 118 109 102
-2.248731e-01 1.184206e+00 8.713535e-01 114 100 79
3.625951e+00 3.826746e-01 3.921062e+00 175 168 150
-3.212740e-01 1.151044e+00 8.672386e-01 127 118 110
2.574248e+00 1.029536e+00 2.557898e+00 122 114 103
2.488095e+00 1.041927e+00 2.500604e+00 172 164 153
1.204491e+00 1.043793e+00 1.819423e+00 181 178 169
7.879109e-01 1.080213e+00 1.560441e+00 128 123 117
1.416763e+00 1.024047e+00 1.968666e+00 150 146 134
2.662818e+00 1.031125e+00 2.628277e+00 119 113 100
1.525675e+00 1.016935e+00 2.048557e+00 136 132 120
7.636401e-01 1.074198e+00 1.578746e+00 169 165 156
-2.071573e+00 5.762666e-01 7.112568e-01 110 100 90
3.035879e+00 8.178657e-01 3.121732e+00 154 144 132
1.525336e+00 1.030975e+00 2.056245e+00 158 152 141
1.883099e+00 1.118606e+00 2.162201e+00 137 134 122
6.227463e-02 1.194633e+00 1.100621e+00 105 94 82
-2.115856e-01 1.207134e+00 9.440165e-01 139 127 106
1.619918e+00 1.032830e+00 2.132178e+00 179 174 167
9.768996e-01 1.089126e+00 1.748820e+00 178 169 154
9.315949e-01 1.143688e+00 1.650157e+00 123 117 118
1.365038e+00 1.084387e+00 1.968010e+00 151 146 133
3.638417e+00 3.985061e-01 4.030365e+00 185 178 173
1.694261e+00 1.147153e+00 2.064393e+00 103 100 93
1.381344e+00 1.107569e+00 1.969966e+00 170 163 156
1.329598e+00 1.118835e+00 1.928701e+00 110 103 95
1.689377e+00 1.148289e+00 2.081431e+00 177 174 167
9.392858e-01 1.172316e+00 1.698608e+00 162 156 143
2.840704e+00 9.654173e-01 2.960443e+00 143 131 118
2.812109e+00 9.889493e-01 2.915288e+00 135 123 107
9.200338e-01 1.149797e+00 1.732119e+00 115 109 97
1.566128e+00 1.180292e+00 2.040824e+00 106 102 93
1.574608e+00 1.204331e+00 2.053273e+00 116 111 105
1.383579e+00 1.185748e+00 1.993490e+00 118 111 103
1.164573e+00 1.214184e+00 1.851955e+00 116 108 90
1.510456e+00 1.211480e+00 2.084769e+00 153 145 134
1.061814e+00 1.237109e+00 1.817677e+00 105 97 81
2.360623e+00 1.215077e+00 2.518497e+00 136 132 128
7.677684e-01 1.212650e+00 1.707440e+00 115 107 94
7.468259e-01 1.212067e+00 1.700392e+00 94 88 75
1.123715e+00 1.242471e+00 1.865807e+00 151 144 130
3.481776e+00 6.070722e-01 3.920863e+00 127 119 108
1.181710e+00 1.247616e+00 1.901068e+00 126 121 113
-5.783065e-01 1.299586e+00 9.049449e-01 134 123 106
4.153897e-01 1.348991e+00 1.410637e+00 162 161 156
-2.648730e+00 6.275265e-01 7.373552e-01 164 155 138
3.065973e+00 9.332642e-01 3.333004e+00 96 85 75
2.360815e+00 1.268466e+00 2.538367e+00 183 177 172
2.772944e+00 1.075255e+00 3.018923e+00 108 99 90
3.450202e+00 6.656916e-01 3.926212e+00 142 138 129
-7.419698e-02 1.415486e+00 1.147589e+00 142 128 114
-1.681483e-01 1.409596e+00 1.108109e+00 97 92 86
1.147691e+00 1.326853e+00 1.933629e+00 145 141 131
1.147691e+00 1.326853e+00 1.933629e+00 145 141 131
8.741661e-01 1.325127e+00 1.792541e+00 187 183 174
-2.506080e-01 1.431667e+00 1.072844e+00 132 127 124
-1.857835e+00 9.649635e-01 8.903211e-01 157 148 133
3.176493e+00 9.110486e-01 3.602175e+00 110 101 88
3.162562e+00 9.078984e-01 3.628515e+00 160 154 134
2.642984e+00 1.295111e+00 2.911105e+00 131 125 107
-7.846503e-02 1.485019e+00 1.266686e+00 148 139 127
5.204655e-01 1.538401e+00 1.530130e+00 182 169 153
4.857158e-01 1.520093e+00 1.555502e+00 120 108 94
8.681216e-01 1.468790e+00 1.859342e+00 141 138 133
8.681216e-01 1.468790e+00 1.859342e+00 141 138 133
2.615101e+00 1.336202e+00 2.919094e+00 133 123 104
1.101719e+00 1.486003e+00 1.991235e+00 139 135 133
-1.466953e+00 1.220634e+00 1.018426e+00 122 116 104
-2.479217e+00 9.771003e-01 9.357081e-01 151 142 125
3.236550e+00 9.625449e-01 3.901308e+00 166 156 144
-1.813267e+00 1.198963e+00 1.017491e+00 85 71 59
-1.508769e+00 1.298110e+00 1.077275e+00 92 87 79
1.203287e+00 1.608484e+00 2.069037e+00 174 163 134
-2.595692e+00 9.931423e-01 9.368999e-01 79 69 68
3.319939e+00 9.417642e-01 4.045399e+00 117 105 92
1.350481e+00 1.638210e+00 2.123924e+00 143 128 118
1.207109e+00 1.613966e+00 2.091487e+00 164 149 119
-1.648397e+00 1.278217e+00 1.073619e+00 139 128 113
1.216287e+00 1.614501e+00 2.113057e+00 175 160 131
-1.825967e+00 1.233332e+00 1.051569e+00 144 134 112
8.350557e-01 1.660767e+00 1.869152e+00 146 137 123
3.287873e+00 9.772651e-01 4.044579e+00 182 174 162
2.511743e+00 1.477733e+00 2.960853e+00 133 121 111
2.964130e+00 1.200590e+00 3.580067e+00 109 102 96
-1.113083e+00 1.443042e+00 1.169266e+00 168 160 149
1.237316e+00 1.639401e+00 2.124027e+00 182 169 147
3.594456e+00 8.070803e-01 4.437013e+00 118 112 100
2.467955e+00 1.513834e+00 2.931115e+00 110 102 91
5.823092e-01 1.731962e+00 1.728802e+00 162 152 141
7.587139e-01 1.793336e+00 1.752039e+00 93 87 77
-2.260628e+00 1.179774e+00 1.046172e+00 107 102 96
5.592348e-01 1.750873e+00 1.723548e+00 153 141 127
2.843931e+00 1.305129e+00 3.491007e+00 79 68 49
1.927154e+00 1.683318e+00 2.518369e+00 106 99 81
1.937363e+00 1.683531e+00 2.529816e+00 167 155 143
-9.789416e-01 1.535665e+00 1.250285e+00 139 135 123
-1.009878e+00 1.545807e+00 1.246297e+00 141 136 130
-2.959513e+00 1.023530e+00 9.629850e-01 103 90 71
3.534753e+00 9.168545e-01 4.499713e+00 130 123 107
7.755992e-01 1.843742e+00 1.843627e+00 164 164 163
3.179898e-01 1.901458e+00 1.528802e+00 131 122 113
-6.961983e-01 1.732425e+00 1.270534e+00 143 135 116
9.500980e-01 1.857521e+00 2.067828e+00 142 136 123
4.988321e-01 1.900365e+00 1.775531e+00 126 113 97
-6.349255e-01 1.775408e+00 1.368414e+00 146 138 117
-3.387393e+00 1.064977e+00 1.026507e+00 168 158 137
-3.310459e+00 1.095253e+00 1.035652e+00 139 131 127
-1.357344e+00 1.625639e+00 1.294844e+00 145 135 122
-4.975641e-01 1.858033e+00 1.402311e+00 127 119 100
-1.227886e+00 1.701237e+00 1.313357e+00 115 100 80
-1.227886e+00 1.701237e+00 1.313357e+00 115 100 80
1.376813e+00 2.027763e+00 2.214209e+00 87 85 88
-4.829228e-01 1.919707e+00 1.441908e+00 166 154 137
1.044088e+00 1.995417e+00 2.137267e+00 134 135 126
-6.271351e-01 1.893930e+00 1.451680e+00 158 150 139
1.402002e+00 2.012107e+00 2.357875e+00 172 162 151
1.352427e+00 2.029005e+00 2.313602e+00 79 75 73
2.244135e+00 1.816513e+00 3.061941e+00 137 125 108
5.644064e-01 2.059543e+00 1.898013e+00 166 165 161
-1.450979e+00 1.720970e+00 1.395316e+00 138 133 127
-2.166145e+00 1.546949e+00 1.302777e+00 184 169 146
2.530148e+00 1.686455e+00 3.439377e+00 68 61 55
-3.929203e+00 1.112005e+00 1.068145e+00 170 163 155
1.323698e+00 2.072967e+00 2.351802e+00 119 112 102
1.236119e+00 2.101034e+00 2.276155e+00 120 115 108
2.566311e+00 1.700565e+00 3.548288e+00 152 142 130
2.575749e+00 1.699289e+00 3.570773e+00 110 99 93
2.880887e+00 1.556613e+00 3.965698e+00 144 135 125
1.221689e+00 2.145736e+00 2.293260e+00 177 173 162
2.527270e+00 1.739679e+00 3.539720e+00 119 110 101
-1.940255e+00 1.700900e+00 1.391949e+00 99 90 79
-3.891523e+00 1.235484e+00 1.156892e+00 175 164 143
2.488751e+00 1.800527e+00 3.474955e+00 128 123 112
2.934515e+00 1.553770e+00 4.075788e+00 186 179 169
-1.125902e+00 1.944176e+00 1.519461e+00 67 56 39
1.335243e+00 2.169881e+00 2.409727e+00 195 192 182
-2.898232e+00 1.536278e+00 1.315645e+00 114 109 106
2.804376e+00 1.638193e+00 3.959550e+00 171 162 148
-1.972670e+00 1.768474e+00 1.437753e+00 97 90 83
-2.162585e+00 1.738799e+00 1.434911e+00 174 171 166
2.366105e+00 1.897260e+00 3.417726e+00 81 64 46
-2.740235e+00 1.613229e+00 1.352758e+00 170 163 153
3.146924e+00 1.481917e+00 4.425255e+00 147 140 124
2.679635e+00 1.738661e+00 3.847197e+00 63 53 43
-2.044918e+00 1.832132e+00 1.505423e+00 191 184 178
-2.958896e+00 1.621012e+00 1.370283e+00 121 112 95
2.736991e+00 1.726004e+00 3.997463e+00 183 172 166
-2.132263e+00 1.824238e+00 1.481142e+00 146 136 128
-2.857000e+00 1.658162e+00 1.400955e+00 148 140 131
2.731286e+00 1.733850e+00 4.011608e+00 147 140 134
1.138407e-01 2.352819e+00 1.807693e+00 150 137 118
1.433686e+00 2.308596e+00 2.529115e+00 96 89 83
3.138349e+00 1.531442e+00 4.532585e+00 172 163 153
1.812353e+00 2.153217e+00 2.970386e+00 94 85 80
3.054237e+00 1.580514e+00 4.431379e+00 168 161 146
2.651122e+00 1.817766e+00 3.887921e+00 182 174 161
3.092524e+00 1.573341e+00 4.497158e+00 170 161 146
2.671839e+00 1.814721e+00 3.990043e+00 174 167 155
-2.061289e+00 1.920286e+00 1.548535e+00 162 153 136
-6.234826e+00 1.005400e+00 9.260141e-01 174 172 172
2.652214e+00 1.849927e+00 3.949339e+00 184 177 158
3.418732e-01 2.401640e+00 2.009486e+00 112 107 101
2.273628e+00 2.034391e+00 3.509421e+00 158 154 149
2.723906e+00 1.805272e+00 4.107282e+00 130 126 123
2.254647e+00 2.053417e+00 3.527521e+00 148 141 135
8.900402e-01 2.431802e+00 2.323092e+00 115 105 90
2.999941e+00 1.688157e+00 4.486800e+00 97 88 81
1.966334e+00 2.226755e+00 3.213555e+00 149 136 124
2.492410e+00 1.972047e+00 3.893387e+00 131 121 109
2.483515e+00 1.961393e+00 3.929170e+00 108 95 87
5.361012e-01 2.528454e+00 2.139910e+00 79 80 74
-1.800931e+00 2.102466e+00 1.698295e+00 153 143 131
1.586446e+00 2.373220e+00 2.905307e+00 55 38 28
-1.756474e+00 2.120321e+00 1.729542e+00 150 141 126
-1.763188e+00 2.130226e+00 1.740357e+00 109 103 96
2.413683e+00 2.043970e+00 3.888703e+00 81 69 62
-3.554584e+00 1.759912e+00 1.503191e+00 187 183 174
-3.573189e+00 1.757248e+00 1.497937e+00 136 132 125
2.072159e+00 2.175270e+00 3.545544e+00 141 133 119
2.877007e+00 1.831537e+00 4.469360e+00 141 131 113
-2.839218e-01 2.439981e+00 2.034048e+00 168 159 150
2.379780e+00 2.047931e+00 3.936164e+00 193 189 186
2.144213e+00 2.205085e+00 3.585551e+00 111 103 92
2.363804e+00 2.093859e+00 3.875960e+00 80 73 59
-3.576737e+00 1.800655e+00 1.527194e+00 131 126 122
2.451486e+00 2.067205e+00 3.998431e+00 104 94 88
2.438054e+00 2.077599e+00 3.977613e+00 147 135 121
2.359560e+00 2.083793e+00 3.946694e+00 166 159 143
2.348276e+00 2.114916e+00 3.910842e+00 130 123 115
2.304374e+00 2.113377e+00 3.910631e+00 113 104 100
2.365148e+00 2.136067e+00 3.954135e+00 118 108 96
2.365148e+00 2.136067e+00 3.954135e+00 118 108 96
1.847855e+00 2.359375e+00 3.364315e+00 86 70 53
1.546432e+00 2.443688e+00 3.101322e+00 158 147 141
-8.347505e-01 2.436273e+00 2.003325e+00 110 100 79
4.255872e+00 1.242360e+00 6.251634e+00 150 138 125
2.727605e+00 1.976285e+00 4.407852e+00 140 133 125
2.728811e+00 1.988948e+00 4.444431e+00 83 74 70
-8.122109e-01 2.470469e+00 2.040988e+00 154 146 131
-9.027424e-01 2.454209e+00 2.028834e+00 89 77 63
-1.551199e+00 2.337677e+00 1.908222e+00 105 97 86
1.191672e+00 2.571131e+00 2.825506e+00 78 71 57
-1.751772e+00 2.318472e+00 1.890591e+00 84 78 73
2.704967e+00 2.022602e+00 4.454279e+00 171 163 153
-3.390030e+00 1.995365e+00 1.674043e+00 116 110 106
-3.703636e+00 1.931278e+00 1.629225e+00 193 191 191
-1.676173e+00 2.339686e+00 1.933111e+00 119 110 100
1.260992e+00 2.603466e+00 2.947275e+00 155 140 124
2.274273e+00 2.259390e+00 4.031685e+00 150 147 142
-4.326153e+00 1.878076e+00 1.603045e+00 166 160 159
-1.594701e+00 2.422053e+00 2.003819e+00 165 159 145
2.631185e+00 2.102033e+00 4.466604e+00 160 153 147
2.131245e+00 2.343001e+00 3.859654e+00 106 98 84
-1.513634e+00 2.438292e+00 2.031219e+00 93 84 74
3.006781e+00 1.937977e+00 4.917829e+00 143 134 119
1.785520e+00 2.459761e+00 3.526620e+00 159 153 139
-1.440970e+00 2.465631e+00 2.044044e+00 101 88 68
2.969926e+00 1.967089e+00 4.883048e+00 89 78 71
1.015654e+00 2.716025e+00 2.782051e+00 141 124 107
9.935640e-02 2.733313e+00 2.387906e+00 106 95 78
4.907025e-01 2.796962e+00 2.528408e+00 146 134 117
4.027039e+00 1.524337e+00 6.243553e+00 136 119 103
5.407243e-01 2.817518e+00 2.551335e+00 140 126 107
4.041271e+00 1.539649e+00 6.244726e+00 149 136 121
2.520389e+00 2.234382e+00 4.434903e+00 153 144 132
2.504859e+00 2.244930e+00 4.422075e+00 144 138 118
8.045831e-01 2.812596e+00 2.706322e+00 52 43 27
8.045831e-01 2.812596e+00 2.706322e+00 52 43 27
1.668924e+00 2.580195e+00 3.529676e+00 161 149 138
1.668924e+00 2.580195e+00 3.529676e+00 161 149 138
-1.248478e+00 2.596986e+00 2.174537e+00 101 89 77
2.001268e+00 2.451353e+00 3.907631e+00 183 168 146
2.895622e+00 2.062775e+00 4.962548e+00 82 71 67
2.881223e+00 2.076347e+00 4.966694e+00 167 160 149
1.392622e+00 2.679365e+00 3.294400e+00 98 81 54
-1.151623e+00 2.646417e+00 2.242401e+00 132 124 109
2.860080e+00 2.103040e+00 4.985010e+00 116 110 98
-2.042243e+00 2.526870e+00 2.072377e+00 175 173 170
-1.198098e+00 2.661526e+00 2.268904e+00 125 120 102
1.804220e+00 2.568846e+00 3.793194e+00 92 82 70
3.825060e+00 1.735641e+00 6.072627e+00 105 94 83
-1.182228e+00 2.681345e+00 2.283365e+00 97 86 77
1.854594e+00 2.564963e+00 3.875669e+00 173 166 151
1.854034e+00 2.572891e+00 3.887740e+00 126 118 100
1.854034e+00 2.572891e+00 3.887740e+00 126 118 100
8.264729e-01 2.849209e+00 2.959368e+00 152 142 130
1.190928e+00 2.804566e+00 3.223239e+00 124 113 100
5.899913e-01 2.913291e+00 2.804380e+00 158 150 139
-3.108086e+00 2.427384e+00 2.026345e+00 114 108 93
1.721218e+00 2.650875e+00 3.826513e+00 142 129 121
2.205452e+00 2.483173e+00 4.328602e+00 153 146 138
5.280932e-01 2.950452e+00 2.778976e+00 136 127 118
2.140128e+00 2.529335e+00 4.294328e+00 119 110 104
2.212704e+00 2.503907e+00 4.395535e+00 165 160 154
2.650203e+00 2.333766e+00 4.922713e+00 158 151 133
2.617689e+00 2.348491e+00 4.889112e+00 130 120 110
1.065777e+00 2.875997e+00 3.309314e+00 143 129 109
-1.206670e+00 2.805883e+00 2.429200e+00 136 128 113
-5.353793e-02 2.947369e+00 2.686964e+00 114 101 80
1.647393e+00 2.717878e+00 3.855000e+00 175 167 145
1.661440e+00 2.717455e+00 3.863152e+00 136 127 110
2.142829e-02 2.962389e+00 2.737445e+00 141 132 107
-1.884259e+00 2.735561e+00 2.314347e+00 101 91 90
-1.968847e+00 2.721734e+00 2.313989e+00 166 158 152
2.580398e+00 2.385887e+00 4.901100e+00 138 125 117
2.133251e-01 2.995095e+00 2.814725e+00 53 36 28
-1.981923e+00 2.760543e+00 2.341899e+00 151 145 126
-1.191750e+00 2.897612e+00 2.500100e+00 120 111 105
1.830436e-01 3.033826e+00 2.906415e+00 155 138 127
2.404069e+00 2.510897e+00 4.827421e+00 128 120 115
2.547640e+00 2.461580e+00 4.983175e+00 120 107 90
1.444664e+00 2.856024e+00 3.839789e+00 118 110 91
7.863583e-01 3.013010e+00 3.273049e+00 128 120 105
2.371307e+00 2.539988e+00 4.826142e+00 133 124 119
7.886449e-01 3.018154e+00 3.303804e+00 127 120 109
-3.993002e+00 2.528860e+00 2.102711e+00 150 146 135
-7.534387e-01 3.005151e+00 2.690624e+00 151 139 115
2.429262e+00 2.528912e+00 4.956186e+00 163 154 140
1.366845e+00 2.913620e+00 3.820581e+00 150 143 130
-7.558216e-01 3.035450e+00 2.726500e+00 152 145 126
1.266364e+00 2.961797e+00 3.760892e+00 127 112 102
-2.687160e+00 2.800438e+00 2.371994e+00 170 162 143
2.399858e+00 2.579032e+00 4.966342e+00 126 118 105
-2.525168e+00 2.841944e+00 2.428953e+00 190 189 187
-4.013575e+00 2.628714e+00 2.181378e+00 173 168 154
-2.576148e+00 2.852643e+00 2.430919e+00 186 183 177
1.307662e+00 2.979633e+00 3.862587e+00 179 167 147
-5.162848e+00 2.528342e+00 1.993171e+00 119 114 108
1.623105e+00 2.905591e+00 4.208655e+00 127 116 100
-1.531831e+00 3.049033e+00 2.679588e+00 155 152 147
-1.598971e+00 3.045639e+00 2.657774e+00 179 176 167
-4.791334e+00 2.619802e+00 2.075675e+00 181 174 167
-5.781207e-01 3.174549e+00 2.907584e+00 129 122 105
-6.375487e-01 3.192710e+00 2.955428e+00 182 176 163
-1.477924e+00 3.117652e+00 2.749664e+00 114 104 95
2.029981e+00 2.840577e+00 4.737638e+00 99 91 77
-2.775874e+00 2.969026e+00 2.496077e+00 181 180 173
9.127824e-01 3.163766e+00 3.729895e+00 122 111 97
9.127824e-01 3.163766e+00 3.729895e+00 122 111 97
8.362424e-01 3.188653e+00 3.684627e+00 79 67 58
-1.267465e+00 3.171591e+00 2.850822e+00 131 122 106
1.994905e+00 2.879701e+00 4.779584e+00 109 101 99
-3.081252e-01 3.275752e+00 3.128965e+00 86 77 60
3.230516e+00 2.460540e+00 6.117389e+00 167 158 152
-2.741620e-01 3.282371e+00 3.148044e+00 86 71 51
8.440284e-01 3.229749e+00 3.762853e+00 83 75 64
-3.496856e+00 2.963386e+00 2.491828e+00 115 112 107
-3.496856e+00 2.963386e+00 2.491828e+00 115 112 107
5.862376e-01 3.288462e+00 3.569702e+00 131 118 104
-4.081354e-01 3.311130e+00 3.150810e+00 145 141 130
-2.542607e-01 3.320792e+00 3.216927e+00 140 127 112
-3.045799e+00 3.086096e+00 2.622218e+00 79 69 60
-1.148785e-01 3.382197e+00 3.322580e+00 113 99 85
-2.326680e+00 3.202309e+00 2.787836e+00 91 86 83
-2.158762e+00 3.224485e+00 2.835692e+00 135 126 117
1.045294e+00 3.247628e+00 4.116425e+00 147 139 124
-2.043144e+00 3.250212e+00 2.876141e+00 197 194 188
1.109958e+00 3.243264e+00 4.173431e+00 107 96 78
9.634643e-01 3.271445e+00 4.077152e+00 106 101 95
1.028193e+00 3.262253e+00 4.135623e+00 158 147 134
2.654901e-01 3.404296e+00 3.528254e+00 146 138 128
8.340875e-02 3.407106e+00 3.459396e+00 155 144 128
1.173593e+00 3.246181e+00 4.244579e+00 82 72 61
-9.695640e-01 3.380407e+00 3.139683e+00 165 154 137
2.571434e-01 3.420928e+00 3.537844e+00 88 82 68
-1.452443e-01 3.425148e+00 3.391360e+00 185 182 177
8.877154e-01 3.321406e+00 4.059395e+00 158 149 140
1.616723e-01 3.469613e+00 3.476768e+00 151 143 128
1.029261e+00 3.300201e+00 4.202499e+00 160 153 135
-7.834632e-01 3.462356e+00 3.294404e+00 149 140 125
-1.035268e+00 3.458640e+00 3.237579e+00 199 195 186
1.442565e+00 3.264286e+00 4.669734e+00 128 117 100
-8.483104e-01 3.514404e+00 3.359348e+00 129 122 116
-1.594830e+00 3.481525e+00 3.181408e+00 125 109 93
1.923034e+00 3.160895e+00 5.240573e+00 167 163 154
-4.178178e-01 3.582242e+00 3.564207e+00 116 107 86
-2.586813e+00 3.480239e+00 3.053821e+00 118 106 89
-3.896127e+00 3.378095e+00 2.775025e+00 170 162 150
-2.451676e-01 3.619507e+00 3.689114e+00 110 93 77
-4.801764e-01 3.622703e+00 3.608345e+00 141 130 116
-4.165250e-01 3.622007e+00 3.642045e+00 156 141 122
-2.782681e+00 3.507849e+00 3.075387e+00 153 136 122
3.396430e-01 3.649504e+00 3.997975e+00 162 158 149
-3.564417e-01 3.668480e+00 3.740916e+00 167 162 151
-3.525129e-01 3.668873e+00 3.735957e+00 167 162 151
-2.956133e+00 3.539200e+00 3.061501e+00 175 173 170
9.826560e-01 3.530717e+00 4.604769e+00 157 148 131
9.117582e-01 3.553112e+00 4.560882e+00 167 154 142
5.510928e-02 3.695261e+00 3.945180e+00 132 128 120
2.523339e-03 3.706053e+00 3.934768e+00 144 140 131
9.071583e-01 3.577847e+00 4.570148e+00 63 55 42
7.829560e-01 3.628689e+00 4.572502e+00 122 116 104
7.490705e-01 3.659363e+00 4.530028e+00 166 159 143
1.381941e+00 3.525621e+00 5.098483e+00 98 85 69
-9.531001e-01 3.777898e+00 3.699605e+00 150 136 124
-2.227122e+00 3.732477e+00 3.388262e+00 109 100 95
-2.227122e+00 3.732477e+00 3.388262e+00 109 100 95
5.166883e-01 3.742581e+00 4.472087e+00 160 153 143
1.130658e+00 3.637788e+00 4.986713e+00 119 113 102
-2.085363e+00 3.812989e+00 3.520136e+00 178 169 152
1.226510e+00 3.629483e+00 5.109065e+00 124 111 97
1.226510e+00 3.629483e+00 5.109065e+00 124 111 97
-8.017526e-01 3.872448e+00 3.871861e+00 178 171 155
-7.272292e-01 3.874900e+00 3.901409e+00 168 160 147
-2.075080e+00 3.841728e+00 3.543905e+00 160 151 136
-6.107942e-01 3.881360e+00 3.962222e+00 132 122 113
-3.497001e+00 3.795443e+00 3.209055e+00 176 169 154
2.836601e-01 3.844097e+00 4.455448e+00 150 140 126
-6.508556e-01 3.910877e+00 3.996418e+00 133 122 113
-6.687213e-01 3.948228e+00 4.041636e+00 109 100 83
8.379843e-01 3.795835e+00 4.941804e+00 86 73 55
1.794523e+00 3.616710e+00 5.729300e+00 155 148 131
7.875170e-01 3.826768e+00 4.987866e+00 91 83 80
6.079905e-02 3.956736e+00 4.432132e+00 162 153 140
-2.358520e-01 3.984982e+00 4.271879e+00 164 154 140
-3.205550e+00 3.939027e+00 3.389352e+00 71 62 65
-2.901388e-01 3.996885e+00 4.252730e+00 132 121 115
-1.631119e+00 4.006958e+00 3.864896e+00 88 81 62
-3.307720e+00 3.961454e+00 3.391440e+00 153 143 134
-2.241503e-01 4.049733e+00 4.387861e+00 191 183 176
1.308671e+00 3.853476e+00 5.466483e+00 97 89 73
-1.620125e+00 4.098000e+00 3.954472e+00 134 130 121
1.101933e+00 3.941483e+00 5.389763e+00 132 122 113
1.004727e+00 4.039995e+00 5.484505e+00 159 147 130
-2.876692e-02 4.201935e+00 4.830624e+00 88 74 65
9.315987e-01 4.072659e+00 5.455199e+00 113 96 80
-8.804751e-01 4.261428e+00 4.425274e+00 120 109 105
-8.680634e-01 4.270173e+00 4.440335e+00 116 109 100
-2.454023e-01 4.276645e+00 4.737840e+00 153 146 138
-3.271921e-01 4.285978e+00 4.714053e+00 193 187 163
-2.485121e+00 4.338921e+00 3.954056e+00 158 146 135
-1.372883e-01 4.272951e+00 4.819768e+00 133 124 103
-3.939447e-01 4.302151e+00 4.695969e+00 150 144 122
-5.673146e-01 4.327221e+00 4.591813e+00 159 152 147
7.066851e-01 4.200876e+00 5.423837e+00 144 131 115
-1.920681e+00 4.410313e+00 4.188505e+00 151 140 133
-2.223735e+00 4.422247e+00 4.115087e+00 173 166 147
-1.943687e+00 4.492054e+00 4.271180e+00 102 90 90
2.424708e-01 4.364837e+00 5.234274e+00 144 138 130
-1.234869e+00 4.499511e+00 4.491769e+00 120 103 77
-1.508487e+00 4.521002e+00 4.433689e+00 111 107 91
2.158872e-01 4.423009e+00 5.296214e+00 131 116 102
3.829614e+00 1.262089e+00 5.090315e+00 159 151 166
3.480047e+00 8.035252e-01 4.007611e+00 59 52 47
3.359307e+00 5.083450e-01 3.487776e+00 38 24 24
7.565171e-01 -6.704848e-01 1.097772e+00 182 172 183
4.382485e+00 3.104991e-01 4.645667e+00 150 139 142
2.875907e+00 -4.265427e-01 1.964654e+00 182 179 188
3.634191e+00 -3.396143e-01 2.859017e+00 93 79 79
1.646104e+00 1.065017e+00 2.036087e+00 32 22 16
2.526458e+00 1.581585e+00 3.238231e+00 186 175 175
1.138585e+00 -5.507386e-01 1.082616e+00 132 118 116
1.477327e+00 6.344326e-01 1.802411e+00 187 176 172
6.049263e-01 3.023111e+00 3.818528e+00 90 76 65
6.049263e-01 3.023111e+00 3.818528e+00 90 76 65
3.306160e+00 -7.154163e-01 1.966904e+00 121 110 119
-2.036238e-01 -3.482633e-01 1.043932e+00 168 163 162
4.880237e-01 -7.021215e-01 1.164666e+00 183 175 170
-1.653926e-01 1.270484e+00 1.403510e+00 174 155 141
1.026670e-01 -1.875646e-02 1.181181e+00 129 111 105
-4.700065e-01 8.263790e-01 1.187385e+00 171 159 146
9.704323e-01 -8.864516e-01 1.265311e+00 115 101 92
6.377324e-01 8.021226e-01 1.478909e+00 179 179 167
2.390557e-01 8.660853e-01 1.364737e+00 144 134 129
-4.243396e-01 1.124487e+00 1.294045e+00 86 63 54
2.677434e+00 -1.629462e-02 2.098668e+00 175 166 150
