ply
format ascii 1.0
element face 0
property list uchar int vertex_indices
element vertex 945
property float x
property float y
property float z
property uchar diffuse_red
property uchar diffuse_green
property uchar diffuse_blue
end_header
1.752017e+00 1.753685e-01 2.110251e+00 187 180 162
9.377724e-01 1.352560e-01 2.011566e+00 194 191 188
7.801189e-01 1.839257e-01 1.916194e+00 89 88 86
3.406316e+00 -7.455510e-02 3.500691e+00 186 186 175
4.716887e-01 2.343401e-01 1.871423e+00 155 151 140
4.313968e+00 -2.345252e-01 4.465277e+00 189 186 175
-4.039942e+00 -4.521002e-01 3.072082e+00 144 139 135
-3.474074e+00 -3.257687e-01 2.795714e+00 104 97 83
8.160173e-01 2.713599e-01 2.004201e+00 177 172 171
1.866561e+00 3.307156e-01 2.152705e+00 188 181 162
-3.939135e+00 -3.926539e-01 3.032117e+00 81 68 53
-3.939135e+00 -3.926539e-01 3.032117e+00 81 68 53
-4.437150e+00 -4.184120e-01 3.271639e+00 142 138 127
-4.377338e+00 -3.648493e-01 3.204536e+00 71 66 61
-2.593849e+00 7.164937e-02 2.303972e+00 180 177 172
-3.319050e+00 -9.713755e-02 2.711435e+00 68 58 58
-1.169458e+00 3.795114e-01 1.807064e+00 196 189 183
1.425569e+00 5.156334e-01 2.048020e+00 175 164 146
1.350002e+00 5.355460e-01 2.006706e+00 92 83 79
1.404479e+00 5.366595e-01 2.053094e+00 115 107 90
5.667998e-01 4.941701e-01 1.997602e+00 176 174 169
7.010799e-01 5.473324e-01 1.936022e+00 163 160 152
-1.857087e+00 3.706167e-01 1.839572e+00 63 58 55
1.498588e+00 5.757782e-01 2.057786e+00 190 184 168
-1.727217e+00 4.084517e-01 1.825448e+00 88 80 72
1.439420e+00 5.976503e-01 2.032862e+00 138 130 117
-6.750108e-01 5.153015e-01 1.833613e+00 115 110 96
4.089245e+00 1.695237e-01 4.233715e+00 162 159 155
4.089245e+00 1.695237e-01 4.233715e+00 162 159 155
2.030425e+00 6.229573e-01 2.183446e+00 168 158 146
-6.155683e+00 -5.298662e-01 4.042483e+00 93 87 88
-1.289122e+00 5.208401e-01 1.761425e+00 96 88 79
2.017664e+00 6.417357e-01 2.190831e+00 74 67 56
-1.388374e+00 5.305449e-01 1.743395e+00 173 168 155
-1.429758e+00 5.398643e-01 1.756068e+00 86 76 65
-1.429758e+00 5.398643e-01 1.756068e+00 86 76 65
-1.219242e-01 6.551245e-01 1.900849e+00 98 93 84
-3.457112e+00 1.693869e-01 2.755864e+00 184 178 166
-3.831588e+00 9.691750e-02 2.930484e+00 78 65 57
3.667985e+00 4.022274e-01 3.799007e+00 128 120 112
3.568264e+00 4.212902e-01 3.707260e+00 91 80 75
-2.758583e+00 3.578355e-01 2.387149e+00 104 95 86
2.449884e+00 6.870142e-01 2.574831e+00 182 176 162
2.449884e+00 6.870142e-01 2.574831e+00 182 176 162
3.724412e-01 7.554169e-01 1.889474e+00 178 175 166
-4.369398e+00 3.684284e-02 3.202691e+00 169 166 155
1.569555e+00 8.230833e-01 2.037044e+00 181 175 161
1.826964e+00 8.242110e-01 2.105074e+00 100 92 76
1.529968e+00 8.348142e-01 2.010564e+00 84 80 69
1.195870e+00 8.422336e-01 1.962050e+00 100 95 90
8.180915e-01 8.366885e-01 1.923164e+00 52 48 44
-8.573701e-01 7.717563e-01 1.741378e+00 185 180 164
-1.497516e-01 7.950802e-01 1.843163e+00 175 175 163
-1.461723e+00 7.338415e-01 1.747412e+00 95 79 74
1.960853e+00 8.652184e-01 2.157930e+00 82 74 68
1.762868e+00 8.765058e-01 2.084885e+00 87 79 72
3.607782e+00 5.335085e-01 3.765883e+00 68 63 59
3.607782e+00 5.335085e-01 3.765883e+00 68 63 59
-2.795916e+00 4.701889e-01 2.438049e+00 165 166 161
2.024258e-01 8.750198e-01 1.866307e+00 59 55 49
-1.234132e+00 8.208152e-01 1.750068e+00 185 173 152
-5.041587e+00 5.993991e-02 3.524030e+00 84 76 68
-5.035386e+00 9.471075e-02 3.525399e+00 159 156 139
2.215398e+00 9.168998e-01 2.379803e+00 55 41 40
4.066528e+00 5.326668e-01 4.273670e+00 85 79 71
-5.910102e+00 -4.207584e-02 3.927595e+00 126 122 119
-2.282362e-01 9.888329e-01 1.712536e+00 100 96 93
-4.902691e-01 9.375276e-01 1.808763e+00 103 99 95
-4.902691e-01 9.375276e-01 1.808763e+00 103 99 95
2.119186e+00 9.819499e-01 2.341091e+00 162 151 128
-2.095783e-01 1.006630e+00 1.733431e+00 179 175 172
-5.887216e-01 9.610895e-01 1.793733e+00 180 179 184
2.140001e+00 1.010609e+00 2.307133e+00 98 87 72
1.850799e+00 1.039069e+00 2.152421e+00 184 183 186
-2.617859e+00 6.866605e-01 2.338835e+00 70 57 41
-4.901051e-01 1.001274e+00 1.797715e+00 78 73 67
-4.901051e-01 1.001274e+00 1.797715e+00 78 73 67
-5.286885e+00 1.645509e-01 3.649404e+00 109 102 96
3.559784e+00 7.293280e-01 3.749870e+00 99 96 89
1.296283e+00 1.080619e+00 2.007323e+00 195 185 174
-3.510720e+00 5.392404e-01 2.770331e+00 156 147 131
1.527825e+00 1.100163e+00 2.012098e+00 193 182 169
2.095271e+00 1.059276e+00 2.291818e+00 174 166 147
1.635992e+00 1.100267e+00 2.056901e+00 190 185 174
-4.473079e-01 1.075263e+00 1.684253e+00 180 176 173
-1.920782e-01 1.108131e+00 1.709821e+00 166 159 147
-1.591081e+00 9.832167e-01 1.795328e+00 177 165 149
8.216578e-02 1.093345e+00 1.858950e+00 128 124 115
-3.481361e+00 5.942197e-01 2.758728e+00 60 51 42
-3.481361e+00 5.942197e-01 2.758728e+00 60 51 42
5.757631e-01 1.097588e+00 1.980809e+00 191 188 181
2.516968e+00 1.020483e+00 2.692748e+00 92 81 77
-5.900546e+00 1.260172e-01 3.946494e+00 67 61 60
2.061675e+00 1.121168e+00 2.277912e+00 176 168 157
-4.111918e+00 5.150641e-01 3.089030e+00 169 167 145
-5.871611e+00 1.693719e-01 3.927632e+00 196 194 187
3.521054e+00 8.375296e-01 3.729190e+00 185 182 177
9.349883e-01 1.188352e+00 1.922897e+00 134 131 119
-1.093421e+00 1.111942e+00 1.793479e+00 171 160 140
3.473375e+00 8.830307e-01 3.671547e+00 193 186 179
-3.157414e+00 7.758866e-01 2.615824e+00 129 117 91
-1.044472e+00 1.158208e+00 1.780514e+00 60 51 40
-1.044472e+00 1.158208e+00 1.780514e+00 60 51 40
3.450296e+00 9.428075e-01 3.652858e+00 87 78 64
3.450296e+00 9.428075e-01 3.652858e+00 87 78 64
-1.066789e+00 1.175488e+00 1.800361e+00 168 157 140
1.495409e-01 1.239888e+00 1.899040e+00 173 171 160
-2.536869e-01 1.264704e+00 1.784033e+00 183 173 154
3.853808e-01 1.322813e+00 1.849439e+00 110 106 101
3.853808e-01 1.322813e+00 1.849439e+00 110 106 101
-2.404999e+00 1.021896e+00 2.252745e+00 179 174 160
3.879167e+00 9.096828e-01 4.117847e+00 63 55 53
-8.312180e-02 1.339261e+00 1.664508e+00 58 48 42
-2.367063e+00 1.057780e+00 2.253352e+00 174 171 159
-3.158425e+00 9.180555e-01 2.620433e+00 46 32 31
-1.792838e+00 1.182253e+00 2.015784e+00 170 163 145
-2.455066e+00 1.063498e+00 2.291298e+00 153 147 132
2.909646e+00 1.171379e+00 3.183205e+00 63 53 43
2.952664e+00 1.200642e+00 3.232304e+00 175 168 149
-3.145992e+00 9.993262e-01 2.638490e+00 98 97 93
-1.855701e+00 1.246892e+00 2.057369e+00 154 145 130
2.372664e+00 1.347510e+00 2.630998e+00 173 163 151
3.431939e+00 1.172972e+00 3.693028e+00 170 164 150
2.849659e+00 1.306969e+00 3.169860e+00 56 49 42
-2.466916e+00 1.213586e+00 2.344665e+00 170 163 144
1.860549e+00 1.509190e+00 2.264688e+00 144 136 118
6.274623e-01 1.546383e+00 1.899006e+00 67 51 48
3.343050e+00 1.264090e+00 3.655409e+00 182 175 165
-2.892237e+00 1.240724e+00 2.547751e+00 178 171 156
2.890838e+00 1.402930e+00 3.238966e+00 105 102 95
3.745430e+00 1.236606e+00 4.044815e+00 179 172 162
-1.540158e+00 1.499280e+00 1.905934e+00 136 125 98
2.854650e+00 1.420076e+00 3.222167e+00 198 195 187
3.821612e+00 1.275114e+00 4.122392e+00 195 186 180
-3.970688e+00 1.152423e+00 3.063582e+00 93 81 65
-4.474307e+00 1.076990e+00 3.312073e+00 174 168 151
3.331300e+00 1.435065e+00 3.631219e+00 115 106 97
1.763338e+00 1.722539e+00 2.222221e+00 59 42 34
-3.977319e+00 1.195726e+00 3.059653e+00 182 180 166
2.150562e+00 1.688673e+00 2.568768e+00 97 84 66
2.021964e+00 1.726239e+00 2.467839e+00 139 127 106
-1.813424e+00 1.612636e+00 2.087368e+00 117 106 88
2.106939e+00 1.718028e+00 2.557419e+00 97 83 69
-6.570741e+00 8.009953e-01 4.261904e+00 158 153 141
3.133401e+00 1.529165e+00 3.535575e+00 181 171 161
7.679894e-01 1.846032e+00 1.893634e+00 63 53 47
4.073605e+00 1.370875e+00 4.399496e+00 89 80 75
2.146485e+00 1.738305e+00 2.609808e+00 157 146 124
2.108425e+00 1.745566e+00 2.592062e+00 157 150 133
1.656055e+00 1.819468e+00 2.258695e+00 69 57 41
7.584080e-01 1.877457e+00 1.919555e+00 43 39 35
-1.639282e+00 1.705243e+00 2.063261e+00 137 122 99
-1.639282e+00 1.705243e+00 2.063261e+00 137 122 99
-6.462824e+00 9.092207e-01 4.198397e+00 70 55 56
-2.257247e-01 1.866956e+00 1.841070e+00 35 31 35
2.041343e+00 1.819613e+00 2.548946e+00 75 65 61
1.548067e+00 1.886433e+00 2.164355e+00 164 155 139
-2.929419e+00 1.538863e+00 2.641350e+00 87 77 64
2.087417e+00 1.804513e+00 2.633995e+00 61 53 50
-2.707004e+00 1.580886e+00 2.539786e+00 145 139 121
-2.707004e+00 1.580886e+00 2.539786e+00 145 139 121
-6.596222e+00 9.255612e-01 4.280453e+00 179 176 160
3.819149e-01 1.938102e+00 1.866740e+00 177 176 171
2.259293e+00 1.810883e+00 2.760279e+00 79 69 67
2.216669e+00 1.843034e+00 2.739521e+00 60 51 43
-5.671974e+00 1.141329e+00 3.899758e+00 169 166 160
4.076464e+00 1.503653e+00 4.433149e+00 83 74 67
-1.879889e+00 1.781632e+00 2.181486e+00 151 139 117
3.567788e+00 1.605593e+00 3.980032e+00 166 159 153
-2.861587e+00 1.644903e+00 2.630801e+00 165 160 152
-1.891546e+00 1.807023e+00 2.203680e+00 65 56 41
1.256451e-01 2.025732e+00 1.741588e+00 167 161 142
1.678618e+00 1.958352e+00 2.414202e+00 183 179 166
-1.813380e+00 1.835359e+00 2.185037e+00 53 46 27
-3.498438e+00 1.694677e+00 2.950466e+00 174 170 161
-8.873841e-01 2.092602e+00 1.878237e+00 101 87 60
-3.375857e+00 1.733060e+00 2.902301e+00 79 69 68
-3.567930e+00 1.706848e+00 2.979449e+00 172 173 167
3.538864e+00 1.799320e+00 3.982678e+00 179 176 170
1.472547e+00 2.128088e+00 2.299197e+00 39 28 24
2.935888e+00 1.914253e+00 3.480262e+00 79 72 64
-1.316541e+00 2.068046e+00 2.049919e+00 139 130 114
-3.465209e+00 1.760935e+00 2.968063e+00 160 161 159
3.340621e+00 1.873701e+00 3.816036e+00 92 83 78
1.936922e+00 2.101708e+00 2.665716e+00 88 74 69
-6.590336e+00 1.329299e+00 4.325670e+00 191 189 191
1.938797e+00 2.152184e+00 2.710660e+00 192 185 177
1.340118e+00 2.225612e+00 2.293101e+00 176 171 164
2.507876e+00 2.088102e+00 3.119729e+00 185 180 174
3.413406e+00 1.938925e+00 3.914788e+00 94 85 81
-1.521574e+00 2.151679e+00 2.154976e+00 56 46 35
-4.047819e+00 1.781003e+00 3.242665e+00 59 49 48
3.353607e+00 1.981038e+00 3.884448e+00 83 73 69
3.357252e+00 1.974622e+00 3.901230e+00 83 73 69
-1.646339e+00 2.150210e+00 2.265208e+00 116 111 106
-3.264540e+00 1.921244e+00 2.910344e+00 166 158 146
3.951361e+00 1.891539e+00 4.424155e+00 121 119 122
-4.984255e+00 1.701105e+00 3.662269e+00 176 173 168
3.377505e+00 2.010733e+00 3.935991e+00 89 82 76
-4.288923e-01 2.338670e+00 1.854154e+00 105 92 76
-4.288923e-01 2.338670e+00 1.854154e+00 105 92 76
-6.392614e+00 1.502925e+00 4.258319e+00 162 157 146
-2.455562e+00 2.096311e+00 2.577370e+00 171 167 152
1.568894e+00 2.313030e+00 2.429959e+00 107 93 85
-6.154752e+00 1.543186e+00 4.154873e+00 175 171 167
2.303300e+00 2.222146e+00 3.020108e+00 70 58 53
4.403185e+00 1.874463e+00 4.759558e+00 107 92 80
3.282131e+00 2.062849e+00 3.863980e+00 110 103 96
2.224763e+00 2.246792e+00 2.963048e+00 181 168 160
1.668580e+00 2.318430e+00 2.592403e+00 83 76 75
-3.849998e+00 1.936086e+00 3.175050e+00 93 89 90
1.002144e+00 2.433507e+00 2.200940e+00 170 166 155
-2.226950e+00 2.220898e+00 2.539039e+00 56 43 37
2.057753e+00 2.331791e+00 2.855286e+00 78 68 58
2.204080e+00 2.345709e+00 3.019435e+00 54 44 45
3.308196e+00 2.181054e+00 3.909647e+00 94 91 84
2.296512e+00 2.343098e+00 3.059360e+00 73 65 55
-4.385592e-01 2.485951e+00 1.967891e+00 165 149 125
-4.385592e-01 2.485951e+00 1.967891e+00 165 149 125
3.333543e+00 2.185433e+00 3.941473e+00 186 186 178
2.110038e+00 2.376530e+00 2.967388e+00 184 177 162
3.287237e+00 2.206254e+00 3.926270e+00 204 200 197
-6.242551e-01 2.485954e+00 2.054510e+00 149 144 124
-1.455745e+00 2.410861e+00 2.286767e+00 148 136 113
-2.401209e+00 2.294873e+00 2.616406e+00 67 57 55
-2.401209e+00 2.294873e+00 2.616406e+00 67 57 55
-4.154100e+00 2.061034e+00 3.352240e+00 179 180 171
1.569703e+00 2.500280e+00 2.600433e+00 152 143 127
-1.131306e+00 2.484559e+00 2.178395e+00 151 141 118
6.924590e-01 2.581488e+00 2.103393e+00 123 107 86
-2.786495e+00 2.319177e+00 2.817939e+00 61 51 47
-5.952433e+00 1.877748e+00 4.126671e+00 188 183 177
-3.893753e+00 2.199508e+00 3.292189e+00 184 181 179
-6.033277e+00 1.936979e+00 4.184876e+00 183 178 174
-1.997385e+00 2.510484e+00 2.575287e+00 174 167 141
-2.695756e+00 2.435733e+00 2.826312e+00 159 150 136
-2.219349e+00 2.499838e+00 2.618756e+00 164 161 142
-5.952015e+00 1.995874e+00 4.144182e+00 171 171 161
-2.705018e+00 2.462760e+00 2.840808e+00 101 89 82
-2.705018e+00 2.462760e+00 2.840808e+00 101 89 82
-1.407075e+00 2.615827e+00 2.343382e+00 99 85 65
1.849182e+00 2.633245e+00 2.896605e+00 156 143 134
1.849182e+00 2.633245e+00 2.896605e+00 156 143 134
1.961454e+00 2.637078e+00 2.977455e+00 107 95 83
1.961454e+00 2.637078e+00 2.977455e+00 107 95 83
2.511941e+00 2.586144e+00 3.404388e+00 131 127 115
3.653146e+00 2.425933e+00 4.309073e+00 133 126 117
2.409259e+00 2.627144e+00 3.334458e+00 87 77 72
-5.745184e+00 2.141715e+00 4.082806e+00 170 167 153
3.019739e-02 2.810125e+00 2.096461e+00 142 126 103
-1.123284e-01 2.800768e+00 2.153170e+00 90 72 57
-4.706800e+00 2.303146e+00 3.698645e+00 183 179 177
4.086917e+00 2.391494e+00 4.649236e+00 186 178 165
4.086917e+00 2.391494e+00 4.649236e+00 186 178 165
2.766597e+00 2.600933e+00 3.680767e+00 178 171 158
-8.314432e-01 2.778936e+00 2.283334e+00 176 169 156
-1.875741e+00 2.690798e+00 2.600053e+00 70 57 48
1.735235e+00 2.767669e+00 2.928128e+00 177 173 163
-4.268084e+00 2.416811e+00 3.496756e+00 111 105 105
-1.904597e+00 2.712678e+00 2.658021e+00 167 167 156
-2.032466e+00 2.711021e+00 2.634732e+00 142 133 121
-1.507479e+00 2.776667e+00 2.500317e+00 84 72 62
-1.623450e+00 2.761635e+00 2.559587e+00 141 133 104
8.744929e-01 2.881783e+00 2.403960e+00 89 76 60
9.489251e-01 2.879847e+00 2.478488e+00 112 103 85
-1.607654e+00 2.784399e+00 2.562479e+00 58 46 46
-3.563295e+00 2.560997e+00 3.258545e+00 176 176 166
9.815500e-02 2.941324e+00 2.202468e+00 50 40 31
-4.030029e+00 2.548238e+00 3.416252e+00 129 122 113
-5.463376e+00 2.368961e+00 4.007382e+00 166 159 147
6.779796e-01 2.964239e+00 2.413833e+00 56 43 33
2.809957e+00 2.756626e+00 3.798670e+00 190 189 187
-3.531873e+00 2.664068e+00 3.262703e+00 111 106 100
3.275180e+00 2.694967e+00 4.146594e+00 169 160 144
-6.312897e-02 2.994268e+00 2.264405e+00 80 68 55
2.179609e+00 2.876152e+00 3.318142e+00 187 183 175
-2.235533e+00 2.844359e+00 2.818623e+00 68 58 56
4.014483e+00 2.620819e+00 4.685090e+00 108 98 89
-5.631362e+00 2.458817e+00 4.111531e+00 129 119 117
-5.631362e+00 2.458817e+00 4.111531e+00 129 119 117
3.939189e+00 2.664178e+00 4.633533e+00 55 44 40
-3.501239e+00 2.748456e+00 3.279037e+00 84 76 74
-4.084020e+00 2.683320e+00 3.522457e+00 156 148 128
-8.109493e-01 3.029646e+00 2.438878e+00 73 64 49
-2.239476e+00 2.907458e+00 2.853057e+00 193 189 178
1.528751e+00 3.059135e+00 2.931889e+00 188 180 157
-5.593988e+00 2.594400e+00 4.130408e+00 120 116 120
3.192138e+00 2.884678e+00 4.180107e+00 105 95 92
1.796848e+00 3.079792e+00 3.048417e+00 176 166 145
8.192629e-01 3.158927e+00 2.628865e+00 171 163 149
1.256880e+00 3.141384e+00 2.873109e+00 180 173 158
-2.247226e+00 3.036574e+00 2.931678e+00 132 126 119
2.592570e+00 3.011523e+00 3.748930e+00 185 179 173
1.120629e+00 3.186911e+00 2.825636e+00 174 162 136
3.647240e+00 2.905059e+00 4.463683e+00 58 47 45
3.647240e+00 2.905059e+00 4.463683e+00 58 47 45
1.245030e+00 3.203441e+00 2.833330e+00 194 190 178
1.308562e-01 3.248195e+00 2.452556e+00 139 132 112
-2.825534e+00 3.048558e+00 3.155163e+00 172 165 141
-1.173592e+00 3.204950e+00 2.699150e+00 170 164 151
2.410175e+00 3.119405e+00 3.713969e+00 90 79 68
2.410175e+00 3.119405e+00 3.713969e+00 90 79 68
3.137993e+00 3.037890e+00 4.202526e+00 106 102 101
2.979783e+00 3.100039e+00 4.095303e+00 184 181 173
-1.132493e+00 3.286929e+00 2.690347e+00 85 76 68
-4.831772e+00 2.956795e+00 3.897552e+00 87 71 73
-5.084971e+00 2.934878e+00 4.011590e+00 85 75 74
-5.084971e+00 2.934878e+00 4.011590e+00 85 75 74
2.420980e+00 3.206312e+00 3.723977e+00 130 125 113
-4.786520e+00 2.966890e+00 3.880708e+00 165 158 147
2.348542e+00 3.228645e+00 3.690425e+00 200 194 183
9.325303e-01 3.358266e+00 2.868202e+00 82 70 54
-1.667696e+00 3.309344e+00 2.883098e+00 174 166 150
-2.983151e+00 3.199433e+00 3.264501e+00 192 187 181
2.328706e+00 3.259397e+00 3.691850e+00 202 197 191
-5.209857e+00 2.981798e+00 4.075454e+00 114 109 113
1.021675e+00 3.386164e+00 2.900369e+00 67 53 43
-1.986403e+00 3.306800e+00 2.928775e+00 160 156 145
-2.937831e+00 3.231391e+00 3.263357e+00 193 192 189
-4.841825e+00 3.037815e+00 3.940240e+00 193 189 183
-1.705996e+00 3.354118e+00 2.917022e+00 65 52 44
-1.705996e+00 3.354118e+00 2.917022e+00 65 52 44
6.390302e-01 3.457979e+00 2.828129e+00 129 119 99
-2.663747e+00 3.309842e+00 3.204333e+00 136 132 128
3.463048e+00 3.203703e+00 4.473831e+00 179 172 154
-5.184541e-01 3.483128e+00 2.740626e+00 53 42 45
2.690741e+00 3.316418e+00 4.019785e+00 70 57 53
2.819452e-01 3.507229e+00 2.691945e+00 120 105 84
2.819113e+00 3.303974e+00 4.083483e+00 175 167 146
1.407316e+00 3.439933e+00 3.273309e+00 193 185 174
-3.694343e+00 3.260938e+00 3.588808e+00 85 76 75
-4.646777e+00 3.163908e+00 3.897387e+00 180 174 164
-5.790429e-01 3.500744e+00 2.761279e+00 91 81 70
-4.674757e+00 3.170744e+00 3.905425e+00 60 49 58
-4.757847e+00 3.209902e+00 3.968740e+00 157 150 134
3.285657e+00 3.301681e+00 4.357265e+00 75 63 57
2.990701e-01 3.564443e+00 2.758943e+00 91 73 59
2.967141e+00 3.354189e+00 4.182031e+00 131 124 116
-4.699387e+00 3.238687e+00 3.953021e+00 191 187 185
-1.669879e+00 3.519385e+00 2.988471e+00 60 56 55
-2.350582e+00 3.474226e+00 3.198332e+00 165 157 144
-3.970573e-01 3.601290e+00 2.827308e+00 195 192 187
3.123224e+00 3.379197e+00 4.267147e+00 111 107 104
-2.330494e+00 3.493156e+00 3.183043e+00 87 79 77
-3.352135e+00 3.417858e+00 3.541755e+00 72 62 64
-4.524596e+00 3.323235e+00 3.903569e+00 184 179 161
3.118280e+00 3.408774e+00 4.283253e+00 183 178 158
9.425327e-01 3.625006e+00 3.109749e+00 80 70 60
-1.368057e+00 3.639158e+00 2.983239e+00 94 87 79
2.545325e+00 3.524332e+00 4.002579e+00 179 175 164
8.237695e-01 3.666448e+00 3.094822e+00 76 65 59
2.647640e+00 3.522578e+00 4.076757e+00 78 71 78
-3.431521e+00 3.504515e+00 3.619446e+00 206 206 196
-4.369001e+00 3.417742e+00 3.875738e+00 177 168 159
1.901665e+00 3.611704e+00 3.620453e+00 206 203 199
1.885035e+00 3.630948e+00 3.612736e+00 123 119 108
-1.737864e-03 3.735060e+00 2.897173e+00 73 62 56
-1.198456e+00 3.715360e+00 3.004819e+00 86 79 69
-1.236492e+00 3.725319e+00 3.009786e+00 186 181 161
-2.893348e+00 3.613095e+00 3.404027e+00 98 87 82
3.139556e+00 3.532960e+00 4.397172e+00 111 95 80
-4.442449e+00 3.487234e+00 3.938207e+00 187 180 172
3.192520e+00 3.529993e+00 4.438675e+00 162 160 149
-4.345861e+00 3.499314e+00 3.905664e+00 66 56 59
9.129117e-01 3.756959e+00 3.210259e+00 143 136 130
2.240825e+00 3.682819e+00 3.925700e+00 154 145 136
1.385859e+00 3.756083e+00 3.395723e+00 103 94 77
2.920129e+00 3.613398e+00 4.252534e+00 114 97 86
-9.502398e-02 3.815958e+00 2.895084e+00 125 112 95
-9.502398e-02 3.815958e+00 2.895084e+00 125 112 95
1.398963e+00 3.767799e+00 3.462828e+00 176 167 156
-3.090647e+00 3.682376e+00 3.553437e+00 196 193 188
1.602983e+00 3.769583e+00 3.571532e+00 198 195 187
3.006592e+00 3.631785e+00 4.355075e+00 185 180 167
7.030179e-01 3.850954e+00 3.157427e+00 200 199 194
2.284212e+00 3.742583e+00 3.985110e+00 181 171 154
2.453910e+00 3.733898e+00 4.043035e+00 136 127 119
-4.023145e+00 3.662260e+00 3.838897e+00 163 154 142
5.326423e-01 3.875321e+00 3.141965e+00 143 136 110
-1.801969e+00 3.823959e+00 3.210383e+00 75 65 64
1.982470e+00 3.787936e+00 3.752997e+00 159 151 132
2.236857e+00 3.769078e+00 3.974395e+00 77 68 61
1.719579e+00 3.826719e+00 3.616844e+00 181 171 150
5.786816e-01 3.908255e+00 3.184032e+00 45 35 26
-4.161359e+00 3.721592e+00 3.933568e+00 96 86 85
4.341744e-01 3.946759e+00 3.155555e+00 129 118 105
5.585762e-01 3.952755e+00 3.156768e+00 106 96 86
1.357087e+00 3.917272e+00 3.548057e+00 76 69 62
-3.579062e-01 3.969652e+00 3.100201e+00 185 173 153
-1.563418e+00 3.932849e+00 3.247180e+00 199 194 173
2.755770e+00 3.804744e+00 4.269273e+00 150 142 132
-3.870282e+00 3.796825e+00 3.850960e+00 186 179 169
1.230869e+00 3.949235e+00 3.469709e+00 146 137 126
-3.565147e-01 3.990721e+00 3.116944e+00 90 74 69
1.978691e+00 3.899214e+00 3.863445e+00 89 79 66
-2.903174e+00 3.898906e+00 3.603151e+00 69 59 57
-3.593491e+00 3.839679e+00 3.744741e+00 119 111 97
-3.673230e+00 3.852461e+00 3.780337e+00 74 63 61
-4.014773e+00 3.835906e+00 3.920809e+00 104 92 87
-2.925732e+00 3.917245e+00 3.597430e+00 65 57 61
2.876675e+00 3.845490e+00 4.388888e+00 86 75 68
2.741519e+00 3.869124e+00 4.312148e+00 182 174 154
2.970297e-01 4.045917e+00 3.207147e+00 199 195 186
6.607279e-01 4.045678e+00 3.272635e+00 161 155 129
-3.480559e+00 3.911717e+00 3.736900e+00 119 111 100
-1.633685e+00 4.035813e+00 3.333361e+00 194 191 186
-3.661622e+00 3.918344e+00 3.806610e+00 160 145 126
2.071053e+00 3.978498e+00 3.971159e+00 80 74 72
-3.477931e+00 3.939466e+00 3.762796e+00 168 162 138
9.600982e-01 4.064374e+00 3.452062e+00 202 196 183
9.518998e-01 4.070866e+00 3.472113e+00 202 196 183
2.671149e+00 3.954237e+00 4.319412e+00 203 202 177
1.632460e+00 4.079490e+00 3.805333e+00 87 77 68
-8.148309e-02 4.155021e+00 3.240422e+00 195 190 177
8.053019e-01 4.133648e+00 3.462827e+00 179 172 154
8.053019e-01 4.133648e+00 3.462827e+00 179 172 154
2.657617e+00 3.991253e+00 4.338824e+00 170 161 145
-3.471080e+00 4.080165e+00 3.839487e+00 160 154 132
-1.282468e+00 4.201210e+00 3.353746e+00 113 104 95
-3.131882e+00 4.126885e+00 3.727169e+00 102 92 90
1.842112e+00 4.161043e+00 3.949403e+00 122 114 109
1.507335e+00 4.204142e+00 3.827326e+00 159 146 121
1.507335e+00 4.204142e+00 3.827326e+00 159 146 121
1.487057e+00 4.205591e+00 3.817052e+00 154 142 123
5.051222e-01 4.253569e+00 3.454026e+00 49 42 36
-3.125582e+00 4.163319e+00 3.755998e+00 199 195 189
-3.657970e+00 4.147000e+00 3.930163e+00 81 73 70
2.272580e+00 4.172592e+00 4.177334e+00 92 78 73
5.114431e-01 4.290634e+00 3.489527e+00 67 56 51
5.132727e-01 4.289049e+00 3.491609e+00 67 56 51
2.063032e+00 4.208774e+00 4.067693e+00 109 102 94
1.241665e+00 4.274258e+00 3.716451e+00 187 180 155
-2.095026e+00 4.290294e+00 3.578545e+00 79 69 67
1.548467e-01 4.337695e+00 3.396868e+00 135 129 110
-3.365442e+00 4.264134e+00 3.895857e+00 189 184 173
-3.365442e+00 4.264134e+00 3.895857e+00 189 184 173
2.206710e+00 4.268439e+00 4.229460e+00 208 197 175
-5.454189e-01 4.392284e+00 3.423000e+00 104 92 78
2.104061e+00 4.290648e+00 4.169060e+00 193 189 178
-3.275208e+00 4.340300e+00 3.912696e+00 175 168 152
-5.583191e-01 4.439841e+00 3.464831e+00 117 104 95
1.902459e+00 4.352562e+00 4.082856e+00 94 80 78
-2.730273e+00 4.379983e+00 3.752390e+00 190 183 171
2.194807e+00 4.344871e+00 4.279435e+00 175 170 158
2.194807e+00 4.344871e+00 4.279435e+00 175 170 158
1.816199e+00 4.383144e+00 4.058009e+00 177 167 146
-2.779397e+00 4.405337e+00 3.782644e+00 168 162 134
-3.027806e+00 4.395876e+00 3.868793e+00 68 56 60
-2.547903e+00 4.418982e+00 3.735985e+00 187 188 178
1.253771e+00 4.429110e+00 3.845160e+00 166 158 147
-3.487787e+00 4.382532e+00 3.982404e+00 164 165 170
-4.102504e-02 4.497980e+00 3.503430e+00 176 168 143
-1.850604e-01 4.514448e+00 3.500162e+00 39 29 28
-1.929790e-01 4.508328e+00 3.529167e+00 39 29 28
-3.258349e+00 4.422714e+00 3.950975e+00 93 88 100
8.224358e-01 4.482891e+00 3.757619e+00 201 199 187
-1.368047e+00 4.504008e+00 3.617057e+00 183 183 170
-1.358796e+00 4.509269e+00 3.592965e+00 183 183 170
-2.819918e+00 4.469962e+00 3.852534e+00 180 177 164
7.937080e-01 4.514985e+00 3.777695e+00 191 185 175
1.683140e+00 4.480928e+00 4.040996e+00 79 67 70
1.636066e+00 4.484035e+00 4.010744e+00 161 154 134
-1.178207e+00 4.562426e+00 3.629119e+00 116 104 91
-1.223976e+00 4.566545e+00 3.639314e+00 160 150 132
1.693460e+00 4.500841e+00 4.065075e+00 184 178 162
1.649953e+00 4.501052e+00 4.068026e+00 189 185 168
-1.534237e+00 4.569278e+00 3.670811e+00 54 46 43
8.084878e-01 4.566059e+00 3.825049e+00 87 78 72
2.505319e-02 4.613643e+00 3.572976e+00 112 93 76
1.590190e+00 4.554329e+00 4.041182e+00 152 146 124
1.695772e+00 4.565528e+00 4.147684e+00 177 165 139
-2.695479e+00 4.608979e+00 3.889728e+00 191 191 177
1.891923e+00 4.565554e+00 4.229074e+00 201 199 190
-9.919592e-01 4.720906e+00 3.701032e+00 190 185 172
1.597736e-01 4.782499e+00 3.793160e+00 158 148 126
9.800987e-01 4.752272e+00 3.947759e+00 173 162 144
-1.300107e+00 4.796449e+00 3.748197e+00 141 137 137
-1.746621e+00 4.789772e+00 3.780755e+00 120 107 97
1.305714e+00 4.763499e+00 4.131048e+00 101 82 67
-2.022443e+00 4.818348e+00 3.869193e+00 74 63 60
9.875397e-01 4.792516e+00 3.990391e+00 169 160 137
1.451951e-01 4.860674e+00 3.834631e+00 67 59 48
-7.105742e-01 4.872865e+00 3.774887e+00 133 129 126
-7.961075e-01 4.878402e+00 3.766131e+00 135 130 124
-4.625175e-01 4.884737e+00 3.778535e+00 108 98 93
-4.677079e-01 4.899863e+00 3.774318e+00 108 98 93
9.541014e-02 4.894596e+00 3.878108e+00 114 103 103
-4.555027e-01 4.906435e+00 3.792190e+00 203 200 193
4.136534e-01 4.895925e+00 3.899019e+00 202 199 193
7.441059e-01 4.887608e+00 4.008253e+00 167 154 129
-1.308092e+00 4.913398e+00 3.799269e+00 185 176 163
1.232327e+00 4.867021e+00 4.176135e+00 111 99 87
-1.279217e+00 4.920842e+00 3.798824e+00 183 178 156
1.261841e+00 4.869607e+00 4.183720e+00 212 212 196
-1.245381e+00 4.927807e+00 3.807372e+00 192 184 174
7.456653e-01 4.906248e+00 4.025182e+00 64 51 48
7.456653e-01 4.906248e+00 4.025182e+00 64 51 48
6.845950e-01 4.906793e+00 3.967671e+00 151 139 111
1.287299e+00 4.884848e+00 4.199136e+00 104 97 113
-1.304761e+00 4.952080e+00 3.862506e+00 109 98 94
9.631468e-01 4.909789e+00 4.084890e+00 135 122 103
6.705955e-01 4.926966e+00 3.975804e+00 85 66 60
5.345613e-01 4.956390e+00 3.957865e+00 150 137 112
5.345613e-01 4.956390e+00 3.957865e+00 150 137 112
-1.683671e+00 4.994458e+00 3.929105e+00 161 153 137
-1.799599e+00 5.002311e+00 3.953084e+00 190 185 160
4.783451e-01 4.995694e+00 3.978909e+00 111 94 85
5.899925e-01 5.006435e+00 4.067377e+00 44 33 29
-1.145154e+00 5.026517e+00 3.862834e+00 78 61 57
-1.818251e+00 5.038065e+00 3.983547e+00 168 161 145
8.080893e-01 5.015671e+00 4.117362e+00 95 80 64
9.905236e-01 5.011527e+00 4.175647e+00 103 100 109
-1.176874e+00 5.067933e+00 3.904185e+00 56 46 44
2.253023e-01 5.058214e+00 3.951499e+00 148 132 108
2.898212e-01 5.061467e+00 3.977684e+00 167 161 135
-1.642049e+00 5.098028e+00 3.992970e+00 165 157 134
-1.148942e+00 5.105894e+00 3.932435e+00 42 27 29
7.782366e-02 5.103733e+00 3.950012e+00 147 133 104
7.814608e-01 5.110039e+00 4.170443e+00 216 221 227
2.009691e-01 5.138140e+00 4.020180e+00 165 162 137
1.787112e-01 5.153198e+00 4.022212e+00 64 52 46
-6.999610e+00 -3.711194e+00 4.925636e+00 191 193 189
-3.882489e+00 -3.363808e+00 4.489932e+00 84 84 80
-3.882489e+00 -3.363808e+00 4.489932e+00 84 84 80
-6.970819e+00 -3.695731e+00 4.934892e+00 83 82 92
-6.970819e+00 -3.695731e+00 4.934892e+00 83 82 92
2.758845e-01 -1.782902e+00 2.218523e+00 113 114 108
-4.423186e+00 -3.217158e+00 4.278551e+00 161 162 156
-4.344246e-02 -1.490072e+00 1.602751e+00 53 50 45
2.165744e+00 -1.589782e+00 2.567313e+00 73 71 70
3.272320e+00 -1.841144e+00 3.585680e+00 140 139 137
3.241414e+00 -1.827948e+00 3.570083e+00 82 81 77
3.717175e+00 -1.931783e+00 4.025727e+00 139 138 134
2.169225e+00 -1.559034e+00 2.562668e+00 165 162 155
3.235851e+00 -1.772164e+00 3.565873e+00 113 113 109
1.977142e+00 -1.427462e+00 2.351925e+00 27 25 24
2.163526e+00 -1.468584e+00 2.528300e+00 108 107 105
3.800227e+00 -1.818787e+00 4.063894e+00 152 152 150
5.718456e-01 -1.517870e+00 2.238925e+00 148 147 145
4.068061e-01 -1.545529e+00 2.279040e+00 147 145 148
9.029231e-01 -1.328674e+00 1.949071e+00 74 70 59
8.298131e-01 -1.292129e+00 1.935880e+00 64 60 60
3.476122e-01 -1.486910e+00 2.267366e+00 165 164 161
5.460541e-01 -1.438306e+00 2.221048e+00 135 135 134
2.475409e+00 -1.364918e+00 2.650859e+00 144 145 140
-3.704201e+00 -2.624420e+00 3.944272e+00 156 151 150
3.430412e-01 -1.452095e+00 2.255001e+00 29 28 28
-1.748934e-01 -1.206265e+00 1.625171e+00 170 167 162
1.781967e+00 -1.149407e+00 2.228505e+00 60 58 60
2.779222e+00 -1.314771e+00 3.062216e+00 31 26 28
1.990702e+00 -1.141475e+00 2.364188e+00 198 199 205
2.255290e+00 -1.156136e+00 2.494237e+00 176 177 172
1.941970e+00 -1.130408e+00 2.352649e+00 129 129 127
2.132370e-01 -1.263009e+00 2.181741e+00 170 169 167
1.387930e+00 -1.027498e+00 1.979920e+00 84 85 80
1.387930e+00 -1.027498e+00 1.979920e+00 84 85 80
1.485210e+00 -1.106438e+00 2.181714e+00 162 163 160
1.305368e+00 -1.085416e+00 2.085562e+00 93 93 88
2.247480e+00 -1.160253e+00 2.550019e+00 101 101 99
2.232047e+00 -1.057926e+00 2.463580e+00 182 181 177
2.204049e+00 -1.080132e+00 2.488109e+00 104 105 100
2.204049e+00 -1.080132e+00 2.488109e+00 104 105 100
-4.592308e-01 -8.262452e-01 1.203183e+00 70 63 62
-4.540747e+00 -2.209110e+00 3.687073e+00 41 39 41
2.164358e+00 -1.052037e+00 2.460600e+00 124 124 122
2.163959e+00 -1.029581e+00 2.415730e+00 124 124 122
-4.412633e-01 -9.044262e-01 1.431009e+00 98 97 93
-4.642162e-01 -7.613867e-01 1.203746e+00 171 167 150
-4.642162e-01 -7.613867e-01 1.203746e+00 171 167 150
1.269039e+00 -9.787104e-01 2.138867e+00 172 169 163
4.484670e-01 -9.565151e-01 1.891818e+00 105 99 85
1.212156e+00 -9.344661e-01 2.094501e+00 176 176 168
3.918274e-01 -9.329289e-01 1.915353e+00 126 124 112
4.306101e-01 -9.478188e-01 1.984992e+00 125 121 108
8.332534e-01 -8.253795e-01 1.992658e+00 88 84 72
-3.330134e+00 -1.836995e+00 3.477000e+00 165 161 138
8.299079e-01 -7.840487e-01 2.005066e+00 98 95 88
-5.982164e+00 -2.175440e+00 4.179968e+00 163 163 161
2.722677e+00 -8.644591e-01 2.883343e+00 167 162 156
-3.735771e+00 -1.658987e+00 3.312708e+00 27 23 20
-3.708279e+00 -1.644578e+00 3.319374e+00 168 161 151
1.115840e+00 -6.562577e-01 1.994674e+00 120 119 115
-5.463189e+00 -1.957043e+00 3.943631e+00 114 115 115
-4.135998e+00 -1.661185e+00 3.412818e+00 180 177 169
1.832210e+00 -6.089565e-01 2.176642e+00 120 121 116
2.700909e+00 -7.072566e-01 2.862383e+00 122 115 108
1.570912e+00 -5.507511e-01 2.094681e+00 73 64 59
1.281255e+00 -5.494743e-01 2.050363e+00 96 96 97
1.127881e+00 -5.645999e-01 2.050146e+00 189 189 187
2.151185e+00 -4.879510e-01 2.185178e+00 161 158 155
2.156499e+00 -5.164582e-01 2.279118e+00 68 63 61
3.907522e+00 -9.463304e-01 4.135570e+00 123 121 122
-2.332821e+00 -1.072536e+00 2.599471e+00 168 168 166
3.576381e+00 -8.171051e-01 3.707405e+00 58 53 48
3.576381e+00 -8.171051e-01 3.707405e+00 58 53 48
-4.237375e-01 -6.757265e-01 2.127004e+00 104 96 87
2.533252e+00 -5.418913e-01 2.724662e+00 170 161 154
-5.825088e+00 -1.740399e+00 4.056926e+00 64 62 63
1.074350e+00 -4.187837e-01 2.025735e+00 166 166 158
2.565025e+00 -4.469154e-01 2.610368e+00 174 168 155
3.939847e+00 -7.555244e-01 4.102703e+00 122 118 107
-3.643216e+00 -1.115135e+00 3.088555e+00 97 85 70
3.069249e+00 -4.620417e-01 3.164967e+00 150 149 145
-2.977980e+00 -9.000927e-01 2.772117e+00 87 76 66
4.304057e+00 -7.471028e-01 4.456123e+00 163 155 144
2.205645e+00 -2.202592e-01 2.281798e+00 188 187 181
-3.231272e+00 -9.240270e-01 2.869204e+00 75 66 61
-2.156575e+00 -6.268771e-01 2.283518e+00 80 74 66
3.488997e+00 -5.261488e-01 3.620714e+00 106 101 89
1.702701e+00 -1.743326e-01 2.129386e+00 165 162 150
1.498353e-01 -3.110837e-01 2.074744e+00 111 110 105
-3.980566e+00 -9.919824e-01 3.152411e+00 80 76 72
5.896056e-01 -1.769698e-01 1.984768e+00 175 169 157
-1.922785e+00 -4.125652e-01 2.066449e+00 114 115 109
2.750131e+00 -2.356004e-01 2.805737e+00 166 164 152
-1.079744e+00 -3.413145e-01 2.091668e+00 99 99 91
-1.064501e+00 -3.068863e-01 2.067754e+00 170 169 166
5.946017e-01 -1.523475e-01 2.089264e+00 196 191 175
5.988077e-01 -1.491534e-01 2.064089e+00 196 191 175
1.304765e+00 -9.955385e-02 2.150741e+00 183 181 173
-5.111976e-02 -1.879321e-01 2.019875e+00 191 191 183
-3.154170e+00 -6.872275e-01 2.740930e+00 88 79 76
3.398064e+00 -3.425135e-01 3.516140e+00 78 77 73
3.398064e+00 -3.425135e-01 3.516140e+00 78 77 73
3.340195e+00 -3.399124e-01 3.480859e+00 85 82 73
3.491283e+00 -3.351444e-01 3.590968e+00 109 107 94
-2.591877e-02 -1.531694e-01 2.030356e+00 185 186 181
-2.591877e-02 -1.531694e-01 2.030356e+00 185 186 181
5.264637e-01 -9.165376e-02 2.042554e+00 173 169 165
2.003219e+00 1.060724e-02 2.168462e+00 109 105 101
1.765481e+00 1.037188e-02 2.111550e+00 118 118 113
2.862260e+00 -1.288256e-01 2.877260e+00 118 109 102
-5.949197e+00 -1.239257e+00 4.024352e+00 169 165 158
2.998096e+00 -1.815681e-01 3.115810e+00 82 78 75
3.089578e+00 -1.857651e-01 3.161328e+00 70 67 60
4.221851e+00 -4.596333e-01 4.378178e+00 179 172 169
-5.955613e+00 -1.174091e+00 4.018178e+00 197 198 193
4.433601e+00 -4.533283e-01 4.562012e+00 153 150 134
3.372679e+00 -2.083696e-01 3.500502e+00 165 160 155
-3.551704e+00 -6.086578e-01 2.903939e+00 165 162 146
2.862195e+00 -4.950938e-02 2.900373e+00 145 139 121
-3.498527e+00 -5.804571e-01 2.853295e+00 79 75 65
-4.922324e+00 -8.895064e-01 3.523537e+00 167 164 154
2.720126e+00 5.180526e-03 2.739194e+00 132 128 117
2.356210e+00 1.097491e-01 2.341679e+00 160 159 155
-3.520662e+00 -5.653961e-01 2.872757e+00 149 143 129
5.186230e-01 8.262214e-02 1.983520e+00 86 85 83
2.023691e+00 1.483670e-01 2.192739e+00 94 87 80
2.023691e+00 1.483670e-01 2.192739e+00 94 87 80
-2.392028e+00 -2.457154e-01 2.243829e+00 156 152 142
3.931403e+00 -2.606727e-01 4.047095e+00 170 161 146
2.213762e+00 1.607030e-01 2.238549e+00 70 62 59
2.213762e+00 1.607030e-01 2.238549e+00 70 62 59
2.006176e+00 1.694350e-01 2.172917e+00 180 175 171
4.374275e+00 -3.481812e-01 4.498079e+00 102 98 95
9.372288e-01 1.744381e-01 1.900841e+00 71 67 62
-2.605988e+00 -2.714166e-01 2.393304e+00 116 109 101
-1.833512e+00 -2.339366e-02 1.906297e+00 177 168 160
3.076603e+00 2.385094e-02 3.109732e+00 184 179 172
-4.079330e+00 -5.676566e-01 3.109008e+00 156 149 133
-1.294790e+00 4.485539e-02 1.893571e+00 183 174 157
-2.361936e+00 -1.454944e-01 2.224586e+00 156 150 137
3.469902e+00 -6.516078e-02 3.550893e+00 187 180 161
1.535492e+00 2.354171e-01 2.062485e+00 195 185 176
1.535492e+00 2.354171e-01 2.062485e+00 195 185 176
3.333007e+00 -2.753152e-02 3.431546e+00 102 95 90
3.503549e+00 -5.802782e-02 3.575477e+00 174 170 159
-9.176437e-01 8.939063e-02 1.920659e+00 184 179 175
3.404460e+00 -3.216775e-02 3.514047e+00 181 178 163
3.404460e+00 -3.216775e-02 3.514047e+00 181 178 163
-3.462177e+00 -3.687825e-01 2.806273e+00 157 155 143
1.634950e+00 2.778790e-01 2.092301e+00 112 103 94
3.467054e+00 -2.234984e-02 3.563972e+00 173 170 165
1.614318e+00 2.875484e-01 2.071122e+00 183 174 154
1.613205e+00 2.867138e-01 2.074360e+00 183 174 154
4.306818e+00 -2.054187e-01 4.462919e+00 134 133 115
2.082394e+00 3.269030e-01 2.173290e+00 178 170 159
1.906582e+00 3.396707e-01 2.113464e+00 82 70 61
3.862576e+00 -7.036920e-02 3.997819e+00 184 176 166
6.297313e-01 3.117951e-01 1.912997e+00 174 168 152
1.997757e+00 3.514915e-01 2.165170e+00 113 103 85
6.523137e-01 3.292045e-01 1.926577e+00 167 161 146
-6.264972e+00 -8.775551e-01 4.121743e+00 137 135 126
-2.472251e+00 -2.623492e-02 2.279747e+00 176 167 160
2.444485e+00 3.066942e-01 2.563195e+00 159 152 144
-3.867709e+00 -3.257455e-01 2.985198e+00 91 82 75
4.210201e+00 -9.583757e-02 4.366627e+00 184 180 177
-6.255427e+00 -7.796734e-01 4.107648e+00 164 163 161
-2.945348e+00 -4.574446e-02 2.530159e+00 150 145 139
6.583503e-01 4.040261e-01 1.983710e+00 178 172 166
-7.204729e-02 3.676579e-01 1.946847e+00 197 195 188
-1.242929e+00 3.352331e-01 1.791733e+00 108 96 81
2.800216e+00 3.299725e-01 2.910216e+00 177 168 158
-4.236207e-01 3.695354e-01 1.930812e+00 112 105 102
-4.236207e-01 3.695354e-01 1.930812e+00 112 105 102
2.973034e+00 3.025071e-01 3.049119e+00 133 125 117
4.573868e-01 4.737989e-01 1.938528e+00 132 125 109
-3.622458e+00 -1.183509e-01 2.851611e+00 175 165 153
1.494253e+00 5.458866e-01 2.011601e+00 183 172 151
2.142648e+00 5.381891e-01 2.204459e+00 154 150 141
1.370656e+00 5.385535e-01 2.016152e+00 87 79 73
9.570109e-01 5.057905e-01 2.010306e+00 105 99 82
1.111399e+00 5.321685e-01 2.011812e+00 90 86 76
1.111399e+00 5.321685e-01 2.011812e+00 90 86 76
2.874036e+00 3.825854e-01 2.964319e+00 174 167 158
-3.704922e+00 -8.428939e-02 2.867234e+00 171 158 143
1.524093e+00 5.650721e-01 2.063544e+00 160 154 139
3.182796e+00 3.488795e-01 3.215193e+00 70 64 64
-1.709495e+00 3.886754e-01 1.842649e+00 103 96 85
-6.301579e-01 4.715357e-01 1.853117e+00 49 44 37
4.194050e+00 1.165967e-01 4.292808e+00 147 143 133
1.846844e+00 5.994062e-01 2.101650e+00 175 165 140
1.810415e+00 5.843318e-01 2.129649e+00 174 164 143
-4.619491e+00 -2.581342e-01 3.337408e+00 76 67 63
-4.619491e+00 -2.581342e-01 3.337408e+00 76 67 63
3.183163e+00 3.518499e-01 3.284332e+00 166 162 149
2.100418e+00 5.904803e-01 2.204016e+00 50 42 39
2.100418e+00 5.904803e-01 2.204016e+00 50 42 39
3.217744e+00 3.473093e-01 3.317979e+00 157 153 142
2.827236e+00 4.343368e-01 2.930064e+00 76 71 68
-3.594776e+00 -2.519132e-02 2.837490e+00 154 143 125
-5.315254e+00 -3.834695e-01 3.656813e+00 177 176 175
3.206455e+00 3.763400e-01 3.313011e+00 162 154 134
3.608826e+00 2.858371e-01 3.728532e+00 172 163 154
-7.067912e-01 5.265455e-01 1.838378e+00 102 95 86
3.185688e+00 4.094277e-01 3.235413e+00 77 69 59
7.719097e-01 6.227686e-01 1.933568e+00 45 39 38
-7.578308e-01 5.231321e-01 1.873963e+00 99 95 84
2.888079e-01 6.059729e-01 1.877083e+00 162 159 149
2.021086e+00 6.510161e-01 2.166587e+00 74 66 56
2.064580e+00 6.677246e-01 2.174268e+00 92 83 74
2.064580e+00 6.677246e-01 2.174268e+00 92 83 74
3.229313e+00 4.164146e-01 3.348814e+00 155 146 132
6.286576e-01 6.377259e-01 1.964196e+00 100 94 92
6.263289e-01 6.358614e-01 1.972446e+00 100 94 92
4.656515e-01 6.341344e-01 1.957613e+00 181 178 173
3.268028e+00 4.221777e-01 3.392357e+00 163 156 139
3.249760e+00 4.280250e-01 3.372392e+00 63 55 49
8.542104e-01 6.800379e-01 1.961395e+00 130 123 115
1.938214e+00 7.132488e-01 2.120404e+00 107 97 88
-9.831852e-02 6.322398e-01 1.885956e+00 118 113 93
1.280699e+00 7.232400e-01 2.000034e+00 135 128 119
1.280699e+00 7.232400e-01 2.000034e+00 135 128 119
5.515532e-01 6.876630e-01 1.933987e+00 117 114 105
6.183341e-01 6.995512e-01 1.958129e+00 101 97 88
6.179469e-01 6.986593e-01 1.959851e+00 101 97 88
3.467006e-01 7.035750e-01 1.891811e+00 168 166 154
4.949876e-01 7.136202e-01 1.917108e+00 107 103 95
4.534072e-01 7.335525e-01 1.884745e+00 87 85 70
-1.689984e-01 6.775565e-01 1.932972e+00 147 145 140
1.956326e+00 7.706049e-01 2.156640e+00 65 58 50
2.782860e+00 6.262604e-01 2.896437e+00 141 128 110
2.684915e+00 6.555625e-01 2.823959e+00 108 95 87
3.717529e+00 4.379909e-01 3.833637e+00 182 176 163
-4.501004e+00 1.567969e-02 3.258064e+00 63 57 46
-4.501004e+00 1.567969e-02 3.258064e+00 63 57 46
2.026490e+00 8.011038e-01 2.174210e+00 119 107 96
1.630316e+00 8.209557e-01 2.051368e+00 93 86 82
3.689819e+00 4.516491e-01 3.831380e+00 107 101 84
3.654315e+00 4.619984e-01 3.780295e+00 40 36 30
1.414811e+00 8.459381e-01 1.976479e+00 93 89 80
1.936178e+00 8.379261e-01 2.130358e+00 73 70 63
1.735510e+00 8.570883e-01 2.043265e+00 100 91 74
-1.668031e+00 6.814661e-01 1.798783e+00 103 97 85
1.969552e+00 8.429666e-01 2.161038e+00 172 169 162
-2.743212e+00 4.534198e-01 2.390922e+00 90 82 71
-1.253128e+00 7.605328e-01 1.730419e+00 100 86 74
3.686254e+00 5.068289e-01 3.838301e+00 172 165 148
-8.641605e-01 7.954879e-01 1.758835e+00 115 113 99
-8.590483e-01 8.007198e-01 1.742190e+00 115 113 99
1.989662e+00 8.851060e-01 2.133196e+00 177 174 167
-1.184970e+00 7.950786e-01 1.697440e+00 92 82 68
3.133503e+00 6.586405e-01 3.225419e+00 90 83 75
2.413229e+00 7.895843e-01 2.600748e+00 167 157 142
-5.248238e-01 8.133879e-01 1.831894e+00 115 111 102
-1.581382e+00 7.506804e-01 1.773395e+00 107 100 90
4.050228e+00 4.501238e-01 4.218159e+00 49 45 40
-3.612921e+00 3.138104e-01 2.834747e+00 176 171 167
1.668084e+00 9.033236e-01 2.086049e+00 154 148 135
2.649675e+00 7.616637e-01 2.824928e+00 103 97 92
-3.672681e+00 3.100068e-01 2.857648e+00 187 182 160
-3.672681e+00 3.100068e-01 2.857648e+00 187 182 160
2.432697e+00 8.229164e-01 2.571674e+00 90 81 67
1.739660e+00 9.375404e-01 2.101653e+00 176 168 158
-3.484844e-01 8.616325e-01 1.873474e+00 186 180 174
5.324906e-02 9.177599e-01 1.801266e+00 40 34 37
2.347061e+00 8.639637e-01 2.547207e+00 172 163 148
-2.165771e+00 7.133787e-01 2.080363e+00 122 110 98
7.769595e-01 9.826824e-01 1.918829e+00 170 166 155
1.064664e+00 9.889355e-01 1.976468e+00 177 171 157
1.723844e-01 9.587699e-01 1.870501e+00 174 166 154
-3.141194e-01 9.506922e-01 1.816621e+00 107 103 103
2.623981e+00 8.846776e-01 2.737632e+00 62 49 40
8.522715e-01 9.971387e-01 1.955098e+00 113 110 104
-7.174930e-02 9.920256e-01 1.762167e+00 63 53 43
1.315588e+00 1.036950e+00 1.954909e+00 173 166 147
-5.902883e+00 -4.760228e-03 3.926431e+00 182 180 170
-2.578867e+00 6.834241e-01 2.328929e+00 147 134 113
3.678097e+00 6.791344e-01 3.840537e+00 101 95 87
3.166905e+00 8.390158e-01 3.290194e+00 119 118 107
2.790014e+00 9.253739e-01 2.927284e+00 94 87 81
-7.279893e-01 1.048708e+00 1.736451e+00 89 75 66
6.749254e-01 1.088181e+00 1.970826e+00 112 105 96
1.392502e+00 1.126422e+00 2.007452e+00 127 116 104
-2.703543e+00 7.443600e-01 2.373184e+00 123 109 89
1.020556e+00 1.144714e+00 1.966920e+00 91 82 81
-3.484913e+00 6.204646e-01 2.763512e+00 162 156 145
2.192083e+00 1.066781e+00 2.526763e+00 151 144 128
-1.094133e+00 1.076890e+00 1.753613e+00 52 44 43
8.798478e-01 1.159145e+00 1.969710e+00 135 127 113
3.966033e+00 7.416622e-01 4.194369e+00 189 184 180
-1.174609e+00 1.105747e+00 1.731979e+00 105 101 98
-4.120404e+00 5.402186e-01 3.082969e+00 57 48 44
2.719268e+00 1.027754e+00 2.923232e+00 64 59 48
4.402274e+00 6.956310e-01 4.574237e+00 187 181 159
2.675083e+00 1.054348e+00 2.919705e+00 150 141 126
-1.088155e+00 1.146046e+00 1.765778e+00 50 38 32
8.552254e-02 1.215450e+00 1.861310e+00 173 168 162
-3.123673e+00 7.955532e-01 2.603163e+00 79 70 63
3.932446e+00 8.227141e-01 4.169365e+00 66 65 60
-4.112006e+00 6.264423e-01 3.086378e+00 149 134 113
-3.120380e+00 8.293909e-01 2.603600e+00 171 166 153
1.249791e-01 1.254523e+00 1.860146e+00 180 181 166
-3.299825e+00 8.058179e-01 2.688637e+00 155 146 129
5.811482e-01 1.280643e+00 1.952307e+00 69 61 59
5.670867e-01 1.269900e+00 1.975097e+00 69 61 59
-1.001259e+00 1.223939e+00 1.807982e+00 165 157 138
2.277681e-01 1.298777e+00 1.869294e+00 186 180 174
2.909470e+00 1.106488e+00 3.172131e+00 122 116 112
-3.497126e+00 8.202954e-01 2.773078e+00 153 150 141
-6.726970e-01 1.317845e+00 1.726718e+00 180 175 165
-3.099425e+00 9.283941e-01 2.605868e+00 175 163 144
2.473438e+00 1.233168e+00 2.771892e+00 131 121 109
3.408837e+00 1.054557e+00 3.652958e+00 185 175 164
-4.061560e+00 7.559437e-01 3.070358e+00 98 90 83
3.440679e+00 1.056771e+00 3.677433e+00 121 113 111
1.956421e+00 1.352277e+00 2.268155e+00 78 69 56
-1.752225e+00 1.214752e+00 2.000922e+00 140 137 122
1.938929e+00 1.368293e+00 2.267408e+00 148 139 122
-1.708878e+00 1.234208e+00 1.955193e+00 60 52 43
-3.322945e+00 9.337824e-01 2.723149e+00 67 55 41
1.950065e+00 1.419640e+00 2.293868e+00 86 80 57
2.842620e+00 1.243767e+00 3.164585e+00 193 185 173
-2.249314e+00 1.194803e+00 2.211439e+00 38 29 26
5.546618e-01 1.464671e+00 1.898813e+00 73 59 48
-9.960968e-01 1.391037e+00 1.790110e+00 171 163 144
-6.188869e+00 4.653127e-01 4.074090e+00 104 104 100
1.906732e+00 1.438670e+00 2.262561e+00 144 131 114
-2.288501e+00 1.192768e+00 2.252819e+00 163 156 158
-2.361723e+00 1.187001e+00 2.264546e+00 93 87 89
2.937978e+00 1.242671e+00 3.242088e+00 81 70 61
-1.005607e-01 1.495929e+00 1.731706e+00 162 151 139
3.345217e+00 1.185503e+00 3.632054e+00 164 153 135
3.345217e+00 1.185503e+00 3.632054e+00 164 153 135
1.902249e+00 1.478553e+00 2.275546e+00 55 46 41
-2.962871e+00 1.121206e+00 2.587729e+00 167 160 154
5.453979e-01 1.557781e+00 1.853514e+00 160 148 126
-4.025480e+00 9.416128e-01 3.073922e+00 191 183 171
-5.840007e+00 6.191161e-01 3.938265e+00 108 103 100
5.215923e-01 1.564925e+00 1.856794e+00 54 43 37
2.416757e+00 1.415557e+00 2.765356e+00 166 164 152
-4.711951e+00 8.421288e-01 3.409439e+00 103 93 90
1.968470e+00 1.516851e+00 2.427896e+00 170 162 153
2.535478e-01 1.578738e+00 1.863464e+00 157 145 117
2.542065e+00 1.454361e+00 2.852890e+00 125 116 110
-4.491369e+00 9.789794e-01 3.307632e+00 77 66 66
-4.646937e+00 9.609349e-01 3.384354e+00 165 157 136
-3.726181e+00 1.144968e+00 2.951880e+00 113 96 82
-5.052185e+00 9.153685e-01 3.556147e+00 169 165 153
3.729033e-01 1.681398e+00 1.883687e+00 181 171 161
-1.871369e-01 1.702937e+00 1.763968e+00 185 178 161
2.744932e+00 1.504889e+00 3.146237e+00 165 158 150
1.168530e+00 1.714983e+00 2.034500e+00 185 180 177
3.729245e+00 1.347585e+00 3.944126e+00 178 171 160
3.013270e-01 1.716472e+00 1.881731e+00 172 162 150
-6.718718e+00 6.784441e-01 4.303146e+00 70 64 65
2.224701e+00 1.629952e+00 2.663715e+00 103 98 95
-4.148003e-01 1.731331e+00 1.738198e+00 85 70 52
-4.498114e+00 1.096468e+00 3.334040e+00 69 56 51
-4.498114e+00 1.096468e+00 3.334040e+00 69 56 51
2.291103e+00 1.613933e+00 2.821714e+00 173 167 154
3.158496e+00 1.491815e+00 3.516101e+00 175 166 152
-3.897987e+00 1.227281e+00 3.046146e+00 97 90 82
-3.897987e+00 1.227281e+00 3.046146e+00 97 90 82
2.650042e+00 1.598491e+00 3.095215e+00 202 196 193
-4.231969e-01 1.788373e+00 1.771195e+00 133 127 122
-3.760827e-01 1.826608e+00 1.800159e+00 167 155 139
1.589653e+00 1.837809e+00 2.178965e+00 168 159 142
8.169584e-01 1.875755e+00 1.939857e+00 197 194 190
-5.346039e+00 1.094369e+00 3.750396e+00 162 157 149
-3.725878e+00 1.379510e+00 2.993986e+00 179 178 175
2.040562e+00 1.798715e+00 2.527970e+00 155 146 125
4.460841e-01 1.905779e+00 1.847731e+00 50 46 43
-2.897896e+00 1.538026e+00 2.640399e+00 175 162 143
3.652268e+00 1.525167e+00 4.031512e+00 90 83 77
2.616960e+00 1.714918e+00 3.126588e+00 165 158 146
4.272801e-01 1.923950e+00 1.863041e+00 174 173 169
-2.810197e+00 1.569071e+00 2.609108e+00 179 171 163
3.673416e+00 1.542678e+00 4.038782e+00 107 105 106
2.087301e+00 1.826961e+00 2.639370e+00 173 169 167
2.636647e+00 1.728980e+00 3.158890e+00 185 178 171
-5.304732e+00 1.177766e+00 3.738055e+00 189 187 190
2.674051e+00 1.748174e+00 3.138558e+00 189 181 176
3.042421e+00 1.677963e+00 3.492472e+00 182 172 160
2.795536e+00 1.751131e+00 3.185631e+00 186 181 175
2.698396e+00 1.761931e+00 3.156810e+00 180 176 164
-6.354841e+00 1.024599e+00 4.158251e+00 167 164 155
-6.354841e+00 1.024599e+00 4.158251e+00 167 164 155
-2.268535e+00 1.737890e+00 2.351810e+00 106 99 87
-2.662420e+00 1.710531e+00 2.554654e+00 116 108 86
-6.533678e+00 1.092628e+00 4.267177e+00 165 158 131
-2.806933e+00 1.712127e+00 2.608886e+00 121 118 113
2.132601e+00 1.941136e+00 2.720616e+00 84 74 62
-1.844920e+00 1.872757e+00 2.223218e+00 59 48 34
-1.242827e+00 1.968571e+00 1.983040e+00 92 77 64
-3.362851e+00 1.648971e+00 2.866756e+00 173 165 155
-2.730491e+00 1.764067e+00 2.617486e+00 185 179 167
2.410487e+00 1.939194e+00 3.069988e+00 168 162 149
3.033093e+00 1.855565e+00 3.536387e+00 99 90 77
3.033093e+00 1.855565e+00 3.536387e+00 99 90 77
-3.467151e+00 1.689205e+00 2.934368e+00 165 161 152
2.626877e+00 1.937130e+00 3.153143e+00 195 193 180
1.169335e+00 2.144291e+00 2.008589e+00 161 152 135
2.401889e+00 1.960135e+00 3.067231e+00 95 87 84
2.514721e+00 1.963611e+00 3.086140e+00 153 145 132
-2.459209e+00 1.866994e+00 2.489932e+00 46 37 32
-3.540662e+00 1.698190e+00 2.972447e+00 175 168 160
4.400596e-01 2.166432e+00 1.837067e+00 193 193 195
-1.328150e+00 2.033527e+00 2.068993e+00 164 157 140
-1.948861e+00 1.954907e+00 2.314382e+00 192 186 173
-2.459625e+00 1.890054e+00 2.508291e+00 168 164 160
-3.284905e+00 1.771426e+00 2.867292e+00 68 60 58
-3.284905e+00 1.771426e+00 2.867292e+00 68 60 58
1.379204e+00 2.147303e+00 2.288290e+00 161 148 132
-3.537967e+00 1.742317e+00 2.976352e+00 168 165 154
-3.827868e-01 2.181328e+00 1.805267e+00 72 60 46
3.387761e+00 1.859058e+00 3.881704e+00 166 159 144
1.361670e+00 2.166665e+00 2.252589e+00 84 73 66
2.899737e+00 1.946960e+00 3.470793e+00 169 159 147
-2.568058e+00 1.921874e+00 2.596458e+00 187 183 178
2.513626e+00 2.033914e+00 3.117342e+00 95 88 81
2.481048e+00 2.040244e+00 3.100098e+00 199 191 180
-1.409277e+00 2.099695e+00 2.091433e+00 120 110 79
-2.544439e+00 1.937487e+00 2.587188e+00 63 55 50
1.970956e+00 2.127403e+00 2.695188e+00 167 159 146
