ply
format ascii 1.0
element face 0
property list uchar int vertex_indices
element vertex 940
property float x
property float y
property float z
property uchar diffuse_red
property uchar diffuse_green
property uchar diffuse_blue
end_header
-2.624241e+00 1.857525e+00 1.563790e+00 151 142 133
-1.796185e+00 2.062861e+00 1.684427e+00 150 145 126
1.050358e+00 2.490027e+00 2.375598e+00 81 62 52
1.050358e+00 2.490027e+00 2.375598e+00 81 62 52
-6.231667e+00 1.141811e+00 1.007004e+00 93 86 77
3.420401e+00 1.478768e+00 5.135183e+00 201 197 189
1.065138e+00 2.505156e+00 2.398033e+00 125 117 96
2.527788e+00 1.937702e+00 4.013697e+00 173 164 139
-4.511078e-01 2.375696e+00 1.908880e+00 78 65 50
3.436228e+00 1.488036e+00 5.165194e+00 193 186 180
-1.714467e+00 2.111779e+00 1.736539e+00 104 93 84
-1.872808e+00 2.087268e+00 1.691899e+00 94 87 77
-3.913181e+00 1.644565e+00 1.414234e+00 119 115 118
-2.620663e+00 1.927372e+00 1.607204e+00 175 171 158
-4.642231e+00 1.491205e+00 1.323092e+00 98 94 84
2.507542e+00 1.986127e+00 3.992453e+00 107 98 90
-1.610035e+00 2.170734e+00 1.782811e+00 135 126 108
-1.610035e+00 2.170734e+00 1.782811e+00 135 126 108
2.400649e+00 2.040415e+00 3.952233e+00 66 62 61
-7.203646e-01 2.368561e+00 1.943666e+00 165 158 137
2.135351e+00 2.200336e+00 3.577113e+00 81 71 62
2.420380e+00 2.053107e+00 3.946920e+00 189 185 186
1.550784e+00 2.395195e+00 3.004149e+00 149 134 117
2.800644e+00 1.888092e+00 4.460709e+00 185 175 162
-1.594256e+00 2.226488e+00 1.852281e+00 99 87 73
2.024507e+00 2.262058e+00 3.513587e+00 75 70 59
2.024507e+00 2.262058e+00 3.513587e+00 75 70 59
2.440639e+00 2.054739e+00 4.053289e+00 191 184 173
-1.616639e+00 2.230014e+00 1.846027e+00 164 154 142
1.391812e+00 2.524615e+00 2.841463e+00 72 56 38
1.900730e+00 2.323627e+00 3.429535e+00 180 173 158
1.881320e+00 2.327072e+00 3.441594e+00 104 96 81
1.646626e-01 2.602689e+00 2.170179e+00 130 118 95
2.302435e+00 2.155228e+00 3.924834e+00 133 125 112
-7.403466e-01 2.443530e+00 2.021637e+00 153 143 123
2.751575e+00 1.943529e+00 4.497853e+00 179 174 156
-1.739294e+00 2.272036e+00 1.874703e+00 75 66 59
-1.524461e+00 2.316316e+00 1.929070e+00 185 180 176
1.867426e+00 2.364818e+00 3.460148e+00 162 154 141
2.703254e+00 1.999450e+00 4.440382e+00 108 102 94
2.212125e+00 2.225596e+00 3.854428e+00 73 63 57
-2.000585e+00 2.253078e+00 1.810788e+00 136 132 120
2.723537e+00 1.992026e+00 4.475332e+00 171 170 158
-8.916350e-01 2.449428e+00 2.047763e+00 152 140 124
-1.038403e+00 2.431379e+00 2.012703e+00 91 79 64
-2.311902e+00 2.194333e+00 1.814254e+00 155 146 132
-2.311902e+00 2.194333e+00 1.814254e+00 155 146 132
2.504800e-01 2.642470e+00 2.291006e+00 85 69 44
2.309290e+00 2.191677e+00 4.010123e+00 120 113 98
-8.833546e-02 2.596951e+00 2.240511e+00 186 178 162
3.145992e+00 1.816891e+00 5.014502e+00 162 155 145
-5.927758e-01 2.538299e+00 2.116187e+00 133 119 98
-2.345903e+00 2.208442e+00 1.828592e+00 163 156 141
-9.063072e-01 2.478917e+00 2.081814e+00 142 133 122
2.761274e+00 2.010109e+00 4.562958e+00 166 161 156
-6.142150e-01 2.541986e+00 2.123483e+00 77 64 43
-2.240306e+00 2.241295e+00 1.854397e+00 101 91 80
-5.259823e-01 2.562007e+00 2.143173e+00 139 129 104
1.884684e+00 2.397885e+00 3.557991e+00 151 138 128
1.836380e+00 2.414317e+00 3.544531e+00 111 99 88
-4.371090e+00 1.840232e+00 1.572630e+00 108 98 94
-4.891973e-01 2.594147e+00 2.172429e+00 88 80 65
4.237063e+00 1.354342e+00 6.391645e+00 89 82 72
3.141011e+00 1.864714e+00 5.075610e+00 121 112 103
-2.199324e+00 2.300985e+00 1.904832e+00 121 111 102
-2.583411e+00 2.248842e+00 1.813142e+00 146 142 127
4.156148e+00 1.408127e+00 6.304131e+00 140 126 115
2.214618e+00 2.313097e+00 3.968953e+00 170 166 141
1.415857e+00 2.615294e+00 3.133074e+00 100 87 69
4.217767e+00 1.398208e+00 6.426314e+00 161 154 144
3.004374e+00 1.944914e+00 4.984284e+00 151 143 131
2.207202e+00 2.327180e+00 4.004957e+00 122 116 109
-3.266857e+00 2.127222e+00 1.795456e+00 166 159 140
-3.266857e+00 2.127222e+00 1.795456e+00 166 159 140
-3.235534e+00 2.135697e+00 1.798923e+00 99 88 77
-4.470148e+00 1.904617e+00 1.615162e+00 82 72 71
-4.521042e+00 1.895795e+00 1.618245e+00 163 156 148
-2.142411e+00 2.356185e+00 1.961528e+00 191 183 174
2.996041e+00 1.963372e+00 4.992367e+00 106 98 86
-2.278764e+00 2.335331e+00 1.943389e+00 147 141 133
3.042814e+00 1.942016e+00 5.050250e+00 57 42 35
-3.277097e+00 2.143207e+00 1.813070e+00 108 100 86
2.505848e+00 2.202740e+00 4.396233e+00 170 162 150
-4.525012e+00 1.913649e+00 1.630925e+00 91 88 83
8.109719e-02 2.739778e+00 2.422195e+00 127 116 100
-7.018989e-01 2.638197e+00 2.253770e+00 109 101 82
3.045476e+00 1.967913e+00 5.097988e+00 186 181 177
-8.252567e-01 2.631235e+00 2.226588e+00 159 152 126
2.850698e+00 2.067394e+00 4.884174e+00 150 139 134
-7.261443e-01 2.658292e+00 2.274374e+00 131 121 112
-5.615530e+00 1.788229e+00 1.465833e+00 109 98 80
-1.276492e+00 2.578081e+00 2.186819e+00 191 181 160
2.046611e+00 2.436567e+00 3.950264e+00 117 99 86
1.628864e+00 2.587000e+00 3.516368e+00 99 86 70
-3.255115e+00 2.229667e+00 1.869107e+00 171 165 152
2.020640e+00 2.450160e+00 3.935874e+00 107 92 74
2.020640e+00 2.450160e+00 3.935874e+00 107 92 74
-1.286791e+00 2.585331e+00 2.208540e+00 119 106 88
1.937445e+00 2.482786e+00 3.867884e+00 158 150 136
2.545973e+00 2.239121e+00 4.547778e+00 196 192 189
-2.446313e+00 2.410262e+00 1.994604e+00 179 177 169
-4.554342e+00 2.030788e+00 1.695776e+00 157 152 148
-2.207616e+00 2.470749e+00 2.051991e+00 174 171 166
-3.136478e+00 2.299725e+00 1.926917e+00 139 131 128
-4.234380e-01 2.754788e+00 2.424211e+00 170 161 144
-1.325619e+00 2.627365e+00 2.234975e+00 181 177 174
-4.223458e+00 2.115360e+00 1.762019e+00 166 159 154
3.869195e+00 1.695063e+00 6.136732e+00 161 148 132
1.900779e+00 2.521394e+00 3.892195e+00 181 177 162
7.685718e-01 2.838819e+00 2.833791e+00 99 86 70
-5.376435e+00 1.943577e+00 1.570670e+00 184 178 166
2.335879e+00 2.376652e+00 4.388917e+00 190 180 171
-1.248895e+00 2.663928e+00 2.284312e+00 150 144 131
-3.200980e+00 2.341372e+00 1.965928e+00 102 90 79
2.777415e+00 2.177031e+00 4.962071e+00 164 158 142
3.837595e+00 1.753918e+00 6.167360e+00 163 155 144
2.318912e+00 2.402260e+00 4.409301e+00 190 180 170
1.865766e+00 2.571464e+00 3.924058e+00 134 125 108
-3.058540e+00 2.389878e+00 1.994189e+00 100 91 83
-1.258605e+00 2.699663e+00 2.311228e+00 110 103 85
3.661697e-01 2.897587e+00 2.727859e+00 175 172 155
1.788748e+00 2.609143e+00 3.889902e+00 77 70 60
-1.183195e+00 2.742065e+00 2.370605e+00 164 151 134
2.235413e+00 2.469128e+00 4.392818e+00 71 62 56
2.185218e+00 2.494969e+00 4.340697e+00 191 182 174
4.054219e-01 2.935884e+00 2.781241e+00 174 162 151
-1.981475e+00 2.651389e+00 2.216504e+00 155 151 140
-8.677010e-01 2.828183e+00 2.417589e+00 101 89 66
-2.117512e+00 2.642485e+00 2.207436e+00 110 106 106
-8.599502e-01 2.834988e+00 2.451251e+00 110 95 80
-4.226947e+00 2.286446e+00 1.884510e+00 117 108 91
-2.977093e+00 2.506201e+00 2.077163e+00 136 129 120
-1.918499e+00 2.686262e+00 2.276625e+00 75 65 56
-3.758503e+00 2.386637e+00 1.949161e+00 150 142 131
6.872993e-01 2.941288e+00 2.991887e+00 165 158 141
9.951171e-01 2.900672e+00 3.210130e+00 148 140 125
-1.911058e+00 2.697618e+00 2.293405e+00 148 138 128
-1.052869e+00 2.822951e+00 2.468970e+00 181 173 165
2.274230e+00 2.502755e+00 4.505749e+00 65 59 52
2.605481e+00 2.358943e+00 4.911412e+00 106 96 86
2.220199e+00 2.521536e+00 4.477171e+00 97 90 80
-4.112551e+00 2.352557e+00 1.954222e+00 195 187 174
-2.829776e-01 2.931658e+00 2.659353e+00 116 109 93
2.165714e+00 2.561435e+00 4.436081e+00 157 151 139
2.568520e+00 2.392373e+00 4.923878e+00 168 158 148
2.063722e+00 2.590874e+00 4.353937e+00 181 174 157
1.029111e+00 2.912808e+00 3.343242e+00 88 74 70
-3.787340e+00 2.442213e+00 2.035208e+00 146 139 122
-3.787340e+00 2.442213e+00 2.035208e+00 146 139 122
2.318416e+00 2.537793e+00 4.569503e+00 180 174 162
-1.722190e+00 2.791736e+00 2.393476e+00 163 152 128
3.070761e+00 2.197817e+00 5.552849e+00 140 128 118
-2.062242e+00 2.746118e+00 2.331938e+00 183 179 171
-8.425479e-01 2.916764e+00 2.580488e+00 165 157 134
-9.760532e-02 2.996382e+00 2.760034e+00 128 113 90
-1.124956e+00 2.886467e+00 2.511103e+00 173 170 161
-1.988762e+00 2.761992e+00 2.352604e+00 87 80 75
-4.021510e+00 2.441188e+00 2.036484e+00 166 161 147
1.595700e+00 2.800102e+00 3.887172e+00 118 108 99
1.490667e+00 2.826550e+00 3.808591e+00 176 167 151
-2.107874e+00 2.760550e+00 2.329304e+00 160 156 152
2.441336e+00 2.464623e+00 4.873918e+00 163 151 132
2.608593e-01 3.029912e+00 2.916494e+00 157 143 125
1.958964e+00 2.694775e+00 4.271791e+00 170 161 154
-1.925410e+00 2.799691e+00 2.394917e+00 129 125 116
1.997948e+00 2.671797e+00 4.356012e+00 119 112 102
1.458007e+00 2.845356e+00 3.825964e+00 186 176 154
-1.945756e+00 2.803275e+00 2.399987e+00 185 182 177
3.653554e+00 2.026255e+00 6.230999e+00 101 88 80
2.026545e+00 2.669093e+00 4.400927e+00 67 62 62
1.362529e+00 2.881295e+00 3.762767e+00 68 55 48
-1.979131e-01 3.033760e+00 2.793896e+00 103 88 70
1.963281e+00 2.696129e+00 4.377521e+00 189 183 170
-2.568671e+00 2.736780e+00 2.317951e+00 189 183 171
1.363698e+00 2.896843e+00 3.796233e+00 69 69 58
1.380480e+00 2.894292e+00 3.823515e+00 56 48 36
1.380480e+00 2.894292e+00 3.823515e+00 56 48 36
3.526453e+00 2.118765e+00 6.122012e+00 157 146 132
4.814439e-01 3.085906e+00 3.077470e+00 148 136 120
1.386472e+00 2.898860e+00 3.840782e+00 176 167 158
-6.684070e-01 3.017396e+00 2.726043e+00 58 46 27
1.257447e+00 2.934435e+00 3.722034e+00 69 55 33
-3.834034e+00 2.575877e+00 2.143154e+00 107 93 87
-2.725226e+00 2.750752e+00 2.311021e+00 61 53 52
-2.714325e+00 2.748881e+00 2.333814e+00 161 154 144
2.400567e+00 2.545603e+00 4.955298e+00 158 151 133
-7.325570e-01 3.022063e+00 2.730297e+00 40 27 18
-7.398954e-01 3.015945e+00 2.739560e+00 40 27 18
-1.966835e+00 2.878632e+00 2.456281e+00 114 113 111
-2.510246e+00 2.797328e+00 2.371008e+00 113 101 91
2.380848e+00 2.558318e+00 4.946608e+00 175 165 150
-7.234622e-01 3.030923e+00 2.760647e+00 151 138 119
-7.883083e-01 3.029943e+00 2.736309e+00 158 149 133
-7.883083e-01 3.029943e+00 2.736309e+00 158 149 133
-2.751057e+00 2.770143e+00 2.347034e+00 93 84 77
-7.625704e-01 3.034437e+00 2.741548e+00 77 69 55
-3.938556e+00 2.590353e+00 2.160611e+00 86 76 70
-2.840658e+00 2.775045e+00 2.339016e+00 69 60 55
1.813186e+00 2.811350e+00 4.327305e+00 187 179 166
1.503265e+00 2.934576e+00 3.963795e+00 180 173 154
1.368762e+00 2.946925e+00 3.889639e+00 188 183 164
-2.797510e+00 2.792067e+00 2.368372e+00 136 128 119
-2.847717e+00 2.786544e+00 2.361033e+00 156 150 142
-2.810070e+00 2.801586e+00 2.362169e+00 91 86 80
-2.854305e+00 2.801300e+00 2.341954e+00 72 69 66
-2.861885e+00 2.795407e+00 2.351140e+00 72 69 66
-2.779384e+00 2.805276e+00 2.379790e+00 84 80 78
-3.010234e+00 2.788268e+00 2.303067e+00 92 89 87
-1.644503e+00 2.977339e+00 2.574298e+00 128 125 118
5.262662e-01 3.124533e+00 3.248934e+00 170 163 144
-6.519372e-01 3.084788e+00 2.845860e+00 90 76 70
-8.177775e-01 3.091711e+00 2.772336e+00 119 111 102
1.762542e+00 2.858187e+00 4.326534e+00 165 156 147
1.129830e+00 3.042096e+00 3.716912e+00 63 49 30
-2.674201e+00 2.855780e+00 2.428784e+00 189 183 171
3.471133e+00 2.241290e+00 6.202236e+00 116 107 101
1.632540e+00 2.904494e+00 4.232915e+00 166 155 137
-6.549214e-01 3.127040e+00 2.885187e+00 176 169 153
-8.583218e-01 3.130633e+00 2.789172e+00 114 106 93
1.614753e+00 2.921452e+00 4.258115e+00 166 159 146
1.546079e+00 2.945777e+00 4.211430e+00 102 92 90
-1.579984e+00 3.050454e+00 2.682476e+00 152 148 148
-5.290735e-01 3.162636e+00 2.921218e+00 127 115 94
-1.272197e+00 3.093508e+00 2.733620e+00 83 72 55
-4.750195e+00 2.637303e+00 2.095191e+00 120 113 96
-5.937457e-01 3.166310e+00 2.905428e+00 152 143 123
-1.465779e+00 3.080745e+00 2.721834e+00 55 49 44
2.712355e+00 2.558817e+00 5.468837e+00 196 188 179
-2.565774e+00 2.952588e+00 2.531472e+00 91 89 83
-4.124997e-01 3.208844e+00 3.015389e+00 190 186 173
2.097241e+00 2.793018e+00 4.885123e+00 208 202 185
1.108455e+00 3.115494e+00 3.858190e+00 142 130 114
9.235555e-01 3.146878e+00 3.727586e+00 191 179 163
7.695138e-01 3.178875e+00 3.619933e+00 144 133 108
-4.278619e-01 3.228973e+00 3.038536e+00 187 179 165
2.004835e+00 2.860797e+00 4.768418e+00 65 57 54
8.269913e-01 3.177796e+00 3.679804e+00 141 130 113
2.060866e+00 2.841867e+00 4.840290e+00 175 166 155
-1.592330e+00 3.131735e+00 2.755008e+00 64 56 54
-1.594454e+00 3.134044e+00 2.757160e+00 64 56 54
1.548426e+00 3.000154e+00 4.345499e+00 199 194 185
-1.219704e+00 3.169105e+00 2.861481e+00 179 170 156
6.959753e-01 3.208672e+00 3.587119e+00 169 162 134
2.016423e+00 2.857969e+00 4.817398e+00 76 72 61
7.478061e-01 3.198598e+00 3.637888e+00 167 158 147
-7.154519e-02 3.288982e+00 3.106211e+00 133 120 111
1.994617e+00 2.862215e+00 4.824568e+00 181 176 170
8.356964e-01 3.189548e+00 3.709558e+00 172 164 143
-1.296657e+00 3.172866e+00 2.851020e+00 127 120 102
2.087481e+00 2.843088e+00 4.900671e+00 101 96 90
-9.530940e-02 3.261313e+00 3.182554e+00 121 110 104
1.411140e+00 3.056282e+00 4.225324e+00 157 153 143
2.022868e+00 2.853175e+00 4.874606e+00 191 185 179
-4.853149e+00 2.752405e+00 2.187749e+00 131 123 123
-2.273075e-01 3.267727e+00 3.163925e+00 175 165 150
1.887007e+00 2.910658e+00 4.770830e+00 184 177 170
-3.614182e+00 2.927542e+00 2.448722e+00 169 166 157
1.561169e+00 3.039888e+00 4.406296e+00 155 150 147
2.536011e+00 2.702246e+00 5.452374e+00 174 168 152
1.965075e+00 2.920083e+00 4.802568e+00 83 75 62
1.901313e+00 2.929393e+00 4.763721e+00 144 137 131
-3.301945e+00 2.971253e+00 2.517802e+00 174 167 149
-3.583578e+00 2.935491e+00 2.465546e+00 170 166 154
-2.285254e+00 3.100708e+00 2.695789e+00 188 181 170
-3.523383e+00 2.946653e+00 2.479186e+00 114 109 100
-5.263904e-02 3.301689e+00 3.256493e+00 78 68 63
2.000520e+00 2.895660e+00 4.908991e+00 105 100 94
-2.304811e+00 3.111201e+00 2.707038e+00 106 101 97
-3.459113e-01 3.299219e+00 3.179591e+00 178 175 167
1.931173e+00 2.946000e+00 4.816078e+00 66 55 44
5.669914e-01 3.284297e+00 3.595771e+00 66 53 43
-2.441530e+00 3.118271e+00 2.677146e+00 203 200 195
-4.607513e+00 2.859832e+00 2.272309e+00 110 105 109
4.974442e-01 3.296664e+00 3.563032e+00 151 135 106
-2.080509e+00 3.165591e+00 2.777996e+00 71 61 51
-1.343205e+00 3.247579e+00 2.928873e+00 178 176 174
6.634631e-01 3.290986e+00 3.704609e+00 197 191 176
-1.274498e+00 3.264267e+00 2.972912e+00 193 187 184
1.284589e+00 3.162196e+00 4.232501e+00 172 163 154
-3.227744e+00 3.042194e+00 2.602295e+00 77 68 64
1.232929e+00 3.164864e+00 4.222943e+00 176 170 148
-3.212500e+00 3.058071e+00 2.612790e+00 189 185 172
-4.491841e-02 3.403320e+00 3.267690e+00 165 153 132
-9.744835e-02 3.368993e+00 3.325218e+00 165 153 132
1.094568e+00 3.212181e+00 4.144553e+00 87 76 62
-2.139409e+00 3.209117e+00 2.815106e+00 185 177 171
-3.554432e+00 3.058257e+00 2.566836e+00 69 64 64
-2.226124e+00 3.214328e+00 2.818323e+00 181 176 156
-2.243005e+00 3.226783e+00 2.830104e+00 100 96 95
5.906325e-01 3.360061e+00 3.713329e+00 166 158 137
-2.145127e+00 3.245308e+00 2.841526e+00 174 168 147
-3.355958e+00 3.098503e+00 2.649841e+00 183 180 172
-3.490244e+00 3.087303e+00 2.608254e+00 107 103 100
-1.048267e+00 3.355828e+00 3.115285e+00 170 162 145
2.444097e-01 3.410330e+00 3.534057e+00 135 128 110
9.994473e-01 3.282976e+00 4.156345e+00 97 87 77
2.666275e-01 3.418418e+00 3.576318e+00 167 159 140
2.236376e-01 3.423581e+00 3.549990e+00 107 98 83
2.646226e-01 3.441052e+00 3.529964e+00 159 151 130
-1.171929e-01 3.427001e+00 3.415552e+00 189 186 181
-2.187388e+00 3.277270e+00 2.893010e+00 186 181 171
-9.335506e-01 3.399561e+00 3.182376e+00 100 91 74
8.875723e-01 3.321973e+00 4.082017e+00 70 62 60
1.104811e+00 3.281630e+00 4.253192e+00 186 179 163
1.963103e-01 3.438626e+00 3.557039e+00 147 137 127
1.034053e+00 3.300690e+00 4.221738e+00 128 121 112
1.518425e-01 3.448775e+00 3.549471e+00 169 157 144
1.160093e+00 3.283634e+00 4.311097e+00 176 169 161
-2.087906e+00 3.314512e+00 2.945646e+00 107 102 91
1.765215e+00 3.115483e+00 4.901497e+00 210 206 197
-8.441690e-01 3.426413e+00 3.241119e+00 181 171 159
1.457658e+00 3.218331e+00 4.638797e+00 77 67 50
-1.022674e+00 3.431236e+00 3.213366e+00 205 203 191
1.594524e+00 3.188059e+00 4.789438e+00 115 105 98
-2.029131e+00 3.360878e+00 2.994604e+00 130 125 120
1.420307e+00 3.236464e+00 4.630499e+00 158 150 140
-8.017634e-01 3.457743e+00 3.288096e+00 104 95 78
1.565207e+00 3.196668e+00 4.775643e+00 124 116 104
1.565207e+00 3.196668e+00 4.775643e+00 124 116 104
1.423408e+00 3.246153e+00 4.662273e+00 169 158 145
1.377580e+00 3.258013e+00 4.615068e+00 161 148 138
2.662859e+00 2.906870e+00 5.837049e+00 191 183 163
-2.947805e+00 3.301885e+00 2.827860e+00 120 113 102
1.352431e+00 3.274157e+00 4.614442e+00 160 150 140
7.298937e-01 3.423482e+00 4.078930e+00 141 128 111
-3.911907e+00 3.232118e+00 2.614533e+00 128 122 108
1.356891e+00 3.283694e+00 4.642972e+00 177 171 158
-6.522510e-01 3.519406e+00 3.376681e+00 173 163 150
1.960735e+00 3.126110e+00 5.250895e+00 134 125 117
6.724413e-01 3.449318e+00 4.081156e+00 180 172 161
1.444496e+00 3.271016e+00 4.762989e+00 126 117 108
-3.278127e+00 3.317275e+00 2.812589e+00 187 186 182
5.959993e-01 3.475405e+00 4.028533e+00 71 59 44
-3.080320e+00 3.348935e+00 2.885621e+00 153 149 147
-2.860945e+00 3.378272e+00 2.942817e+00 109 101 89
-5.765842e-01 3.552351e+00 3.473280e+00 91 81 70
1.338408e+00 3.325007e+00 4.713801e+00 112 101 100
-5.351304e-01 3.559059e+00 3.482480e+00 129 116 101
1.977527e+00 3.161294e+00 5.330539e+00 107 100 90
1.313164e+00 3.342550e+00 4.708190e+00 116 110 109
-1.638956e+00 3.507068e+00 3.216603e+00 177 170 152
-6.001974e-01 3.566810e+00 3.494191e+00 122 112 102
4.493390e-01 3.528272e+00 4.012849e+00 142 129 108
2.039194e+00 3.155217e+00 5.421521e+00 188 184 176
-4.701646e-01 3.578936e+00 3.560776e+00 145 133 119
2.021159e+00 3.161758e+00 5.416060e+00 130 124 118
1.968801e+00 3.174899e+00 5.381333e+00 141 133 121
4.376699e-01 3.536239e+00 4.027578e+00 103 91 74
5.846164e-01 3.525536e+00 4.127474e+00 175 169 157
-2.672632e+00 3.460224e+00 3.028545e+00 81 72 67
-1.490579e+00 3.554560e+00 3.304725e+00 176 168 156
-4.176621e+00 3.339512e+00 2.713358e+00 119 116 110
1.918798e+00 3.211834e+00 5.358158e+00 105 97 89
-5.033424e-01 3.605410e+00 3.585669e+00 161 150 128
1.144495e+00 3.439993e+00 4.593703e+00 157 145 133
4.091579e-01 3.593525e+00 3.987633e+00 141 131 112
5.078568e-01 3.584459e+00 4.071920e+00 201 195 189
2.887875e-01 3.594952e+00 3.975498e+00 81 72 65
1.887758e+00 3.239652e+00 5.367740e+00 150 144 143
-2.515992e-01 3.634577e+00 3.732706e+00 95 83 82
-1.578498e+00 3.589984e+00 3.334765e+00 102 85 70
-4.839943e-01 3.645758e+00 3.648702e+00 136 133 128
-2.534082e-01 3.642410e+00 3.751479e+00 188 181 173
2.377672e+00 3.160484e+00 5.805081e+00 187 175 166
3.162402e-01 3.630938e+00 4.005808e+00 92 87 81
-3.402452e-01 3.663125e+00 3.747077e+00 99 94 85
-2.914010e+00 3.527549e+00 3.071677e+00 168 164 159
9.782462e-01 3.521702e+00 4.575099e+00 67 57 44
-1.192958e-02 3.675332e+00 3.861810e+00 60 51 44
-1.288739e+00 3.654788e+00 3.464126e+00 195 190 174
9.327932e-01 3.537980e+00 4.571305e+00 165 157 137
1.016641e+00 3.526932e+00 4.635134e+00 116 106 94
-1.292702e+00 3.693250e+00 3.514776e+00 149 140 136
9.236798e-01 3.573902e+00 4.636555e+00 126 117 107
-3.562784e+00 3.565482e+00 2.962183e+00 84 75 65
-1.092390e-01 3.726043e+00 3.910239e+00 165 157 138
2.253801e+00 3.266530e+00 5.803567e+00 165 152 143
-5.262761e-02 3.731325e+00 3.935882e+00 110 101 93
3.385195e-02 3.731166e+00 3.973231e+00 167 153 140
1.418570e+00 3.476260e+00 5.086120e+00 66 55 51
-1.143779e+00 3.727918e+00 3.583255e+00 159 149 136
-2.448671e+00 3.664268e+00 3.281032e+00 123 115 108
-1.106899e+00 3.740038e+00 3.615955e+00 132 122 108
1.661679e+00 3.438407e+00 5.318279e+00 209 204 197
-1.147911e+00 3.748237e+00 3.604597e+00 101 91 88
1.368504e+00 3.517475e+00 5.077197e+00 99 86 71
2.165333e+00 3.324719e+00 5.796796e+00 115 104 94
-1.112911e+00 3.771493e+00 3.662936e+00 183 174 158
1.242455e+00 3.566275e+00 5.013599e+00 114 103 89
-1.111733e+00 3.782589e+00 3.674853e+00 140 129 111
-2.250867e+00 3.730319e+00 3.388304e+00 195 190 181
4.172850e-01 3.745744e+00 4.378619e+00 55 46 38
-1.228681e+00 3.800940e+00 3.661602e+00 102 93 83
-2.243977e+00 3.756853e+00 3.409668e+00 212 203 194
-2.306673e+00 3.755176e+00 3.395960e+00 125 121 112
2.079668e+00 3.397629e+00 5.783019e+00 151 135 119
3.814325e-01 3.756911e+00 4.369354e+00 67 58 49
-2.012409e+00 3.775514e+00 3.491553e+00 150 142 123
1.357318e+00 3.571261e+00 5.187439e+00 181 175 161
-3.429673e+00 3.719703e+00 3.132941e+00 90 80 79
4.712796e-01 3.760058e+00 4.461585e+00 122 116 104
-2.141574e+00 3.786885e+00 3.473023e+00 157 147 138
2.152541e+00 3.398865e+00 5.886668e+00 124 117 101
2.152541e+00 3.398865e+00 5.886668e+00 124 117 101
-1.908523e+00 3.806688e+00 3.560475e+00 166 160 146
-2.080942e+00 3.801475e+00 3.500489e+00 82 73 63
3.773919e-01 3.781745e+00 4.433960e+00 159 150 139
4.205368e-01 3.776880e+00 4.470429e+00 146 134 117
3.985041e-01 3.779560e+00 4.455797e+00 168 158 137
-2.173559e+00 3.806972e+00 3.482488e+00 167 162 149
-1.041012e+00 3.855524e+00 3.789116e+00 131 122 116
-1.973810e+00 3.825818e+00 3.564087e+00 80 68 69
-1.212719e+00 3.868536e+00 3.729416e+00 178 173 160
-2.058642e+00 3.828056e+00 3.535251e+00 117 106 93
-1.968944e+00 3.831793e+00 3.582211e+00 187 180 171
-7.965722e-01 3.877568e+00 3.882485e+00 118 114 103
-3.770856e+00 3.754170e+00 3.122215e+00 173 171 163
-3.770856e+00 3.754170e+00 3.122215e+00 173 171 163
3.940562e-01 3.805087e+00 4.501679e+00 169 161 142
-2.097068e+00 3.844576e+00 3.538150e+00 117 105 95
-2.139318e+00 3.840112e+00 3.541471e+00 156 146 132
-7.950322e-01 3.885948e+00 3.901099e+00 195 190 171
-2.067585e+00 3.859135e+00 3.575170e+00 143 130 112
-3.373444e+00 3.808173e+00 3.214796e+00 128 120 101
-6.714904e-01 3.899464e+00 3.975947e+00 103 93 83
1.119312e+00 3.691879e+00 5.102846e+00 144 135 130
1.936215e+00 3.520785e+00 5.795060e+00 81 68 58
-3.278023e+00 3.839813e+00 3.261488e+00 79 72 76
1.795112e+00 3.590572e+00 5.689909e+00 157 150 139
-7.785870e-01 3.939195e+00 3.987493e+00 177 170 166
1.764998e+00 3.613775e+00 5.713986e+00 174 167 157
-3.816692e-01 3.968129e+00 4.161608e+00 98 84 71
7.579169e-01 3.838532e+00 4.985717e+00 103 96 90
-3.286144e+00 3.948874e+00 3.381553e+00 63 53 52
-2.596312e-01 4.004812e+00 4.275773e+00 179 169 159
7.554361e-01 3.874094e+00 5.040389e+00 144 135 127
-1.625642e-01 4.013305e+00 4.368404e+00 69 55 46
-3.180527e+00 3.989893e+00 3.449134e+00 107 101 93
1.787027e+00 3.690592e+00 5.850629e+00 138 134 143
6.284199e-01 3.906829e+00 4.959239e+00 91 82 64
7.872527e-01 3.882851e+00 5.080340e+00 116 112 107
1.794948e+00 3.691996e+00 5.868974e+00 210 215 220
7.942570e-01 3.884401e+00 5.100560e+00 180 177 162
-2.845187e+00 4.022428e+00 3.513416e+00 87 76 83
-2.845187e+00 4.022428e+00 3.513416e+00 87 76 83
7.313921e-01 3.900748e+00 5.065999e+00 175 170 160
-2.142034e-01 4.048392e+00 4.350528e+00 134 126 113
-3.096840e+00 4.019202e+00 3.485743e+00 58 43 37
8.142836e-01 3.894155e+00 5.125336e+00 202 195 183
-2.655413e+00 4.054751e+00 3.577438e+00 189 182 172
6.688167e-01 3.924625e+00 5.055711e+00 98 89 82
6.688167e-01 3.924625e+00 5.055711e+00 98 89 82
1.480309e+00 3.798142e+00 5.621029e+00 58 46 33
-2.694101e+00 4.062371e+00 3.585931e+00 192 189 184
6.463793e-01 3.934842e+00 5.052628e+00 97 86 82
1.357989e+00 3.831281e+00 5.535438e+00 87 77 68
1.660216e+00 3.771451e+00 5.830584e+00 211 210 215
-1.475469e+00 4.096369e+00 4.025537e+00 158 148 137
-1.530381e+00 4.104358e+00 4.008094e+00 115 106 99
4.799125e-01 4.006118e+00 4.951417e+00 118 110 101
4.491600e-01 4.012474e+00 4.922652e+00 168 158 146
-1.286513e+00 4.126236e+00 4.099527e+00 180 178 162
3.481927e-01 4.054903e+00 4.913347e+00 135 127 116
-1.065540e+00 4.160569e+00 4.213985e+00 202 193 183
3.216541e-01 4.065006e+00 4.904695e+00 115 106 98
-8.371315e-01 4.161646e+00 4.277859e+00 182 179 163
-8.986890e-01 4.173899e+00 4.290791e+00 88 77 75
1.346882e-01 4.107793e+00 4.807708e+00 186 176 149
1.025720e+00 4.011878e+00 5.380366e+00 72 67 60
-9.045946e-01 4.196611e+00 4.323784e+00 95 81 71
-2.495035e+00 4.208948e+00 3.796716e+00 171 159 143
-2.741822e+00 4.224029e+00 3.755605e+00 97 83 74
-9.640737e-01 4.230887e+00 4.351540e+00 120 112 98
-2.114473e+00 4.263762e+00 3.926498e+00 89 78 75
-2.350316e+00 4.260551e+00 3.892933e+00 101 96 87
1.247864e+00 4.004444e+00 5.693867e+00 129 125 132
-2.731279e+00 4.266713e+00 3.804982e+00 180 175 161
-6.667110e-01 4.257857e+00 4.470786e+00 138 128 117
-8.328509e-01 4.258490e+00 4.439259e+00 99 89 77
2.134812e-02 4.204481e+00 4.886439e+00 119 109 103
-1.887943e+00 4.319144e+00 4.053155e+00 161 145 125
9.220836e-01 4.105238e+00 5.504668e+00 138 122 99
9.220836e-01 4.105238e+00 5.504668e+00 138 122 99
-1.410440e-01 4.255313e+00 4.791589e+00 176 169 159
-4.780664e-01 4.287642e+00 4.620483e+00 163 157 141
-2.696031e+00 4.323921e+00 3.880252e+00 220 221 225
-1.915338e+00 4.335954e+00 4.075570e+00 163 151 133
5.193269e-01 4.212342e+00 5.226223e+00 100 87 79
-1.920008e+00 4.381020e+00 4.144607e+00 153 140 125
-1.870907e+00 4.396289e+00 4.172845e+00 131 116 98
5.249710e-01 4.248647e+00 5.308431e+00 168 155 135
-1.915552e+00 4.421225e+00 4.204083e+00 152 142 131
-1.915552e+00 4.421225e+00 4.204083e+00 152 142 131
2.951049e-01 4.305104e+00 5.164854e+00 89 76 73
-1.996213e+00 4.447384e+00 4.209396e+00 173 166 147
4.671291e-01 4.313969e+00 5.361728e+00 69 56 45
-1.948284e+00 4.479224e+00 4.245853e+00 165 152 140
-1.563964e+00 4.482970e+00 4.368396e+00 89 80 72
-1.962599e+00 4.496635e+00 4.275645e+00 190 184 174
-1.425255e+00 4.522469e+00 4.460445e+00 161 144 131
-1.854296e+00 4.531006e+00 4.343689e+00 130 117 104
2.930262e-01 4.399489e+00 5.343310e+00 95 79 62
-1.627766e+00 4.557938e+00 4.450496e+00 160 148 129
2.087405e-02 4.460760e+00 5.174998e+00 66 57 52
2.087405e-02 4.460760e+00 5.174998e+00 66 57 52
-2.205996e-01 4.497466e+00 5.027665e+00 166 160 134
-1.286398e+00 4.565466e+00 4.565218e+00 73 62 47
-1.275677e+00 4.573477e+00 4.578235e+00 163 153 135
-9.408702e-01 4.614841e+00 4.775227e+00 135 115 90
3.809966e+00 -2.123885e+00 2.749353e+00 91 90 85
4.558613e+00 -2.506075e+00 3.801911e+00 97 93 93
3.095283e+00 -1.454205e+00 1.957366e+00 107 105 106
1.291634e+00 -1.377528e+00 8.426693e-01 117 112 109
4.987376e+00 -2.761789e+00 4.386052e+00 157 156 152
1.425019e+00 -1.384314e+00 9.787612e-01 99 98 94
4.990423e+00 -2.762183e+00 4.404274e+00 133 132 131
1.277232e+00 -1.310496e+00 8.445908e-01 159 156 151
4.489855e+00 -2.345974e+00 3.768276e+00 146 142 130
1.974166e+00 -1.206791e+00 1.174729e+00 84 82 78
1.110710e+00 -1.208442e+00 7.180646e-01 126 124 125
3.077093e+00 -1.269393e+00 2.004652e+00 75 72 67
-2.727974e+00 -2.431489e+00 -1.874440e-01 78 74 71
1.472488e+00 -1.107475e+00 1.056814e+00 184 183 181
2.824061e+00 -1.080908e+00 1.845300e+00 148 148 148
9.331217e-01 -9.849428e-01 6.833421e-01 188 189 180
2.544192e+00 -9.821999e-01 1.670295e+00 174 174 174
2.529732e+00 -9.651550e-01 1.659138e+00 140 140 140
6.291525e-01 -9.498344e-01 5.950670e-01 112 108 101
3.653680e+00 -1.393498e+00 2.844829e+00 161 162 157
-1.665574e+00 -2.512586e+00 6.916351e-01 155 153 148
2.077757e+00 -8.228890e-01 1.396997e+00 185 186 181
2.440740e+00 -8.426462e-01 1.650574e+00 127 126 121
1.258606e+00 -8.069180e-01 9.166417e-01 165 162 159
1.638519e+00 -7.613786e-01 1.106682e+00 121 118 99
3.521290e+00 -1.344235e+00 2.807909e+00 151 151 151
-2.770049e+00 -2.130682e+00 -1.234353e-01 127 128 132
1.755875e+00 -7.757945e-01 1.190073e+00 118 117 107
4.332737e-01 -8.701040e-01 5.515456e-01 160 157 148
-9.052653e-01 -1.866836e+00 7.717148e-01 125 124 120
-4.211099e+00 -2.444506e+00 -4.457109e-01 103 101 101
2.029952e+00 -6.717522e-01 1.399649e+00 177 177 166
2.898632e+00 -7.518435e-01 2.018157e+00 126 125 120
1.239752e+00 -6.401255e-01 9.489689e-01 163 160 145
4.255103e+00 -1.663121e+00 3.776740e+00 159 154 150
3.894965e-02 -8.612226e-01 5.880612e-01 160 159 155
4.405363e+00 -1.654660e+00 4.003493e+00 128 128 122
4.435886e+00 -1.654508e+00 4.035743e+00 149 148 143
4.348154e+00 -1.609554e+00 3.948192e+00 163 164 159
2.976913e+00 -6.420773e-01 2.135139e+00 106 101 95
2.976913e+00 -6.420773e-01 2.135139e+00 106 101 95
1.525741e+00 -5.522982e-01 1.197146e+00 145 142 135
4.389445e+00 -1.634227e+00 3.994935e+00 155 155 145
-2.686836e+00 -1.827977e+00 3.771417e-02 129 124 119
1.571213e+00 -4.203851e-01 1.134746e+00 183 180 175
1.797795e+00 -3.642794e-01 1.271490e+00 125 120 106
1.443693e+00 -4.821358e-01 1.195673e+00 139 135 124
2.858948e+00 -5.150680e-01 2.069187e+00 187 187 179
1.751109e+00 -4.248076e-01 1.337725e+00 116 111 108
3.952867e+00 -1.154790e+00 3.387995e+00 158 157 153
1.804393e+00 -3.392262e-01 1.354867e+00 170 168 156
2.318770e+00 -3.849536e-01 1.709051e+00 170 170 166
2.517815e+00 -4.076180e-01 1.853665e+00 127 122 116
-1.843513e+00 -1.778696e+00 6.907592e-01 159 158 154
4.564890e+00 -1.604714e+00 4.352092e+00 133 132 128
4.319718e+00 -1.329872e+00 3.949001e+00 181 179 171
4.187693e+00 -1.228695e+00 3.803479e+00 114 108 97
4.312303e+00 -1.276046e+00 3.952953e+00 155 153 142
3.831378e+00 -9.265231e-01 3.335660e+00 113 108 104
3.062225e+00 -3.604055e-01 2.301582e+00 147 144 139
3.783578e+00 -8.658178e-01 3.276329e+00 145 138 120
1.593541e+00 -3.056146e-01 1.416452e+00 129 124 118
1.590928e+00 -3.064731e-01 1.442215e+00 182 177 171
1.057924e+00 -3.988109e-01 1.234358e+00 116 115 110
1.461454e+00 -2.971116e-01 1.371662e+00 114 110 101
1.057585e+00 -3.892863e-01 1.247906e+00 175 174 169
3.329407e+00 -4.933218e-01 2.677545e+00 125 119 103
1.449747e+00 -2.851639e-01 1.373775e+00 181 178 166
1.449747e+00 -2.851639e-01 1.373775e+00 181 178 166
3.339451e+00 -4.767788e-01 2.707085e+00 93 87 73
2.313046e+00 -1.845412e-01 1.811655e+00 177 174 165
1.025115e+00 -3.056878e-01 1.202755e+00 128 127 123
3.134891e-01 -2.739642e-01 7.880851e-01 186 185 180
2.031841e+00 -1.016397e-01 1.673483e+00 191 191 181
-1.741314e+00 -8.256979e-01 4.064129e-01 134 131 126
1.240445e+00 -9.901134e-02 1.344599e+00 108 103 98
2.804347e+00 -8.355811e-02 2.228901e+00 119 115 106
-1.525600e+00 -9.631722e-01 6.479661e-01 88 84 77
3.070847e+00 -1.243751e-01 2.442049e+00 124 123 120
3.070847e+00 -1.243751e-01 2.442049e+00 124 123 120
3.144064e+00 -1.431751e-01 2.505197e+00 136 136 128
4.816364e+00 -1.409656e+00 4.903559e+00 122 116 104
1.634352e+00 4.214974e-02 1.520342e+00 126 119 105
1.414312e+00 4.074179e-02 1.440152e+00 191 191 179
-3.135493e+00 -1.065694e+00 9.699563e-02 136 131 112
3.410871e+00 -3.005576e-01 2.961148e+00 162 159 150
2.266726e+00 1.302471e-01 1.865880e+00 148 145 135
2.620227e+00 5.190656e-02 2.161747e+00 135 132 127
3.364529e+00 -2.411694e-01 2.929554e+00 156 153 148
1.051894e+00 -4.877894e-02 1.427101e+00 187 184 176
2.269066e+00 1.419406e-01 1.927305e+00 115 113 102
3.388809e+00 -2.280855e-01 2.979169e+00 162 157 151
1.932673e+00 1.067870e-01 1.780243e+00 139 136 123
2.240857e+00 1.811148e-01 1.950723e+00 119 119 109
2.240857e+00 1.811148e-01 1.950723e+00 119 119 109
3.288828e+00 -7.370923e-02 2.864036e+00 165 159 147
3.946036e+00 -5.660192e-01 3.806831e+00 159 154 150
2.233498e+00 2.140056e-01 1.968150e+00 136 135 132
4.779602e+00 -1.171224e+00 5.009010e+00 148 145 136
4.073583e+00 -6.192651e-01 3.997668e+00 125 124 117
4.727476e+00 -1.122522e+00 4.947475e+00 194 190 179
2.490974e+00 2.865908e-01 2.146451e+00 172 168 160
1.127991e+00 2.246592e-01 1.451405e+00 198 197 193
-1.065083e+00 -1.254453e-01 6.158935e-01 112 107 97
2.818101e+00 2.933340e-01 2.381490e+00 178 174 164
1.510148e+00 3.332866e-01 1.603935e+00 184 182 184
-2.139145e+00 -3.632466e-01 3.843469e-01 97 89 84
2.998078e+00 3.173883e-01 2.501458e+00 112 107 101
2.311406e+00 4.179862e-01 2.039417e+00 166 164 157
2.676829e+00 3.815736e-01 2.299275e+00 172 166 154
3.849380e+00 -3.038911e-01 3.758220e+00 124 118 106
2.329116e+00 4.311124e-01 2.064361e+00 199 196 190
2.281641e+00 4.343242e-01 2.036779e+00 185 184 179
2.397402e+00 4.318300e-01 2.103055e+00 131 124 111
1.684365e+00 4.587856e-01 1.719797e+00 165 162 156
2.065203e-01 5.102119e-01 8.468199e-01 191 187 176
7.276532e-03 5.948486e-01 6.482241e-01 184 179 170
-2.176715e-01 5.078957e-01 6.159005e-01 184 176 169
1.974842e+00 4.617476e-01 1.886848e+00 129 126 119
2.146702e-01 4.952811e-01 8.756472e-01 99 94 85
2.146702e-01 4.952811e-01 8.756472e-01 99 94 85
2.581333e+00 4.633615e-01 2.285576e+00 115 106 96
1.638214e-01 6.161990e-01 7.851533e-01 92 84 79
4.847994e+00 -9.679702e-01 5.243471e+00 135 133 120
1.686519e+00 5.117289e-01 1.766570e+00 179 176 169
1.686519e+00 5.117289e-01 1.766570e+00 179 176 169
1.562613e-01 6.233243e-01 7.986281e-01 179 174 165
5.627546e-01 3.465832e-01 1.329485e+00 198 194 188
-1.444009e+00 9.020278e-02 5.571370e-01 162 155 148
3.179226e+00 2.483941e-01 2.944201e+00 162 155 145
2.594667e+00 5.061013e-01 2.329084e+00 114 105 90
-3.023388e+00 -4.142867e-01 3.128962e-01 147 137 120
3.818864e+00 -1.975984e-01 3.850515e+00 95 88 78
2.701562e+00 5.132865e-01 2.401465e+00 173 167 151
3.170852e+00 2.922621e-01 3.000617e+00 137 131 117
-1.558539e+00 2.009667e-01 5.865955e-01 158 154 151
-1.558539e+00 2.009667e-01 5.865955e-01 158 154 151
8.818943e-01 5.642272e-01 1.503235e+00 141 138 132
-7.765635e-02 7.556327e-01 7.822482e-01 153 145 132
-1.519538e+00 2.439586e-01 5.930572e-01 112 108 104
-3.208813e+00 -3.094852e-01 3.540770e-01 169 165 156
4.000247e-01 6.437902e-01 1.225839e+00 116 110 98
-2.138837e+00 8.453131e-02 5.300606e-01 151 135 122
2.918491e+00 6.152727e-01 2.660930e+00 99 95 83
2.869274e+00 6.521603e-01 2.593569e+00 93 88 82
3.740625e-01 6.607027e-01 1.228131e+00 117 113 101
2.887736e+00 6.537361e-01 2.643141e+00 167 163 151
4.544497e+00 -5.396743e-01 5.018161e+00 138 133 124
2.878713e+00 6.636176e-01 2.648879e+00 101 96 84
2.580876e+00 7.326885e-01 2.415106e+00 155 144 122
1.773561e+00 7.592107e-01 1.948470e+00 133 128 125
-4.269709e+00 -5.563545e-01 2.336929e-01 165 160 152
4.187297e+00 -2.803254e-01 4.533801e+00 151 142 135
1.415060e+00 7.662540e-01 1.802099e+00 180 179 174
-3.088168e+00 -1.205356e-01 4.267083e-01 173 167 160
2.521600e+00 7.748875e-01 2.398724e+00 135 128 118
2.868509e+00 7.188448e-01 2.663389e+00 89 82 63
1.555333e+00 7.682760e-01 1.906410e+00 114 110 101
-1.152361e+00 5.782684e-01 7.105780e-01 149 144 138
1.525297e+00 8.276624e-01 1.869285e+00 177 173 164
3.717072e+00 1.295356e-01 3.926684e+00 134 124 113
9.449346e-01 7.872503e-01 1.640111e+00 107 104 95
6.139544e-01 8.183210e-01 1.420529e+00 137 136 131
-2.697532e+00 9.884220e-02 5.137352e-01 101 85 71
1.128048e+00 8.235397e-01 1.705162e+00 181 180 175
1.356618e+00 8.672330e-01 1.797660e+00 68 65 60
3.775539e+00 1.179325e-01 4.034471e+00 163 156 139
7.866642e-01 8.273555e-01 1.534987e+00 161 154 137
5.332732e-01 8.926881e-01 1.334078e+00 76 73 68
4.043168e+00 -6.249103e-02 4.427473e+00 144 137 122
1.446936e+00 8.566336e-01 1.890496e+00 130 127 113
-4.675815e+00 -4.758504e-01 2.462103e-01 137 132 126
1.869447e+00 8.031187e-01 2.182656e+00 125 122 115
1.869447e+00 8.031187e-01 2.182656e+00 125 122 115
1.933233e+00 9.253420e-01 2.105007e+00 182 178 168
1.675520e+00 9.167462e-01 2.022356e+00 170 169 164
1.267374e+00 9.295098e-01 1.800117e+00 120 117 108
2.704531e+00 9.009277e-01 2.628928e+00 91 84 75
1.690285e+00 9.650100e-01 2.017723e+00 166 165 161
3.984314e+00 3.173716e-02 4.417253e+00 93 84 69
3.424660e+00 4.674313e-01 3.571292e+00 92 85 75
2.381051e+00 9.726357e-01 2.383929e+00 127 123 107
4.019278e+00 1.610629e-02 4.471527e+00 172 164 157
4.007391e+00 3.458780e-02 4.447095e+00 101 94 84
6.268047e-01 9.426640e-01 1.500672e+00 106 105 102
2.728089e+00 9.384004e-01 2.679214e+00 149 140 131
4.027740e+00 4.192571e-02 4.518121e+00 161 153 140
1.957821e+00 1.046059e+00 2.158630e+00 175 171 161
1.431918e-01 1.111032e+00 1.120741e+00 157 151 134
3.327915e+00 5.351116e-01 3.558042e+00 162 155 137
2.143008e+00 1.059537e+00 2.272269e+00 119 112 107
1.225286e+00 1.031292e+00 1.814716e+00 114 111 104
3.980857e+00 9.204669e-02 4.479416e+00 117 107 93
2.233712e+00 1.051277e+00 2.330763e+00 89 81 79
2.233712e+00 1.051277e+00 2.330763e+00 89 81 79
5.486667e-01 1.047240e+00 1.446993e+00 118 109 102
-2.183225e-01 1.165119e+00 8.838818e-01 114 100 79
3.625442e+00 3.739392e-01 3.946718e+00 175 168 150
-3.146751e-01 1.132104e+00 8.796145e-01 127 118 110
2.576762e+00 1.015036e+00 2.578549e+00 122 114 103
2.490742e+00 1.027259e+00 2.520972e+00 172 164 153
1.208848e+00 1.027706e+00 1.836142e+00 181 178 169
7.925883e-01 1.062972e+00 1.576231e+00 128 123 117
1.420854e+00 1.008539e+00 1.985933e+00 150 146 134
2.665177e+00 1.016846e+00 2.649162e+00 119 113 100
1.529616e+00 1.001733e+00 2.066103e+00 136 132 120
7.682795e-01 1.057078e+00 1.594491e+00 169 165 156
-2.063861e+00 5.595219e-01 7.208744e-01 110 100 90
3.037156e+00 8.056822e-01 3.144324e+00 154 144 132
1.529263e+00 1.015797e+00 2.073740e+00 158 152 141
1.886529e+00 1.103033e+00 2.180652e+00 137 134 122
6.842107e-02 1.176433e+00 1.113756e+00 105 94 82
-2.050970e-01 1.188460e+00 9.564189e-01 139 127 106
1.623707e+00 1.017937e+00 2.149882e+00 179 174 167
9.811868e-01 1.072583e+00 1.765049e+00 178 169 154
9.361114e-01 1.126701e+00 1.666061e+00 123 117 118
1.368881e+00 1.068496e+00 1.985232e+00 151 146 133
3.637701e+00 3.903113e-01 4.055943e+00 185 178 173
1.697913e+00 1.131319e+00 2.082238e+00 103 100 93
1.385190e+00 1.091657e+00 1.987143e+00 170 163 156
1.333531e+00 1.102773e+00 1.945706e+00 110 103 95
1.692997e+00 1.132546e+00 2.099252e+00 177 174 167
9.438378e-01 1.155702e+00 1.714285e+00 162 156 143
2.842375e+00 9.526212e-01 2.981963e+00 143 131 118
2.813880e+00 9.759511e-01 2.936652e+00 135 123 107
9.243973e-01 1.133235e+00 1.747944e+00 115 109 97
1.569847e+00 1.164480e+00 2.058200e+00 106 102 93
1.578313e+00 1.188565e+00 2.070571e+00 116 111 105
1.387409e+00 1.169922e+00 2.010359e+00 118 111 103
1.168711e+00 1.197907e+00 1.868153e+00 116 108 90
1.514112e+00 1.195954e+00 2.101850e+00 153 145 134
1.066042e+00 1.220783e+00 1.833510e+00 105 97 81
2.363311e+00 1.200595e+00 2.537829e+00 136 132 128
7.722471e-01 1.196160e+00 1.722584e+00 115 107 94
7.513230e-01 1.195570e+00 1.715481e+00 94 88 75
1.127847e+00 1.226311e+00 1.881772e+00 151 144 130
3.481363e+00 5.984351e-01 3.945235e+00 127 119 108
1.185768e+00 1.231558e+00 1.917163e+00 126 121 113
-5.718424e-01 1.280912e+00 9.161425e-01 134 123 106
4.207165e-01 1.331599e+00 1.424209e+00 162 161 156
-2.640794e+00 6.116450e-01 7.451607e-01 164 155 138
3.066871e+00 9.220529e-01 3.355164e+00 96 85 75
2.363483e+00 1.254059e+00 2.557489e+00 183 177 172
2.774554e+00 1.062810e+00 3.039793e+00 108 99 90
3.449803e+00 6.570970e-01 3.950266e+00 142 138 129
-6.807854e-02 1.397539e+00 1.159503e+00 142 128 114
-1.619560e-01 1.391549e+00 1.119817e+00 97 92 86
1.151729e+00 1.310981e+00 1.949301e+00 145 141 131
1.151729e+00 1.310981e+00 1.949301e+00 145 141 131
8.785236e-01 1.308905e+00 1.807496e+00 187 183 174
-2.443819e-01 1.413474e+00 1.084294e+00 132 127 124
-1.850611e+00 9.484426e-01 8.990417e-01 157 148 133
3.176739e+00 9.009183e-01 3.624834e+00 110 101 88
3.162868e+00 8.980804e-01 3.650922e+00 160 154 134
2.644882e+00 1.282169e+00 2.930822e+00 131 125 107
-7.256597e-02 1.467622e+00 1.278293e+00 148 139 127
5.255933e-01 1.521373e+00 1.543228e+00 182 169 153
4.907917e-01 1.503240e+00 1.568571e+00 120 108 94
8.724287e-01 1.452881e+00 1.873674e+00 141 138 133
8.724287e-01 1.452881e+00 1.873674e+00 141 138 133
2.617001e+00 1.323318e+00 2.938572e+00 133 123 104
1.105729e+00 1.470436e+00 2.006120e+00 139 135 133
-1.460195e+00 1.203963e+00 1.027276e+00 122 116 104
-2.471747e+00 9.616731e-01 9.426010e-01 151 142 125
3.236329e+00 9.539762e-01 3.923616e+00 166 156 144
-1.806327e+00 1.182800e+00 1.025431e+00 85 71 59
-1.502077e+00 1.281751e+00 1.085682e+00 92 87 79
1.207179e+00 1.593131e+00 2.083697e+00 174 163 134
-2.588202e+00 9.778361e-01 9.434236e-01 79 69 68
3.319415e+00 9.338136e-01 4.067977e+00 117 105 92
1.354249e+00 1.622922e+00 2.138869e+00 143 128 118
1.210959e+00 1.598719e+00 2.106129e+00 164 149 119
-1.641618e+00 1.262063e+00 1.081696e+00 139 128 113
1.220095e+00 1.599349e+00 2.127717e+00 175 160 131
-1.819103e+00 1.217314e+00 1.059343e+00 144 134 112
8.394439e-01 1.644899e+00 1.882612e+00 146 137 123
3.287369e+00 9.693407e-01 4.066924e+00 182 174 162
2.513625e+00 1.465139e+00 2.979473e+00 133 121 111
2.964590e+00 1.190560e+00 3.600928e+00 109 102 96
-1.106688e+00 1.426525e+00 1.178192e+00 168 160 149
1.241108e+00 1.624267e+00 2.138645e+00 182 169 147
3.593083e+00 8.007846e-01 4.460763e+00 118 112 100
2.469914e+00 1.501134e+00 2.949480e+00 110 102 91
5.870825e-01 1.715732e+00 1.741282e+00 162 152 141
7.634158e-01 1.776954e+00 1.764775e+00 93 87 77
-2.253471e+00 1.164433e+00 1.052876e+00 107 102 96
5.640360e-01 1.734644e+00 1.735885e+00 153 141 127
2.844678e+00 1.294850e+00 3.511039e+00 79 68 49
1.930067e+00 1.669212e+00 2.534660e+00 106 99 81
1.940254e+00 1.669470e+00 2.546129e+00 167 155 143
-9.727205e-01 1.519327e+00 1.259197e+00 139 135 123
-1.003647e+00 1.529474e+00 1.255093e+00 141 136 130
-2.951888e+00 1.008824e+00 9.683591e-01 103 90 71
3.533303e+00 9.109063e-01 4.522842e+00 130 123 107
7.801313e-01 1.827766e+00 1.856194e+00 164 164 163
3.232993e-01 1.884531e+00 1.539908e+00 131 122 113
-6.902105e-01 1.715568e+00 1.279574e+00 143 135 116
9.541455e-01 1.842406e+00 2.080787e+00 142 136 123
5.035995e-01 1.884409e+00 1.787098e+00 126 113 97
-6.291016e-01 1.758964e+00 1.377408e+00 146 138 117
-3.379617e+00 1.051172e+00 1.030468e+00 168 158 137
-3.302730e+00 1.081373e+00 1.039706e+00 139 131 127
-1.351108e+00 1.609913e+00 1.302376e+00 145 135 122
-4.918335e-01 1.841527e+00 1.411365e+00 127 119 100
-1.221761e+00 1.685349e+00 1.320984e+00 115 100 80
-1.221761e+00 1.685349e+00 1.320984e+00 115 100 80
1.380530e+00 2.012717e+00 2.227692e+00 87 85 88
-4.772649e-01 1.903337e+00 1.450760e+00 166 154 137
1.048023e+00 1.980457e+00 2.149940e+00 134 135 126
-6.214407e-01 1.877827e+00 1.460212e+00 158 150 139
1.405431e+00 1.997752e+00 2.371448e+00 172 162 151
1.355957e+00 2.014487e+00 2.326980e+00 79 75 73
2.245971e+00 1.804628e+00 3.078460e+00 137 125 108
5.689557e-01 2.044017e+00 1.909127e+00 166 165 161
-1.444831e+00 1.705849e+00 1.402155e+00 138 133 127
-2.159493e+00 1.532477e+00 1.308266e+00 184 169 146
2.531162e+00 1.676143e+00 3.457078e+00 68 61 55
-3.921148e+00 1.099154e+00 1.070345e+00 170 163 155
1.327174e+00 2.058657e+00 2.364918e+00 119 112 102
1.239768e+00 2.086451e+00 2.288935e+00 120 115 108
2.567112e+00 1.690745e+00 3.565998e+00 152 142 130
2.576505e+00 1.689571e+00 3.588507e+00 110 99 93
2.880778e+00 1.548536e+00 3.984710e+00 144 135 125
1.225321e+00 2.131234e+00 2.305823e+00 177 173 162
2.528106e+00 1.729850e+00 3.557172e+00 119 110 101
-1.933916e+00 1.686412e+00 1.397497e+00 99 90 79
-3.883648e+00 1.222926e+00 1.158690e+00 175 164 143
2.489733e+00 1.790385e+00 3.492099e+00 128 123 112
2.934179e+00 1.546172e+00 4.094929e+00 186 179 169
-1.120150e+00 1.929039e+00 1.526373e+00 67 56 39
1.338629e+00 2.155791e+00 2.422491e+00 195 192 182
-2.891241e+00 1.522872e+00 1.319092e+00 114 109 106
2.804301e+00 1.630122e+00 3.978075e+00 171 162 148
-1.966388e+00 1.754217e+00 1.442931e+00 97 90 83
-2.156203e+00 1.724813e+00 1.439658e+00 174 171 166
2.367249e+00 1.886948e+00 3.434169e+00 81 64 46
-2.733431e+00 1.599705e+00 1.356372e+00 170 163 153
3.145791e+00 1.475732e+00 4.445292e+00 147 140 124
2.679843e+00 1.730164e+00 3.864985e+00 63 53 43
-2.038714e+00 1.818271e+00 1.510125e+00 191 184 178
-2.952002e+00 1.607874e+00 1.373233e+00 121 112 95
2.736896e+00 1.718194e+00 4.015403e+00 183 172 166
-2.126019e+00 1.810345e+00 1.485662e+00 146 136 128
-2.850212e+00 1.645011e+00 1.404042e+00 148 140 131
2.731166e+00 1.726116e+00 4.029496e+00 147 140 134
1.187107e-01 2.337234e+00 1.816476e+00 150 137 118
1.436849e+00 2.294888e+00 2.541608e+00 96 89 83
3.137086e+00 1.525873e+00 4.552229e+00 172 163 153
1.814650e+00 2.141421e+00 2.984229e+00 94 85 80
3.053199e+00 1.574526e+00 4.450630e+00 168 161 146
2.651278e+00 1.809467e+00 3.905317e+00 182 174 161
3.091349e+00 1.567634e+00 4.516524e+00 170 161 146
2.671803e+00 1.806920e+00 4.007465e+00 174 167 155
-2.055188e+00 1.906571e+00 1.552865e+00 162 153 136
-6.224988e+00 9.952726e-01 9.219889e-01 174 172 172
2.652259e+00 1.841916e+00 3.966595e+00 184 177 158
3.463180e-01 2.386744e+00 2.018660e+00 112 107 101
2.274650e+00 2.024590e+00 3.525046e+00 158 154 149
2.723618e+00 1.797973e+00 4.124873e+00 130 126 123
2.255643e+00 2.043725e+00 3.543009e+00 148 141 135
8.937565e-01 2.417731e+00 2.333617e+00 115 105 90
2.998836e+00 1.682462e+00 4.505468e+00 97 88 81
1.968037e+00 2.215782e+00 3.227677e+00 149 136 124
2.492629e+00 1.963910e+00 3.909735e+00 131 121 109
2.483691e+00 1.953483e+00 3.945487e+00 108 95 87
5.402659e-01 2.513873e+00 2.149125e+00 79 80 74
-1.795201e+00 2.089028e+00 1.702618e+00 153 143 131
1.588863e+00 2.361144e+00 2.917879e+00 55 38 28
-1.750812e+00 2.106973e+00 1.733908e+00 150 141 126
-1.757549e+00 2.116929e+00 1.744667e+00 109 103 96
2.413947e+00 2.035878e+00 3.904552e+00 81 69 62
-3.547576e+00 1.748173e+00 1.503839e+00 187 183 174
-3.566168e+00 1.745505e+00 1.498549e+00 136 132 125
2.073264e+00 2.165942e+00 3.559918e+00 141 133 119
2.875978e+00 1.825804e+00 4.487205e+00 141 131 113
-2.793465e-01 2.425993e+00 2.041300e+00 168 159 150
2.379989e+00 2.040151e+00 3.951848e+00 193 189 186
2.145158e+00 2.195748e+00 3.600131e+00 111 103 92
2.364116e+00 2.085743e+00 3.891482e+00 80 73 59
-3.569778e+00 1.789024e+00 1.527624e+00 131 126 122
2.451536e+00 2.059598e+00 4.014263e+00 104 94 88
2.438149e+00 2.069900e+00 3.993376e+00 147 135 121
2.359767e+00 2.076080e+00 3.962172e+00 166 159 143
2.348530e+00 2.106985e+00 3.926225e+00 130 123 115
2.304676e+00 2.105550e+00 3.925841e+00 113 104 100
2.365319e+00 2.128316e+00 3.969475e+00 118 108 96
2.365319e+00 2.128316e+00 3.969475e+00 118 108 96
1.849327e+00 2.349246e+00 3.377537e+00 86 70 53
1.548499e+00 2.432607e+00 3.113443e+00 158 147 141
-8.299409e-01 2.422850e+00 2.009039e+00 110 100 79
4.251115e+00 1.244060e+00 6.275105e+00 150 138 125
2.726785e+00 1.970405e+00 4.424676e+00 140 133 125
2.727924e+00 1.983244e+00 4.461196e+00 83 74 70
-8.074783e-01 2.457180e+00 2.046627e+00 154 146 131
-8.979502e-01 2.440994e+00 2.034275e+00 89 77 63
-1.545942e+00 2.324794e+00 1.912294e+00 105 97 86
1.194463e+00 2.559174e+00 2.836056e+00 78 71 57
-1.746406e+00 2.305776e+00 1.894173e+00 84 78 73
2.704074e+00 2.016961e+00 4.470844e+00 171 163 153
-3.383444e+00 1.984060e+00 1.674213e+00 116 110 106
-3.696787e+00 1.920236e+00 1.628749e+00 193 191 191
-1.670905e+00 2.327095e+00 1.936806e+00 119 110 100
1.263453e+00 2.591904e+00 2.958031e+00 155 140 124
2.274346e+00 2.252082e+00 4.046268e+00 150 147 142
-4.318848e+00 1.867840e+00 1.600961e+00 166 160 159
-1.589599e+00 2.409646e+00 2.007416e+00 165 159 145
2.630306e+00 2.096510e+00 4.482651e+00 160 153 147
2.131698e+00 2.334974e+00 3.873580e+00 106 98 84
-1.508605e+00 2.425911e+00 2.034969e+00 93 84 74
3.004916e+00 1.934298e+00 4.935423e+00 143 134 119
1.786720e+00 2.450472e+00 3.539223e+00 159 153 139
-1.435994e+00 2.453198e+00 2.047897e+00 101 88 68
2.968142e+00 1.963268e+00 4.900440e+00 89 78 71
1.018506e+00 2.703894e+00 2.791742e+00 141 124 107
1.031902e-01 2.720403e+00 2.395041e+00 106 95 78
4.941739e-01 2.784203e+00 2.536381e+00 146 134 117
4.022409e+00 1.526179e+00 6.265262e+00 136 119 103
5.441410e-01 2.804794e+00 2.559369e+00 140 126 107
4.036644e+00 1.541468e+00 6.266430e+00 149 136 121
2.519626e+00 2.228772e+00 4.450151e+00 153 144 132
2.504127e+00 2.239271e+00 4.437242e+00 144 138 118
8.076431e-01 2.800305e+00 2.715077e+00 52 43 27
8.076431e-01 2.800305e+00 2.715077e+00 52 43 27
1.670169e+00 2.571006e+00 3.541495e+00 161 149 138
1.670169e+00 2.571006e+00 3.541495e+00 161 149 138
-1.243808e+00 2.584862e+00 2.178400e+00 101 89 77
2.001686e+00 2.443683e+00 3.920750e+00 183 168 146
2.893701e+00 2.059354e+00 4.979414e+00 82 71 67
2.879299e+00 2.072958e+00 4.983468e+00 167 160 149
1.394402e+00 2.669312e+00 3.305134e+00 98 81 54
-1.147114e+00 2.634470e+00 2.246334e+00 132 124 109
