ply
format ascii 1.0
element face 0
property list uchar int vertex_indices
element vertex 944
property float x
property float y
property float z
property uchar diffuse_red
property uchar diffuse_green
property uchar diffuse_blue
end_header
-1.850556e+01 1.554491e+01 5.392674e+00 196 185 173
1.843147e+00 1.708246e+01 5.182440e+00 53 53 43
1.421673e+01 2.259505e+01 5.695563e+00 181 160 126
-5.953175e+00 2.532533e+01 6.625681e+00 131 110 89
-4.391522e+00 2.595829e+01 6.912312e+00 78 74 57
-3.564810e+00 2.603694e+01 7.275840e+00 73 66 49
1.079528e+01 2.902872e+01 7.383286e+00 194 183 162
-5.350517e+00 3.014273e+01 8.238374e+00 180 161 140
-7.667517e+00 3.024233e+01 8.333989e+00 197 181 166
1.073677e+01 4.104647e+01 1.130316e+01 98 98 96
1.806626e+01 2.136678e+00 2.229204e+00 121 104 84
1.752296e+01 1.181786e+01 4.520154e+00 73 56 27
-5.581621e+00 1.469225e+01 3.112379e+00 206 190 177
1.151983e+01 1.657238e+01 4.987839e+00 129 118 96
1.736724e+00 1.770104e+01 4.569919e+00 194 177 159
1.065670e+01 1.823174e+01 5.110854e+00 107 93 68
-1.433592e-01 1.793542e+01 4.733484e+00 195 174 151
-3.529723e-01 1.772201e+01 5.505975e+00 195 174 151
8.530666e+00 2.102834e+01 5.112329e+00 193 178 155
1.482572e+01 2.203972e+01 5.352901e+00 184 166 144
1.886936e+00 2.861418e+01 7.470666e+00 139 128 109
6.804736e-01 2.932269e+01 7.952179e+00 177 164 147
1.443067e+01 3.276552e+01 9.024877e+00 171 160 141
1.126655e+01 3.976711e+01 1.088659e+01 92 91 86
7.610411e+00 4.031337e+01 1.121580e+01 94 94 92
5.024196e+00 4.114884e+01 1.157852e+01 175 161 142
-1.381474e+01 4.050184e+01 1.135786e+01 152 138 129
1.395887e+01 4.454519e+01 1.256560e+01 180 170 155
1.128007e+01 4.623899e+01 1.302608e+01 143 125 110
1.961518e+01 1.659930e+00 2.403284e+00 127 113 96
-4.854931e+00 1.404334e+01 3.562248e+00 116 98 72
-5.375798e+00 1.492735e+01 3.173176e+00 159 145 125
7.971704e-01 1.563517e+01 4.794686e+00 191 176 154
1.329684e+00 1.579771e+01 4.391919e+00 45 29 20
8.111562e+00 2.128325e+01 5.186128e+00 122 101 81
-7.366213e+00 2.160597e+01 5.456737e+00 205 190 175
1.565799e+01 2.484679e+01 5.867647e+00 170 158 139
-1.618085e+01 2.405604e+01 7.000229e+00 181 161 149
-6.320111e+00 2.527564e+01 6.710883e+00 202 184 162
-9.724227e+00 2.616261e+01 7.061041e+00 48 34 18
6.555857e-01 2.838774e+01 7.544486e+00 149 130 113
1.660954e+01 3.025954e+01 8.033326e+00 110 94 75
-1.401315e+01 3.977033e+01 1.123775e+01 157 144 127
5.008307e+00 4.222684e+01 1.189361e+01 184 170 148
5.008307e+00 4.222684e+01 1.189361e+01 184 170 148
8.580839e+00 4.268012e+01 1.201392e+01 103 91 78
1.227979e+01 4.633117e+01 1.305463e+01 116 105 95
7.230616e+00 1.366020e+01 2.883685e+00 195 180 165
-2.923158e+00 1.487679e+01 4.039446e+00 190 168 154
1.093908e+00 1.589636e+01 3.242556e+00 201 185 166
1.208844e+01 1.659706e+01 4.327852e+00 198 189 174
-7.965613e+00 1.585020e+01 4.181223e+00 119 104 82
1.349992e+00 1.673517e+01 4.288203e+00 60 40 23
-1.389933e+01 1.636378e+01 5.107743e+00 135 115 91
-1.266579e+00 1.711861e+01 4.485684e+00 195 183 170
2.111278e+00 1.752940e+01 4.781419e+00 199 185 169
1.542187e+01 1.851389e+01 4.694477e+00 107 94 79
-1.137208e+00 1.736416e+01 5.378147e+00 184 165 146
-1.038155e+01 1.744875e+01 4.667009e+00 171 157 137
2.950942e+00 1.903875e+01 4.500436e+00 148 128 103
1.509372e+01 2.017973e+01 5.300940e+00 118 101 83
9.527108e+00 2.057066e+01 4.956050e+00 133 112 90
1.103888e+01 2.106583e+01 5.205017e+00 153 141 119
1.380111e+01 2.212365e+01 4.771840e+00 202 191 179
7.423013e+00 2.351764e+01 5.738801e+00 189 182 166
-7.522483e+00 2.547476e+01 6.756631e+00 139 121 100
-4.831704e+00 2.662105e+01 7.105083e+00 173 154 132
9.718642e+00 2.861279e+01 7.248691e+00 179 170 153
-6.563043e+00 2.776170e+01 7.484247e+00 109 97 79
7.076217e+00 2.940053e+01 7.602791e+00 154 141 123
8.988344e+00 2.961515e+01 7.461735e+00 173 162 141
9.780213e+00 3.433395e+01 9.408267e+00 182 169 150
9.740442e+00 3.458918e+01 9.463068e+00 185 175 158
9.511487e+00 3.636503e+01 1.001776e+01 181 171 156
9.473746e+00 3.695469e+01 9.887421e+00 186 178 163
9.039837e+00 3.995799e+01 1.108363e+01 183 173 155
8.995910e+00 4.026115e+01 1.121302e+01 180 172 153
-1.479377e+01 3.958386e+01 1.112373e+01 95 81 71
-1.267344e+01 4.013955e+01 1.128667e+01 103 92 80
5.394723e+00 4.273614e+01 1.185092e+01 187 176 159
-1.001538e+01 4.232899e+01 1.299907e+01 254 252 247
-9.307223e+00 4.255502e+01 1.304881e+01 250 253 251
9.394103e+00 4.515408e+01 1.270947e+01 97 82 71
8.971202e+00 4.558229e+01 1.286768e+01 87 78 63
1.109064e+01 4.836126e+01 1.354463e+01 156 146 150
1.821535e+01 -3.579964e-01 3.016619e-01 152 138 114
-4.305633e+00 2.032579e+00 -1.293326e+00 129 111 95
6.016698e+00 8.903951e+00 9.767761e-01 161 147 128
-1.344857e+01 8.767208e+00 1.867361e+00 92 76 60
2.390220e+00 1.243908e+01 2.908173e+00 120 100 80
2.058150e+00 1.293685e+01 3.704948e+00 189 171 154
8.396924e+00 1.544429e+01 4.020630e+00 189 167 141
-1.654030e+00 1.512951e+01 4.479444e+00 31 30 24
-1.457129e+01 1.468803e+01 4.707351e+00 128 106 83
-7.750776e+00 1.563370e+01 4.167047e+00 116 101 78
2.877130e+00 1.631570e+01 4.387355e+00 36 26 9
-1.407416e+01 1.608615e+01 4.993483e+00 135 112 91
2.732296e+00 1.720433e+01 4.304078e+00 67 28 11
-1.012015e+00 1.705676e+01 4.517491e+00 42 33 18
-1.063341e+01 1.674089e+01 4.532570e+00 99 83 57
-1.052067e+01 1.707368e+01 4.641883e+00 122 106 89
3.961977e+00 1.825128e+01 4.488800e+00 145 137 116
-8.696657e+00 1.771467e+01 4.724095e+00 128 110 89
3.292818e+00 1.893876e+01 4.709998e+00 138 122 98
1.149171e+01 1.973331e+01 5.294647e+00 99 86 64
8.787779e+00 2.003827e+01 4.621869e+00 189 178 155
1.476828e+01 2.052703e+01 5.366425e+00 126 105 88
-1.811732e-01 1.999250e+01 5.091159e+00 138 123 104
1.456106e+01 2.087737e+01 5.555288e+00 173 157 133
9.005260e+00 2.079175e+01 4.893966e+00 196 180 158
-3.196474e+00 2.019619e+01 5.238990e+00 187 174 158
-2.875202e+00 2.027649e+01 5.152587e+00 118 99 76
1.409447e+01 2.127803e+01 5.443789e+00 176 160 129
1.139845e+01 2.118561e+01 5.277494e+00 97 80 52
9.809182e+00 2.133977e+01 5.311831e+00 126 103 78
1.344671e+01 2.163346e+01 4.796386e+00 116 101 79
1.061066e+01 2.190470e+01 4.799517e+00 122 104 83
1.101699e+01 2.190134e+01 5.413461e+00 176 156 131
1.091234e+01 2.208337e+01 4.823971e+00 124 104 80
1.045923e+01 2.193753e+01 5.440221e+00 198 183 162
1.120890e+01 2.223991e+01 4.896970e+00 126 108 85
8.261285e+00 2.612451e+01 6.660605e+00 87 53 17
-5.292436e+00 2.597743e+01 6.912302e+00 116 108 89
-4.566213e+00 2.625746e+01 6.892023e+00 167 156 136
7.567040e+00 2.737219e+01 7.199514e+00 187 172 149
3.622147e+00 2.724671e+01 7.046924e+00 95 87 70
-3.419302e+00 2.675924e+01 7.334639e+00 65 52 38
-4.441415e+00 2.678053e+01 7.107172e+00 175 160 137
-8.195045e+00 2.702660e+01 7.434107e+00 112 102 80
5.433379e+00 2.814726e+01 7.335935e+00 192 180 161
4.375504e+00 2.828202e+01 7.371370e+00 187 186 170
8.985835e+00 2.864339e+01 7.105668e+00 174 154 127
-8.577991e+00 2.769644e+01 7.524594e+00 136 120 108
-2.945053e+00 2.799609e+01 7.490221e+00 113 99 77
-8.500059e+00 2.787733e+01 7.559920e+00 78 74 61
8.787384e+00 2.900250e+01 7.674680e+00 109 81 62
-1.251670e-01 2.853951e+01 7.553752e+00 101 89 71
2.479995e+00 2.881503e+01 7.578082e+00 160 146 127
-1.405635e-01 2.866982e+01 7.669485e+00 168 152 135
1.790985e+00 2.885117e+01 7.651296e+00 103 83 62
9.351773e-01 2.897815e+01 7.429265e+00 162 149 134
4.148775e+00 2.927612e+01 7.779167e+00 91 83 63
6.673521e+00 2.955409e+01 7.854860e+00 149 139 118
1.074220e+01 3.064600e+01 7.809086e+00 105 90 72
-1.402581e+01 2.955827e+01 8.329426e+00 85 91 87
3.982167e+00 3.081131e+01 8.291229e+00 185 164 142
1.726088e+01 3.165387e+01 8.600146e+00 175 156 137
-1.228151e+01 3.011535e+01 8.982134e+00 188 179 165
1.630845e+01 3.189827e+01 8.917420e+00 87 78 57
-1.206701e+01 3.058219e+01 8.481385e+00 190 181 167
1.247816e+01 3.206141e+01 8.269568e+00 174 165 142
-1.513823e+01 3.116146e+01 8.673854e+00 177 165 147
-1.461067e+01 3.172087e+01 8.892410e+00 175 162 145
1.942485e+01 3.398119e+01 8.607970e+00 240 254 254
1.907153e+01 3.417884e+01 8.876261e+00 254 253 254
9.290879e+00 3.680240e+01 9.815123e+00 135 123 107
-1.492391e+01 3.545011e+01 1.004851e+01 178 161 143
-1.583648e+01 3.817907e+01 1.078858e+01 111 105 87
-1.664616e+01 3.870852e+01 1.073854e+01 182 162 140
-1.365381e+01 3.903760e+01 1.096805e+01 118 111 105
-1.526451e+01 3.897828e+01 1.091063e+01 179 162 144
-1.532308e+01 3.950369e+01 1.106913e+01 104 94 82
-1.428235e+01 3.978710e+01 1.115144e+01 98 90 82
-1.428235e+01 3.978710e+01 1.115144e+01 98 90 82
-1.213357e+01 4.029991e+01 1.131464e+01 96 89 76
-1.159759e+01 4.040187e+01 1.136606e+01 97 84 76
8.654241e+00 4.196019e+01 1.156624e+01 166 157 138
-8.238903e+00 4.194016e+01 1.190913e+01 175 160 141
8.549297e+00 4.316364e+01 1.213288e+01 111 99 86
8.282034e+00 4.315396e+01 1.212900e+01 185 172 150
5.629365e+00 4.301965e+01 1.213940e+01 180 170 151
8.798804e+00 4.325581e+01 1.202490e+01 169 167 150
1.405420e+01 4.382172e+01 1.239708e+01 171 158 138
1.333242e+01 4.376733e+01 1.241654e+01 104 91 79
8.862880e+00 4.361587e+01 1.219641e+01 114 102 91
9.638435e+00 4.416074e+01 1.243418e+01 180 168 152
1.010974e+01 4.445094e+01 1.245344e+01 180 168 145
1.082209e+01 4.453842e+01 1.249421e+01 182 170 152
4.489234e+00 4.451303e+01 1.256301e+01 105 105 100
7.055082e+00 4.513836e+01 1.274687e+01 95 85 75
7.055082e+00 4.513836e+01 1.274687e+01 95 85 75
1.138833e+01 4.564323e+01 1.280066e+01 99 87 75
1.030307e+01 4.596904e+01 1.291629e+01 96 83 71
1.067493e+01 4.664962e+01 1.310564e+01 171 168 153
1.404172e+01 4.708957e+01 1.319788e+01 101 95 83
1.218748e+01 5.091370e+01 1.427500e+01 253 241 241
-1.537681e+01 -1.223739e+00 -1.171286e+00 196 179 159
-4.188429e+00 1.932835e+00 -1.209410e+00 182 169 151
1.934968e+01 2.758448e+00 2.679476e+00 180 173 158
1.934968e+01 2.758448e+00 2.679476e+00 180 173 158
5.017019e+00 5.358034e+00 -1.424222e+00 109 89 68
1.858333e+01 9.516276e+00 3.475831e+00 116 100 77
1.827154e+01 9.542569e+00 3.602642e+00 179 161 142
1.419344e+01 1.082384e+01 4.614320e+00 102 71 43
1.419344e+01 1.082384e+01 4.614320e+00 102 71 43
1.314231e+00 1.253911e+01 2.659605e+00 97 81 55
-1.989371e+00 1.360815e+01 3.866585e+00 65 53 40
-4.806121e+00 1.546695e+01 3.939873e+00 138 116 93
8.861540e+00 1.643445e+01 3.962426e+00 109 94 65
-1.447977e+01 1.508680e+01 4.788109e+00 135 114 88
1.264058e+01 1.691607e+01 4.209917e+00 104 91 68
-4.441208e+00 1.601434e+01 4.076050e+00 143 122 95
-1.073091e+01 1.589241e+01 3.962454e+00 142 125 115
6.610041e+00 1.699534e+01 3.573572e+00 148 127 103
6.907297e-01 1.681350e+01 3.818182e+00 134 116 90
1.232405e+01 1.816724e+01 4.610004e+00 197 175 152
-1.118172e+01 1.701994e+01 4.568385e+00 141 125 109
-1.470584e+01 1.710686e+01 5.346881e+00 159 139 115
8.301287e+00 1.867161e+01 4.135080e+00 131 106 84
-8.484486e+00 1.776665e+01 4.718066e+00 181 162 139
1.629877e+01 1.955978e+01 3.848816e+00 121 107 90
-3.924146e+00 1.827513e+01 4.803483e+00 118 101 81
1.055499e+01 1.907944e+01 5.016979e+00 141 128 110
1.174031e+01 1.969363e+01 3.589422e+00 186 171 148
-1.067029e+01 1.826710e+01 4.823183e+00 103 85 61
8.251103e+00 1.939032e+01 4.409221e+00 140 116 94
-1.195694e+01 1.854583e+01 4.881260e+00 123 106 90
1.203242e+01 2.024845e+01 4.053677e+00 174 156 139
1.557382e+01 2.017370e+01 5.290182e+00 137 118 102
-1.119650e+01 1.892101e+01 4.688565e+00 119 110 91
1.215591e+01 2.024680e+01 5.066413e+00 144 116 94
1.205963e+01 2.035128e+01 4.959930e+00 170 160 145
1.515024e+01 2.060787e+01 5.422632e+00 130 114 97
1.124842e+01 2.074003e+01 5.110582e+00 128 112 90
-1.609454e+01 1.976095e+01 5.637139e+00 172 159 142
-3.733485e+00 2.064518e+01 5.175459e+00 106 101 96
1.504354e+01 2.165122e+01 5.585096e+00 144 131 112
-4.847311e+00 2.065763e+01 5.307524e+00 156 141 124
1.358750e+01 2.204218e+01 4.756377e+00 119 110 96
-2.990864e-01 2.124405e+01 5.295512e+00 171 151 128
9.795213e-01 2.144214e+01 5.302275e+00 110 96 77
1.515304e+01 2.234281e+01 5.785971e+00 161 159 142
6.230913e+00 2.316136e+01 5.781367e+00 99 83 66
1.108305e+01 2.356032e+01 6.051995e+00 107 95 71
7.026991e+00 2.343113e+01 5.814071e+00 171 152 126
-1.930957e+01 2.341432e+01 7.255586e+00 161 148 142
-1.292607e+01 2.427937e+01 6.625874e+00 37 41 27
-1.348186e+01 2.522214e+01 7.554473e+00 138 120 97
-3.951388e+00 2.636252e+01 6.969512e+00 126 114 100
-4.548060e+00 2.663119e+01 7.073916e+00 49 37 24
-3.140717e+00 2.682407e+01 7.058969e+00 179 169 156
-1.217893e+01 2.633625e+01 7.096632e+00 112 99 80
-4.581364e+00 2.693284e+01 7.201868e+00 107 97 79
-1.011083e+01 2.675187e+01 7.245810e+00 106 90 74
-1.955497e+01 2.610680e+01 8.082936e+00 249 249 246
-5.898604e+00 2.728726e+01 7.292311e+00 158 145 128
8.921124e+00 2.843726e+01 7.303042e+00 74 41 10
-1.387890e+00 2.791537e+01 7.132893e+00 169 157 141
2.692673e+00 2.817949e+01 7.354458e+00 103 105 93
-1.329306e+01 2.734142e+01 8.131317e+00 172 151 131
4.711465e+00 2.839334e+01 7.554998e+00 204 192 181
8.524625e+00 2.900306e+01 7.396471e+00 105 85 64
1.210239e+01 2.938847e+01 7.260158e+00 187 173 153
4.259341e+00 2.904186e+01 7.733263e+00 111 101 89
1.534089e+01 2.983421e+01 7.659370e+00 169 159 138
1.353300e+01 3.063958e+01 7.714429e+00 77 57 31
5.912827e+00 3.091176e+01 8.353814e+00 163 143 131
-1.214036e+01 2.980554e+01 9.064960e+00 144 133 117
1.631280e+01 3.182492e+01 8.442264e+00 102 90 72
-1.197913e+01 3.083789e+01 9.421730e+00 137 123 109
1.588791e+01 3.349519e+01 8.696952e+00 79 77 60
1.022731e+01 3.328223e+01 8.575773e+00 142 123 106
-6.357266e+00 3.234341e+01 8.939957e+00 155 137 120
1.527934e+01 3.384866e+01 8.982359e+00 129 118 99
-7.501075e+00 3.296690e+01 9.078147e+00 155 135 126
-6.475879e+00 3.340987e+01 9.277877e+00 134 123 105
-6.938956e+00 3.377065e+01 9.352724e+00 147 127 111
-7.217010e+00 3.395637e+01 9.480194e+00 155 138 117
1.345650e+01 3.528802e+01 9.244795e+00 134 121 105
-7.003251e+00 3.431499e+01 9.547912e+00 154 135 110
-1.593669e+01 3.394541e+01 1.070702e+01 186 172 156
9.796291e+00 3.593855e+01 9.862006e+00 124 110 94
-1.643788e+01 3.560329e+01 1.006930e+01 121 110 96
-1.636748e+01 3.566620e+01 9.954839e+00 121 110 96
-1.567391e+01 3.576455e+01 1.023974e+01 104 94 79
9.228192e+00 3.731270e+01 9.996620e+00 129 113 97
-1.666602e+01 3.765769e+01 1.048218e+01 131 121 106
-1.675459e+01 3.783086e+01 1.049987e+01 188 184 168
-1.607454e+01 3.800403e+01 1.195125e+01 180 164 146
-1.510351e+01 3.888246e+01 1.088546e+01 119 107 95
3.490587e+00 3.985797e+01 1.118090e+01 178 174 162
-1.463484e+01 3.911023e+01 1.098829e+01 111 97 83
-1.168115e+01 3.961754e+01 1.113232e+01 171 161 146
-1.067124e+01 3.978353e+01 1.122616e+01 169 161 144
-1.103613e+01 3.983057e+01 1.120718e+01 170 161 146
3.386707e+00 4.063906e+01 1.141955e+01 178 173 157
8.612152e+00 4.104906e+01 1.123685e+01 174 156 136
1.411889e+01 4.171412e+01 1.184701e+01 141 128 115
-7.513604e+00 4.093805e+01 1.154109e+01 173 170 153
-1.238681e+01 4.091802e+01 1.151396e+01 164 149 128
1.379304e+01 4.291736e+01 1.224823e+01 174 175 161
-1.230992e+01 4.184779e+01 1.177812e+01 194 177 159
-1.528952e+01 -1.127750e+00 -1.079538e+00 152 129 111
-1.868936e+00 9.232431e+00 1.228735e+00 172 161 145
-4.341595e-01 1.337427e+01 2.896083e+00 166 144 121
-6.844744e+00 1.422690e+01 3.209078e+00 107 91 70
-1.608278e+01 1.396443e+01 3.729000e+00 196 180 164
4.709409e-02 1.582489e+01 4.426250e+00 89 45 14
1.088658e+00 1.601443e+01 4.105951e+00 72 61 44
1.207459e+01 1.683424e+01 4.244664e+00 161 151 132
1.102931e+00 1.624860e+01 4.395919e+00 64 62 50
-5.008633e+00 1.623832e+01 4.092546e+00 160 137 113
-5.008633e+00 1.623832e+01 4.092546e+00 160 137 113
-3.367658e+00 1.658046e+01 4.357794e+00 111 85 57
-4.965372e+00 1.686290e+01 4.284040e+00 144 123 100
3.803370e+00 1.767473e+01 4.538837e+00 80 77 65
-9.675390e+00 1.757888e+01 4.563381e+00 141 127 110
8.327807e+00 2.054889e+01 4.479158e+00 152 134 114
-2.303558e+00 1.998326e+01 5.091214e+00 141 128 108
-1.354588e+01 1.966938e+01 5.833691e+00 119 112 93
1.001884e+01 2.104457e+01 5.210481e+00 166 145 119
-1.430495e+01 1.965292e+01 5.862384e+00 176 164 146
-4.570231e+00 2.041596e+01 5.214133e+00 109 97 81
-4.389071e+00 2.044613e+01 5.221805e+00 115 98 74
9.629066e-02 2.091955e+01 5.176233e+00 135 126 108
-4.148476e+00 2.075340e+01 5.270036e+00 154 141 128
8.830698e+00 2.169027e+01 5.227301e+00 188 176 151
-4.980144e+00 2.112410e+01 5.423937e+00 109 98 82
-5.192364e+00 2.122019e+01 5.436912e+00 148 135 116
-4.983727e+00 2.123720e+01 5.450407e+00 165 149 131
1.449436e+01 2.295098e+01 5.949959e+00 131 119 99
1.449436e+01 2.295098e+01 5.949959e+00 131 119 99
7.823413e+00 2.391138e+01 5.728986e+00 204 186 163
1.056678e+01 2.439152e+01 5.680850e+00 208 197 177
-1.348610e+01 2.449144e+01 6.587438e+00 146 128 107
-1.927499e+01 2.399244e+01 7.751806e+00 169 155 158
-1.038410e+01 2.500018e+01 6.743616e+00 84 73 49
-7.012493e+00 2.548397e+01 6.680978e+00 158 142 120
9.699029e+00 2.673428e+01 6.803151e+00 129 138 129
-6.831190e+00 2.619991e+01 5.931433e+00 179 162 141
-1.038425e+01 2.595655e+01 7.036053e+00 157 147 129
-2.762447e+00 2.644285e+01 6.744718e+00 126 106 93
-4.760972e+00 2.692048e+01 7.103750e+00 126 113 97
-6.597515e+00 2.743875e+01 7.255795e+00 200 176 154
8.234057e+00 2.829640e+01 7.391955e+00 65 59 53
8.234057e+00 2.829640e+01 7.391955e+00 65 59 53
9.654774e+00 2.873784e+01 7.477417e+00 113 98 86
2.385161e+00 2.849280e+01 7.527015e+00 152 129 112
-7.573163e+00 2.841625e+01 7.543133e+00 184 177 163
7.824607e+00 2.928782e+01 7.521362e+00 136 145 131
4.896066e+00 2.909664e+01 7.767680e+00 191 169 147
4.247506e+00 2.920360e+01 7.723279e+00 167 161 137
7.769658e+00 2.952259e+01 7.533146e+00 157 145 117
8.517863e+00 2.966331e+01 7.517516e+00 111 103 83
4.104483e+00 2.958358e+01 7.810511e+00 90 79 58
1.628854e+01 3.099506e+01 8.452753e+00 128 125 112
-8.654980e+00 2.986429e+01 8.237037e+00 141 129 115
4.609887e+00 3.187239e+01 8.531008e+00 125 110 93
-1.451341e+01 3.865912e+01 1.107668e+01 168 152 130
-1.456925e+01 3.899026e+01 1.096223e+01 174 157 139
2.323329e+00 4.090647e+01 1.156246e+01 150 139 123
2.323329e+00 4.090647e+01 1.156246e+01 150 139 123
-1.125125e+01 4.024719e+01 1.132684e+01 157 147 132
-1.212909e+01 4.182761e+01 1.179547e+01 144 136 126
-5.922244e-03 8.282393e+00 3.468562e+00 156 155 150
-1.270843e+01 9.740219e+00 1.244519e+00 69 68 73
-9.271818e+00 3.911506e+01 7.004993e+00 157 159 164
-6.910388e+00 9.966458e+00 2.571725e+00 89 89 86
-1.101118e+01 3.620257e+01 5.556861e+00 51 67 82
-1.438228e+01 1.417722e+01 2.147657e+00 138 134 133
-3.049070e+00 1.584904e+01 2.701186e+00 61 71 84
-2.003793e+00 -1.475920e+00 1.353922e+00 50 49 45
-1.349817e+01 5.204901e-01 -6.893838e-02 97 93 84
1.682643e+00 9.100683e+00 4.791899e+00 163 160 157
-7.521431e+00 9.409986e+00 2.728897e+00 149 148 144
1.026943e+01 1.078206e+01 6.670417e+00 127 122 112
8.226299e+00 2.728608e+01 7.502435e+00 76 86 95
-9.804251e+00 4.131891e+01 8.747758e+00 168 168 170
1.288668e+01 8.810214e+00 6.347468e+00 110 105 112
-1.816665e+00 1.642859e+01 2.746398e+00 175 174 171
-1.885752e+00 1.624034e+01 3.112695e+00 175 174 171
1.184141e+01 1.952157e+01 6.565985e+00 110 109 108
-1.673705e+01 1.991391e+01 4.245693e+00 114 112 112
1.173314e+01 2.704279e+01 7.309227e+00 91 97 105
-1.464091e+00 -1.772381e+00 7.738180e-01 61 61 51
-2.735693e+00 -1.460580e+00 8.118902e-01 53 52 48
-6.023944e+00 9.019999e+00 2.509996e+00 92 91 87
2.143517e+00 9.384107e+00 4.650710e+00 159 153 147
6.800344e+00 9.371911e+00 6.087388e+00 169 163 160
-1.338150e+01 1.125999e+01 1.337706e+00 137 139 135
-8.321927e+00 1.129595e+01 2.966195e+00 74 73 79
1.417912e+00 1.790933e+01 4.197351e+00 170 169 166
4.610131e+00 -1.256646e+00 2.081774e+00 113 115 102
-7.549692e+00 -1.374967e+00 -6.126159e-01 77 77 70
5.853059e+00 1.279238e+00 3.462865e+00 88 84 72
-6.815179e+00 1.270278e+00 4.467679e-01 97 92 89
-1.251022e+01 1.854221e+00 1.665151e-01 136 132 127
-1.367280e+01 6.910522e+00 8.856913e-01 110 104 104
1.482119e+00 7.489999e+00 3.834667e+00 168 166 162
-1.299273e+01 7.061732e+00 1.614746e+00 140 137 131
8.710777e+00 7.795148e+00 5.469279e+00 150 155 149
7.715979e+00 7.824799e+00 5.250381e+00 93 89 86
7.273825e+00 8.007594e+00 5.356732e+00 74 75 79
-1.305319e+01 7.891893e+00 1.765397e+00 150 145 139
-1.309606e+01 8.385199e+00 2.039131e+00 138 135 126
-9.703031e+00 8.833827e+00 2.086434e+00 136 133 124
-7.751729e+00 8.993381e+00 2.396008e+00 134 133 129
3.465423e+00 1.426755e+01 3.472382e+00 64 65 67
-1.516992e+01 1.323780e+01 3.268679e+00 72 73 76
2.716481e+00 1.638854e+01 3.194487e+00 70 71 83
3.976685e+00 1.695336e+01 4.205497e+00 75 73 75
-1.627481e+01 1.473857e+01 3.350218e+00 173 174 179
-2.726289e+00 1.782409e+01 3.385948e+00 134 129 133
-1.044038e+01 1.886137e+01 2.740790e+00 87 82 79
1.391826e+01 1.984324e+01 6.897128e+00 129 128 126
-1.103004e+00 1.955959e+01 4.174735e+00 147 144 133
1.347136e+01 1.973910e+01 7.301374e+00 132 130 132
-2.040497e+00 2.077203e+01 5.353028e+00 110 108 109
-8.614374e+00 2.370638e+01 5.431059e+00 148 146 147
1.204612e+01 2.748677e+01 7.923082e+00 132 135 143
8.814432e+00 2.801656e+01 8.614032e+00 166 168 173
-6.658728e-01 2.767462e+01 7.165426e+00 173 173 173
5.472199e+00 4.539197e+01 1.138261e+01 113 116 125
-1.158804e+01 -3.390213e+00 -1.015800e+00 66 69 61
-1.227283e+01 -2.238196e+00 -4.409818e-01 61 57 53
1.306597e+00 -1.256542e+00 1.503510e+00 59 56 51
-6.265027e+00 -2.746932e-01 4.080915e-01 92 86 81
4.810955e+00 2.654147e-01 2.701934e+00 87 81 71
-4.471488e+00 1.071259e+00 1.605784e+00 163 167 170
-2.793515e-01 6.896715e+00 3.596919e+00 97 94 86
-1.571778e+01 6.667449e+00 7.527326e-01 174 174 180
-1.339787e+01 6.947367e+00 7.746385e-01 90 90 91
-1.585559e+01 6.585664e+00 1.393179e+00 80 81 85
-1.175806e+01 7.220009e+00 1.001149e+00 82 81 83
1.145873e+01 8.094571e+00 5.777813e+00 110 109 108
1.323098e+01 9.866845e+00 6.880744e+00 152 151 147
-1.595693e+01 1.424118e+01 3.226086e+00 124 127 131
-1.595693e+01 1.424118e+01 3.226086e+00 124 127 131
-1.460447e+01 1.515658e+01 2.279768e+00 108 104 102
-1.469006e+01 1.717644e+01 2.064884e+00 106 106 105
-8.271880e+00 1.786883e+01 4.393955e+00 109 109 109
-1.166523e+01 1.866117e+01 4.407796e+00 161 159 152
-6.251632e-01 2.126099e+01 5.680656e+00 155 154 152
7.125780e+00 2.813437e+01 7.773922e+00 164 162 164
8.922962e-01 2.798882e+01 7.209881e+00 170 173 180
1.290868e+01 2.939219e+01 8.194241e+00 176 175 181
-1.141562e+01 2.642286e+01 6.510790e+00 164 162 165
-1.259331e+01 2.651944e+01 6.630126e+00 105 105 105
7.320188e+00 2.936046e+01 7.887875e+00 112 112 112
1.438456e+01 2.981509e+01 1.078576e+01 126 125 133
8.302967e+00 -9.953639e-02 3.467678e+00 98 93 84
-5.274029e+00 6.644520e-02 1.366782e+00 92 88 92
-4.730453e+00 1.215445e+00 1.268623e+00 150 149 154
-5.523990e+00 1.182087e+00 1.179305e+00 150 152 151
3.065895e+00 7.649636e+00 4.474176e+00 154 150 149
6.943562e+00 7.830903e+00 5.260249e+00 171 171 168
-1.279429e+01 8.156770e+00 1.300673e+00 164 165 167
-9.335679e+00 9.411416e+00 2.535606e+00 67 62 63
6.772838e+00 1.015281e+01 5.729622e+00 122 117 111
-7.172944e+00 1.388030e+01 1.462085e+00 151 150 146
-7.291117e+00 1.485552e+01 2.043096e+00 142 143 137
3.619101e+00 1.555551e+01 3.776705e+00 78 77 82
4.067697e+00 1.606315e+01 3.181060e+00 150 152 152
8.322642e-01 1.676906e+01 3.441237e+00 123 121 115
3.931179e+00 1.744570e+01 4.325050e+00 77 73 72
2.011111e+00 1.759193e+01 4.080638e+00 181 180 184
2.297581e+00 2.091086e+01 5.551491e+00 160 157 156
-9.617814e+00 2.047899e+01 5.107300e+00 101 101 101
-7.978871e+00 2.067685e+01 5.269243e+00 100 100 98
-8.033255e+00 2.081066e+01 5.266912e+00 146 146 144
-1.276517e+01 2.477609e+01 4.415758e+00 126 125 128
-1.255967e+01 2.514310e+01 4.648394e+00 104 105 105
-1.353642e+01 2.544822e+01 5.096023e+00 156 156 154
-2.856280e+00 2.736777e+01 6.577648e+00 95 96 101
7.403727e+00 2.789641e+01 8.093135e+00 175 173 174
7.568611e+00 2.812043e+01 8.095967e+00 164 164 166
1.314498e+01 2.908986e+01 8.617584e+00 123 124 126
1.563598e+00 2.895457e+01 7.731273e+00 162 163 165
-1.393022e+01 2.750796e+01 6.854627e+00 97 97 101
1.374347e+01 3.124035e+01 1.115460e+01 144 143 151
-1.559341e+01 3.340892e+01 4.257441e+00 113 113 121
-9.036488e+00 3.430883e+01 6.606630e+00 113 111 120
-9.121103e+00 3.589740e+01 6.024142e+00 117 117 125
-8.927144e+00 3.589686e+01 6.314519e+00 121 121 128
-8.988995e+00 3.681912e+01 6.467436e+00 116 115 121
8.251939e+00 3.832562e-01 3.620610e+00 104 100 90
-1.612912e+01 6.926893e+00 7.066538e-01 177 177 176
-9.336399e+00 7.936391e+00 2.194919e+00 154 154 146
6.965517e+00 1.002183e+01 5.678199e+00 116 112 106
-1.389069e+01 9.566838e+00 1.532096e+00 117 115 118
-1.535068e+01 1.920910e+01 3.350946e+00 72 71 76
-1.010098e+01 2.113795e+01 5.122970e+00 197 197 199
-1.270363e+01 2.136356e+01 4.750624e+00 134 135 146
-1.493776e+01 2.605406e+01 4.071928e+00 131 130 131
-1.326794e+01 2.552566e+01 6.211759e+00 163 163 163
-1.126642e+01 4.028489e+01 1.018983e+01 116 115 120
1.800443e+01 8.139076e+00 5.665068e+00 106 108 105
1.852937e+01 7.419494e+00 4.628216e+00 194 194 196
1.974154e+01 3.676127e+00 -2.824969e+00 81 75 63
-7.838006e+00 2.627154e+01 7.725203e+00 141 131 129
-1.293096e+01 7.453817e+00 1.632992e+00 87 79 72
-1.336088e+00 2.275492e+01 4.838758e+00 114 109 109
-2.652837e+00 1.757744e+01 5.396572e+00 26 37 50
8.670126e+00 3.865394e+01 1.000127e+01 100 100 102
-7.950763e+00 1.883159e+01 4.497435e+00 129 118 116
-8.438220e+00 1.949399e+01 4.649667e+00 126 120 118
-1.038027e+01 2.620069e+01 7.295251e+00 113 107 107
-2.374903e+01 -1.932992e+01 1.008803e+02 36 30 31
3.458839e+00 1.080149e+01 2.726844e+00 40 31 36
-4.701660e+00 1.896036e+01 6.182413e+00 126 117 108
3.426057e+00 2.674101e+01 7.254931e+00 70 71 69
1.415096e+01 2.916030e+01 7.594549e+00 111 109 109
5.709860e+00 3.009569e+01 8.251206e+00 84 81 85
-9.417407e+00 3.186018e+01 6.251384e+00 20 25 46
-9.709142e+00 3.063217e+01 1.083504e+01 110 110 114
5.990600e+00 4.393848e+01 1.194490e+01 122 117 129
-1.277361e+01 6.926599e+00 1.892805e+00 43 37 39
2.276664e+00 1.886238e+01 2.354508e+00 40 39 61
-2.697267e+00 1.782208e+01 5.691665e+00 97 87 76
9.788476e+00 2.097829e+01 2.363066e+00 78 75 71
-3.378066e+00 1.897145e+01 6.319397e+00 66 58 53
1.301938e+01 3.248714e+01 7.715960e+00 30 26 36
-1.217778e+01 2.893772e+01 8.399557e+00 132 131 136
4.503376e+00 -1.470073e+00 8.639688e-01 35 35 27
3.980532e+00 1.531919e+01 4.500932e+00 114 108 97
3.571124e+00 1.872115e+01 3.606926e-01 34 33 45
8.726970e+00 1.999757e+01 4.721078e+00 131 124 118
9.188687e+00 2.080706e+01 5.068130e+00 75 68 68
1.132514e+01 2.243575e+01 3.629960e+00 119 111 98
-1.002397e+01 2.398972e+01 5.092797e+00 114 115 115
-1.073516e+01 2.427963e+01 6.230365e+00 61 59 63
-1.691094e+01 2.471731e+01 6.225059e+00 133 133 132
6.955097e-01 2.786813e+01 7.373982e+00 116 116 126
-4.971485e+00 2.707821e+01 8.153856e+00 107 105 104
1.392552e+01 3.522617e+01 8.231543e+00 72 72 79
9.034817e-01 1.759234e+01 1.813743e+00 29 21 23
3.344770e+00 1.883112e+01 1.529054e+00 129 130 131
1.355316e+01 2.084944e+01 1.494663e+00 143 138 135
5.231593e+00 1.893873e+01 4.481790e+00 69 66 68
1.290067e+01 2.125884e+01 1.818047e+00 124 117 115
1.317485e+01 2.143862e+01 1.724810e+00 118 114 105
-4.472774e+00 1.872692e+01 4.171102e+00 80 73 70
4.634449e+00 1.980052e+01 4.707350e+00 63 57 56
-9.853578e-01 2.221767e+01 6.732963e+00 130 126 133
-6.715968e+00 2.509817e+01 7.880121e+00 59 63 64
-9.172486e+00 2.453585e+01 8.633793e+00 115 111 108
-1.129686e+00 2.704009e+01 7.532520e+00 55 54 68
6.970937e-01 2.815730e+01 6.835918e+00 58 58 56
2.411373e+00 2.852178e+01 7.190020e+00 48 49 51
-7.480366e-01 2.784095e+01 7.643800e+00 125 124 129
-2.894378e+00 2.734508e+01 7.862977e+00 118 116 124
-1.244852e+01 2.711979e+01 1.022800e+01 64 64 77
-6.163252e+00 1.634151e+01 4.616648e+00 158 151 150
3.405629e+00 1.991791e+01 -3.312643e-01 32 39 48
2.066489e+00 1.887682e+01 1.918161e+00 116 112 106
-7.723772e+00 1.753860e+01 4.016752e+00 76 71 68
1.272446e+01 2.247347e+01 2.264435e+00 91 87 78
9.134601e+00 2.205935e+01 3.812858e+00 118 113 109
8.471234e+00 2.570603e+01 6.420289e+00 63 70 72
8.074632e+00 2.746981e+01 6.404155e+00 75 73 81
-1.471925e+01 2.493037e+01 5.719052e+00 121 119 113
6.306488e+00 2.817881e+01 7.357397e+00 89 84 88
5.480938e+00 2.829571e+01 7.299535e+00 141 137 128
1.346113e+01 2.955531e+01 7.976921e+00 51 53 56
-1.269990e+01 2.441113e+01 9.349447e+00 101 101 104
-4.241105e+00 2.723912e+01 7.385160e+00 103 106 112
-3.716404e+00 2.747101e+01 7.206748e+00 119 117 123
1.606408e+01 3.761045e+01 9.856505e+00 136 133 141
-6.171584e+00 1.607318e+01 4.369414e+00 117 105 97
-9.221471e-02 1.785646e+01 5.120559e+00 173 162 142
2.883747e+00 1.912148e+01 3.848903e+00 135 115 100
2.048478e+00 1.917699e+01 4.389070e+00 41 35 27
3.630024e+00 1.475673e+01 2.144261e+00 52 55 52
1.467685e+01 2.346525e+01 5.152068e+00 109 96 79
7.927542e+00 2.970886e+01 7.450012e+00 70 61 44
-2.573183e+00 1.824462e+01 4.721302e+00 73 58 40
-1.795353e-01 2.113546e+01 5.548423e+00 161 150 134
1.172396e+00 2.859043e+01 7.555176e+00 160 147 131
-9.232388e+00 2.628200e+01 7.308941e+00 166 157 140
-4.354239e+00 1.916365e+00 1.915034e+00 179 163 140
2.856299e+00 -1.807044e+00 2.813922e+00 119 106 87
-5.059593e+00 1.347302e+00 1.357030e+00 50 42 29
5.829302e+00 -2.395002e+00 2.861495e+00 32 27 20
3.519120e+00 4.842838e+00 5.893201e+00 158 148 127
-4.377603e+00 2.850191e+00 2.292632e+00 191 188 173
-1.887376e+01 2.617139e+01 8.579509e+00 234 240 238
-1.779375e+01 1.426070e+01 2.862122e+01 103 102 87
-1.897132e+01 2.610794e+01 7.893816e+00 108 101 96
1.309115e+01 2.987110e+01 8.635529e+00 145 144 126
-1.083111e+01 -9.297406e-02 4.054005e+01 130 130 125
-1.083111e+01 -9.297406e-02 4.054005e+01 130 130 125
-3.507417e+00 -5.087014e+00 4.032141e+01 102 98 77
-3.164173e+00 -4.696459e+00 4.045165e+01 80 77 68
-8.743301e+00 6.560552e-01 4.895724e-01 192 195 202
-1.228396e+01 3.461314e-01 1.321531e-01 189 190 195
1.796088e+00 -2.916975e+00 1.190306e+00 164 164 168
-1.561619e+01 -1.785137e+00 -6.032030e-01 186 193 209
7.160933e-01 -4.829499e-01 1.257355e+00 193 194 196
-4.386647e+00 -4.737943e+00 -2.073850e-01 59 45 65
6.223113e-01 -4.470637e-02 1.428413e+00 129 130 135
-1.030195e+01 2.835011e+00 6.184657e-01 77 67 68
-1.141267e+00 -2.431765e+00 1.080471e+00 127 115 102
-1.472349e+01 -2.849095e+00 -4.174251e-01 176 172 171
3.591938e-02 1.142149e+01 3.195495e+00 184 171 162
-1.662697e+01 5.977432e+00 7.957325e-01 72 69 70
-1.641802e+01 6.914690e+00 1.163953e+00 104 93 91
-5.500425e-01 1.216586e+01 3.210400e+00 64 54 46
-6.036244e-01 1.207217e+01 3.340889e+00 64 54 46
-4.963930e+00 5.553586e-01 1.348263e-01 165 154 160
5.359209e+00 7.309893e+00 1.987503e+00 169 163 149
-9.231594e+00 6.576337e+00 1.663307e+00 71 73 72
-9.231594e+00 6.576337e+00 1.663307e+00 71 73 72
2.287225e-02 7.848551e+00 2.144751e+00 178 174 170
-1.648925e+01 7.533177e+00 1.268344e+00 103 84 76
-1.648925e+01 7.533177e+00 1.268344e+00 103 84 76
-1.144938e+01 8.894057e+00 1.212315e+00 159 146 139
-3.528663e+00 9.574931e+00 2.655952e+00 59 54 50
-2.333072e+00 9.719562e+00 2.762984e+00 53 40 48
2.054366e+00 1.017486e+01 2.977274e+00 66 59 50
-5.051673e+00 1.239233e+01 3.049863e+00 186 185 179
3.827789e+00 8.245754e+00 2.395075e+00 166 159 150
-4.766931e+00 9.360107e+00 2.640673e+00 36 36 31
-5.347443e+00 9.503489e+00 2.665715e+00 57 47 41
-4.980112e+00 9.742214e+00 2.684611e+00 163 151 143
-3.013662e+00 1.022094e+01 2.575245e+00 47 33 30
1.985261e+00 1.059148e+01 3.004013e+00 49 31 35
-1.171238e+01 -2.350655e-01 2.232903e-01 63 51 45
-1.014968e+01 5.102414e+00 9.258219e-01 118 111 95
-7.152230e+00 8.881483e+00 2.006595e+00 71 61 63
1.739314e+00 1.042077e+01 2.866160e+00 144 128 115
-3.172049e+00 1.155205e+01 -6.766882e-02 41 28 33
7.814204e-01 1.097926e+01 3.051488e+00 67 63 51
-1.209988e-01 1.190484e+01 3.375324e+00 138 136 136
-9.251154e-01 1.206135e+01 3.062167e+00 153 146 138
5.971229e+00 1.263520e+01 3.793485e+00 73 66 50
-5.592640e+00 1.189515e+01 2.947470e+00 75 69 54
-5.188365e+00 1.193841e+01 3.025290e+00 71 72 62
-2.359268e+00 -2.492410e+00 1.939731e-01 133 120 103
-5.174599e+00 3.039052e-01 -4.716456e-02 81 73 69
-4.742610e+00 7.096861e-01 -6.389465e-02 179 175 176
-1.007248e+01 4.104849e+00 1.181982e+00 62 47 57
1.130711e+00 8.296131e+00 2.151424e+00 27 28 21
-1.170077e+01 7.983634e+00 1.566136e+00 74 65 54
-4.580697e-01 9.421686e+00 2.545554e+00 152 142 132
-2.535884e+00 9.454039e+00 2.634787e+00 150 134 119
2.264938e+00 9.855358e+00 3.104376e+00 156 131 120
3.740870e-01 1.145449e+01 3.193606e+00 195 182 182
3.872961e-01 1.146789e+01 3.177281e+00 195 182 182
-8.219879e+00 1.106496e+01 2.457305e+00 46 60 68
-1.595147e+00 1.146344e+01 3.078007e+00 106 104 95
5.257772e-01 1.163025e+01 3.285814e+00 121 111 99
-7.169711e-01 1.154981e+01 3.149808e+00 123 111 106
-8.493056e+00 1.146124e+01 2.580740e+00 119 106 99
-2.282027e+00 1.191083e+01 3.099252e+00 166 163 157
-1.420808e+00 1.203385e+01 3.155195e+00 152 151 149
-6.351978e+00 1.182146e+01 2.923208e+00 57 70 59
2.453970e+00 -3.495218e+00 1.862500e+01 62 50 36
-7.552794e+00 -1.533591e+00 1.374651e-01 68 59 57
-1.528309e+01 -1.813372e+00 -2.595877e-01 162 156 160
-1.272374e+01 1.433812e+00 2.079020e-01 68 59 47
4.723749e+00 8.333312e+00 2.271332e+00 182 172 181
4.884858e+00 8.396836e+00 2.276280e+00 27 29 26
-1.154207e+01 7.974184e+00 1.577617e+00 168 159 166
2.079284e+00 9.575668e+00 2.873085e+00 152 152 136
-4.481272e+00 9.890745e+00 2.288843e+00 136 127 129
-8.632227e+00 1.081786e+01 2.390918e+00 146 148 142
-8.859241e+00 1.105792e+01 2.476507e+00 116 103 108
-1.630640e+00 1.188857e+01 3.098769e+00 80 78 67
-2.075948e+00 1.182329e+01 3.186410e+00 74 72 61
-8.074056e+00 1.148737e+01 2.676006e+00 117 107 95
-2.513151e+00 1.208181e+01 3.074872e+00 174 167 156
-5.105554e+00 1.621485e+00 6.730800e-01 88 79 82
-1.272370e+01 1.433859e+00 2.076356e-01 68 59 47
-1.216542e+01 2.346774e+00 3.127644e-01 65 61 45
2.374772e+00 6.760428e+00 1.424848e+00 175 161 159
-9.222331e+00 7.053654e+00 1.381992e+00 165 159 161
-1.216764e+01 6.880149e+00 1.200805e+00 88 83 74
-8.958123e+00 7.021125e+00 1.722452e+00 86 79 64
-1.111990e+01 8.379122e+00 1.760233e+00 77 86 82
3.186015e+00 9.296644e+00 2.908803e+00 178 173 170
-9.212632e+00 8.668580e+00 1.828352e+00 102 92 81
2.698983e+00 1.004998e+01 2.812672e+00 129 113 115
-4.260711e+00 9.769805e+00 2.565914e+00 118 108 109
5.073889e-01 1.165080e+01 3.152229e+00 109 92 75
-8.019300e-01 1.219325e+01 3.342788e+00 118 112 95
-3.139813e+00 -2.461541e+00 -4.795239e-02 123 124 108
-1.231982e+01 7.092548e+00 9.601394e-01 149 141 134
-1.117955e+01 7.593945e+00 1.528289e+00 108 107 88
-4.855578e-01 9.332557e+00 2.368002e+00 97 89 79
3.542028e-01 9.376078e+00 2.668067e+00 99 88 81
8.152336e+00 1.002241e+01 3.523559e+00 99 97 82
-4.034262e+00 9.958318e+00 2.378716e+00 110 100 104
-5.186164e+00 1.180212e+01 2.774799e+00 92 90 79
-1.931901e+00 1.261097e+01 3.464934e+00 121 122 123
-9.807564e+00 -3.171529e+00 -1.983335e-01 12 9 9
-9.734766e+00 -3.089037e+00 -8.094224e-02 100 92 84
4.945455e+00 1.860778e+00 7.447752e-01 85 82 62
9.612233e+00 8.246574e+00 2.720130e+00 149 140 141
2.122829e+01 3.768453e+01 1.013310e+01 254 254 254
1.774651e+01 1.581152e+01 4.020234e+00 201 192 177
2.070989e+01 3.160953e+01 8.189861e+00 253 253 255
1.435608e+01 3.501741e+01 8.595133e+00 161 149 133
1.053916e+01 1.470433e+01 3.384738e+00 77 76 71
6.164725e+00 2.176359e+01 5.190024e+00 199 183 167
-1.935763e+01 3.809722e+01 1.122837e+01 255 255 255
2.985184e+00 2.143936e+01 5.268395e+00 190 174 158
-6.877686e+00 4.092451e+01 1.185865e+01 105 101 88
1.137407e+01 8.402568e+00 2.297530e+00 107 92 69
1.929486e+01 3.214614e+01 8.322765e+00 114 80 45
4.486705e+00 4.159321e+01 1.119651e+01 130 112 97
-2.918171e+01 -2.868152e-01 5.827045e+00 170 153 134
-2.991622e+01 -4.284565e-02 4.947900e+00 175 160 139
9.452757e+00 1.150058e+01 3.406748e+00 64 48 19
3.018430e-01 1.148993e+01 2.409232e+00 176 160 145
1.012472e+01 1.299757e+01 3.620386e+00 112 109 99
1.511196e+01 1.345572e+01 4.198937e+00 114 107 99
1.721252e+00 2.275872e+01 5.955062e+00 162 147 134
3.162865e+00 2.626129e+01 6.429611e+00 255 254 250
3.192606e+00 2.839217e+01 7.467224e+00 167 153 135
-1.469056e+01 -1.443529e+00 -4.477095e-01 196 180 165
-1.469056e+01 -1.443529e+00 -4.477095e-01 196 180 165
-2.951526e+01 -6.839660e-01 5.441584e+00 78 79 66
-2.857366e+01 5.722065e+00 8.668906e+00 161 150 140
-8.322410e+00 9.160076e+00 -2.683832e-01 182 161 140
1.915427e+00 1.319063e+01 4.529335e+00 66 67 60
3.933898e+00 1.701421e+01 4.951811e+00 78 77 72
5.141413e+00 2.130148e+01 4.832848e+00 135 117 99
-8.882695e+00 2.369896e+01 7.073229e+00 164 146 125
1.327287e+01 2.943516e+01 6.871816e+00 184 178 154
1.842685e+01 2.979619e+01 7.618752e+00 181 165 148
1.936460e+01 3.122339e+01 8.890776e+00 253 254 254
9.721065e+00 4.012223e+01 1.092797e+01 166 148 130
1.983790e+01 8.091173e+00 2.147141e+00 205 193 181
1.526785e+01 9.897906e+00 3.188652e+00 181 157 134
6.016715e-01 9.912553e+00 2.024692e+00 171 156 133
1.924307e+01 1.163251e+01 4.564670e+00 116 101 75
1.540119e+01 1.176896e+01 4.579180e+00 169 147 120
1.836811e+01 1.190285e+01 4.353714e+00 85 72 50
1.886359e+01 1.274550e+01 4.209343e+00 112 95 72
5.336012e-01 1.354897e+01 2.592337e+00 184 176 158
4.986408e-01 1.354604e+01 2.687238e+00 184 176 158
1.111592e+01 1.408147e+01 3.982127e+00 73 76 65
-7.510278e-01 1.366580e+01 3.550787e+00 201 184 168
6.253621e+00 2.255465e+01 5.526160e+00 205 189 177
-3.568524e+00 2.601954e+01 7.317606e+00 73 66 49
7.113492e+00 2.817677e+01 7.058772e+00 71 62 42
-1.281981e+01 2.787523e+01 8.221747e+00 47 43 41
1.293247e+01 3.026618e+01 7.734939e+00 57 51 32
-1.425831e+01 -1.764368e+00 -4.888592e-01 119 102 78
-4.657117e+00 -1.083531e+00 7.954282e-01 186 169 155
-2.752452e+01 3.213300e+00 8.175633e+00 190 179 167
-2.752452e+01 3.213300e+00 8.175633e+00 190 179 167
-1.035615e+01 7.071841e+00 1.575156e-01 204 188 173
-1.619095e+01 8.099358e+00 2.067310e+00 199 180 166
-2.240285e+00 9.935899e+00 1.884319e+00 89 72 48
2.243094e+00 1.038702e+01 2.018574e+00 106 90 68
-1.273594e+00 1.037950e+01 1.838389e+00 167 143 117
5.847931e+00 1.064370e+01 2.424840e+00 86 70 49
3.756605e+00 1.086607e+01 2.097756e+00 171 154 129
-4.824661e+00 1.054146e+01 1.866804e+00 114 104 79
1.900577e+01 1.128148e+01 4.323688e+00 185 178 157
1.265447e+01 1.131954e+01 3.270950e+00 98 82 57
1.433698e+01 1.127089e+01 4.592589e+00 93 76 54
1.304970e+01 1.165061e+01 3.251337e+00 166 150 122
1.399993e+01 1.156306e+01 4.532296e+00 165 146 120
1.123070e+01 1.474524e+01 3.788502e+00 71 71 65
1.909191e+01 1.694011e+01 4.321051e+00 112 96 68
5.501020e+00 1.694730e+01 4.110924e+00 127 110 89
1.266980e+01 2.565306e+01 6.375878e+00 54 43 31
1.266980e+01 2.565306e+01 6.375878e+00 54 43 31
1.261838e+01 2.626726e+01 6.491686e+00 61 49 40
1.261838e+01 2.626726e+01 6.491686e+00 61 49 40
-1.306360e+01 2.509892e+01 6.718524e+00 180 159 140
2.533514e+00 2.667154e+01 6.859233e+00 96 83 66
6.099895e+00 2.780069e+01 7.278795e+00 119 106 89
-1.028511e+01 2.744764e+01 7.379794e+00 173 154 139
1.457902e+01 3.191351e+01 8.779111e+00 89 82 63
-9.625568e+00 3.813329e+01 1.100917e+01 174 163 149
1.698931e+01 3.996985e+01 1.220837e+01 250 255 254
-1.797869e+01 4.142113e+01 1.314281e+01 140 129 113
-1.797869e+01 4.142113e+01 1.314281e+01 140 129 113
9.366428e+00 4.447900e+01 1.240952e+01 179 166 146
6.758677e+00 -3.063593e+00 5.186800e-01 79 62 36
8.372786e+00 -1.877931e-01 7.268551e-01 179 168 155
6.672029e+00 -4.514642e-01 1.426362e+00 184 171 154
8.561175e+00 1.091227e+01 3.075658e+00 85 70 44
1.570489e+01 1.180179e+01 4.889054e+00 66 46 16
1.757640e+01 1.192879e+01 5.092793e+00 161 149 126
6.659230e-01 1.538666e+01 4.150795e+00 33 30 19
1.279772e+01 2.504291e+01 6.192775e+00 59 45 33
1.358924e+01 2.560653e+01 6.328262e+00 185 172 155
1.412806e+01 2.567783e+01 6.341569e+00 156 148 129
1.447367e+01 2.579054e+01 6.365102e+00 72 69 59
-1.610343e+01 2.465542e+01 6.002232e+00 197 183 169
1.241282e+01 2.713427e+01 6.951758e+00 46 34 25
1.240902e+01 2.749338e+01 6.964910e+00 40 24 16
1.274688e+01 2.768348e+01 6.911692e+00 138 133 117
2.719779e+00 2.724343e+01 6.804856e+00 81 72 60
9.068712e+00 2.771228e+01 6.924993e+00 45 26 18
1.327499e+01 2.842766e+01 7.007800e+00 180 165 146
1.531547e+01 2.968289e+01 7.967464e+00 156 145 128
1.291951e+01 3.013995e+01 7.089058e+00 179 167 143
1.780543e+01 3.033480e+01 7.811085e+00 175 159 138
1.626535e+01 3.064410e+01 6.310530e+00 120 103 91
7.991439e+00 3.061835e+01 7.709896e+00 103 92 83
8.683161e+00 4.274078e+01 1.182288e+01 103 91 78
1.812768e+00 4.255696e+01 1.173891e+01 160 149 138
-1.799382e+01 4.171752e+01 1.332295e+01 252 255 255
1.610192e+01 4.547492e+01 1.301976e+01 251 255 255
-9.883049e+00 -2.831179e+00 -1.375216e-01 14 14 8
2.013978e+00 -1.364154e+00 3.799140e-02 144 136 114
-5.799578e+00 -1.112009e+00 -2.918265e-02 177 162 143
9.182028e+00 9.250848e+00 3.007888e+00 97 79 61
1.148078e+01 9.498677e+00 2.609168e+00 172 147 117
1.084987e+01 9.626027e+00 3.005269e+00 177 165 145
-1.264870e+01 8.987706e+00 2.142384e+00 160 143 124
-1.118628e+01 9.305381e+00 9.731980e-01 153 138 121
-9.895995e+00 9.539414e+00 5.179127e-01 157 142 122
-6.876828e+00 9.686169e+00 1.756970e+00 142 133 112
-7.200920e+00 9.707480e+00 1.946495e+00 59 40 13
3.797869e+00 1.029045e+01 2.112987e+00 173 148 126
1.242741e+01 1.056851e+01 5.119282e+00 171 156 132
-4.915170e+00 1.152203e+01 2.366658e+00 192 174 150
1.162322e+00 1.190382e+01 2.399839e+00 146 127 112
-1.087083e+01 1.129207e+01 2.918137e+00 185 172 155
2.706517e+00 1.234388e+01 3.925877e+00 181 165 142
7.360736e+00 1.296535e+01 3.427219e+00 126 112 90
-1.056039e+01 1.238907e+01 3.441376e+00 202 191 174
2.044040e+00 1.485923e+01 3.926085e+00 188 179 162
1.256481e+01 1.607940e+01 4.038420e+00 195 178 150
5.066341e-01 1.563433e+01 4.142508e+00 202 189 170
-1.495134e-01 1.556068e+01 5.028090e+00 202 189 170
1.920463e+01 1.719408e+01 4.335615e+00 198 195 179
1.245832e+01 1.689618e+01 4.029588e+00 119 96 77
4.355286e+00 1.677069e+01 3.782700e+00 165 150 133
9.148535e+00 1.997284e+01 4.763031e+00 135 116 93
-3.294109e+00 2.008341e+01 4.591880e+00 194 181 165
7.659157e+00 2.205452e+01 5.221337e+00 116 94 69
1.813017e+01 2.428609e+01 6.098256e+00 137 104 76
1.302169e+01 2.522417e+01 6.325060e+00 164 165 149
-4.270076e+00 2.636211e+01 6.717502e+00 71 59 42
1.184603e+01 2.719523e+01 7.000063e+00 118 103 80
8.238618e+00 2.898642e+01 7.122409e+00 101 88 75
1.073519e+01 2.911484e+01 7.524699e+00 195 183 159
6.939153e+00 2.922153e+01 7.239240e+00 155 140 120
-1.456255e+01 2.828043e+01 8.424647e+00 181 166 146
1.015217e+01 2.979294e+01 7.643643e+00 180 173 151
8.919607e+00 3.006099e+01 7.855960e+00 167 149 127
6.708775e+00 3.058098e+01 7.775390e+00 160 153 138
5.925636e+00 3.125101e+01 7.641801e+00 102 86 72
9.355475e+00 3.150377e+01 7.862449e+00 85 75 62
1.003422e+01 3.213815e+01 8.541320e+00 173 168 154
1.043722e+01 3.229077e+01 8.395715e+00 169 159 143
-4.448316e+00 3.687715e+01 1.208495e+01 129 131 125
5.025151e+00 4.252687e+01 1.200815e+01 121 105 90
5.787261e+00 4.336819e+01 1.216703e+01 117 103 92
2.116498e+01 -2.692537e+00 1.695466e+00 84 84 76
-2.876717e+00 -1.711798e+00 3.403284e-01 149 136 114
6.908034e+00 -7.779794e-01 5.330238e-01 162 162 145
1.976016e+01 3.420726e-01 1.863115e+00 131 119 104
6.535062e+00 -1.847063e-01 1.217365e+00 104 84 61
1.758180e+01 2.762206e+00 3.348465e+00 187 180 162
1.955847e+01 3.073532e+00 3.181835e+00 122 111 98
1.074656e+01 5.775692e+00 2.470800e+00 197 177 156
-8.680819e+00 8.467682e+00 1.552354e+00 118 99 77
1.877392e+01 9.550985e+00 3.149848e+00 206 189 172
-8.021187e+00 8.994294e+00 6.795934e-01 98 79 54
-4.019207e+00 9.266117e+00 1.721580e+00 185 165 141
-1.647436e+01 8.735177e+00 6.698711e-01 171 159 140
3.361460e-01 9.643602e+00 1.827268e+00 166 156 137
-1.285699e+00 9.411965e+00 2.797859e+00 91 69 43
1.624517e+01 1.067801e+01 3.130556e+00 104 80 61
-4.051845e+00 1.016200e+01 1.850373e+00 66 55 33
2.071569e+00 1.057484e+01 2.090386e+00 97 72 34
1.478619e+01 1.100712e+01 3.374169e+00 165 158 146
1.445281e+01 1.110060e+01 4.554696e+00 150 149 137
2.439259e-01 1.161819e+01 2.388189e+00 209 195 176
-4.421428e+00 1.163786e+01 3.721471e+00 192 177 152
-5.410075e+00 1.219807e+01 2.264344e+00 192 175 158
3.910359e+00 1.242956e+01 3.798789e+00 119 95 78
7.926076e+00 1.324042e+01 3.377721e+00 183 173 153
1.182378e+01 1.356925e+01 3.696169e+00 108 85 60
2.062658e+00 1.296337e+01 4.436977e+00 48 44 36
2.541238e+00 1.326963e+01 3.135809e+00 48 44 36
-1.235691e+00 1.310818e+01 3.484153e+00 200 182 161
-1.544179e+00 1.314163e+01 3.849247e+00 67 40 19
1.835947e+01 1.442122e+01 3.843791e+00 179 167 145
-1.685338e+00 1.367815e+01 3.749123e+00 174 164 145
3.896755e+00 1.437850e+01 3.437345e+00 177 168 153
-2.362198e+00 1.423508e+01 4.055806e+00 188 171 155
1.947367e+00 1.446634e+01 5.354342e+00 174 165 150
8.152588e+00 1.581209e+01 3.762205e+00 192 178 155
-1.065843e+00 1.560224e+01 4.238884e+00 186 173 155
8.045387e+00 1.747305e+01 4.393475e+00 133 112 85
5.168641e+00 1.821490e+01 4.409235e+00 127 112 94
4.767151e-01 1.815814e+01 4.693946e+00 24 13 5
-8.599949e+00 1.779834e+01 4.500953e+00 128 110 89
-9.157231e+00 1.782293e+01 5.162321e+00 120 105 83
1.155823e+01 1.921853e+01 4.716620e+00 141 116 95
1.576639e+01 1.961730e+01 4.806003e+00 117 100 77
1.234430e+00 1.948618e+01 5.924415e+00 148 134 109
1.018189e+01 2.038729e+01 5.280673e+00 126 101 74
1.457579e+01 2.088918e+01 5.052803e+00 120 104 85
-2.696432e+00 2.034641e+01 5.502065e+00 118 100 85
1.379529e+01 2.141719e+01 5.079833e+00 118 104 84
4.808686e+00 2.116518e+01 5.084411e+00 126 104 84
4.808686e+00 2.116518e+01 5.084411e+00 126 104 84
1.290897e+01 2.173334e+01 5.269562e+00 115 102 82
1.555135e+01 2.321497e+01 5.670159e+00 108 97 85
1.464822e+01 2.513230e+01 5.655375e+00 191 180 166
1.441549e+01 2.502202e+01 6.205407e+00 191 180 166
1.802602e+01 2.528120e+01 6.300252e+00 94 91 72
-7.489452e+00 2.604519e+01 6.065189e+00 197 181 161
1.364086e+01 2.705937e+01 6.781188e+00 76 41 27
-3.920447e-01 2.652842e+01 6.671843e+00 84 74 55
-1.826668e+01 2.575180e+01 7.188933e+00 171 157 141
1.114493e+01 2.883934e+01 7.348026e+00 104 89 68
1.114493e+01 2.883934e+01 7.348026e+00 104 89 68
-2.141623e+00 2.816544e+01 7.506048e+00 104 93 75
-1.540597e+00 2.830180e+01 7.477215e+00 109 98 76
-1.540597e+00 2.830180e+01 7.477215e+00 109 98 76
-1.000284e+00 2.838176e+01 7.530267e+00 106 93 76
4.222080e-01 2.863672e+01 7.585375e+00 107 96 80
1.338994e+01 2.942242e+01 7.510699e+00 151 135 117
1.327260e+01 2.960295e+01 7.469923e+00 111 80 56
2.103064e+00 2.895157e+01 7.637781e+00 99 83 67
1.979146e+01 3.116361e+01 8.850139e+00 132 134 139
1.979146e+01 3.116361e+01 8.850139e+00 132 134 139
9.207023e+00 3.207837e+01 8.311984e+00 139 146 133
9.832127e+00 3.226422e+01 8.503971e+00 127 118 106
1.003244e+01 3.269506e+01 8.534953e+00 177 168 152
9.736693e+00 3.660398e+01 9.807230e+00 142 122 106
-1.308407e+01 3.824310e+01 1.137447e+01 182 172 152
1.654658e+00 4.041234e+01 1.119123e+01 255 239 223
-1.790859e+01 4.126043e+01 1.303920e+01 150 120 101
5.423470e+00 4.303527e+01 1.203926e+01 125 107 97
1.602067e+01 4.403405e+01 1.230691e+01 153 150 135
9.255889e+00 4.405489e+01 1.232463e+01 118 99 85
-1.224163e+01 -3.918119e+00 -8.994974e-01 170 152 124
-1.245942e+01 3.484137e+00 5.243125e-01 186 164 140
8.576189e+00 8.732047e+00 2.204045e+00 89 68 44
1.066260e+01 1.000384e+01 3.178053e+00 180 172 152
-6.543701e+00 1.005063e+01 -4.164629e-01 153 133 111
6.348787e+00 9.894358e+00 3.623190e+00 136 116 101
-2.009299e+00 9.927240e+00 1.819927e+00 108 94 77
-2.009299e+00 9.927240e+00 1.819927e+00 108 94 77
1.199208e+01 1.089938e+01 2.887974e+00 96 72 41
1.152704e+01 1.057352e+01 4.223795e+00 96 72 41
1.791343e+01 1.152209e+01 4.978380e+00 165 136 110
-8.940047e-01 1.150745e+01 2.309824e+00 206 192 179
7.222262e-01 1.170177e+01 2.265847e+00 198 182 162
1.897987e+01 1.465386e+01 3.848508e+00 136 122 105
8.337811e+00 1.536289e+01 3.797108e+00 160 132 105
8.337811e+00 1.536289e+01 3.797108e+00 160 132 105
