ply
format ascii 1.0
element face 0
property list uchar int vertex_indices
element vertex 939
property float x
property float y
property float z
property uchar diffuse_red
property uchar diffuse_green
property uchar diffuse_blue
end_header
-2.063277e-01 2.564981e+00 1.891373e+00 127 116 100
-9.880361e-01 2.601343e+00 2.142426e+00 109 101 82
3.187624e+00 2.478470e+00 3.578816e+00 186 181 177
-1.111452e+00 2.614103e+00 2.173101e+00 159 152 126
2.943418e+00 2.504397e+00 3.386665e+00 150 139 134
-1.002079e+00 2.632206e+00 2.156684e+00 131 121 112
-6.566124e+00 2.845253e+00 4.191789e+00 109 98 80
-1.562278e+00 2.667134e+00 2.369051e+00 191 181 160
1.949297e+00 2.552396e+00 2.635806e+00 117 99 86
1.460958e+00 2.569994e+00 2.322287e+00 99 86 70
-3.715053e+00 2.754670e+00 3.190455e+00 171 165 152
1.923243e+00 2.562342e+00 2.624586e+00 107 92 74
1.923243e+00 2.562342e+00 2.624586e+00 107 92 74
-1.561739e+00 2.685428e+00 2.379444e+00 119 106 88
1.831647e+00 2.576054e+00 2.577224e+00 158 150 136
2.570835e+00 2.554469e+00 3.097690e+00 196 192 189
-2.798862e+00 2.745856e+00 2.811078e+00 179 177 169
-5.230954e+00 2.864043e+00 3.761178e+00 157 152 148
-2.531434e+00 2.758853e+00 2.717783e+00 174 171 166
-3.559793e+00 2.808195e+00 3.139985e+00 139 131 128
-6.655048e-01 2.699690e+00 2.095569e+00 170 161 144
-1.588535e+00 2.740430e+00 2.397907e+00 181 177 174
-4.821567e+00 2.874933e+00 3.608789e+00 166 159 154
4.301081e+00 2.553223e+00 4.352459e+00 161 148 132
1.811406e+00 2.624934e+00 2.587088e+00 181 177 162
5.342004e-01 2.658902e+00 1.898605e+00 99 86 70
-6.214449e+00 2.964442e+00 4.060723e+00 184 178 166
2.343579e+00 2.637152e+00 2.945756e+00 190 180 171
-1.495928e+00 2.772279e+00 2.384538e+00 150 144 131
-3.610126e+00 2.878956e+00 3.175387e+00 102 90 79
2.916780e+00 2.641700e+00 3.420440e+00 164 158 142
4.287825e+00 2.621893e+00 4.350001e+00 163 155 144
2.337948e+00 2.670036e+00 2.952933e+00 190 180 170
1.796162e+00 2.685609e+00 2.594049e+00 134 125 108
-3.440137e+00 2.893438e+00 3.099143e+00 100 91 83
-1.491451e+00 2.815125e+00 2.385929e+00 110 103 85
1.560811e-01 2.752229e+00 1.930050e+00 175 172 155
1.721677e+00 2.716945e+00 2.570431e+00 77 70 60
-1.396893e+00 2.856350e+00 2.378120e+00 164 151 134
2.265250e+00 2.733371e+00 2.926287e+00 71 62 56
2.205982e+00 2.741178e+00 2.882252e+00 191 182 174
2.115471e-01 2.795496e+00 1.932321e+00 174 162 151
-2.228463e+00 2.920864e+00 2.638757e+00 155 151 140
-1.067441e+00 2.864222e+00 2.217974e+00 101 89 66
-2.368160e+00 2.945579e+00 2.695650e+00 110 106 106
-1.051194e+00 2.882983e+00 2.242355e+00 110 95 80
-4.752046e+00 3.081453e+00 3.593841e+00 117 108 91
-3.307491e+00 3.006123e+00 3.051051e+00 136 129 120
-2.146328e+00 2.960265e+00 2.645391e+00 75 65 56
-4.194037e+00 3.063257e+00 3.362339e+00 150 142 131
5.212955e-01 2.825888e+00 1.998414e+00 165 158 141
8.502919e-01 2.819362e+00 2.091982e+00 148 140 125
-2.133057e+00 2.975225e+00 2.650208e+00 148 138 128
-1.232930e+00 2.931252e+00 2.352887e+00 181 173 165
2.340575e+00 2.801591e+00 2.984992e+00 65 59 52
2.760875e+00 2.799635e+00 3.313460e+00 106 96 86
2.285365e+00 2.815674e+00 2.970799e+00 97 90 80
-4.596534e+00 3.139031e+00 3.563907e+00 195 187 174
-4.453494e-01 2.906783e+00 2.118451e+00 116 109 93
2.227235e+00 2.840205e+00 2.927754e+00 157 151 139
2.735639e+00 2.839981e+00 3.317524e+00 168 158 148
2.113149e+00 2.849266e+00 2.879147e+00 181 174 157
9.209524e-01 2.880350e+00 2.188493e+00 88 74 70
-4.199921e+00 3.160634e+00 3.427069e+00 146 139 122
-4.199921e+00 3.160634e+00 3.427069e+00 146 139 122
2.403694e+00 2.847088e+00 2.993319e+00 180 174 162
-1.903607e+00 3.046520e+00 2.591325e+00 163 152 128
3.394633e+00 2.863432e+00 3.812904e+00 140 128 118
-2.263609e+00 3.072222e+00 2.713935e+00 183 179 171
-9.884722e-01 3.001190e+00 2.294936e+00 165 157 134
-2.382191e-01 2.955388e+00 2.081407e+00 128 113 90
-1.278567e+00 3.018593e+00 2.372964e+00 173 170 161
-2.182771e+00 3.074909e+00 2.690522e+00 87 80 75
-4.456870e+00 3.228030e+00 3.536119e+00 166 161 147
1.572051e+00 2.906173e+00 2.509840e+00 118 108 99
1.458220e+00 2.915548e+00 2.466978e+00 176 167 151
-2.305734e+00 3.094608e+00 2.718218e+00 160 156 152
2.611593e+00 2.902612e+00 3.271431e+00 163 151 132
1.330071e-01 2.962722e+00 2.046217e+00 157 143 125
2.003715e+00 2.915452e+00 2.771065e+00 170 161 154
-2.102105e+00 3.107761e+00 2.674451e+00 129 125 116
2.063798e+00 2.927485e+00 2.848755e+00 119 112 102
1.437162e+00 2.945567e+00 2.483747e+00 186 176 154
-2.120445e+00 3.118482e+00 2.685544e+00 185 182 177
4.161978e+00 2.911127e+00 4.282928e+00 101 88 80
2.103613e+00 2.939268e+00 2.878367e+00 67 62 62
1.337735e+00 2.966854e+00 2.442531e+00 68 55 48
-3.147313e-01 3.024386e+00 2.126786e+00 103 88 70
2.043081e+00 2.964274e+00 2.866693e+00 189 183 170
-2.781154e+00 3.196263e+00 2.930047e+00 189 183 171
1.350952e+00 2.993601e+00 2.460473e+00 69 69 58
1.373917e+00 3.000120e+00 2.479600e+00 56 48 36
1.373917e+00 3.000120e+00 2.479600e+00 56 48 36
4.010284e+00 2.962110e+00 4.170871e+00 157 146 132
3.833999e-01 3.023289e+00 2.053628e+00 148 136 120
1.385108e+00 3.010022e+00 2.488961e+00 176 167 158
-7.705903e-01 3.100952e+00 2.279514e+00 58 46 27
1.238998e+00 3.013736e+00 2.412669e+00 69 55 33
-4.192868e+00 3.338595e+00 3.448152e+00 107 93 87
-2.947296e+00 3.251188e+00 2.997423e+00 61 53 52
-2.925143e+00 3.254229e+00 3.001544e+00 161 154 144
2.611865e+00 3.012753e+00 3.297614e+00 158 151 133
-8.285495e-01 3.123098e+00 2.307129e+00 40 27 18
-8.285495e-01 3.123098e+00 2.307129e+00 40 27 18
-2.111228e+00 3.210236e+00 2.687945e+00 114 113 111
-2.695722e+00 3.254120e+00 2.908111e+00 113 101 91
2.592215e+00 3.022871e+00 3.291748e+00 175 165 150
-8.110373e-01 3.141704e+00 2.325464e+00 151 138 119
-8.779933e-01 3.146443e+00 2.330818e+00 158 149 133
-8.779933e-01 3.146443e+00 2.330818e+00 158 149 133
-2.954505e+00 3.287939e+00 3.012847e+00 93 84 77
-8.516382e-01 3.145610e+00 2.321032e+00 77 69 55
-4.303108e+00 3.400671e+00 3.506695e+00 86 76 70
-3.047081e+00 3.313071e+00 3.039611e+00 69 60 55
1.906220e+00 3.064655e+00 2.801683e+00 187 179 166
1.530172e+00 3.064790e+00 2.517448e+00 180 173 154
1.390332e+00 3.072937e+00 2.504048e+00 188 183 164
-2.992885e+00 3.329049e+00 3.037367e+00 136 128 119
-3.047719e+00 3.335188e+00 3.056722e+00 156 150 142
-3.003685e+00 3.337023e+00 3.027066e+00 91 86 80
-3.060890e+00 3.341260e+00 3.043574e+00 72 69 66
-3.060890e+00 3.341260e+00 3.043574e+00 72 69 66
-2.968617e+00 3.340124e+00 3.030154e+00 84 80 78
-3.223432e+00 3.353500e+00 3.061399e+00 92 89 87
-1.745924e+00 3.256436e+00 2.584316e+00 128 125 118
4.768634e-01 3.119584e+00 2.161605e+00 170 163 144
-7.074296e-01 3.203465e+00 2.315587e+00 90 76 70
-8.843814e-01 3.218021e+00 2.327041e+00 119 111 102
1.866299e+00 3.112018e+00 2.788255e+00 165 156 147
1.138180e+00 3.123369e+00 2.381966e+00 63 49 30
-2.837710e+00 3.374818e+00 2.991527e+00 189 183 171
3.999140e+00 3.109648e+00 4.173346e+00 116 107 101
1.726616e+00 3.135315e+00 2.728004e+00 166 155 137
-6.978628e-01 3.255306e+00 2.337333e+00 176 169 153
-9.105124e-01 3.266140e+00 2.328565e+00 114 106 93
1.721004e+00 3.164245e+00 2.746561e+00 166 159 146
1.648161e+00 3.177783e+00 2.717519e+00 102 92 90
-1.643534e+00 3.347556e+00 2.604659e+00 152 148 148
-5.648967e-01 3.266145e+00 2.287991e+00 127 115 94
-1.324683e+00 3.321815e+00 2.484806e+00 83 72 55
-5.182629e+00 3.637507e+00 3.737506e+00 120 113 96
-6.279697e-01 3.278381e+00 2.297335e+00 152 143 123
-1.518438e+00 3.358454e+00 2.572524e+00 55 49 44
3.071633e+00 3.189571e+00 3.623004e+00 196 188 179
-2.681965e+00 3.471549e+00 2.967853e+00 91 89 83
-4.245725e-01 3.314715e+00 2.289251e+00 190 186 173
8.322796e-01 3.253469e+00 2.350678e+00 197 194 177
2.342248e+00 3.241998e+00 3.192055e+00 208 202 185
1.171507e+00 3.249070e+00 2.463491e+00 142 130 114
9.724281e-01 3.258158e+00 2.404435e+00 191 179 163
8.628286e-01 3.272267e+00 2.392578e+00 61 51 29
8.020472e-01 3.272400e+00 2.367145e+00 144 133 108
-4.292336e-01 3.344793e+00 2.301677e+00 187 179 165
2.226998e+00 3.261564e+00 3.078028e+00 65 57 54
8.766499e-01 3.283301e+00 2.380158e+00 141 130 113
2.299063e+00 3.267384e+00 3.132727e+00 175 166 155
-1.621042e+00 3.448497e+00 2.614043e+00 64 56 54
-1.621042e+00 3.448497e+00 2.614043e+00 64 56 54
1.699505e+00 3.280927e+00 2.797038e+00 199 194 185
-1.229017e+00 3.427120e+00 2.524696e+00 179 170 156
7.371521e-01 3.296233e+00 2.329877e+00 169 162 134
2.253784e+00 3.279832e+00 3.120836e+00 76 72 61
7.912771e-01 3.300906e+00 2.375625e+00 167 158 147
-7.715630e-02 3.326663e+00 2.156541e+00 133 120 111
2.237571e+00 3.291439e+00 3.134001e+00 181 176 170
8.947605e-01 3.303747e+00 2.394260e+00 172 164 143
-1.304903e+00 3.445598e+00 2.546548e+00 127 120 102
2.343391e+00 3.290360e+00 3.175089e+00 101 96 90
-8.062388e-02 3.349757e+00 2.265625e+00 121 110 104
1.546136e+00 3.300848e+00 2.706666e+00 157 153 143
2.278880e+00 3.301009e+00 3.170926e+00 191 185 179
-5.244983e+00 3.813311e+00 3.779836e+00 131 123 123
-2.053623e-01 3.380372e+00 2.301432e+00 175 165 150
2.129592e+00 3.329232e+00 3.095412e+00 184 177 170
8.666668e-01 3.342273e+00 2.425267e+00 83 74 69
-3.798983e+00 3.715117e+00 3.368303e+00 169 166 157
1.734683e+00 3.336102e+00 2.814885e+00 155 150 147
2.921251e+00 3.333731e+00 3.566328e+00 174 168 152
2.209272e+00 3.332368e+00 3.081621e+00 83 75 62
2.141181e+00 3.337041e+00 3.070139e+00 144 137 131
-3.443849e+00 3.692825e+00 3.265705e+00 174 167 149
-3.761764e+00 3.721112e+00 3.366642e+00 170 166 154
-2.327250e+00 3.589348e+00 2.886196e+00 188 181 170
-3.691954e+00 3.719098e+00 3.344489e+00 114 109 100
-1.520170e-02 3.403546e+00 2.283561e+00 78 68 63
2.274990e+00 3.354987e+00 3.180384e+00 105 100 94
-2.342240e+00 3.608713e+00 2.897784e+00 106 101 97
-3.047663e-01 3.442647e+00 2.342817e+00 178 175 167
2.186648e+00 3.366884e+00 3.090457e+00 66 55 44
6.352911e-01 3.389453e+00 2.336105e+00 66 53 43
-2.483289e+00 3.638175e+00 2.919527e+00 203 200 195
-4.920981e+00 3.869717e+00 3.665519e+00 110 105 109
5.654916e-01 3.401171e+00 2.327445e+00 151 135 106
-2.089475e+00 3.622298e+00 2.824349e+00 71 61 51
-1.315822e+00 3.553006e+00 2.581693e+00 178 176 174
7.493593e-01 3.422250e+00 2.398693e+00 197 191 176
-1.236103e+00 3.568195e+00 2.581108e+00 193 187 184
1.448968e+00 3.415319e+00 2.688667e+00 172 163 154
-3.331087e+00 3.770555e+00 3.260868e+00 77 68 64
1.399373e+00 3.426717e+00 2.709165e+00 176 170 148
-3.308712e+00 3.783987e+00 3.251253e+00 189 185 172
9.273029e-03 3.481043e+00 2.204637e+00 165 153 132
-2.633959e-02 3.497926e+00 2.313387e+00 165 153 132
1.258192e+00 3.459934e+00 2.661904e+00 87 76 62
-2.134697e+00 3.693679e+00 2.863024e+00 185 177 171
-3.675961e+00 3.862575e+00 3.351802e+00 69 64 64
-2.214939e+00 3.721674e+00 2.888836e+00 181 176 156
-2.226313e+00 3.742043e+00 2.897628e+00 100 96 95
7.012289e-01 3.494802e+00 2.373131e+00 166 158 137
-2.127000e+00 3.736946e+00 2.864153e+00 174 168 147
-3.441555e+00 3.878045e+00 3.319186e+00 183 180 172
-3.592948e+00 3.887904e+00 3.342944e+00 107 103 100
-9.673881e-01 3.644315e+00 2.544581e+00 170 162 145
3.473297e-01 3.537469e+00 2.322621e+00 135 128 110
1.187477e+00 3.542452e+00 2.656816e+00 97 87 77
3.803404e-01 3.557731e+00 2.345710e+00 167 159 140
3.350838e-01 3.560329e+00 2.336187e+00 107 98 83
3.640029e-01 3.553891e+00 2.292923e+00 159 151 130
-1.061062e-02 3.589374e+00 2.360662e+00 189 186 181
-2.145114e+00 3.796468e+00 2.893827e+00 186 181 171
-8.300041e-01 3.674728e+00 2.512976e+00 100 91 74
1.070256e+00 3.564945e+00 2.608890e+00 70 62 60
1.310774e+00 3.560298e+00 2.697606e+00 186 179 163
3.147440e-01 3.582017e+00 2.342865e+00 147 137 127
1.240608e+00 3.577845e+00 2.686814e+00 128 121 112
2.741004e-01 3.597683e+00 2.347497e+00 169 157 144
1.378098e+00 3.575090e+00 2.723171e+00 176 169 161
-2.025803e+00 3.822768e+00 2.871354e+00 107 102 91
2.086704e+00 3.576633e+00 3.115522e+00 210 206 197
-7.295918e-01 3.702259e+00 2.517731e+00 181 171 159
1.738984e+00 3.606552e+00 2.938237e+00 77 67 50
-9.040913e-01 3.741799e+00 2.566007e+00 205 203 191
1.905833e+00 3.621607e+00 3.036162e+00 115 105 98
-1.945960e+00 3.865876e+00 2.855394e+00 130 125 120
1.705563e+00 3.625566e+00 2.932012e+00 158 150 140
-6.719839e-01 3.736874e+00 2.518391e+00 104 95 78
1.876336e+00 3.629015e+00 3.030900e+00 124 116 104
1.876336e+00 3.629015e+00 3.030900e+00 124 116 104
1.720036e+00 3.647088e+00 2.950291e+00 169 158 145
1.665321e+00 3.645154e+00 2.919933e+00 161 148 138
3.188378e+00 3.644593e+00 3.703112e+00 191 183 163
-2.923379e+00 4.006311e+00 3.141875e+00 120 113 102
1.644898e+00 3.663311e+00 2.917203e+00 160 150 140
9.422620e-01 3.679906e+00 2.597552e+00 141 128 111
-3.988864e+00 4.133607e+00 3.394249e+00 128 122 108
1.659405e+00 3.682891e+00 2.932501e+00 177 171 158
-4.978435e-01 3.784577e+00 2.485675e+00 173 163 150
2.379506e+00 3.704625e+00 3.336980e+00 134 125 117
8.951499e-01 3.715310e+00 2.605494e+00 180 172 161
1.775117e+00 3.708196e+00 3.008805e+00 126 117 108
-3.264654e+00 4.110440e+00 3.258394e+00 187 186 182
8.147086e-01 3.729420e+00 2.570703e+00 71 59 44
-3.037309e+00 4.113112e+00 3.220994e+00 153 149 147
-2.792329e+00 4.099138e+00 3.157997e+00 109 101 89
-3.966575e-01 3.835411e+00 2.517735e+00 91 81 70
1.669673e+00 3.753884e+00 2.979546e+00 112 101 100
-3.544808e-01 3.833345e+00 2.502289e+00 129 116 101
2.425309e+00 3.765558e+00 3.374057e+00 107 100 90
1.647461e+00 3.770819e+00 2.972272e+00 116 110 109
-1.479616e+00 3.975496e+00 2.779902e+00 177 170 152
-4.105592e-01 3.862957e+00 2.536366e+00 122 112 102
6.860381e-01 3.800132e+00 2.581246e+00 142 129 108
2.511091e+00 3.789628e+00 3.433306e+00 188 184 176
-2.702795e-01 3.868480e+00 2.531805e+00 145 133 119
2.493937e+00 3.796619e+00 3.432185e+00 130 124 118
2.438279e+00 3.800313e+00 3.400399e+00 141 133 121
6.809790e-01 3.816342e+00 2.594090e+00 103 91 74
8.409205e-01 3.817346e+00 2.627466e+00 175 169 157
-2.567633e+00 4.155505e+00 3.105787e+00 81 72 67
-1.304955e+00 4.012645e+00 2.761127e+00 176 168 156
-4.222855e+00 4.354468e+00 3.518113e+00 119 116 110
2.388075e+00 3.832481e+00 3.388480e+00 105 97 89
-2.897830e-01 3.909519e+00 2.548683e+00 161 150 128
1.473280e+00 3.831026e+00 2.864597e+00 157 145 133
6.526433e-01 3.845718e+00 2.515989e+00 141 131 112
7.643464e-01 3.853643e+00 2.558063e+00 201 195 189
5.405506e-01 3.874319e+00 2.565333e+00 81 72 65
2.366735e+00 3.866188e+00 3.390074e+00 150 144 143
-1.313288e-02 3.933288e+00 2.551120e+00 95 83 82
-1.375254e+00 4.079887e+00 2.799826e+00 102 85 70
-2.480410e-01 3.964955e+00 2.566805e+00 136 133 128
-8.371782e-03 3.948809e+00 2.563314e+00 188 181 173
2.945890e+00 3.893411e+00 3.609419e+00 187 175 166
5.687552e-01 3.925737e+00 2.590945e+00 92 87 81
-8.842203e-02 3.989590e+00 2.588571e+00 99 94 85
-2.780236e+00 4.297265e+00 3.182169e+00 168 164 159
1.328889e+00 3.927302e+00 2.862552e+00 67 57 44
2.484719e-01 3.959941e+00 2.529733e+00 60 51 44
-1.051364e+00 4.109303e+00 2.742787e+00 195 190 174
1.289277e+00 3.949787e+00 2.867723e+00 165 157 137
1.382640e+00 3.950318e+00 2.895942e+00 116 106 94
-1.034793e+00 4.164634e+00 2.761504e+00 149 140 136
1.306179e+00 4.010891e+00 2.903685e+00 126 117 107
-3.457554e+00 4.469359e+00 3.310481e+00 84 75 65
1.813910e-01 4.048078e+00 2.578290e+00 165 157 138
2.845466e+00 4.004548e+00 3.583251e+00 165 152 143
2.410657e-01 4.048738e+00 2.572106e+00 110 101 93
3.303253e-01 4.042852e+00 2.567386e+00 167 153 140
1.880015e+00 4.027479e+00 3.163885e+00 66 55 51
-8.686246e-01 4.181508e+00 2.731954e+00 159 149 136
-2.229391e+00 4.368361e+00 3.070663e+00 123 115 108
-8.230875e-01 4.196322e+00 2.737211e+00 132 122 108
2.169309e+00 4.049171e+00 3.290706e+00 209 204 197
-8.631912e-01 4.208544e+00 2.737505e+00 101 91 88
1.839774e+00 4.064353e+00 3.133928e+00 99 86 71
2.770500e+00 4.068219e+00 3.574434e+00 115 104 94
-8.107866e-01 4.245154e+00 2.759156e+00 183 174 158
1.713275e+00 4.102306e+00 3.091489e+00 114 103 89
-8.045380e-01 4.259074e+00 2.761000e+00 140 129 111
-1.992012e+00 4.413721e+00 3.033606e+00 195 190 181
7.965983e-01 4.148089e+00 2.759917e+00 55 46 38
-9.153367e-01 4.300188e+00 2.784929e+00 102 93 83
-1.977398e+00 4.446086e+00 3.036646e+00 212 203 194
-2.039444e+00 4.453329e+00 3.043707e+00 125 121 112
2.696563e+00 4.138304e+00 3.543792e+00 151 135 119
7.631218e-01 4.161655e+00 2.758914e+00 67 58 49
-1.722115e+00 4.428809e+00 2.992014e+00 150 142 123
1.873416e+00 4.161076e+00 3.192230e+00 181 175 161
-3.241590e+00 4.637011e+00 3.291960e+00 90 80 79
8.720504e-01 4.184883e+00 2.800747e+00 122 116 104
-1.851028e+00 4.466973e+00 3.020857e+00 157 147 138
2.798203e+00 4.171606e+00 3.600793e+00 124 117 101
2.798203e+00 4.171606e+00 3.600793e+00 124 117 101
-1.597188e+00 4.456486e+00 2.987927e+00 166 160 146
-1.781359e+00 4.473665e+00 3.008545e+00 82 73 63
7.823006e-01 4.213276e+00 2.801196e+00 159 150 139
8.313903e-01 4.215915e+00 2.819374e+00 146 134 117
8.075523e-01 4.216717e+00 2.813685e+00 168 158 137
-1.880085e+00 4.500916e+00 3.037372e+00 167 162 149
-6.941213e-01 4.350147e+00 2.778242e+00 131 122 116
-1.655865e+00 4.492438e+00 3.003739e+00 80 68 69
-8.692288e-01 4.379759e+00 2.785759e+00 178 173 160
-1.745377e+00 4.504919e+00 3.010632e+00 117 106 93
-1.645835e+00 4.505013e+00 3.015127e+00 187 180 171
-4.365471e-01 4.342864e+00 2.744068e+00 118 114 103
-3.587297e+00 4.766819e+00 3.393133e+00 173 171 163
-3.587297e+00 4.766819e+00 3.393133e+00 173 171 163
8.209437e-01 4.259611e+00 2.837802e+00 169 161 142
-1.778150e+00 4.530305e+00 3.015132e+00 117 105 95
-1.820876e+00 4.541993e+00 3.042530e+00 156 146 132
-4.275697e-01 4.357108e+00 2.748879e+00 195 190 171
-1.737846e+00 4.551774e+00 3.027638e+00 143 130 112
-3.140915e+00 4.730131e+00 3.270862e+00 128 120 101
-2.898366e-01 4.368933e+00 2.753343e+00 103 93 83
1.644512e+00 4.276439e+00 3.147603e+00 144 135 130
2.586023e+00 4.274326e+00 3.524339e+00 81 68 58
-3.024416e+00 4.748714e+00 3.249411e+00 79 72 76
2.430961e+00 4.310917e+00 3.438995e+00 157 150 139
-3.795045e-01 4.435268e+00 2.779607e+00 177 170 166
2.415352e+00 4.348638e+00 3.457558e+00 174 167 157
4.165322e-02 4.428368e+00 2.739348e+00 98 84 71
1.302235e+00 4.426003e+00 3.091630e+00 103 96 90
-2.977580e+00 4.898518e+00 3.277284e+00 63 53 52
1.854676e-01 4.487352e+00 2.785802e+00 179 169 159
1.322050e+00 4.480388e+00 3.113972e+00 144 135 127
3.084247e-01 4.502574e+00 2.796587e+00 69 55 46
-2.844721e+00 4.932005e+00 3.264785e+00 107 101 93
2.490654e+00 4.468029e+00 3.505458e+00 138 134 143
1.186677e+00 4.499031e+00 3.071530e+00 91 82 64
1.364460e+00 4.497991e+00 3.128349e+00 116 112 107
2.504331e+00 4.476267e+00 3.517262e+00 210 215 220
1.377418e+00 4.507528e+00 3.142806e+00 180 177 162
-2.481420e+00 4.882743e+00 3.154700e+00 87 76 83
-2.481420e+00 4.882743e+00 3.154700e+00 87 76 83
1.312131e+00 4.519754e+00 3.127228e+00 175 170 160
2.553864e-01 4.544229e+00 2.800056e+00 134 126 113
-2.743231e+00 4.946536e+00 3.238730e+00 58 43 37
1.404555e+00 4.521451e+00 3.147712e+00 202 195 183
-2.268624e+00 4.880545e+00 3.108079e+00 189 182 172
1.255841e+00 4.549891e+00 3.127961e+00 98 89 82
1.255841e+00 4.549891e+00 3.127961e+00 98 89 82
2.152560e+00 4.516229e+00 3.366986e+00 58 46 33
-2.303678e+00 4.903179e+00 3.126917e+00 192 189 184
1.236096e+00 4.562174e+00 3.127166e+00 97 86 82
2.016698e+00 4.529957e+00 3.311568e+00 87 77 68
2.379920e+00 4.552389e+00 3.482552e+00 211 210 215
-1.000277e+00 4.780911e+00 3.000275e+00 158 148 137
-1.055451e+00 4.794358e+00 3.000330e+00 115 106 99
1.064261e+00 4.609505e+00 3.050700e+00 118 110 101
1.028523e+00 4.608160e+00 3.032809e+00 168 158 146
-7.938606e-01 4.782943e+00 2.959393e+00 180 178 162
9.405592e-01 4.663518e+00 3.036504e+00 135 127 116
-5.474158e-01 4.799979e+00 2.939712e+00 202 193 183
9.153867e-01 4.674085e+00 3.032346e+00 115 106 98
-3.222164e-01 4.774355e+00 2.917219e+00 182 179 163
-3.671701e-01 4.798733e+00 2.925627e+00 88 77 75
7.228401e-01 4.709710e+00 2.993251e+00 186 176 149
1.693091e+00 4.676145e+00 3.180663e+00 72 67 60
-3.595305e-01 4.834247e+00 2.940442e+00 95 81 71
-2.020647e+00 5.060980e+00 3.119717e+00 171 159 143
-2.270603e+00 5.129191e+00 3.170091e+00 97 83 74
-4.014027e-01 4.891855e+00 2.964683e+00 120 112 98
-1.602080e+00 5.048665e+00 3.031809e+00 89 78 75
-1.842738e+00 5.104208e+00 3.106135e+00 101 96 87
1.993035e+00 4.768070e+00 3.362645e+00 129 125 132
-2.237419e+00 5.183798e+00 3.175378e+00 180 175 161
-8.531519e-02 4.882134e+00 2.917212e+00 138 128 117
-2.491372e-01 4.917396e+00 2.964234e+00 99 89 77
6.583616e-01 4.853815e+00 3.037926e+00 119 109 103
-1.338676e+00 5.084745e+00 3.007580e+00 161 145 125
1.651766e+00 4.837236e+00 3.263246e+00 138 122 99
1.651766e+00 4.837236e+00 3.263246e+00 138 122 99
4.902888e-01 4.888908e+00 2.979635e+00 176 169 159
1.367546e-01 4.924451e+00 2.946576e+00 163 157 141
-2.164321e+00 5.248747e+00 3.170824e+00 220 221 225
-1.355903e+00 5.117724e+00 3.026747e+00 163 151 133
1.215210e+00 4.887156e+00 3.107820e+00 100 87 79
-1.328017e+00 5.182494e+00 3.046065e+00 153 140 125
-1.275069e+00 5.199438e+00 3.048098e+00 131 116 98
1.251649e+00 4.954385e+00 3.149753e+00 168 155 135
-1.299813e+00 5.242319e+00 3.065504e+00 152 142 131
-1.299813e+00 5.242319e+00 3.065504e+00 152 142 131
1.007610e+00 4.987895e+00 3.077095e+00 89 76 73
-1.371986e+00 5.292309e+00 3.084286e+00 173 166 147
1.226077e+00 5.046049e+00 3.169356e+00 69 56 45
-1.311656e+00 5.323043e+00 3.076634e+00 165 152 140
-9.053765e-01 5.260470e+00 3.009196e+00 89 80 72
-1.314122e+00 5.356486e+00 3.096413e+00 190 184 174
-7.441085e-01 5.298243e+00 3.006612e+00 161 144 131
-1.184214e+00 5.382665e+00 3.082735e+00 130 117 104
1.076076e+00 5.149504e+00 3.160085e+00 95 79 62
-9.336619e-01 5.386450e+00 3.061271e+00 160 148 129
7.870040e-01 5.186354e+00 3.078280e+00 66 57 52
7.870040e-01 5.186354e+00 3.078280e+00 66 57 52
5.288617e-01 5.208090e+00 3.021253e+00 166 160 134
-5.777605e-01 5.343815e+00 3.011607e+00 73 62 47
-5.623950e-01 5.353009e+00 3.011741e+00 163 153 135
-1.860524e-01 5.381250e+00 3.009318e+00 135 115 90
2.806640e+00 -2.159004e+00 4.100568e+00 91 90 85
3.894406e+00 -2.269459e+00 5.109018e+00 97 93 93
1.913857e+00 -1.703393e+00 3.159229e+00 107 105 106
-1.237125e-01 -1.795713e+00 2.944639e+00 117 112 109
4.552310e+00 -2.378855e+00 5.713180e+00 157 156 152
3.877623e-02 -1.777759e+00 3.033066e+00 99 98 94
4.563764e+00 -2.372787e+00 5.734113e+00 133 132 131
-1.293473e-01 -1.731743e+00 2.907313e+00 159 156 151
3.819288e+00 -2.115007e+00 4.979248e+00 146 142 130
6.500683e-01 -1.603886e+00 2.789787e+00 84 82 78
-3.011709e-01 -1.646164e+00 2.758752e+00 126 124 125
1.925326e+00 -1.516106e+00 3.081147e+00 75 72 67
-4.621374e+00 -2.477247e+00 4.327941e+00 78 74 71
1.413605e-01 -1.499506e+00 2.883963e+00 184 183 181
1.656089e+00 -1.367879e+00 2.921411e+00 148 148 148
-4.553282e-01 -1.432142e+00 2.658164e+00 188 189 180
1.351787e+00 -1.303606e+00 2.826214e+00 174 174 174
1.336489e+00 -1.290174e+00 2.810328e+00 140 140 140
-7.663462e-01 -1.384796e+00 2.683267e+00 112 108 101
2.730968e+00 -1.418373e+00 3.716456e+00 161 162 157
-3.360300e+00 -2.462530e+00 5.006787e+00 155 153 148
8.513095e-01 -1.194131e+00 2.685294e+00 185 186 181
1.262543e+00 -1.171528e+00 2.760492e+00 127 126 121
-6.175163e-02 -1.240950e+00 2.622627e+00 165 162 159
3.608433e-01 -1.182346e+00 2.581146e+00 121 118 99
2.614509e+00 -1.338819e+00 3.622072e+00 151 151 151
-4.578391e+00 -2.144250e+00 4.178316e+00 127 128 132
4.944913e-01 -1.180917e+00 2.611800e+00 118 117 107
-9.459667e-01 -1.288287e+00 2.649795e+00 160 157 148
-2.329638e+00 -1.865007e+00 4.087615e+00 125 124 120
-6.480265e+00 -2.394858e+00 4.875362e+00 103 101 101
8.234211e-01 -1.050891e+00 2.602354e+00 177 177 166
1.804579e+00 -1.021634e+00 2.810090e+00 126 125 120
-5.088929e-02 -1.077888e+00 2.548342e+00 163 160 145
3.619957e+00 -1.424543e+00 4.562051e+00 159 154 150
-1.304939e+00 -1.190863e+00 2.825615e+00 160 159 155
3.846938e+00 -1.354987e+00 4.703969e+00 128 128 122
3.887508e+00 -1.347095e+00 4.718848e+00 149 148 143
3.773626e+00 -1.324717e+00 4.642883e+00 163 164 159
1.921255e+00 -8.933706e-01 2.801705e+00 106 101 95
1.921255e+00 -8.933706e-01 2.801705e+00 106 101 95
3.050280e-01 -9.467480e-01 2.575980e+00 145 142 135
3.829397e+00 -1.336650e+00 4.687686e+00 155 155 145
-4.388223e+00 -1.803517e+00 4.091576e+00 129 124 119
3.461324e-01 -8.580800e-01 2.396549e+00 183 180 175
6.044469e-01 -7.901843e-01 2.371094e+00 125 120 106
2.361354e-01 -8.722919e-01 2.563402e+00 139 135 124
1.803040e+00 -7.882112e-01 2.706825e+00 187 187 179
5.733200e-01 -8.132288e-01 2.502581e+00 116 111 108
3.210228e+00 -1.045882e+00 3.911957e+00 158 157 153
6.378276e-01 -7.387327e-01 2.429353e+00 170 168 156
1.211621e+00 -7.259655e-01 2.544431e+00 170 170 166
1.435250e+00 -7.225617e-01 2.598228e+00 127 122 116
-3.357893e+00 -1.674359e+00 4.436860e+00 159 158 154
4.135078e+00 -1.203674e+00 4.939687e+00 133 132 128
3.752327e+00 -1.056491e+00 4.422576e+00 181 179 171
3.578512e+00 -9.973023e-01 4.266377e+00 114 108 97
3.748105e+00 -1.003865e+00 4.386100e+00 155 153 142
3.090043e+00 -8.396507e-01 3.746997e+00 113 108 104
2.072011e+00 -5.977036e-01 2.708857e+00 147 144 139
3.027711e+00 -7.993154e-01 3.665695e+00 145 138 120
4.640761e-01 -6.545480e-01 2.567440e+00 129 124 118
4.691886e-01 -6.452410e-01 2.593784e+00 182 177 171
-1.090556e-01 -7.254575e-01 2.731679e+00 116 115 110
3.286933e-01 -6.431966e-01 2.582667e+00 114 110 101
-1.038103e-01 -7.113745e-01 2.736812e+00 175 174 169
2.427907e+00 -6.178575e-01 3.032023e+00 125 119 103
3.199608e-01 -6.298687e-01 2.581204e+00 181 178 166
3.199608e-01 -6.298687e-01 2.581204e+00 181 178 166
2.447938e+00 -5.941328e-01 3.043280e+00 93 87 73
1.257276e+00 -5.119172e-01 2.497740e+00 177 174 165
-1.347704e-01 -6.473762e-01 2.643269e+00 128 127 123
-1.000834e+00 -7.158084e-01 2.711134e+00 186 185 180
9.683790e-01 -4.468673e-01 2.443774e+00 191 191 181
-3.031134e+00 -8.541918e-01 3.223738e+00 134 131 126
1.429709e-01 -4.398574e-01 2.506389e+00 108 103 98
1.838689e+00 -3.460309e-01 2.571081e+00 119 115 106
-2.785647e+00 -9.271454e-01 3.484813e+00 88 84 77
2.142086e+00 -3.431654e-01 2.664982e+00 124 123 120
2.142086e+00 -3.431654e-01 2.664982e+00 124 123 120
2.226616e+00 -3.471883e-01 2.700455e+00 136 136 128
4.595151e+00 -8.491369e-01 5.206042e+00 122 116 104
5.772936e-01 -3.137480e-01 2.379415e+00 126 119 105
3.521177e-01 -3.082301e-01 2.405969e+00 191 191 179
-4.704583e+00 -9.747480e-01 3.797015e+00 136 131 112
2.609383e+00 -3.572378e-01 3.119256e+00 162 159 150
1.262865e+00 -2.118236e-01 2.339109e+00 148 145 135
1.663998e+00 -2.257868e-01 2.501619e+00 135 132 127
2.560565e+00 -3.100523e-01 3.068267e+00 156 153 148
8.497776e-04 -3.291733e-01 2.624726e+00 187 184 176
1.284932e+00 -1.794334e-01 2.387398e+00 115 113 102
2.600091e+00 -2.839645e-01 3.093417e+00 162 157 151
9.335011e-01 -2.095552e-01 2.436161e+00 139 136 123
1.270663e+00 -1.325378e-01 2.394268e+00 119 119 109
1.270663e+00 -1.325378e-01 2.394268e+00 119 119 109
2.480474e+00 -1.772676e-01 2.917392e+00 165 159 147
3.381939e+00 -3.583906e-01 3.871421e+00 159 154 150
1.272692e+00 -9.659916e-02 2.389737e+00 136 135 132
4.606224e+00 -5.802903e-01 5.134889e+00 148 145 136
3.567070e+00 -3.535311e-01 4.034555e+00 125 124 117
4.532890e+00 -5.509054e-01 5.059632e+00 194 190 179
1.564435e+00 -1.012432e-02 2.377928e+00 172 168 160
1.195168e-01 -9.177044e-02 2.399358e+00 198 197 193
-2.136434e+00 -2.554306e-01 2.583291e+00 112 107 97
1.929099e+00 3.063536e-02 2.429760e+00 178 174 164
5.263669e-01 -7.699757e-03 2.292157e+00 184 182 184
-3.384185e+00 -3.857878e-01 3.083943e+00 97 89 84
2.127901e+00 6.719222e-02 2.432038e+00 112 107 101
1.383810e+00 9.077735e-02 2.268093e+00 166 164 157
1.785207e+00 9.722307e-02 2.358862e+00 172 166 154
3.286384e+00 -1.292013e-01 3.665515e+00 124 118 106
1.408443e+00 1.082528e-01 2.273286e+00 199 196 190
1.358135e+00 1.085556e-01 2.267925e+00 185 184 179
1.480974e+00 1.119849e-01 2.275999e+00 131 124 111
7.326605e-01 1.127814e-01 2.229019e+00 165 162 156
-8.816942e-01 7.241481e-02 2.070813e+00 191 187 176
-1.045737e+00 1.390107e-01 1.786321e+00 184 179 170
-1.243264e+00 1.141886e-01 1.840942e+00 184 176 169
1.042413e+00 1.276529e-01 2.251330e+00 129 126 119
-8.676820e-01 7.007209e-02 2.102701e+00 99 94 85
-8.676820e-01 7.007209e-02 2.102701e+00 99 94 85
1.703482e+00 1.766010e-01 2.333360e+00 115 106 96
-9.092332e-01 1.535097e-01 1.931190e+00 92 84 79
4.766814e+00 -3.109265e-01 5.162147e+00 135 133 120
7.546288e-01 1.751501e-01 2.232216e+00 179 176 169
7.546288e-01 1.751501e-01 2.232216e+00 179 176 169
-9.137459e-01 1.650210e-01 1.946077e+00 179 174 165
-4.196005e-01 6.986504e-02 2.437826e+00 198 194 188
-2.536384e+00 -4.459626e-02 2.617266e+00 162 155 148
2.430894e+00 1.460457e-01 2.808816e+00 162 155 145
1.732630e+00 2.266732e-01 2.335922e+00 114 105 90
-4.387668e+00 -3.026398e-01 3.487303e+00 147 137 120
3.298165e+00 3.972812e-03 3.691086e+00 95 88 78
1.850261e+00 2.422569e-01 2.345032e+00 173 167 151
2.445626e+00 2.060864e-01 2.833964e+00 137 131 117
-2.630212e+00 8.267574e-02 2.626678e+00 158 154 151
-2.630212e+00 8.267574e-02 2.626678e+00 158 154 151
-4.180377e-02 2.661355e-01 2.295834e+00 141 138 132
-1.084075e+00 3.314280e-01 1.869883e+00 153 145 132
-2.580580e+00 1.152902e-01 2.584573e+00 112 108 104
-4.566980e+00 -1.551394e-01 3.547195e+00 169 165 156
-5.571753e-01 3.115027e-01 2.199610e+00 116 110 98
-3.275452e+00 6.542663e-02 2.929078e+00 151 135 122
2.131980e+00 3.897096e-01 2.401921e+00 99 95 83
2.069653e+00 4.029138e-01 2.336994e+00 93 88 82
-5.790285e-01 3.311251e-01 2.202540e+00 117 113 101
2.102109e+00 4.200301e-01 2.372521e+00 167 163 151
4.399266e+00 3.817571e-02 4.742871e+00 138 133 124
2.096864e+00 4.319384e-01 2.375127e+00 101 96 84
1.766795e+00 4.505150e-01 2.255760e+00 155 144 122
9.142663e-01 4.368715e-01 2.180125e+00 133 128 125
-5.897896e+00 -2.305062e-01 4.152257e+00 165 160 152
3.886983e+00 1.367037e-01 4.236988e+00 151 142 135
5.645064e-01 4.592243e-01 2.170098e+00 180 179 174
-4.373059e+00 2.406230e-02 3.422922e+00 173 167 160
1.713317e+00 4.894025e-01 2.238427e+00 135 128 118
2.096755e+00 4.849587e-01 2.352890e+00 89 82 63
7.294594e-01 4.795283e-01 2.188823e+00 114 110 101
-2.137740e+00 3.727951e-01 2.325076e+00 149 144 138
6.779327e-01 5.090940e-01 2.165736e+00 177 173 164
3.249195e+00 3.343110e-01 3.561595e+00 134 124 113
8.475011e-02 4.955340e-01 2.233037e+00 107 104 95
-2.763373e-01 4.968608e-01 2.153463e+00 137 136 131
-3.875448e+00 1.803950e-01 3.163615e+00 101 85 71
2.741755e-01 5.167118e-01 2.187444e+00 181 180 175
5.114904e-01 5.458601e-01 2.143084e+00 68 65 60
3.340657e+00 3.567718e-01 3.644618e+00 163 156 139
-8.369870e-02 5.175335e-01 2.175239e+00 161 154 137
-3.644471e-01 5.394172e-01 2.057353e+00 76 73 68
3.722230e+00 3.101579e-01 4.032185e+00 144 137 122
6.350202e-01 5.655816e-01 2.160068e+00 130 127 113
-6.368784e+00 -6.577621e-02 4.314518e+00 137 132 126
1.126893e+00 5.865053e-01 2.160174e+00 125 122 115
1.126893e+00 5.865053e-01 2.160174e+00 125 122 115
1.120177e+00 6.055438e-01 2.132000e+00 182 178 168
8.665739e-01 6.141614e-01 2.177039e+00 170 169 164
4.397683e-01 6.151517e-01 2.139140e+00 120 117 108
1.956796e+00 6.499272e-01 2.268429e+00 91 84 75
8.837946e-01 6.494009e-01 2.130752e+00 166 165 161
3.668918e+00 3.980913e-01 3.978721e+00 93 84 69
2.877717e+00 5.324593e-01 3.108971e+00 92 85 75
1.603136e+00 6.710852e-01 2.147170e+00 127 123 107
3.720568e+00 4.001569e-01 4.026028e+00 172 164 157
3.700878e+00 4.085411e-01 3.992694e+00 101 94 84
-2.247175e-01 6.297246e-01 2.132309e+00 106 105 102
1.996472e+00 6.959792e-01 2.275392e+00 149 140 131
3.747029e+00 4.397407e-01 4.046899e+00 161 153 140
1.170465e+00 7.207963e-01 2.082381e+00 175 171 161
-7.474496e-01 7.115537e-01 1.867259e+00 157 151 134
2.792262e+00 6.008939e-01 3.096561e+00 162 155 137
1.368689e+00 7.418819e-01 2.092428e+00 119 112 107
4.187967e-01 7.127111e-01 2.097405e+00 114 111 104
3.691879e+00 4.757920e-01 3.993812e+00 117 107 93
1.465189e+00 7.413136e-01 2.110110e+00 89 81 79
1.465189e+00 7.413136e-01 2.110110e+00 89 81 79
-2.965848e-01 7.097155e-01 2.042501e+00 118 109 102
-1.113006e+00 7.426428e-01 1.715311e+00 114 100 79
3.186036e+00 5.668687e-01 3.436819e+00 175 168 150
-1.210194e+00 7.325934e-01 1.774601e+00 127 118 110
1.838757e+00 7.462690e-01 2.200692e+00 122 114 103
1.746678e+00 7.492394e-01 2.180464e+00 172 164 153
4.204084e-01 7.280286e-01 2.096536e+00 181 178 169
-3.463585e-02 7.276166e-01 2.041930e+00 128 123 117
6.681050e-01 7.416610e-01 2.107458e+00 150 146 134
1.938297e+00 7.594645e-01 2.220965e+00 119 113 100
7.959397e-01 7.512828e-01 2.120493e+00 136 132 120
-5.293415e-02 7.345244e-01 2.074354e+00 169 165 156
-3.069624e+00 5.405494e-01 2.758605e+00 110 100 90
2.410422e+00 7.142817e-01 2.649471e+00 154 144 132
8.037164e-01 7.687559e-01 2.103747e+00 158 152 141
1.120335e+00 7.891835e-01 2.093289e+00 137 134 122
-8.070641e-01 7.779043e-01 1.842850e+00 105 94 82
-1.086592e+00 7.847639e-01 1.775421e+00 139 127 106
9.184757e-01 7.895042e-01 2.098399e+00 179 174 167
1.898875e-01 7.738546e-01 2.128315e+00 178 169 154
1.289741e-01 7.877972e-01 2.017022e+00 123 117 118
6.001788e-01 7.826202e-01 2.167138e+00 151 146 133
3.238377e+00 6.220972e-01 3.524618e+00 185 178 173
9.280164e-01 8.092866e-01 2.066088e+00 103 100 93
6.180534e-01 7.991928e-01 2.145007e+00 170 163 156
5.614753e-01 8.019458e-01 2.120785e+00 110 103 95
9.287769e-01 8.178724e-01 2.083196e+00 177 174 167
1.296515e-01 8.178095e-01 2.091751e+00 162 156 143
2.196569e+00 8.058422e-01 2.487119e+00 143 131 118
2.158424e+00 8.121891e-01 2.442030e+00 135 123 107
1.416048e-01 8.277714e-01 2.093711e+00 115 109 97
8.113334e-01 8.511703e-01 2.076858e+00 106 102 93
8.252140e-01 8.740328e-01 2.066966e+00 116 111 105
6.359222e-01 8.717806e-01 2.109187e+00 118 111 103
4.037119e-01 8.808046e-01 2.052109e+00 116 108 90
7.781068e-01 9.046841e-01 2.119298e+00 153 145 134
3.046220e-01 9.056218e-01 2.048526e+00 105 97 81
1.656335e+00 9.197813e-01 2.129456e+00 136 132 128
3.890082e-03 8.984113e-01 2.093656e+00 115 107 94
-1.736222e-02 8.991239e-01 2.097010e+00 94 88 75
3.743972e-01 9.172605e-01 2.062185e+00 151 144 130
3.069636e+00 7.812577e-01 3.336782e+00 127 119 108
4.368362e-01 9.242248e-01 2.066244e+00 126 121 113
-1.410423e+00 9.236721e-01 1.794670e+00 134 123 106
-3.784361e-01 9.587563e-01 1.872916e+00 162 161 156
-3.660310e+00 7.172155e-01 3.003810e+00 164 155 138
2.516081e+00 8.883411e-01 2.742892e+00 96 85 75
1.667420e+00 9.706472e-01 2.108087e+00 183 177 172
2.165041e+00 9.310849e-01 2.492131e+00 108 99 90
3.046698e+00 8.381448e-01 3.312397e+00 142 138 129
-8.819341e-01 1.006389e+00 1.774838e+00 142 128 114
-9.770082e-01 1.005743e+00 1.774743e+00 97 92 86
4.250896e-01 1.008035e+00 2.054217e+00 145 141 131
4.250896e-01 1.008035e+00 2.054217e+00 145 141 131
1.389964e-01 1.003362e+00 2.044705e+00 187 183 174
-1.054049e+00 1.027845e+00 1.750437e+00 132 127 124
-2.737896e+00 9.026230e-01 2.566564e+00 157 148 133
2.706111e+00 9.622798e-01 2.929070e+00 110 101 88
2.701637e+00 9.698591e-01 2.990550e+00 160 154 134
2.033313e+00 1.089230e+00 2.292005e+00 131 125 107
-8.481032e-01 1.111085e+00 1.843163e+00 148 139 127
-2.225142e-01 1.139559e+00 1.800279e+00 182 169 153
-2.507392e-01 1.141944e+00 1.852602e+00 120 108 94
1.707402e-01 1.147642e+00 2.005234e+00 141 138 133
1.707402e-01 1.147642e+00 2.005234e+00 141 138 133
2.015004e+00 1.130638e+00 2.282130e+00 133 123 104
4.196950e-01 1.168527e+00 2.012397e+00 139 135 133
-2.269559e+00 1.087528e+00 2.343240e+00 122 116 104
-3.369380e+00 1.067186e+00 2.875923e+00 151 142 125
2.866205e+00 1.113339e+00 3.167653e+00 166 156 144
-2.619596e+00 1.144267e+00 2.503208e+00 85 71 59
-2.285011e+00 1.185521e+00 2.364738e+00 92 87 79
5.474255e-01 1.277783e+00 1.950614e+00 174 163 134
-3.485610e+00 1.108022e+00 2.912777e+00 79 69 68
2.989857e+00 1.140381e+00 3.277292e+00 117 105 92
6.970265e-01 1.294225e+00 1.915419e+00 143 128 118
5.577416e-01 1.290524e+00 1.965726e+00 164 149 119
-2.428998e+00 1.197804e+00 2.434906e+00 139 128 113
5.720242e-01 1.297916e+00 1.981172e+00 175 160 131
-2.618828e+00 1.190325e+00 2.517938e+00 144 134 112
1.696670e-01 1.312189e+00 1.888361e+00 146 137 123
2.963448e+00 1.175345e+00 3.265519e+00 182 174 162
1.950520e+00 1.280333e+00 2.264108e+00 133 121 111
2.531640e+00 1.226760e+00 2.809243e+00 109 102 96
-1.852895e+00 1.257341e+00 2.190653e+00 168 160 149
5.968420e-01 1.317963e+00 1.963999e+00 182 169 147
3.368479e+00 1.140738e+00 3.615009e+00 118 112 100
1.906018e+00 1.305298e+00 2.231178e+00 110 102 91
-8.610091e-02 1.362992e+00 1.816033e+00 162 152 141
8.814592e-02 1.385168e+00 1.717260e+00 93 87 77
-3.076954e+00 1.239016e+00 2.742209e+00 107 102 96
-1.058458e-01 1.380567e+00 1.807738e+00 153 141 127
2.401819e+00 1.296765e+00 2.717460e+00 79 68 49
1.323551e+00 1.376171e+00 1.984569e+00 106 99 81
1.335960e+00 1.379024e+00 1.989968e+00 167 155 143
-1.690237e+00 1.337714e+00 2.150323e+00 139 135 123
-1.718057e+00 1.351347e+00 2.149915e+00 141 136 130
-3.860248e+00 1.228276e+00 3.077503e+00 103 90 71
3.344558e+00 1.269683e+00 3.619938e+00 130 123 107
1.342721e-01 1.458971e+00 1.758080e+00 164 164 163
-3.496947e-01 1.470782e+00 1.615227e+00 131 122 113
-1.371894e+00 1.446705e+00 1.895884e+00 143 135 116
3.527317e-01 1.526240e+00 1.878687e+00 142 136 123
-1.250266e-01 1.533186e+00 1.771843e+00 126 113 97
-1.287359e+00 1.508180e+00 1.939095e+00 146 138 117
-4.307373e+00 1.391917e+00 3.310929e+00 168 158 137
-4.213670e+00 1.404201e+00 3.261478e+00 139 131 127
-2.025860e+00 1.515225e+00 2.274864e+00 145 135 122
-1.135244e+00 1.558906e+00 1.853911e+00 127 119 100
-1.878741e+00 1.556396e+00 2.179463e+00 115 100 80
-1.878741e+00 1.556396e+00 2.179463e+00 115 100 80
7.922019e-01 1.631842e+00 1.702885e+00 87 85 88
-1.101139e+00 1.621704e+00 1.839452e+00 166 154 137
4.736311e-01 1.643821e+00 1.800321e+00 134 135 126
-1.239737e+00 1.636755e+00 1.928147e+00 158 150 139
8.535188e-01 1.674092e+00 1.832183e+00 172 162 151
7.994071e-01 1.679126e+00 1.801417e+00 79 75 73
1.780455e+00 1.642764e+00 2.228967e+00 137 125 108
-1.024844e-02 1.695637e+00 1.739195e+00 166 165 161
-2.079883e+00 1.657435e+00 2.345752e+00 138 133 127
-2.851172e+00 1.638605e+00 2.686529e+00 184 169 146
2.140292e+00 1.641456e+00 2.533021e+00 68 61 55
-4.893139e+00 1.583232e+00 3.570163e+00 170 163 155
7.904912e-01 1.735277e+00 1.815730e+00 119 112 102
6.953969e-01 1.743783e+00 1.765465e+00 120 115 108
2.209124e+00 1.691465e+00 2.604151e+00 152 142 130
2.224758e+00 1.698099e+00 2.621148e+00 110 99 93
2.614751e+00 1.691343e+00 2.944349e+00 144 135 125
6.930752e-01 1.788630e+00 1.754332e+00 177 173 162
2.175454e+00 1.726683e+00 2.585407e+00 119 110 101
-2.568536e+00 1.753365e+00 2.558739e+00 99 90 79
-4.803520e+00 1.723548e+00 3.549841e+00 175 164 143
2.125235e+00 1.754870e+00 2.498020e+00 128 123 112
2.699810e+00 1.725433e+00 3.022072e+00 186 179 169
-1.689410e+00 1.818706e+00 2.158755e+00 67 56 39
8.287442e-01 1.832200e+00 1.791846e+00 195 192 182
-3.610986e+00 1.810693e+00 3.023813e+00 114 109 106
2.550831e+00 1.768166e+00 2.925885e+00 171 162 148
-2.577154e+00 1.837140e+00 2.566440e+00 97 90 83
-2.776968e+00 1.856511e+00 2.668183e+00 174 171 166
2.008161e+00 1.831615e+00 2.431507e+00 81 64 46
-3.416694e+00 1.854300e+00 2.929064e+00 170 163 153
3.004716e+00 1.778883e+00 3.279147e+00 147 140 124
2.411574e+00 1.826256e+00 2.793595e+00 63 53 43
-2.623221e+00 1.936976e+00 2.617374e+00 191 184 178
-3.642666e+00 1.922522e+00 3.037743e+00 121 112 95
2.512394e+00 1.869332e+00 2.914332e+00 183 172 166
-2.715283e+00 1.940916e+00 2.631577e+00 146 136 128
-3.520741e+00 1.942695e+00 2.996204e+00 148 140 131
2.512915e+00 1.882880e+00 2.924324e+00 147 140 134
-3.913524e-01 1.985046e+00 1.618913e+00 150 137 118
9.655543e-01 1.968393e+00 1.753346e+00 96 89 83
3.040142e+00 1.864001e+00 3.365812e+00 172 163 153
1.404306e+00 1.954988e+00 2.117911e+00 94 85 80
2.932812e+00 1.876488e+00 3.274301e+00 168 161 146
2.406488e+00 1.912160e+00 2.783472e+00 182 174 161
2.989605e+00 1.891577e+00 3.322385e+00 170 161 146
2.458120e+00 1.948265e+00 2.890532e+00 174 167 155
-2.608740e+00 2.033081e+00 2.594781e+00 162 153 136
-7.660476e+00 2.028415e+00 4.559590e+00 174 172 172
2.430849e+00 1.963898e+00 2.814553e+00 184 177 158
-1.282552e-01 2.057742e+00 1.676588e+00 112 107 101
1.969831e+00 1.997395e+00 2.454376e+00 158 154 149
2.543431e+00 1.981759e+00 2.974255e+00 130 126 123
1.960990e+00 2.024073e+00 2.465314e+00 148 141 135
4.468924e-01 2.093242e+00 1.710761e+00 115 105 90
2.911883e+00 1.998077e+00 3.268590e+00 97 88 81
1.626293e+00 2.084019e+00 2.185656e+00 149 136 124
2.282421e+00 2.069204e+00 2.747337e+00 131 121 109
2.284708e+00 2.077746e+00 2.811578e+00 108 95 87
9.854719e-02 2.167547e+00 1.620210e+00 79 80 74
-2.278385e+00 2.185765e+00 2.493807e+00 153 143 131
1.217067e+00 2.145670e+00 1.972664e+00 55 38 28
-2.224790e+00 2.203420e+00 2.493704e+00 150 141 126
-2.226772e+00 2.217989e+00 2.499094e+00 109 103 96
2.218219e+00 2.140242e+00 2.725828e+00 81 69 62
-4.226365e+00 2.253655e+00 3.334098e+00 187 183 174
-4.247705e+00 2.253774e+00 3.338281e+00 136 132 125
1.816270e+00 2.165282e+00 2.501555e+00 141 133 119
2.806159e+00 2.130865e+00 3.201068e+00 141 131 113
-6.855025e-01 2.240890e+00 1.928359e+00 168 159 150
2.203746e+00 2.171472e+00 2.798251e+00 193 189 186
1.897608e+00 2.190619e+00 2.454077e+00 111 103 92
2.174662e+00 2.184276e+00 2.699602e+00 80 73 59
-4.234069e+00 2.305568e+00 3.334297e+00 131 126 122
2.290022e+00 2.198496e+00 2.789920e+00 104 94 88
2.272091e+00 2.200302e+00 2.769141e+00 147 135 121
2.192424e+00 2.208350e+00 2.792421e+00 166 159 143
2.174649e+00 2.219437e+00 2.723015e+00 130 123 115
2.134523e+00 2.227506e+00 2.763618e+00 113 104 100
2.205559e+00 2.251294e+00 2.737793e+00 118 108 96
2.205559e+00 2.251294e+00 2.737793e+00 118 108 96
1.584183e+00 2.277355e+00 2.275522e+00 86 70 53
1.249308e+00 2.293542e+00 2.113225e+00 158 147 141
-1.207531e+00 2.354868e+00 2.129272e+00 110 100 79
4.683742e+00 2.166680e+00 4.653419e+00 150 138 125
2.665135e+00 2.249134e+00 3.103746e+00 140 133 125
2.680012e+00 2.275170e+00 3.127401e+00 83 74 70
-1.170794e+00 2.393113e+00 2.129105e+00 154 146 131
-1.262739e+00 2.396771e+00 2.168401e+00 89 77 63
-1.937455e+00 2.408774e+00 2.412471e+00 105 97 86
8.563290e-01 2.348597e+00 1.973403e+00 78 71 57
-2.142014e+00 2.435268e+00 2.493773e+00 84 78 73
2.665054e+00 2.311178e+00 3.121845e+00 171 163 153
-3.953558e+00 2.490845e+00 3.245499e+00 116 110 106
-4.319649e+00 2.499005e+00 3.392103e+00 193 191 191
-2.054837e+00 2.452833e+00 2.488946e+00 119 110 100
9.724380e-01 2.411766e+00 1.981243e+00 155 140 124
2.162942e+00 2.401433e+00 2.756989e+00 150 147 142
-5.033992e+00 2.610739e+00 3.694691e+00 166 160 159
-1.941409e+00 2.530631e+00 2.458297e+00 165 159 145
2.610814e+00 2.395138e+00 3.107571e+00 160 153 147
1.988519e+00 2.420899e+00 2.603111e+00 106 98 84
-1.853421e+00 2.535792e+00 2.439446e+00 93 84 74
3.089751e+00 2.387378e+00 3.471778e+00 143 134 119
1.591360e+00 2.439825e+00 2.374240e+00 159 153 139
-1.773738e+00 2.545168e+00 2.399210e+00 101 88 68
3.046500e+00 2.402640e+00 3.434171e+00 89 78 71
7.239707e-01 2.480255e+00 1.854377e+00 141 124 107
-1.966460e-01 2.532940e+00 1.872121e+00 106 95 78
2.014723e-01 2.551257e+00 1.787565e+00 146 134 117
4.485168e+00 2.442690e+00 4.536650e+00 136 119 103
2.552077e-01 2.565188e+00 1.771453e+00 140 126 107
4.497726e+00 2.452323e+00 4.514166e+00 149 136 121
2.512836e+00 2.508395e+00 3.027587e+00 153 144 132
2.495658e+00 2.514248e+00 3.014990e+00 144 138 118
5.300817e-01 2.568406e+00 1.803636e+00 52 43 27
5.300817e-01 2.568406e+00 1.803636e+00 52 43 27
1.503151e+00 2.559457e+00 2.337985e+00 161 149 138
1.503151e+00 2.559457e+00 2.337985e+00 161 149 138
-1.531129e+00 2.660385e+00 2.341260e+00 101 89 77
1.901176e+00 2.554988e+00 2.625288e+00 183 168 146
3.015185e+00 2.531975e+00 3.453424e+00 82 71 67
3.005144e+00 2.547919e+00 3.451971e+00 167 160 149
1.200275e+00 2.593010e+00 2.175940e+00 98 81 54
-1.412663e+00 2.705967e+00 2.327039e+00 132 124 109
2.996731e+00 2.580847e+00 3.478826e+00 116 110 98
-2.344307e+00 2.760394e+00 2.628927e+00 175 173 170
-1.448527e+00 2.741766e+00 2.361115e+00 125 120 102
1.703630e+00 2.638285e+00 2.522778e+00 92 82 70
4.241985e+00 2.577185e+00 4.301810e+00 105 94 83
-1.425643e+00 2.759903e+00 2.352029e+00 97 86 77
1.773761e+00 2.661014e+00 2.577209e+00 173 166 151
1.777963e+00 2.672651e+00 2.582206e+00 126 118 100
1.777963e+00 2.672651e+00 2.582206e+00 126 118 100
6.254444e-01 2.703613e+00 1.994529e+00 152 142 130
1.017203e+00 2.702555e+00 2.105976e+00 124 113 100
3.818089e-01 2.738410e+00 1.906232e+00 158 150 139
-3.474007e+00 2.942960e+00 3.129874e+00 114 108 93
1.650103e+00 2.735056e+00 2.528365e+00 142 129 121
2.222147e+00 2.723629e+00 2.887685e+00 153 146 138
3.253822e-01 2.769670e+00 1.880682e+00 136 127 118
2.157612e+00 2.758403e+00 2.851426e+00 119 110 104
2.252985e+00 2.768569e+00 2.929635e+00 165 160 154
2.805824e+00 2.779598e+00 3.339229e+00 158 151 133
2.766441e+00 2.782936e+00 3.312324e+00 130 120 110
9.415854e-01 2.824896e+00 2.184603e+00 143 129 109
-1.390380e+00 2.931013e+00 2.404359e+00 136 128 113
-2.227660e-01 2.867293e+00 2.045950e+00 114 101 80
1.601602e+00 2.816215e+00 2.536569e+00 175 167 145
1.616425e+00 2.816285e+00 2.537666e+00 136 127 110
-1.391765e-01 2.883220e+00 2.049550e+00 141 132 107
-2.090601e+00 2.998982e+00 2.636355e+00 101 91 90
-2.178068e+00 3.010425e+00 2.684168e+00 166 158 152
2.740907e+00 2.826132e+00 3.312487e+00 138 125 117
6.020694e-02 2.895851e+00 2.012909e+00 53 36 28
-2.175968e+00 3.057851e+00 2.685352e+00 151 145 126
-1.340333e+00 3.031371e+00 2.391579e+00 120 111 105
6.335502e-02 2.974476e+00 2.080321e+00 155 138 127
2.570190e+00 2.929505e+00 3.231756e+00 128 120 115
2.747125e+00 2.930553e+00 3.344950e+00 120 107 90
1.433973e+00 2.961956e+00 2.509375e+00 118 110 91
7.018877e-01 2.978646e+00 2.169388e+00 128 120 105
2.543388e+00 2.959006e+00 3.223584e+00 133 124 119
7.134924e-01 2.996087e+00 2.192363e+00 127 120 109
-4.384280e+00 3.314923e+00 3.518655e+00 150 146 135
-8.588121e-01 3.089841e+00 2.301920e+00 151 139 115
2.638753e+00 2.997616e+00 3.315162e+00 163 154 140
1.366104e+00 3.015176e+00 2.482444e+00 150 143 130
-8.465974e-01 3.130422e+00 2.312873e+00 152 145 126
1.264894e+00 3.048091e+00 2.436239e+00 127 112 102
-2.873986e+00 3.297107e+00 2.990054e+00 170 162 143
2.620886e+00 3.048128e+00 3.309209e+00 126 118 105
-2.687050e+00 3.313037e+00 2.943572e+00 190 189 187
-4.363056e+00 3.443360e+00 3.523992e+00 173 168 154
-2.735692e+00 3.336672e+00 2.958316e+00 186 183 177
1.334662e+00 3.098618e+00 2.496122e+00 179 167 147
-5.694701e+00 3.607495e+00 3.898703e+00 119 114 108
1.713324e+00 3.127480e+00 2.723486e+00 127 116 100
-1.595971e+00 3.324186e+00 2.589822e+00 155 152 147
-1.666463e+00 3.329121e+00 2.599239e+00 179 176 167
-5.232823e+00 3.613408e+00 3.745927e+00 181 174 167
-6.094959e-01 3.274963e+00 2.295825e+00 129 122 105
-6.498735e-01 3.327108e+00 2.352901e+00 182 176 163
-1.512759e+00 3.396187e+00 2.578195e+00 114 104 95
2.239213e+00 3.228289e+00 3.067130e+00 99 91 77
-2.895746e+00 3.517245e+00 3.010360e+00 181 180 173
8.216628e-01 3.257121e+00 2.336502e+00 69 64 47
9.680493e-01 3.272080e+00 2.410311e+00 122 111 97
9.680493e-01 3.272080e+00 2.410311e+00 122 111 97
8.899084e-01 3.288573e+00 2.383897e+00 79 67 58
-1.275479e+00 3.429385e+00 2.542096e+00 131 122 106
2.226390e+00 3.286533e+00 3.092148e+00 109 101 99
-2.854360e-01 3.385382e+00 2.306825e+00 86 77 60
3.768605e+00 3.307861e+00 4.056029e+00 167 158 152
-2.481587e-01 3.390507e+00 2.304788e+00 86 71 51
9.254436e-01 3.353992e+00 2.419174e+00 83 75 64
-3.654059e+00 3.721190e+00 3.331385e+00 115 112 107
-3.654059e+00 3.721190e+00 3.331385e+00 115 112 107
6.410763e-01 3.373638e+00 2.327105e+00 131 118 104
-3.657761e-01 3.448639e+00 2.342234e+00 145 141 130
-2.052347e-01 3.446808e+00 2.329677e+00 140 127 112
-3.121343e+00 3.752034e+00 3.161174e+00 79 69 60
-3.905674e-02 3.506075e+00 2.317199e+00 113 99 85
-2.323129e+00 3.717732e+00 2.915250e+00 91 86 83
-2.139842e+00 3.710884e+00 2.871801e+00 135 126 117
