ply
format ascii 1.0
element face 0
property list uchar int vertex_indices
element vertex 956
property float x
property float y
property float z
property uchar diffuse_red
property uchar diffuse_green
property uchar diffuse_blue
end_header
5.369984e-01 2.183961e+00 2.662032e+00 73 61 59
5.197387e-01 2.186560e+00 2.660337e+00 155 150 144
5.390965e-01 2.183219e+00 2.664833e+00 201 196 189
5.029396e-01 2.188306e+00 2.665199e+00 101 87 74
5.384523e-01 2.185206e+00 2.662402e+00 88 78 77
5.352527e-01 2.186376e+00 2.659177e+00 102 93 87
5.273486e-01 2.189414e+00 2.656697e+00 94 78 61
7.383277e-02 1.488227e+00 3.333557e+00 164 160 157
6.413145e-02 1.477368e+00 3.362063e+00 42 37 40
6.413145e-02 1.477368e+00 3.362063e+00 42 37 40
4.707003e-01 2.051757e+00 2.746067e+00 102 99 90
3.545067e-01 1.895110e+00 2.941744e+00 162 160 156
5.320819e-01 2.135994e+00 2.660546e+00 189 179 170
4.893484e-01 2.118644e+00 2.671874e+00 188 183 180
4.821590e-01 2.119156e+00 2.670665e+00 93 90 84
5.329638e-01 2.142396e+00 2.654834e+00 172 163 142
5.080576e-01 2.135504e+00 2.659793e+00 116 112 108
5.131069e-01 2.138486e+00 2.656907e+00 63 60 55
5.105143e-01 2.137465e+00 2.658618e+00 173 169 160
5.362639e-01 2.147027e+00 2.653040e+00 179 172 163
5.362639e-01 2.147027e+00 2.653040e+00 179 172 163
5.351688e-01 2.145586e+00 2.656376e+00 182 176 161
5.441364e-01 2.152244e+00 2.648671e+00 171 165 153
5.364308e-01 2.147571e+00 2.653853e+00 191 183 169
5.366900e-01 2.144009e+00 2.662076e+00 51 41 32
5.327722e-01 2.138325e+00 2.671143e+00 160 148 133
5.264737e-01 2.147841e+00 2.652502e+00 172 168 162
5.297055e-01 2.136904e+00 2.676308e+00 109 98 95
5.452366e-01 2.156802e+00 2.649415e+00 150 141 126
5.407845e-01 2.152304e+00 2.656874e+00 109 92 78
5.458791e-01 2.157997e+00 2.648368e+00 50 39 35
5.295569e-01 2.155502e+00 2.648281e+00 169 155 137
5.214068e-01 2.130836e+00 2.693854e+00 184 179 175
5.400101e-01 2.154606e+00 2.654505e+00 78 71 63
5.471352e-01 2.160587e+00 2.646057e+00 177 164 147
5.385420e-01 2.150686e+00 2.663019e+00 171 163 143
5.093117e-01 2.157509e+00 2.641898e+00 142 134 115
5.342858e-01 2.160992e+00 2.642457e+00 187 180 172
5.240654e-01 2.160887e+00 2.640401e+00 180 172 158
5.477460e-01 2.165108e+00 2.639156e+00 180 176 173
5.092746e-01 2.158558e+00 2.642972e+00 51 36 30
5.305990e-01 2.143362e+00 2.679116e+00 192 188 181
5.223172e-01 2.163121e+00 2.638073e+00 166 161 133
5.418049e-01 2.156089e+00 2.657740e+00 161 150 128
5.484739e-01 2.166661e+00 2.638836e+00 101 98 93
4.843781e-01 2.089310e+00 2.778934e+00 203 203 200
5.415850e-01 2.156717e+00 2.657318e+00 164 160 156
5.274964e-01 2.165730e+00 2.636457e+00 166 152 128
5.404474e-01 2.156145e+00 2.659825e+00 203 196 188
5.219957e-01 2.164406e+00 2.638459e+00 139 132 104
5.233969e-01 2.135818e+00 2.698720e+00 67 57 50
5.246902e-01 2.137625e+00 2.696089e+00 165 159 145
5.216396e-01 2.134362e+00 2.702391e+00 188 182 170
5.374264e-01 2.153167e+00 2.667177e+00 53 43 41
5.240956e-01 2.138261e+00 2.695839e+00 167 160 140
5.436709e-01 2.160364e+00 2.654248e+00 147 133 107
5.277208e-01 2.166866e+00 2.637227e+00 101 89 73
5.422831e-01 2.170197e+00 2.633669e+00 101 86 71
5.435316e-01 2.159356e+00 2.656789e+00 180 173 163
5.047292e-01 2.115748e+00 2.740234e+00 202 195 187
5.466619e-01 2.166371e+00 2.643242e+00 97 85 74
5.466619e-01 2.166371e+00 2.643242e+00 97 85 74
5.321362e-01 2.168283e+00 2.635957e+00 165 154 123
5.070957e-01 2.118798e+00 2.735463e+00 61 48 40
5.439977e-01 2.160203e+00 2.655901e+00 173 164 149
5.474968e-01 2.166401e+00 2.643779e+00 77 60 52
5.485780e-01 2.168446e+00 2.640331e+00 149 135 109
5.395710e-01 2.157276e+00 2.663609e+00 53 42 28
5.189427e-01 2.166257e+00 2.640559e+00 166 154 130
5.278838e-01 2.168645e+00 2.637750e+00 95 79 65
5.464742e-01 2.168156e+00 2.642826e+00 149 136 120
5.478881e-01 2.168863e+00 2.641467e+00 149 136 120
5.253805e-01 2.168062e+00 2.639447e+00 167 150 119
5.397405e-01 2.159049e+00 2.662884e+00 171 169 164
5.483297e-01 2.170860e+00 2.638538e+00 151 136 112
5.403427e-01 2.172143e+00 2.634328e+00 168 156 134
5.403427e-01 2.172143e+00 2.634328e+00 168 156 134
4.135851e-01 2.012390e+00 2.968185e+00 190 179 164
4.185233e-01 2.019084e+00 2.958571e+00 88 74 62
4.185233e-01 2.019084e+00 2.958571e+00 88 74 62
5.495869e-01 2.170166e+00 2.642290e+00 163 152 133
5.477055e-01 2.169077e+00 2.644173e+00 163 152 133
5.241771e-01 2.141580e+00 2.703290e+00 93 78 69
5.317690e-01 2.151929e+00 2.681156e+00 154 148 136
5.390937e-01 2.172395e+00 2.635906e+00 185 173 157
5.415409e-01 2.162653e+00 2.658619e+00 68 58 57
5.415409e-01 2.162653e+00 2.658619e+00 68 58 57
5.400388e-01 2.161461e+00 2.661282e+00 125 111 102
5.435239e-01 2.173577e+00 2.634739e+00 162 147 120
5.333949e-01 2.153997e+00 2.678580e+00 189 182 176
5.278418e-01 2.146007e+00 2.696391e+00 176 172 163
5.424173e-01 2.162805e+00 2.660493e+00 192 185 173
5.425780e-01 2.173768e+00 2.636082e+00 152 138 111
5.477943e-01 2.171296e+00 2.642580e+00 65 58 44
5.491827e-01 2.174818e+00 2.634377e+00 121 109 81
5.375909e-01 2.159156e+00 2.669855e+00 159 152 134
5.281473e-01 2.171345e+00 2.640841e+00 100 85 65
5.317860e-01 2.172347e+00 2.639040e+00 86 70 47
5.317221e-01 2.172183e+00 2.639661e+00 183 174 158
5.411604e-01 2.165566e+00 2.656840e+00 69 51 40
5.411604e-01 2.165566e+00 2.656840e+00 69 51 40
5.418093e-01 2.174063e+00 2.636818e+00 79 60 29
5.473133e-01 2.174719e+00 2.636061e+00 31 22 16
4.991867e-01 2.165880e+00 2.653024e+00 54 42 32
4.794168e-01 2.093885e+00 2.826121e+00 164 155 145
5.330245e-01 2.153222e+00 2.687652e+00 114 106 97
5.458901e-01 2.173848e+00 2.638970e+00 57 42 37
5.377890e-01 2.174123e+00 2.637892e+00 96 80 54
5.461094e-01 2.172238e+00 2.643468e+00 170 160 150
5.356141e-01 2.156309e+00 2.681441e+00 70 60 51
5.296411e-01 2.152551e+00 2.689935e+00 70 60 51
5.388299e-01 2.174717e+00 2.637027e+00 161 149 129
5.284397e-01 2.151733e+00 2.692728e+00 56 50 54
5.352467e-01 2.156021e+00 2.682935e+00 56 50 54
5.361767e-01 2.157111e+00 2.680371e+00 192 185 180
5.445695e-01 2.170145e+00 2.650122e+00 148 136 115
5.026564e-01 2.120846e+00 2.770441e+00 74 63 49
5.085625e-01 2.127452e+00 2.755605e+00 86 69 59
5.191268e-01 2.140091e+00 2.724842e+00 186 178 168
5.303373e-01 2.155560e+00 2.686715e+00 184 176 163
5.449412e-01 2.174291e+00 2.640939e+00 160 146 113
5.431101e-01 2.169374e+00 2.653616e+00 92 80 59
5.441102e-01 2.170829e+00 2.650324e+00 86 73 57
5.459291e-01 2.172301e+00 2.646892e+00 57 42 34
5.109479e-01 2.170901e+00 2.649137e+00 188 188 182
5.407993e-01 2.165309e+00 2.665447e+00 179 173 159
5.165899e-01 2.172221e+00 2.646851e+00 174 174 171
5.165899e-01 2.172221e+00 2.646851e+00 174 174 171
5.188739e-01 2.144392e+00 2.718315e+00 186 178 167
5.416983e-01 2.171158e+00 2.651787e+00 65 47 30
5.425129e-01 2.171487e+00 2.650986e+00 65 47 30
5.415136e-01 2.171539e+00 2.651110e+00 168 160 137
5.118202e-01 2.171187e+00 2.651432e+00 59 51 40
5.118202e-01 2.171187e+00 2.651432e+00 59 51 40
5.364049e-01 2.163469e+00 2.673723e+00 60 50 48
5.193251e-01 2.172779e+00 2.649288e+00 164 155 140
5.409803e-01 2.167884e+00 2.662482e+00 135 127 119
5.427209e-01 2.172501e+00 2.650395e+00 139 127 108
5.359785e-01 2.161496e+00 2.679681e+00 196 186 176
5.437816e-01 2.172926e+00 2.650240e+00 137 132 112
5.350008e-01 2.163445e+00 2.677580e+00 196 193 186
5.218771e-01 2.145586e+00 2.729056e+00 190 186 182
5.369205e-01 2.166887e+00 2.670444e+00 71 62 53
5.401733e-01 2.174993e+00 2.648546e+00 158 150 129
5.275609e-01 2.153494e+00 2.710474e+00 187 181 169
5.391929e-01 2.175661e+00 2.647979e+00 168 157 143
5.391929e-01 2.175661e+00 2.647979e+00 168 157 143
4.934855e-01 2.171558e+00 2.661712e+00 154 148 134
5.418096e-01 2.175859e+00 2.647641e+00 191 183 165
5.264879e-01 2.176173e+00 2.647737e+00 169 165 156
5.368126e-01 2.168142e+00 2.669845e+00 74 64 55
5.293291e-01 2.155100e+00 2.707709e+00 96 81 70
5.316420e-01 2.162464e+00 2.686783e+00 194 191 179
5.386192e-01 2.176098e+00 2.648099e+00 184 176 165
5.055050e-01 2.174160e+00 2.656166e+00 161 155 143
5.290903e-01 2.156613e+00 2.704479e+00 110 103 96
5.338089e-01 2.163974e+00 2.683409e+00 52 43 38
5.299324e-01 2.156651e+00 2.704654e+00 193 186 179
5.391392e-01 2.176204e+00 2.648315e+00 193 186 178
5.423250e-01 2.176871e+00 2.646562e+00 121 113 94
5.342221e-01 2.177548e+00 2.645493e+00 164 148 133
5.429553e-01 2.177079e+00 2.646326e+00 166 158 135
5.051081e-01 2.174556e+00 2.657087e+00 191 188 183
5.357352e-01 2.169385e+00 2.669676e+00 212 209 200
5.360849e-01 2.177826e+00 2.645480e+00 160 152 132
5.285792e-01 2.156425e+00 2.708965e+00 109 97 88
5.210517e-01 2.176824e+00 2.650344e+00 78 66 48
5.322970e-01 2.177965e+00 2.646289e+00 109 100 83
5.236785e-01 2.153199e+00 2.719399e+00 136 128 128
5.357591e-01 2.177843e+00 2.646615e+00 52 44 32
5.374020e-01 2.178288e+00 2.645259e+00 52 44 32
5.325774e-01 2.164345e+00 2.686523e+00 88 82 78
4.894298e-01 2.173926e+00 2.663004e+00 150 137 121
5.311314e-01 2.159274e+00 2.702295e+00 61 48 40
5.421816e-01 2.175340e+00 2.654124e+00 170 162 153
5.329493e-01 2.166269e+00 2.682816e+00 188 183 174
5.315865e-01 2.161405e+00 2.698026e+00 196 190 176
5.165333e-01 2.176996e+00 2.653909e+00 104 97 82
5.165333e-01 2.176996e+00 2.653909e+00 104 97 82
5.383613e-01 2.172952e+00 2.663956e+00 77 61 49
5.383613e-01 2.172952e+00 2.663956e+00 77 61 49
5.339598e-01 2.168661e+00 2.678033e+00 178 174 165
5.135154e-01 2.177450e+00 2.654634e+00 129 121 104
4.846740e-01 2.174627e+00 2.668944e+00 176 165 145
4.846740e-01 2.174627e+00 2.668944e+00 176 165 145
5.214629e-01 2.178068e+00 2.653673e+00 182 173 163
5.360506e-01 2.169049e+00 2.679594e+00 183 175 159
5.387792e-01 2.175691e+00 2.658756e+00 178 171 155
5.408576e-01 2.177792e+00 2.651950e+00 169 161 148
5.408576e-01 2.177792e+00 2.651950e+00 169 161 148
5.407047e-01 2.178135e+00 2.651634e+00 166 159 149
5.220438e-01 2.178406e+00 2.653571e+00 52 38 34
5.337713e-01 2.165804e+00 2.691982e+00 185 181 170
5.219364e-01 2.178776e+00 2.653787e+00 205 207 201
4.818840e-01 2.175854e+00 2.671059e+00 184 184 178
4.849255e-01 2.176041e+00 2.670101e+00 100 92 80
4.997969e-01 2.178285e+00 2.662656e+00 206 204 198
4.996517e-01 2.178035e+00 2.663726e+00 193 186 174
5.367099e-01 2.177096e+00 2.659536e+00 161 155 140
5.367754e-01 2.169997e+00 2.682789e+00 91 81 73
5.367754e-01 2.169997e+00 2.682789e+00 91 81 73
5.376034e-01 2.177395e+00 2.659183e+00 173 165 155
5.375900e-01 2.170793e+00 2.681631e+00 172 159 141
5.374007e-01 2.171656e+00 2.679537e+00 169 158 138
5.374007e-01 2.171656e+00 2.679537e+00 169 158 138
5.356470e-01 2.181090e+00 2.649474e+00 158 149 134
5.102218e-01 2.180533e+00 2.660922e+00 189 182 174
5.339688e-01 2.176123e+00 2.669919e+00 90 80 71
5.080502e-01 2.180654e+00 2.661918e+00 201 198 190
5.097950e-01 2.181302e+00 2.660496e+00 83 75 73
5.369634e-01 2.181021e+00 2.655974e+00 164 157 147
5.348676e-01 2.179199e+00 2.665223e+00 192 186 174
5.353784e-01 2.182134e+00 2.654793e+00 92 83 67
4.746700e-01 2.181236e+00 2.679464e+00 182 178 166
5.389497e-01 2.177475e+00 2.671354e+00 101 89 77
5.365651e-01 2.180317e+00 2.663373e+00 202 193 185
5.000673e-01 2.183319e+00 2.668403e+00 102 88 69
4.685844e-01 2.185932e+00 2.678605e+00 112 95 78
5.066925e-01 2.185121e+00 2.666544e+00 202 202 190
5.374706e-01 2.180947e+00 2.668904e+00 148 137 120
4.645880e-01 2.186634e+00 2.680950e+00 72 59 49
5.308829e-01 2.184759e+00 2.658515e+00 95 78 61
5.308829e-01 2.184759e+00 2.658515e+00 95 78 61
5.368349e-01 2.182813e+00 2.664837e+00 171 162 150
5.304883e-01 2.185272e+00 2.659227e+00 176 168 157
5.304883e-01 2.185272e+00 2.659227e+00 176 168 157
4.608716e-01 2.188385e+00 2.683704e+00 120 110 100
5.372045e-01 2.183028e+00 2.665550e+00 105 91 65
5.010642e-01 2.187750e+00 2.666250e+00 179 164 146
4.894189e-01 2.188194e+00 2.671661e+00 80 66 64
5.391238e-01 2.185130e+00 2.658296e+00 79 61 48
4.929227e-01 2.188548e+00 2.670480e+00 161 153 139
5.361110e-01 2.185411e+00 2.660229e+00 176 162 142
5.310144e-01 2.187102e+00 2.657171e+00 192 185 175
4.992592e-01 2.189330e+00 2.667910e+00 105 86 71
5.355495e-01 2.185481e+00 2.662795e+00 161 150 128
5.290733e-01 2.187740e+00 2.657376e+00 126 111 105
5.063435e-01 2.189156e+00 2.665450e+00 178 167 148
5.362589e-01 2.185506e+00 2.663836e+00 127 116 112
5.025553e-01 2.190100e+00 2.667522e+00 85 67 49
5.078405e-01 2.189818e+00 2.665807e+00 179 171 144
5.103046e-01 2.189934e+00 2.663903e+00 179 171 144
5.248390e-01 2.189317e+00 2.657495e+00 86 69 51
5.175904e-01 2.113065e+00 2.675897e+00 67 66 62
5.110414e-01 2.114838e+00 2.675566e+00 185 182 177
4.991476e-01 2.120257e+00 2.669229e+00 177 176 172
5.286118e-01 2.136039e+00 2.658895e+00 186 181 165
5.388866e-01 2.140837e+00 2.656797e+00 72 62 58
5.388866e-01 2.140837e+00 2.656797e+00 72 62 58
5.356506e-01 2.140787e+00 2.656760e+00 68 60 49
5.323492e-01 2.142595e+00 2.654976e+00 86 75 67
5.407472e-01 2.146067e+00 2.652929e+00 104 93 82
4.999976e-01 2.132742e+00 2.659910e+00 89 83 72
5.118680e-01 2.136011e+00 2.660364e+00 179 175 164
5.121942e-01 2.137774e+00 2.658134e+00 164 160 151
5.309393e-01 2.136225e+00 2.669668e+00 190 185 175
5.309393e-01 2.136225e+00 2.669668e+00 190 185 175
4.974056e-01 2.136274e+00 2.657474e+00 174 170 163
5.341107e-01 2.140373e+00 2.665667e+00 102 91 73
5.154457e-01 2.140974e+00 2.657756e+00 161 154 141
5.382091e-01 2.145321e+00 2.658882e+00 135 126 113
5.345413e-01 2.151264e+00 2.648814e+00 107 103 98
5.384791e-01 2.152169e+00 2.648934e+00 177 169 150
5.329724e-01 2.150578e+00 2.650047e+00 180 177 168
5.303951e-01 2.149362e+00 2.651189e+00 184 178 167
5.076367e-01 2.149978e+00 2.642939e+00 88 76 66
5.054705e-01 2.147366e+00 2.647320e+00 164 154 145
5.053255e-01 2.148190e+00 2.645874e+00 177 164 138
5.048784e-01 2.148293e+00 2.645621e+00 173 166 148
5.106659e-01 2.143910e+00 2.655834e+00 192 187 183
5.130572e-01 2.147638e+00 2.650017e+00 130 120 106
5.322328e-01 2.152287e+00 2.648618e+00 193 190 184
5.224589e-01 2.147229e+00 2.654545e+00 129 124 113
5.444844e-01 2.153785e+00 2.650824e+00 177 168 159
5.052087e-01 2.148419e+00 2.647273e+00 168 157 136
5.289749e-01 2.136231e+00 2.679707e+00 63 56 50
5.198556e-01 2.150104e+00 2.651408e+00 118 109 102
5.213753e-01 2.150658e+00 2.651173e+00 123 118 113
5.392011e-01 2.148504e+00 2.661468e+00 134 122 106
5.383910e-01 2.147745e+00 2.662876e+00 157 149 130
5.408470e-01 2.150738e+00 2.658821e+00 183 175 156
5.425577e-01 2.153785e+00 2.653885e+00 63 52 47
5.402769e-01 2.151556e+00 2.660281e+00 129 118 100
5.398338e-01 2.151586e+00 2.660955e+00 72 60 59
5.313818e-01 2.157914e+00 2.646331e+00 182 176 164
5.136097e-01 2.158526e+00 2.640101e+00 89 73 50
5.250666e-01 2.134885e+00 2.689855e+00 122 117 110
5.250666e-01 2.134885e+00 2.689855e+00 122 117 110
5.472617e-01 2.164538e+00 2.639448e+00 63 60 53
5.294765e-01 2.140379e+00 2.681743e+00 70 64 53
5.294765e-01 2.140379e+00 2.681743e+00 70 64 53
5.304487e-01 2.159427e+00 2.645025e+00 180 173 162
5.292326e-01 2.162766e+00 2.638219e+00 177 177 167
5.361408e-01 2.164286e+00 2.637635e+00 152 149 142
5.438178e-01 2.156711e+00 2.654560e+00 174 163 134
5.321084e-01 2.163554e+00 2.638391e+00 79 63 48
5.463367e-01 2.160882e+00 2.647847e+00 142 126 110
5.439147e-01 2.164459e+00 2.640081e+00 170 156 132
5.450102e-01 2.165007e+00 2.639817e+00 102 88 73
5.180324e-01 2.161664e+00 2.639649e+00 171 164 153
5.368103e-01 2.166385e+00 2.635279e+00 131 125 110
5.331823e-01 2.146688e+00 2.674893e+00 160 154 140
5.327923e-01 2.166134e+00 2.635730e+00 170 166 154
5.468665e-01 2.167387e+00 2.637299e+00 143 135 127
5.440685e-01 2.167158e+00 2.637053e+00 110 109 105
5.329694e-01 2.146840e+00 2.676100e+00 75 66 53
5.488437e-01 2.165455e+00 2.642159e+00 155 137 115
5.488437e-01 2.165455e+00 2.642159e+00 155 137 115
5.454331e-01 2.160675e+00 2.651275e+00 173 160 138
5.448676e-01 2.169230e+00 2.633677e+00 47 43 34
5.441039e-01 2.160727e+00 2.652606e+00 155 142 126
5.361223e-01 2.151929e+00 2.669242e+00 171 163 157
5.234984e-01 2.134761e+00 2.701975e+00 65 60 54
5.234984e-01 2.134761e+00 2.701975e+00 65 60 54
5.464219e-01 2.164388e+00 2.646941e+00 101 93 84
5.112538e-01 2.123854e+00 2.726348e+00 163 158 151
5.302428e-01 2.168043e+00 2.637337e+00 158 143 125
5.412734e-01 2.170521e+00 2.634677e+00 181 172 155
5.465241e-01 2.171424e+00 2.634771e+00 170 161 151
5.456886e-01 2.164836e+00 2.649516e+00 102 93 76
5.009983e-01 2.161188e+00 2.649317e+00 104 95 89
5.454024e-01 2.164493e+00 2.650376e+00 173 160 139
5.093706e-01 2.163685e+00 2.645558e+00 55 50 47
5.489568e-01 2.170164e+00 2.638762e+00 135 123 109
5.399897e-01 2.159158e+00 2.661814e+00 77 66 55
5.474236e-01 2.169514e+00 2.640489e+00 75 63 58
5.368139e-01 2.170888e+00 2.635533e+00 69 52 45
5.518732e-01 2.172211e+00 2.635697e+00 158 149 130
5.401087e-01 2.171993e+00 2.634209e+00 154 142 116
5.390941e-01 2.159118e+00 2.664074e+00 172 168 165
5.489304e-01 2.171552e+00 2.637926e+00 62 49 32
5.483554e-01 2.169357e+00 2.642915e+00 164 148 123
5.348453e-01 2.153848e+00 2.675969e+00 150 145 140
5.486491e-01 2.171800e+00 2.637806e+00 133 120 103
5.339891e-01 2.153090e+00 2.677811e+00 66 56 43
5.105500e-01 2.165378e+00 2.646865e+00 95 77 65
5.408305e-01 2.172633e+00 2.635388e+00 78 64 40
5.314108e-01 2.170788e+00 2.638427e+00 186 175 157
5.396823e-01 2.161578e+00 2.661089e+00 174 165 152
5.344774e-01 2.155035e+00 2.675971e+00 88 81 72
5.343181e-01 2.155517e+00 2.675872e+00 158 153 133
5.343181e-01 2.155517e+00 2.675872e+00 158 153 133
5.343181e-01 2.155517e+00 2.675872e+00 158 153 133
5.439041e-01 2.173711e+00 2.635088e+00 141 124 104
5.362160e-01 2.172671e+00 2.636512e+00 182 172 145
5.400630e-01 2.162436e+00 2.661387e+00 197 191 180
5.418178e-01 2.163418e+00 2.659386e+00 197 191 180
5.241220e-01 2.144436e+00 2.701472e+00 178 172 154
5.423894e-01 2.164650e+00 2.656683e+00 79 69 60
5.485384e-01 2.173947e+00 2.635774e+00 70 60 45
5.459634e-01 2.168552e+00 2.648325e+00 90 82 77
5.449902e-01 2.173995e+00 2.635165e+00 149 136 120
5.490316e-01 2.173961e+00 2.636132e+00 117 106 88
5.377428e-01 2.173215e+00 2.637824e+00 99 86 70
5.377428e-01 2.173215e+00 2.637824e+00 99 86 70
5.376140e-01 2.173375e+00 2.638140e+00 160 142 115
5.160358e-01 2.168932e+00 2.646582e+00 89 82 77
5.465906e-01 2.172428e+00 2.641834e+00 173 162 140
5.465083e-01 2.172259e+00 2.642447e+00 165 156 141
5.381420e-01 2.174398e+00 2.637066e+00 146 131 103
5.461947e-01 2.174661e+00 2.637335e+00 168 159 145
5.458363e-01 2.173917e+00 2.639148e+00 66 56 46
5.108533e-01 2.133378e+00 2.735469e+00 193 186 166
5.014805e-01 2.167076e+00 2.652551e+00 164 157 150
5.014805e-01 2.167076e+00 2.652551e+00 164 157 150
5.461425e-01 2.171306e+00 2.646689e+00 180 172 158
5.120038e-01 2.169770e+00 2.648836e+00 127 116 95
5.360172e-01 2.173692e+00 2.640846e+00 166 163 141
5.161323e-01 2.139120e+00 2.725946e+00 58 45 31
5.463394e-01 2.172190e+00 2.645711e+00 163 155 136
5.367913e-01 2.173947e+00 2.640644e+00 158 147 129
5.212552e-01 2.144997e+00 2.712636e+00 175 167 157
5.184385e-01 2.136938e+00 2.734164e+00 206 206 207
5.116328e-01 2.130582e+00 2.750263e+00 176 163 144
5.449738e-01 2.175024e+00 2.640342e+00 86 73 57
5.381777e-01 2.164684e+00 2.666251e+00 108 99 93
5.341547e-01 2.174178e+00 2.642107e+00 82 66 48
5.117304e-01 2.171336e+00 2.648199e+00 39 29 28
5.204055e-01 2.145191e+00 2.715217e+00 96 87 83
5.442133e-01 2.174931e+00 2.640736e+00 130 122 108
5.163603e-01 2.171826e+00 2.647563e+00 168 153 134
5.381030e-01 2.174942e+00 2.640863e+00 78 61 51
5.448893e-01 2.175670e+00 2.639324e+00 151 140 117
5.407999e-01 2.175457e+00 2.639930e+00 183 176 154
5.227798e-01 2.148120e+00 2.709108e+00 161 155 141
5.140537e-01 2.171248e+00 2.650189e+00 43 32 27
5.204613e-01 2.140982e+00 2.729458e+00 158 148 136
5.120603e-01 2.171053e+00 2.651674e+00 176 162 136
5.438991e-01 2.175169e+00 2.641998e+00 87 74 63
5.449064e-01 2.176577e+00 2.638569e+00 97 83 57
5.451943e-01 2.174883e+00 2.643257e+00 123 116 101
5.116944e-01 2.171518e+00 2.651626e+00 175 167 154
5.413615e-01 2.171909e+00 2.651403e+00 55 42 36
5.246665e-01 2.146787e+00 2.719583e+00 81 69 64
5.406444e-01 2.172572e+00 2.651035e+00 175 163 140
5.406444e-01 2.172572e+00 2.651035e+00 175 163 140
5.452351e-01 2.175608e+00 2.643089e+00 82 69 52
5.408466e-01 2.172414e+00 2.651652e+00 172 165 147
5.287381e-01 2.155300e+00 2.697258e+00 82 75 73
5.345051e-01 2.163435e+00 2.676176e+00 171 164 147
5.266850e-01 2.149596e+00 2.713444e+00 188 180 168
5.401701e-01 2.170538e+00 2.657951e+00 177 170 152
5.408951e-01 2.173308e+00 2.650495e+00 183 174 162
5.357800e-01 2.164489e+00 2.676039e+00 198 197 192
5.253558e-01 2.149785e+00 2.716798e+00 176 169 144
5.253558e-01 2.149785e+00 2.716798e+00 176 169 144
5.375341e-01 2.167218e+00 2.668774e+00 75 60 55
5.436828e-01 2.173481e+00 2.651481e+00 150 138 125
5.372285e-01 2.167408e+00 2.669045e+00 178 173 165
5.419651e-01 2.171188e+00 2.658548e+00 134 127 111
5.417921e-01 2.172961e+00 2.654008e+00 161 153 141
5.273808e-01 2.175595e+00 2.647330e+00 157 150 123
5.440335e-01 2.174637e+00 2.649594e+00 96 80 66
5.403688e-01 2.175243e+00 2.648040e+00 29 20 6
5.121710e-01 2.174252e+00 2.652184e+00 166 164 150
5.435623e-01 2.174566e+00 2.650344e+00 122 107 83
5.300799e-01 2.158195e+00 2.696777e+00 184 175 162
5.396788e-01 2.175484e+00 2.648261e+00 71 59 50
5.396788e-01 2.175484e+00 2.648261e+00 71 59 50
5.271162e-01 2.175570e+00 2.648990e+00 51 39 28
5.187123e-01 2.175833e+00 2.649413e+00 144 128 102
5.395554e-01 2.176710e+00 2.646996e+00 54 47 31
5.105808e-01 2.174921e+00 2.655083e+00 60 47 39
4.985754e-01 2.174056e+00 2.658973e+00 128 124 121
5.420279e-01 2.177424e+00 2.646069e+00 112 104 88
5.393614e-01 2.177100e+00 2.647248e+00 178 170 156
5.003134e-01 2.173891e+00 2.659819e+00 201 200 195
5.396741e-01 2.174881e+00 2.653805e+00 157 146 131
5.415760e-01 2.173057e+00 2.658857e+00 129 119 95
5.344643e-01 2.165923e+00 2.680782e+00 160 148 139
5.081402e-01 2.175169e+00 2.656689e+00 56 43 33
5.081402e-01 2.175169e+00 2.656689e+00 56 43 33
5.339234e-01 2.165797e+00 2.682006e+00 167 163 152
5.142140e-01 2.176066e+00 2.654079e+00 170 159 139
5.414533e-01 2.175148e+00 2.654500e+00 82 75 68
5.388976e-01 2.175344e+00 2.654243e+00 186 180 166
5.378954e-01 2.172546e+00 2.663770e+00 78 68 59
5.394826e-01 2.172892e+00 2.663930e+00 164 156 145
5.399152e-01 2.174993e+00 2.658098e+00 78 68 56
5.320491e-01 2.162621e+00 2.697781e+00 195 188 167
5.391835e-01 2.173463e+00 2.664012e+00 72 64 53
4.876872e-01 2.174953e+00 2.667785e+00 175 169 152
5.410640e-01 2.177564e+00 2.652055e+00 169 161 145
5.375713e-01 2.177817e+00 2.651803e+00 86 75 65
5.345921e-01 2.165604e+00 2.690232e+00 172 164 153
5.406305e-01 2.178192e+00 2.650454e+00 163 155 145
4.863119e-01 2.175235e+00 2.668210e+00 55 43 36
5.331827e-01 2.164233e+00 2.695056e+00 170 163 149
5.345813e-01 2.170713e+00 2.674791e+00 204 199 186
5.345813e-01 2.170713e+00 2.674791e+00 204 199 186
5.380497e-01 2.175045e+00 2.661012e+00 188 183 176
5.220306e-01 2.178202e+00 2.653917e+00 169 161 148
5.334487e-01 2.169519e+00 2.679448e+00 192 186 172
5.364532e-01 2.174375e+00 2.664239e+00 198 193 186
5.132862e-01 2.178691e+00 2.654731e+00 104 91 75
5.365359e-01 2.178740e+00 2.651365e+00 107 95 81
4.918523e-01 2.176421e+00 2.666555e+00 95 82 75
5.365679e-01 2.168487e+00 2.685051e+00 177 171 158
5.156743e-01 2.179420e+00 2.654383e+00 142 126 103
5.361523e-01 2.170758e+00 2.678130e+00 153 143 139
5.389102e-01 2.174707e+00 2.665176e+00 138 125 101
5.378744e-01 2.177129e+00 2.658643e+00 76 66 58
5.350018e-01 2.172329e+00 2.675107e+00 206 205 192
5.042288e-01 2.178390e+00 2.662227e+00 144 134 124
5.370949e-01 2.179997e+00 2.650313e+00 183 184 171
5.377985e-01 2.178757e+00 2.655039e+00 152 146 124
5.391833e-01 2.179807e+00 2.651327e+00 82 67 46
5.387857e-01 2.171803e+00 2.677692e+00 95 78 72
5.334270e-01 2.180575e+00 2.650246e+00 60 49 44
5.360879e-01 2.178018e+00 2.658395e+00 93 80 76
5.363938e-01 2.178589e+00 2.656939e+00 149 146 131
5.385579e-01 2.172300e+00 2.677289e+00 108 94 84
5.354933e-01 2.178232e+00 2.659327e+00 151 145 131
5.383753e-01 2.179138e+00 2.657421e+00 114 104 94
5.377691e-01 2.172899e+00 2.679005e+00 99 81 67
5.351581e-01 2.180301e+00 2.655005e+00 172 162 150
5.362659e-01 2.181562e+00 2.650795e+00 123 116 98
5.078619e-01 2.180994e+00 2.660894e+00 97 85 80
5.407798e-01 2.175786e+00 2.669955e+00 103 91 83
5.204514e-01 2.181298e+00 2.657364e+00 178 174 162
5.388723e-01 2.175462e+00 2.672435e+00 180 175 152
5.169939e-01 2.181518e+00 2.657789e+00 175 167 156
5.184712e-01 2.181351e+00 2.658276e+00 50 40 38
5.192823e-01 2.181518e+00 2.657585e+00 50 40 38
5.192823e-01 2.181518e+00 2.657585e+00 50 40 38
5.351422e-01 2.177629e+00 2.667137e+00 112 107 104
5.356172e-01 2.178499e+00 2.665744e+00 186 183 175
5.333254e-01 2.181743e+00 2.655531e+00 210 201 192
5.331479e-01 2.182066e+00 2.654305e+00 135 123 114
4.778739e-01 2.181304e+00 2.676805e+00 57 44 42
5.371523e-01 2.175341e+00 2.678878e+00 137 133 132
5.360431e-01 2.181299e+00 2.658199e+00 136 124 108
5.376122e-01 2.175848e+00 2.677723e+00 145 135 139
5.389216e-01 2.178010e+00 2.669338e+00 87 74 58
5.405084e-01 2.178481e+00 2.667301e+00 87 74 58
5.378303e-01 2.176314e+00 2.676928e+00 126 118 120
5.320240e-01 2.183118e+00 2.654150e+00 78 64 55
5.128377e-01 2.183303e+00 2.660309e+00 164 148 132
5.331375e-01 2.179727e+00 2.665988e+00 90 81 73
5.389417e-01 2.178738e+00 2.667873e+00 188 181 163
4.976925e-01 2.182660e+00 2.669274e+00 174 165 148
4.976925e-01 2.182660e+00 2.669274e+00 174 165 148
5.159824e-01 2.183682e+00 2.658891e+00 152 137 117
5.353376e-01 2.182727e+00 2.655804e+00 67 53 46
5.330961e-01 2.180330e+00 2.665598e+00 201 195 179
5.349745e-01 2.182645e+00 2.656660e+00 106 94 78
5.365524e-01 2.180381e+00 2.664443e+00 188 184 173
5.407877e-01 2.180426e+00 2.663819e+00 171 166 140
5.379220e-01 2.179344e+00 2.669162e+00 104 89 70
5.379220e-01 2.179344e+00 2.669162e+00 104 89 70
5.407466e-01 2.180644e+00 2.663543e+00 181 176 147
4.945516e-01 2.183775e+00 2.670990e+00 145 139 125
5.370087e-01 2.178517e+00 2.673682e+00 103 89 79
5.405797e-01 2.180978e+00 2.663491e+00 76 64 65
5.320207e-01 2.183120e+00 2.659621e+00 85 72 62
5.385255e-01 2.181480e+00 2.664611e+00 78 65 58
5.385255e-01 2.181480e+00 2.664611e+00 78 65 58
5.288583e-01 2.184937e+00 2.655552e+00 148 132 108
5.318924e-01 2.183371e+00 2.660592e+00 89 75 65
4.855580e-01 2.186114e+00 2.671372e+00 109 96 85
4.855580e-01 2.186114e+00 2.671372e+00 109 96 85
5.307687e-01 2.183510e+00 2.662058e+00 78 70 62
5.198495e-01 2.185203e+00 2.661067e+00 80 67 58
5.375568e-01 2.182283e+00 2.664329e+00 194 188 165
4.644763e-01 2.186864e+00 2.681569e+00 181 174 156
5.373290e-01 2.182528e+00 2.663539e+00 157 144 125
4.710559e-01 2.187057e+00 2.679319e+00 175 170 158
4.940125e-01 2.187187e+00 2.668531e+00 178 165 148
4.701843e-01 2.187456e+00 2.680045e+00 176 173 150
5.391188e-01 2.184358e+00 2.659336e+00 74 59 53
4.834121e-01 2.188026e+00 2.673870e+00 80 62 43
4.909006e-01 2.188649e+00 2.671470e+00 91 77 68
5.359787e-01 2.184306e+00 2.664394e+00 81 75 61
5.312377e-01 2.186805e+00 2.657057e+00 108 94 88
4.744375e-01 2.189998e+00 2.677269e+00 225 229 232
4.972887e-01 2.188813e+00 2.669129e+00 203 195 180
5.012808e-01 2.188985e+00 2.667518e+00 177 168 154
5.196870e-01 2.188653e+00 2.659233e+00 117 103 81
5.349299e-01 2.186043e+00 2.661185e+00 173 166 145
5.109671e-01 2.189215e+00 2.663215e+00 168 158 138
5.345980e-01 2.186966e+00 2.658732e+00 183 172 158
5.236107e-01 2.188843e+00 2.657667e+00 94 78 64
5.072658e-01 2.189544e+00 2.665974e+00 100 82 70
5.339833e-01 2.187598e+00 2.658716e+00 161 147 120
5.345535e-01 2.187471e+00 2.659982e+00 81 70 61
5.274855e-01 2.133326e+00 2.661011e+00 187 180 162
5.043674e-01 2.121512e+00 2.669096e+00 194 191 188
5.098014e-01 2.128566e+00 2.663553e+00 177 172 171
5.324579e-01 2.138202e+00 2.658320e+00 188 181 162
5.289122e-01 2.140578e+00 2.656309e+00 175 164 146
5.279818e-01 2.140194e+00 2.656981e+00 115 107 90
5.312395e-01 2.142404e+00 2.655272e+00 190 184 168
5.411993e-01 2.147032e+00 2.652398e+00 168 158 146
5.409460e-01 2.147069e+00 2.652589e+00 74 67 56
4.810710e-01 2.132203e+00 2.653754e+00 173 168 155
5.301589e-01 2.134498e+00 2.671627e+00 182 176 162
5.301589e-01 2.134498e+00 2.671627e+00 182 176 162
5.107782e-01 2.138071e+00 2.658417e+00 178 175 166
5.382995e-01 2.149491e+00 2.650095e+00 181 175 161
5.422219e-01 2.150876e+00 2.649327e+00 100 92 76
5.380993e-01 2.149674e+00 2.649792e+00 84 80 69
5.429264e-01 2.150857e+00 2.650277e+00 82 74 68
5.414364e-01 2.151063e+00 2.649433e+00 87 79 72
4.981087e-01 2.143245e+00 2.647890e+00 185 173 152
5.371020e-01 2.144628e+00 2.660411e+00 55 41 40
5.105393e-01 2.144594e+00 2.651622e+00 100 96 93
5.428515e-01 2.150729e+00 2.653099e+00 162 151 128
5.085949e-01 2.143498e+00 2.653263e+00 179 175 172
5.407673e-01 2.149001e+00 2.655487e+00 98 87 72
5.459685e-01 2.155299e+00 2.646381e+00 184 183 186
5.376170e-01 2.152750e+00 2.648446e+00 195 185 174
5.419520e-01 2.154596e+00 2.646840e+00 193 182 169
5.429773e-01 2.151531e+00 2.652791e+00 174 166 147
5.422573e-01 2.154176e+00 2.647781e+00 190 185 174
5.064256e-01 2.151323e+00 2.640971e+00 177 165 149
5.106566e-01 2.143544e+00 2.656104e+00 128 124 115
5.193897e-01 2.145486e+00 2.655907e+00 191 188 181
5.336326e-01 2.140355e+00 2.670073e+00 92 81 77
5.444110e-01 2.153407e+00 2.650973e+00 176 168 157
5.339271e-01 2.153258e+00 2.648000e+00 134 131 119
5.076950e-01 2.150038e+00 2.645329e+00 171 160 140
5.064976e-01 2.149536e+00 2.646596e+00 60 51 40
5.064976e-01 2.149536e+00 2.646596e+00 60 51 40
5.042687e-01 2.148733e+00 2.647757e+00 168 157 140
5.153621e-01 2.147312e+00 2.654254e+00 173 171 160
5.231649e-01 2.150991e+00 2.651007e+00 110 106 101
5.231649e-01 2.150991e+00 2.651007e+00 110 106 101
5.397759e-01 2.149548e+00 2.661498e+00 173 163 151
5.218515e-01 2.130359e+00 2.693670e+00 56 49 42
5.455265e-01 2.158284e+00 2.648417e+00 144 136 118
5.381954e-01 2.160311e+00 2.642443e+00 67 51 48
5.227784e-01 2.131892e+00 2.693945e+00 105 102 95
5.178290e-01 2.160588e+00 2.637539e+00 136 125 98
5.243727e-01 2.133803e+00 2.691074e+00 198 195 187
5.477467e-01 2.161847e+00 2.645614e+00 59 42 34
5.434384e-01 2.156540e+00 2.655222e+00 97 84 66
5.451570e-01 2.158754e+00 2.651645e+00 139 127 106
5.434122e-01 2.157011e+00 2.654780e+00 97 83 69
5.429197e-01 2.164379e+00 2.640406e+00 63 53 47
5.425895e-01 2.156369e+00 2.656384e+00 157 146 124
5.425160e-01 2.156603e+00 2.655976e+00 157 150 133
5.467696e-01 2.162384e+00 2.645813e+00 69 57 41
5.430612e-01 2.164719e+00 2.640365e+00 43 39 35
5.326604e-01 2.163737e+00 2.639903e+00 35 31 35
5.441183e-01 2.158654e+00 2.653475e+00 75 65 61
5.479187e-01 2.164083e+00 2.643588e+00 164 155 139
5.413551e-01 2.156412e+00 2.657309e+00 61 53 50
5.410467e-01 2.165683e+00 2.638899e+00 177 176 171
5.404122e-01 2.154766e+00 2.660960e+00 79 69 67
5.409021e-01 2.155638e+00 2.659866e+00 60 51 43
5.447808e-01 2.169116e+00 2.633955e+00 167 161 142
5.422770e-01 2.160541e+00 2.651516e+00 183 179 166
5.326995e-01 2.168244e+00 2.635442e+00 101 87 60
5.472006e-01 2.165605e+00 2.644477e+00 39 28 24
5.258977e-01 2.139981e+00 2.693661e+00 79 72 64
5.425239e-01 2.160379e+00 2.655129e+00 88 74 69
5.417033e-01 2.160259e+00 2.656330e+00 192 185 177
5.466518e-01 2.166527e+00 2.644017e+00 176 171 164
5.366003e-01 2.152965e+00 2.671104e+00 185 180 174
5.420913e-01 2.171926e+00 2.633040e+00 105 92 76
5.420913e-01 2.171926e+00 2.633040e+00 105 92 76
5.466952e-01 2.166200e+00 2.646762e+00 107 93 85
5.389369e-01 2.157026e+00 2.665339e+00 70 58 53
5.124220e-01 2.127822e+00 2.724118e+00 110 103 96
5.400792e-01 2.158426e+00 2.662798e+00 181 168 160
5.439028e-01 2.164178e+00 2.651052e+00 83 76 75
5.468819e-01 2.169399e+00 2.641104e+00 170 166 155
5.424393e-01 2.161487e+00 2.657839e+00 78 68 58
5.392283e-01 2.158857e+00 2.664016e+00 54 44 45
5.149356e-01 2.131121e+00 2.721843e+00 94 91 84
5.398964e-01 2.158709e+00 2.664571e+00 73 65 55
5.416016e-01 2.172643e+00 2.633894e+00 165 149 125
5.416016e-01 2.172643e+00 2.633894e+00 165 149 125
5.141707e-01 2.130330e+00 2.723876e+00 186 186 178
5.398375e-01 2.160015e+00 2.661989e+00 184 177 162
5.137442e-01 2.130844e+00 2.723275e+00 204 200 197
5.343699e-01 2.170579e+00 2.637799e+00 149 144 124
5.116454e-01 2.165457e+00 2.645807e+00 148 136 113
5.452931e-01 2.166698e+00 2.649065e+00 152 143 127
5.271250e-01 2.169917e+00 2.638984e+00 151 141 118
5.491866e-01 2.172530e+00 2.636671e+00 123 107 86
4.849397e-01 2.162013e+00 2.654970e+00 164 161 142
5.131438e-01 2.167530e+00 2.646155e+00 99 85 65
5.425796e-01 2.164961e+00 2.656194e+00 156 143 134
5.425796e-01 2.164961e+00 2.656194e+00 156 143 134
5.419985e-01 2.164135e+00 2.658421e+00 107 95 83
5.419985e-01 2.164135e+00 2.658421e+00 107 95 83
5.352954e-01 2.156759e+00 2.675492e+00 131 127 115
5.370214e-01 2.158802e+00 2.671576e+00 87 77 72
5.474399e-01 2.175298e+00 2.633806e+00 142 126 103
5.425703e-01 2.173903e+00 2.636718e+00 90 72 57
5.300138e-01 2.151893e+00 2.688089e+00 178 171 158
5.314074e-01 2.172342e+00 2.639601e+00 176 169 156
4.967686e-01 2.165529e+00 2.652640e+00 70 57 48
5.405574e-01 2.165503e+00 2.657566e+00 177 173 163
5.477235e-01 2.173105e+00 2.640795e+00 89 76 60
5.463087e-01 2.172222e+00 2.642924e+00 112 103 85
5.472558e-01 2.175791e+00 2.634954e+00 50 40 31
5.462469e-01 2.173688e+00 2.640765e+00 56 43 33
5.284378e-01 2.152260e+00 2.692261e+00 190 189 187
5.166474e-01 2.139895e+00 2.722053e+00 169 160 144
5.431067e-01 2.175162e+00 2.637381e+00 80 68 55
5.375256e-01 2.162623e+00 2.668346e+00 187 183 175
5.317082e-01 2.174146e+00 2.640644e+00 73 64 49
5.441558e-01 2.170314e+00 2.652224e+00 188 180 157
5.187251e-01 2.144612e+00 2.717733e+00 105 95 92
5.415577e-01 2.168149e+00 2.658560e+00 176 166 145
5.451413e-01 2.174036e+00 2.643967e+00 171 163 149
5.429585e-01 2.171449e+00 2.650783e+00 180 173 158
5.312299e-01 2.158082e+00 2.685133e+00 185 179 173
5.433990e-01 2.172467e+00 2.648993e+00 174 162 136
5.210954e-01 2.142017e+00 2.727986e+00 58 47 45
5.210954e-01 2.142017e+00 2.727986e+00 58 47 45
5.414492e-01 2.171342e+00 2.652265e+00 194 190 178
5.449257e-01 2.176734e+00 2.638350e+00 139 132 112
5.124616e-01 2.171522e+00 2.651920e+00 170 164 151
5.334045e-01 2.161385e+00 2.679397e+00 90 79 68
5.334045e-01 2.161385e+00 2.679397e+00 90 79 68
5.221768e-01 2.149186e+00 2.711861e+00 106 102 101
5.231820e-01 2.150064e+00 2.709565e+00 203 200 193
5.275774e-01 2.154364e+00 2.699695e+00 184 181 173
5.166829e-01 2.173208e+00 2.649716e+00 85 76 68
5.337682e-01 2.162376e+00 2.679434e+00 130 125 113
5.340478e-01 2.163130e+00 2.677860e+00 200 194 183
5.419339e-01 2.173811e+00 2.649185e+00 82 70 54
5.343912e-01 2.163697e+00 2.677214e+00 202 197 191
5.435656e-01 2.174289e+00 2.648605e+00 67 53 43
5.417038e-01 2.175435e+00 2.646888e+00 129 119 99
5.253813e-01 2.150488e+00 2.717048e+00 179 172 154
5.276166e-01 2.175255e+00 2.648282e+00 53 42 45
5.303075e-01 2.160135e+00 2.690530e+00 70 57 53
5.431375e-01 2.177392e+00 2.642303e+00 120 105 84
5.290264e-01 2.158539e+00 2.695101e+00 175 167 146
5.393041e-01 2.171709e+00 2.658336e+00 193 185 174
5.275127e-01 2.175714e+00 2.647879e+00 91 81 70
5.306054e-01 2.156162e+00 2.703852e+00 75 63 57
5.409820e-01 2.177065e+00 2.644645e+00 91 73 59
5.307847e-01 2.159049e+00 2.696105e+00 131 124 116
5.325758e-01 2.158638e+00 2.697573e+00 109 104 102
4.931093e-01 2.172297e+00 2.661615e+00 60 56 55
5.288499e-01 2.176116e+00 2.649009e+00 195 192 187
5.314609e-01 2.158657e+00 2.698760e+00 111 107 104
5.314556e-01 2.159021e+00 2.698861e+00 183 178 158
5.396708e-01 2.174919e+00 2.652985e+00 80 70 60
5.059657e-01 2.174896e+00 2.656861e+00 94 87 79
5.327941e-01 2.164351e+00 2.685151e+00 179 175 164
5.390451e-01 2.175475e+00 2.652492e+00 76 65 59
5.317609e-01 2.163280e+00 2.688738e+00 78 71 78
5.382479e-01 2.170632e+00 2.667138e+00 206 203 199
5.385952e-01 2.171004e+00 2.666525e+00 123 119 108
5.368892e-01 2.177965e+00 2.646394e+00 73 62 56
5.103434e-01 2.175853e+00 2.655937e+00 86 79 69
5.095608e-01 2.175945e+00 2.656152e+00 186 181 161
5.311747e-01 2.160109e+00 2.700902e+00 111 95 80
5.304989e-01 2.159374e+00 2.703349e+00 162 160 149
5.383001e-01 2.175637e+00 2.654752e+00 143 136 130
5.337561e-01 2.167887e+00 2.679093e+00 154 145 136
5.400025e-01 2.174464e+00 2.658562e+00 103 94 77
5.352032e-01 2.164320e+00 2.689817e+00 114 97 86
5.380911e-01 2.179231e+00 2.644836e+00 125 112 95
5.380911e-01 2.179231e+00 2.644836e+00 125 112 95
5.381284e-01 2.173854e+00 2.661050e+00 176 167 156
5.369649e-01 2.172684e+00 2.665200e+00 198 195 187
5.326630e-01 2.162778e+00 2.695980e+00 185 180 167
5.397282e-01 2.177428e+00 2.651331e+00 200 199 194
5.343057e-01 2.168500e+00 2.679511e+00 181 171 154
5.352136e-01 2.167962e+00 2.681196e+00 136 127 119
5.380671e-01 2.177683e+00 2.651329e+00 143 136 110
5.386092e-01 2.171925e+00 2.668802e+00 159 151 132
5.331224e-01 2.168481e+00 2.680403e+00 77 68 61
5.397064e-01 2.173692e+00 2.663734e+00 181 171 150
5.378326e-01 2.177737e+00 2.652178e+00 45 35 26
5.380753e-01 2.178533e+00 2.650622e+00 129 118 105
5.378224e-01 2.178145e+00 2.652019e+00 106 96 86
5.369750e-01 2.174852e+00 2.662607e+00 76 69 62
5.275581e-01 2.178664e+00 2.652307e+00 185 173 153
4.922512e-01 2.176192e+00 2.666127e+00 199 194 173
5.354157e-01 2.167243e+00 2.687295e+00 150 142 132
5.393097e-01 2.176307e+00 2.658375e+00 146 137 126
5.276442e-01 2.178851e+00 2.652363e+00 90 74 69
5.374780e-01 2.172493e+00 2.670962e+00 89 79 66
5.343210e-01 2.166551e+00 2.691894e+00 86 75 68
5.348081e-01 2.167704e+00 2.688387e+00 182 174 154
5.363381e-01 2.179263e+00 2.651375e+00 199 195 186
5.397492e-01 2.179011e+00 2.651764e+00 161 155 129
4.882816e-01 2.177032e+00 2.668757e+00 194 191 186
5.361296e-01 2.172336e+00 2.674661e+00 80 74 72
5.373087e-01 2.177608e+00 2.657907e+00 202 196 183
5.366428e-01 2.177428e+00 2.658586e+00 202 196 183
5.352531e-01 2.169097e+00 2.686831e+00 203 202 177
5.355423e-01 2.169234e+00 2.686377e+00 203 202 177
5.353064e-01 2.174705e+00 2.669372e+00 87 77 68
5.340181e-01 2.180662e+00 2.650294e+00 195 190 177
5.361464e-01 2.178281e+00 2.657684e+00 179 172 154
5.361464e-01 2.178281e+00 2.657684e+00 179 172 154
5.350303e-01 2.169444e+00 2.687152e+00 170 161 145
5.030080e-01 2.179682e+00 2.663320e+00 113 104 95
5.372899e-01 2.175264e+00 2.670511e+00 122 114 109
5.345309e-01 2.176038e+00 2.669193e+00 159 146 121
5.345309e-01 2.176038e+00 2.669193e+00 159 146 121
5.346637e-01 2.176169e+00 2.668719e+00 154 142 123
5.355401e-01 2.180063e+00 2.655484e+00 49 42 36
5.384341e-01 2.174110e+00 2.676022e+00 92 78 73
5.343408e-01 2.180041e+00 2.656967e+00 67 56 51
5.353414e-01 2.180277e+00 2.655986e+00 67 56 51
5.392571e-01 2.175502e+00 2.671595e+00 109 102 94
5.358391e-01 2.177947e+00 2.664200e+00 187 180 155
5.343712e-01 2.181507e+00 2.653222e+00 135 129 110
5.371339e-01 2.174818e+00 2.677363e+00 208 197 175
5.225060e-01 2.181954e+00 2.656951e+00 104 92 78
5.381510e-01 2.175731e+00 2.674311e+00 193 189 178
5.215390e-01 2.182261e+00 2.657914e+00 117 104 95
5.391741e-01 2.177304e+00 2.670045e+00 94 80 78
5.370107e-01 2.175539e+00 2.677828e+00 175 170 158
5.370107e-01 2.175539e+00 2.677828e+00 175 170 158
5.391713e-01 2.177860e+00 2.668914e+00 177 167 146
5.372087e-01 2.179547e+00 2.663693e+00 166 158 147
5.311979e-01 2.182770e+00 2.655019e+00 176 168 143
5.300508e-01 2.183048e+00 2.654645e+00 39 29 28
5.300508e-01 2.183048e+00 2.654645e+00 39 29 28
5.345309e-01 2.180779e+00 2.661600e+00 201 199 187
4.962180e-01 2.182417e+00 2.669545e+00 183 183 170
4.962180e-01 2.182417e+00 2.669545e+00 183 183 170
5.350908e-01 2.181241e+00 2.660838e+00 191 185 175
5.385551e-01 2.179028e+00 2.668128e+00 79 67 70
5.388223e-01 2.179274e+00 2.667101e+00 161 154 134
5.017639e-01 2.182912e+00 2.667860e+00 116 104 91
5.001173e-01 2.182936e+00 2.668627e+00 160 150 132
5.380942e-01 2.179049e+00 2.669004e+00 184 178 162
5.385085e-01 2.179240e+00 2.668013e+00 189 185 168
4.903979e-01 2.183200e+00 2.672248e+00 54 46 43
5.343649e-01 2.181482e+00 2.662103e+00 87 78 72
5.331755e-01 2.183855e+00 2.654400e+00 112 93 76
5.380676e-01 2.179837e+00 2.667814e+00 152 146 124
5.380635e-01 2.179546e+00 2.669665e+00 177 165 139
5.389603e-01 2.179191e+00 2.671414e+00 201 199 190
5.104421e-01 2.184817e+00 2.664153e+00 190 185 172
5.297802e-01 2.184358e+00 2.660205e+00 158 148 126
5.378012e-01 2.183168e+00 2.661228e+00 173 162 144
5.054087e-01 2.186234e+00 2.665002e+00 141 137 137
4.935613e-01 2.186835e+00 2.668643e+00 120 107 97
5.363750e-01 2.182079e+00 2.667360e+00 101 82 67
4.819143e-01 2.187370e+00 2.673969e+00 74 63 60
5.373141e-01 2.183393e+00 2.662121e+00 169 160 137
5.305673e-01 2.185187e+00 2.659668e+00 67 59 48
5.185038e-01 2.186328e+00 2.661338e+00 133 129 126
5.179847e-01 2.186589e+00 2.660849e+00 135 130 124
5.235281e-01 2.186238e+00 2.659682e+00 108 98 93
5.249327e-01 2.186416e+00 2.658431e+00 108 98 93
5.324764e-01 2.185807e+00 2.657495e+00 114 103 103
5.238856e-01 2.186453e+00 2.659556e+00 203 200 193
5.339380e-01 2.185240e+00 2.659472e+00 202 199 193
5.388388e-01 2.185028e+00 2.658064e+00 167 154 129
5.090941e-01 2.187772e+00 2.662699e+00 185 176 163
5.364193e-01 2.183203e+00 2.666905e+00 111 99 87
5.101131e-01 2.187830e+00 2.662251e+00 183 178 156
5.369129e-01 2.183235e+00 2.666717e+00 212 212 196
5.101145e-01 2.187793e+00 2.662672e+00 192 184 174
5.388055e-01 2.185167e+00 2.658225e+00 64 51 48
5.388055e-01 2.185167e+00 2.658225e+00 64 51 48
5.364002e-01 2.184992e+00 2.660054e+00 151 139 111
5.374742e-01 2.183402e+00 2.666463e+00 104 97 113
5.084678e-01 2.187936e+00 2.663612e+00 109 98 94
5.365707e-01 2.184321e+00 2.663364e+00 135 122 103
5.366049e-01 2.185226e+00 2.659772e+00 85 66 60
5.357984e-01 2.185699e+00 2.659206e+00 150 137 112
5.357984e-01 2.185699e+00 2.659206e+00 150 137 112
4.942964e-01 2.189011e+00 2.670302e+00 161 153 137
4.899645e-01 2.189318e+00 2.672161e+00 190 185 160
5.352517e-01 2.186093e+00 2.659368e+00 111 94 85
5.375772e-01 2.186165e+00 2.658340e+00 44 33 29
5.134426e-01 2.188704e+00 2.661675e+00 78 61 57
4.889077e-01 2.189775e+00 2.672969e+00 168 161 145
5.357435e-01 2.185501e+00 2.662967e+00 95 80 64
5.366853e-01 2.185143e+00 2.664184e+00 103 100 109
5.120357e-01 2.189122e+00 2.662748e+00 56 46 44
5.343716e-01 2.187132e+00 2.657735e+00 148 132 108
5.343455e-01 2.186998e+00 2.658518e+00 167 161 135
4.969293e-01 2.190184e+00 2.669533e+00 165 157 134
5.125138e-01 2.189447e+00 2.662903e+00 42 27 29
5.338173e-01 2.187808e+00 2.656919e+00 147 133 104
5.365551e-01 2.186486e+00 2.662246e+00 216 221 227
5.336994e-01 2.187789e+00 2.658618e+00 165 162 137
5.338371e-01 2.187984e+00 2.658303e+00 64 52 46
5.159791e-01 2.110026e+00 2.676545e+00 161 158 155
5.135131e-01 2.107224e+00 2.679483e+00 68 63 61
5.232534e-01 2.120346e+00 2.671383e+00 188 187 181
5.101927e-01 2.114150e+00 2.675330e+00 165 162 150
4.956263e-01 2.107043e+00 2.682043e+00 183 181 173
5.318003e-01 2.132734e+00 2.663434e+00 70 62 59
5.318003e-01 2.132734e+00 2.663434e+00 70 62 59
5.305577e-01 2.133633e+00 2.661673e+00 180 175 171
5.240771e-01 2.132947e+00 2.661257e+00 195 185 176
5.240771e-01 2.132947e+00 2.661257e+00 195 185 176
5.269091e-01 2.135172e+00 2.659882e+00 183 174 154
5.371397e-01 2.140445e+00 2.656453e+00 178 170 159
5.346867e-01 2.139829e+00 2.656518e+00 82 70 61
5.374538e-01 2.141701e+00 2.655098e+00 113 103 85
4.768505e-01 2.118935e+00 2.669329e+00 112 105 102
4.768505e-01 2.118935e+00 2.669329e+00 112 105 102
5.412606e-01 2.145498e+00 2.653575e+00 154 150 141
5.283101e-01 2.140692e+00 2.656124e+00 87 79 73
5.178765e-01 2.135814e+00 2.659848e+00 105 99 82
5.226491e-01 2.138375e+00 2.657862e+00 90 86 76
5.226491e-01 2.138375e+00 2.657862e+00 90 86 76
5.311589e-01 2.142045e+00 2.655639e+00 160 154 139
5.378974e-01 2.145343e+00 2.653268e+00 175 165 140
5.356454e-01 2.143661e+00 2.655052e+00 174 164 143
5.401048e-01 2.145274e+00 2.654274e+00 50 42 39
5.424028e-01 2.147297e+00 2.651968e+00 50 42 39
5.194526e-01 2.139564e+00 2.656339e+00 45 39 38
5.408018e-01 2.146944e+00 2.652750e+00 74 66 56
5.397199e-01 2.145800e+00 2.654370e+00 92 83 74
5.397199e-01 2.145800e+00 2.654370e+00 92 83 74
5.114253e-01 2.135270e+00 2.661054e+00 100 94 92
5.397761e-01 2.147157e+00 2.652761e+00 107 97 88
5.126063e-01 2.137199e+00 2.659211e+00 117 114 105
5.140812e-01 2.137808e+00 2.659064e+00 101 97 88
5.426229e-01 2.149929e+00 2.650371e+00 65 58 50
5.410812e-01 2.148340e+00 2.652847e+00 119 107 96
5.387245e-01 2.149408e+00 2.650376e+00 93 86 82
5.369005e-01 2.149607e+00 2.649591e+00 93 89 80
5.432364e-01 2.151056e+00 2.649545e+00 73 70 63
5.409362e-01 2.150651e+00 2.649466e+00 100 91 74
5.428423e-01 2.150560e+00 2.650416e+00 172 169 162
5.442737e-01 2.151882e+00 2.649282e+00 177 174 167
5.321562e-01 2.137741e+00 2.669122e+00 167 157 142
5.390262e-01 2.150035e+00 2.650821e+00 154 148 135
5.331391e-01 2.138680e+00 2.668333e+00 90 81 67
5.413625e-01 2.151649e+00 2.649493e+00 176 168 158
5.102523e-01 2.141742e+00 2.655142e+00 40 34 37
5.325320e-01 2.139327e+00 2.667770e+00 172 163 148
5.098364e-01 2.141080e+00 2.657297e+00 174 166 154
5.314341e-01 2.136080e+00 2.674176e+00 62 49 40
5.281253e-01 2.148381e+00 2.651575e+00 113 110 104
5.116305e-01 2.144178e+00 2.652869e+00 63 53 43
5.392664e-01 2.153462e+00 2.646857e+00 173 166 147
5.260922e-01 2.130105e+00 2.684615e+00 94 87 81
5.186246e-01 2.144193e+00 2.657502e+00 112 105 96
5.395102e-01 2.153854e+00 2.647791e+00 127 116 104
5.350091e-01 2.153172e+00 2.647956e+00 91 82 81
5.354190e-01 2.145000e+00 2.662779e+00 151 144 128
5.068849e-01 2.149291e+00 2.645453e+00 52 44 43
5.320070e-01 2.152192e+00 2.649128e+00 135 127 113
5.262819e-01 2.132209e+00 2.683379e+00 64 59 48
5.252689e-01 2.132092e+00 2.683898e+00 150 141 126
5.166852e-01 2.148302e+00 2.652887e+00 180 181 166
5.251128e-01 2.150685e+00 2.651815e+00 69 61 59
5.204408e-01 2.150215e+00 2.651452e+00 186 180 174
5.325727e-01 2.141993e+00 2.671590e+00 131 121 109
5.449680e-01 2.156190e+00 2.649759e+00 78 69 56
5.451873e-01 2.156608e+00 2.649371e+00 148 139 122
5.448781e-01 2.156655e+00 2.649909e+00 86 80 57
5.193827e-01 2.127543e+00 2.696495e+00 193 185 173
5.356322e-01 2.158597e+00 2.643638e+00 73 59 48
5.454399e-01 2.157445e+00 2.648815e+00 144 131 114
5.325478e-01 2.160357e+00 2.639729e+00 162 151 139
5.455137e-01 2.157818e+00 2.648823e+00 55 46 41
5.331047e-01 2.157762e+00 2.645647e+00 160 148 126
5.286256e-01 2.155374e+00 2.648908e+00 54 43 37
5.356487e-01 2.146651e+00 2.667609e+00 166 164 152
5.415938e-01 2.154972e+00 2.654244e+00 170 162 153
5.346683e-01 2.160413e+00 2.641905e+00 157 145 117
5.359981e-01 2.146321e+00 2.669481e+00 125 116 110
5.372658e-01 2.161989e+00 2.641265e+00 181 171 161
5.359125e-01 2.163999e+00 2.637386e+00 185 178 161
5.287905e-01 2.139456e+00 2.683153e+00 165 158 150
5.444634e-01 2.162578e+00 2.642653e+00 185 180 177
5.370401e-01 2.162455e+00 2.640914e+00 172 162 150
5.399757e-01 2.153147e+00 2.660204e+00 103 98 95
5.355525e-01 2.165020e+00 2.635869e+00 85 70 52
5.370886e-01 2.150533e+00 2.664847e+00 173 167 154
5.286802e-01 2.141203e+00 2.681750e+00 202 196 193
5.346219e-01 2.165009e+00 2.636655e+00 133 127 122
5.344756e-01 2.165003e+00 2.637298e+00 167 155 139
5.479026e-01 2.163559e+00 2.643928e+00 168 159 142
5.431644e-01 2.164512e+00 2.640831e+00 197 194 190
5.444938e-01 2.158750e+00 2.652937e+00 155 146 125
5.414955e-01 2.165419e+00 2.638926e+00 50 46 43
5.325956e-01 2.145705e+00 2.676689e+00 165 158 146
5.416433e-01 2.165709e+00 2.638764e+00 174 173 169
5.416008e-01 2.156761e+00 2.657110e+00 173 169 167
5.308200e-01 2.144342e+00 2.679468e+00 185 178 171
5.315186e-01 2.144743e+00 2.679220e+00 189 181 176
5.176784e-01 2.129499e+00 2.706594e+00 182 172 160
5.334960e-01 2.145270e+00 2.678924e+00 186 181 175
5.317411e-01 2.144852e+00 2.679468e+00 180 176 164
5.416355e-01 2.157442e+00 2.658183e+00 84 74 62
4.916209e-01 2.155318e+00 2.651141e+00 59 48 34
5.355760e-01 2.151588e+00 2.670223e+00 168 162 149
5.221590e-01 2.135410e+00 2.701034e+00 99 90 77
5.221590e-01 2.135410e+00 2.701034e+00 99 90 77
5.345328e-01 2.149229e+00 2.675237e+00 195 193 180
5.515446e-01 2.169372e+00 2.637050e+00 161 152 135
5.361184e-01 2.152215e+00 2.669488e+00 95 87 84
5.352773e-01 2.150837e+00 2.672358e+00 153 145 132
