ply
format ascii 1.0
element face 0
property list uchar int vertex_indices
element vertex 950
property float x
property float y
property float z
property uchar diffuse_red
property uchar diffuse_green
property uchar diffuse_blue
end_header
2.231977e+00 2.080795e+01 5.467903e+00 160 157 156
-9.615942e+00 2.030345e+01 5.120181e+00 101 101 101
-7.990059e+00 2.051321e+01 5.264454e+00 100 100 98
-8.043899e+00 2.064772e+01 5.257672e+00 146 146 144
-1.276225e+01 2.464636e+01 4.288719e+00 126 125 128
-1.255759e+01 2.501563e+01 4.514338e+00 104 105 105
-1.352817e+01 2.531398e+01 4.967779e+00 156 156 154
-2.923368e+00 2.716856e+01 6.477995e+00 95 96 101
7.348810e+00 2.786495e+01 7.860690e+00 175 173 174
7.519440e+00 2.809927e+01 7.853006e+00 164 164 166
1.305242e+01 2.897314e+01 8.534994e+00 123 124 126
1.491199e+00 2.884223e+01 7.536769e+00 162 163 165
-1.390152e+01 2.725323e+01 6.826179e+00 97 97 101
1.349832e+01 3.086062e+01 1.136448e+01 144 143 151
-1.566378e+01 3.311663e+01 4.197122e+00 113 113 121
-9.068483e+00 3.423533e+01 6.351491e+00 113 111 120
-9.205846e+00 3.575795e+01 5.803292e+00 117 117 125
-9.010207e+00 3.574585e+01 6.105740e+00 121 121 128
-9.078290e+00 3.666430e+01 6.267428e+00 116 115 121
8.152058e+00 4.243585e-01 3.831836e+00 104 100 90
-1.611501e+01 6.892723e+00 7.060382e-01 177 177 176
-9.324709e+00 7.845068e+00 2.394617e+00 154 154 146
6.732735e+00 9.872027e+00 6.018606e+00 116 112 106
-1.387724e+01 9.536746e+00 1.492110e+00 117 115 118
-1.531446e+01 1.904755e+01 3.360339e+00 72 71 76
-1.009556e+01 2.095385e+01 5.132058e+00 197 197 199
-1.267612e+01 2.114814e+01 4.793800e+00 134 135 146
-1.493993e+01 2.577218e+01 4.074493e+00 131 130 131
-1.323974e+01 2.529356e+01 6.188536e+00 163 163 163
-1.134634e+01 3.966951e+01 1.051110e+01 116 115 120
1.682333e+01 7.639793e+00 7.398041e+00 106 108 105
1.811297e+01 7.283542e+00 5.110369e+00 194 194 196
1.884957e+01 3.381447e+00 -1.298985e+00 81 75 63
-7.905679e+00 2.584701e+01 8.167737e+00 141 131 129
-1.287673e+01 7.367426e+00 1.897241e+00 87 79 72
-1.353727e+00 2.271135e+01 4.604683e+00 114 109 109
-2.788455e+00 1.733406e+01 5.674053e+00 26 37 50
8.418914e+00 3.821138e+01 1.022524e+01 100 100 102
-7.933803e+00 1.870001e+01 4.397084e+00 129 118 116
-8.417009e+00 1.935185e+01 4.544178e+00 126 120 118
-1.044549e+01 2.580434e+01 7.657586e+00 113 107 107
-2.168501e+01 -1.619344e+01 9.190039e+01 36 30 31
3.515146e+00 1.088169e+01 2.319231e+00 40 31 36
-4.762331e+00 1.874948e+01 6.363899e+00 126 117 108
3.439883e+00 2.680435e+01 6.818945e+00 70 71 69
1.396028e+01 2.892550e+01 7.698868e+00 111 109 109
5.524767e+00 2.979235e+01 8.406997e+00 84 81 85
-9.452186e+00 3.171563e+01 6.090787e+00 20 25 46
-9.743818e+00 3.021729e+01 1.105399e+01 110 110 114
5.609588e+00 4.311271e+01 1.250116e+01 122 117 129
-1.271750e+01 6.859072e+00 2.138069e+00 43 37 39
2.083185e+00 1.856381e+01 2.798058e+00 40 39 61
-2.846114e+00 1.750340e+01 6.176923e+00 97 87 76
9.583218e+00 2.074995e+01 2.603983e+00 78 75 71
-3.454960e+00 1.876126e+01 6.503187e+00 66 58 53
1.272933e+01 3.210743e+01 7.990846e+00 30 26 36
-1.236232e+01 2.721049e+01 1.080789e+01 132 131 136
4.364356e+00 -1.482969e+00 1.239013e+00 35 35 27
3.814706e+00 1.514622e+01 4.734784e+00 114 108 97
3.378751e+00 1.843824e+01 7.847778e-01 34 33 45
8.625891e+00 1.988565e+01 4.684375e+00 131 124 118
9.115276e+00 2.072315e+01 4.979969e+00 75 68 68
1.119767e+01 2.230112e+01 3.678260e+00 119 111 98
-1.002351e+01 2.386194e+01 4.971098e+00 114 115 115
-1.071721e+01 2.404351e+01 6.298249e+00 61 59 63
-1.686421e+01 2.454076e+01 6.170330e+00 133 133 132
5.519162e-01 2.754580e+01 7.584043e+00 116 116 126
-5.045773e+00 2.676545e+01 8.330045e+00 107 105 104
1.369645e+01 3.490871e+01 8.389037e+00 72 72 79
6.779871e-01 1.723070e+01 2.462111e+00 29 21 23
3.154258e+00 1.855232e+01 1.933128e+00 129 130 131
1.867860e+00 1.715570e+01 5.640907e+00 17 20 39
1.330205e+01 2.060244e+01 1.794845e+00 143 138 135
5.207370e+00 1.891723e+01 4.268725e+00 69 66 68
1.265625e+01 2.101123e+01 2.107487e+00 124 117 115
1.292577e+01 2.118624e+01 2.022317e+00 118 114 105
-4.498093e+00 1.861275e+01 4.128292e+00 80 73 70
4.605910e+00 1.977116e+01 4.500113e+00 63 57 56
-1.088539e+00 2.198393e+01 6.891438e+00 130 126 133
-6.753405e+00 2.484445e+01 7.983763e+00 59 63 64
-9.189110e+00 2.425380e+01 8.784296e+00 115 111 108
-1.249396e+00 2.672960e+01 7.727999e+00 55 54 68
6.689619e-01 2.811991e+01 6.571051e+00 58 58 56
2.245546e+00 2.818908e+01 7.415519e+00 48 49 51
-9.326797e-01 2.740406e+01 8.042834e+00 125 124 129
-2.981901e+00 2.706058e+01 7.999991e+00 118 116 124
-1.243446e+01 2.676957e+01 1.041046e+01 64 64 77
-6.172260e+00 1.623947e+01 4.621682e+00 158 151 150
3.207463e+00 1.960674e+01 1.294215e-01 32 39 48
1.866522e+00 1.856204e+01 2.403274e+00 116 112 106
-7.725538e+00 1.741216e+01 4.026125e+00 76 71 68
1.247398e+01 2.220877e+01 2.562722e+00 91 87 78
9.024065e+00 2.192783e+01 3.840729e+00 118 113 109
8.659736e+00 2.602470e+01 5.629487e+00 63 70 72
8.057655e+00 2.745632e+01 6.147494e+00 75 73 81
-1.469337e+01 2.476256e+01 5.647322e+00 121 119 113
6.116966e+00 2.788593e+01 7.538284e+00 89 84 88
5.299548e+00 2.799881e+01 7.478168e+00 141 137 128
1.327308e+01 2.930535e+01 8.079233e+00 51 53 56
-1.267209e+01 2.412781e+01 9.482095e+00 101 101 104
-4.278073e+00 2.705157e+01 7.325182e+00 103 106 112
-3.806718e+00 2.715874e+01 7.388649e+00 119 117 123
1.579448e+01 3.727104e+01 1.000822e+01 136 133 141
-6.171867e+00 1.601009e+01 4.276123e+00 117 105 97
-7.468343e-02 1.796416e+01 4.404066e+00 173 162 142
2.864623e+00 1.909666e+01 3.602599e+00 135 115 100
2.000661e+00 1.910764e+01 4.246365e+00 41 35 27
3.659007e+00 1.470489e+01 1.986072e+00 52 55 52
1.444416e+01 2.318453e+01 5.390739e+00 109 96 79
7.712401e+00 2.936889e+01 7.688429e+00 70 61 44
-2.643608e+00 1.806439e+01 4.840376e+00 73 58 40
-2.368672e-01 2.102295e+01 5.458189e+00 161 150 134
1.098609e+00 2.843711e+01 7.416520e+00 160 147 131
-9.232396e+00 2.608843e+01 7.226924e+00 166 157 140
-4.362957e+00 1.985356e+00 1.851752e+00 179 163 140
2.772150e+00 -1.739809e+00 2.972102e+00 119 106 87
-5.020408e+00 1.402971e+00 1.342774e+00 50 42 29
5.729238e+00 -2.335878e+00 3.073918e+00 32 27 20
3.455265e+00 4.926202e+00 5.790184e+00 158 148 127
-4.375848e+00 2.930460e+00 2.199394e+00 191 188 173
-1.875882e+01 2.379076e+01 1.242583e+01 234 240 238
-1.788397e+01 2.092897e+01 1.772413e+01 103 102 87
-1.839919e+01 2.019473e+01 1.734053e+01 108 101 96
1.293453e+01 2.968297e+01 8.642804e+00 145 144 126
-1.250671e+01 7.363643e+00 3.064110e+01 130 130 125
-1.250671e+01 7.363643e+00 3.064110e+01 130 130 125
6.848671e-01 -2.317638e+00 3.174899e+01 102 98 77
6.036100e+00 -1.489438e+00 2.675211e+01 80 77 68
-8.740310e+00 6.890391e-01 3.874595e-01 192 195 202
-1.229077e+01 3.732931e-01 3.613400e-02 189 190 195
1.786669e+00 -2.906786e+00 1.216373e+00 164 164 168
-1.564312e+01 -1.781830e+00 -6.464322e-01 186 193 209
7.001666e-01 -4.577619e-01 1.242412e+00 193 194 196
-4.409070e+00 -4.758793e+00 -1.603410e-01 59 45 65
6.198511e-01 -8.866179e-03 1.386075e+00 129 130 135
-1.025895e+01 2.827992e+00 6.835870e-01 77 67 68
-1.194558e+00 -2.387233e+00 1.272670e+00 127 115 102
-1.460727e+01 -2.816225e+00 -8.879625e-02 176 172 171
2.468734e-04 1.137791e+01 3.160186e+00 184 171 162
-1.649348e+01 5.908800e+00 9.854704e-01 72 69 70
-1.632340e+01 6.863792e+00 1.260097e+00 104 93 91
-5.824251e-01 1.211503e+01 3.174805e+00 64 54 46
-6.513564e-01 1.198496e+01 3.361062e+00 64 54 46
-4.963120e+00 5.658109e-01 1.577712e-01 165 154 160
5.268367e+00 7.259173e+00 2.077482e+00 169 163 149
-9.194915e+00 6.548687e+00 1.679611e+00 71 73 72
-9.194915e+00 6.548687e+00 1.679611e+00 71 73 72
-2.451325e-02 7.803284e+00 2.175662e+00 178 174 170
-1.639525e+01 7.477738e+00 1.358647e+00 103 84 76
-1.639525e+01 7.477738e+00 1.358647e+00 103 84 76
-1.146871e+01 8.959642e+00 9.654693e-01 159 146 139
-3.538402e+00 9.541214e+00 2.616547e+00 59 54 50
-2.350497e+00 9.689167e+00 2.717674e+00 53 40 48
1.965743e+00 1.008506e+01 3.057163e+00 66 59 50
-5.051830e+00 1.233775e+01 3.003405e+00 186 185 179
3.731891e+00 8.181763e+00 2.482761e+00 166 159 150
-4.767854e+00 9.324147e+00 2.608257e+00 36 36 31
-5.344237e+00 9.495381e+00 2.573913e+00 57 47 41
-4.979215e+00 9.705791e+00 2.645612e+00 163 151 143
-3.056584e+00 1.009356e+01 2.605591e+00 47 33 30
1.937614e+00 1.055175e+01 2.985121e+00 49 31 35
-1.166725e+01 -2.215052e-01 3.176924e-01 63 51 45
-1.010425e+01 5.074639e+00 9.800001e-01 118 111 95
-7.136135e+00 8.829683e+00 2.007303e+00 71 61 63
1.694804e+00 1.038299e+01 2.843995e+00 144 128 115
-3.193317e+00 1.142586e+01 1.121773e-02 41 28 33
7.435431e-01 1.094162e+01 3.015721e+00 67 63 51
-1.564986e-01 1.185812e+01 3.338403e+00 138 136 136
-9.633215e-01 1.198086e+01 3.072415e+00 153 146 138
5.865037e+00 1.254042e+01 3.870299e+00 73 66 50
-5.588972e+00 1.181671e+01 2.946990e+00 75 69 54
-5.187242e+00 1.188663e+01 2.979810e+00 71 72 62
-2.382183e+00 -2.465874e+00 2.857625e-01 133 120 103
-5.176254e+00 3.123800e-01 3.939444e-02 81 73 69
-4.747325e+00 7.143271e-01 1.945118e-02 179 175 176
-1.002760e+01 4.092509e+00 1.236507e+00 62 47 57
1.097938e+00 8.276389e+00 2.118038e+00 27 28 21
-1.164217e+01 7.930893e+00 1.606613e+00 74 65 54
-5.060953e-01 9.353010e+00 2.587340e+00 152 142 132
-2.551797e+00 9.424190e+00 2.591906e+00 150 134 119
2.184304e+00 9.782139e+00 3.161667e+00 156 131 120
3.257043e-01 1.138855e+01 3.196064e+00 195 182 182
3.498494e-01 1.142455e+01 3.142967e+00 195 182 182
-8.195424e+00 1.101154e+01 2.428839e+00 46 60 68
-1.632166e+00 1.138189e+01 3.095140e+00 106 104 95
4.675699e-01 1.154785e+01 3.312233e+00 121 111 99
-7.562814e-01 1.148225e+01 3.147772e+00 123 111 106
-8.466885e+00 1.140518e+01 2.551372e+00 119 106 99
-2.310891e+00 1.182877e+01 3.108422e+00 166 163 157
-1.459982e+00 1.194174e+01 3.180733e+00 152 151 149
-6.342090e+00 1.176801e+01 2.881680e+00 57 70 59
2.535914e+00 -3.196874e+00 1.810730e+01 62 50 36
-7.543865e+00 -1.509118e+00 1.708939e-01 68 59 57
-1.516549e+01 -1.793623e+00 3.564729e-02 162 156 160
-1.268011e+01 1.433397e+00 2.781983e-01 68 59 47
4.646719e+00 8.285897e+00 2.325621e+00 182 172 181
4.804575e+00 8.346705e+00 2.336686e+00 27 29 26
-1.148470e+01 7.921808e+00 1.616997e+00 168 159 166
1.994890e+00 9.498283e+00 2.945640e+00 152 152 136
-4.489215e+00 9.822097e+00 2.305750e+00 136 127 129
-8.604475e+00 1.076546e+01 2.365396e+00 146 148 142
-8.829854e+00 1.100347e+01 2.451381e+00 116 103 108
-1.667479e+00 1.179416e+01 3.131019e+00 80 78 67
-2.104347e+00 1.175452e+01 3.176690e+00 74 72 61
-8.050909e+00 1.143208e+01 2.644104e+00 117 107 95
-2.537415e+00 1.200078e+01 3.079284e+00 174 167 156
-5.101716e+00 1.637956e+00 6.744347e-01 88 79 82
-1.268007e+01 1.433440e+00 2.779352e-01 68 59 47
-1.215791e+01 2.367272e+00 2.353725e-01 65 61 45
2.335141e+00 6.738634e+00 1.423787e+00 175 161 159
-9.182756e+00 7.007805e+00 1.424008e+00 165 159 161
-1.209224e+01 6.822077e+00 1.292129e+00 88 83 74
-8.924092e+00 6.990776e+00 1.732252e+00 86 79 64
-1.107101e+01 8.336954e+00 1.769089e+00 77 86 82
3.084083e+00 9.215297e+00 3.005067e+00 178 173 170
-9.177507e+00 8.612029e+00 1.846352e+00 102 92 81
2.645780e+00 1.000972e+01 2.807377e+00 129 113 115
-4.264962e+00 9.733493e+00 2.526558e+00 118 108 109
4.675936e-01 1.160249e+01 3.124717e+00 109 92 75
-8.494014e-01 1.210471e+01 3.363401e+00 118 112 95
-3.146306e+00 -2.443878e+00 -4.238100e-02 123 124 108
-1.233128e+01 7.136824e+00 7.674399e-01 149 141 134
-1.112507e+01 7.545468e+00 1.567445e+00 108 107 88
-5.346762e-01 9.263114e+00 2.412545e+00 97 89 79
3.094929e-01 9.332879e+00 2.664204e+00 99 88 81
7.969479e+00 9.906337e+00 3.714938e+00 99 97 82
-4.043928e+00 9.895803e+00 2.385648e+00 110 100 104
-5.187406e+00 1.170578e+01 2.800659e+00 92 90 79
-1.967489e+00 1.252094e+01 3.475117e+00 121 122 123
-9.821461e+00 -3.164355e+00 -3.006614e-01 12 9 9
-9.745174e+00 -3.077522e+00 -1.680331e-01 100 92 84
4.951314e+00 1.862579e+00 6.982962e-01 85 82 62
9.440770e+00 8.155554e+00 2.924395e+00 149 140 141
2.091736e+01 3.734353e+01 1.020716e+01 254 254 254
1.744316e+01 1.566671e+01 4.247438e+00 201 192 177
2.038336e+01 3.131702e+01 8.345802e+00 253 253 255
1.408994e+01 3.465387e+01 8.819636e+00 161 149 133
1.038310e+01 1.459190e+01 3.475767e+00 77 76 71
5.990655e+00 2.153220e+01 5.440108e+00 199 183 167
-1.917759e+01 3.773694e+01 1.106320e+01 255 255 255
2.837339e+00 2.121000e+01 5.502684e+00 190 174 158
-6.877578e+00 4.051923e+01 1.182654e+01 105 101 88
1.115544e+01 8.331735e+00 2.487582e+00 107 92 69
1.898076e+01 3.184476e+01 8.481563e+00 114 80 45
4.348149e+00 4.118730e+01 1.124186e+01 130 112 97
-2.872921e+01 -1.657722e-01 5.127935e+00 170 153 134
-2.947765e+01 5.347282e-02 4.357485e+00 175 160 139
9.283492e+00 1.141068e+01 3.511767e+00 64 48 19
2.174789e-01 1.138892e+01 2.520905e+00 176 160 145
9.939084e+00 1.288801e+01 3.746042e+00 112 109 99
1.455863e+01 1.318570e+01 5.168271e+00 114 107 99
1.565137e+00 2.251085e+01 6.180572e+00 162 147 134
2.989433e+00 2.598063e+01 6.658492e+00 255 254 250
3.021025e+00 2.808962e+01 7.678179e+00 167 153 135
-1.465872e+01 -1.471986e+00 -2.651112e-01 196 180 165
-1.465872e+01 -1.471986e+00 -2.651112e-01 196 180 165
-2.904348e+01 -5.463452e-01 4.661282e+00 78 79 66
-2.826612e+01 5.665403e+00 8.588365e+00 161 150 140
-8.349846e+00 9.058458e+00 -4.940898e-02 182 161 140
1.725376e+00 1.301107e+01 4.860327e+00 66 67 60
3.634045e+00 1.674942e+01 5.507933e+00 78 77 72
4.877805e+00 2.102636e+01 5.324051e+00 135 117 99
-8.857004e+00 2.347106e+01 7.008317e+00 164 146 125
1.291076e+01 2.908710e+01 7.334602e+00 184 178 154
1.811396e+01 2.951236e+01 7.806402e+00 181 165 148
1.905170e+01 3.092946e+01 9.038298e+00 253 254 254
9.488718e+00 3.972165e+01 1.107342e+01 166 148 130
1.953693e+01 8.041773e+00 2.334539e+00 205 193 181
1.500673e+01 9.816037e+00 3.423258e+00 181 157 134
5.435275e-01 9.847982e+00 2.040878e+00 171 156 133
1.891935e+01 1.152728e+01 4.861793e+00 116 101 75
1.514951e+01 1.165787e+01 4.783928e+00 169 147 120
1.803870e+01 1.178785e+01 4.681968e+00 85 72 50
1.852699e+01 1.262319e+01 4.559636e+00 112 95 72
3.092245e-01 1.335888e+01 3.076060e+00 184 176 158
3.092245e-01 1.335888e+01 3.076060e+00 184 176 158
1.094210e+01 1.398025e+01 4.044975e+00 73 76 65
-8.642491e-01 1.351519e+01 3.753038e+00 201 184 168
6.078319e+00 2.231808e+01 5.730638e+00 205 189 177
-3.631657e+00 2.575441e+01 7.418887e+00 73 66 49
6.901470e+00 2.788340e+01 7.281032e+00 71 62 42
-1.279383e+01 2.757051e+01 8.316606e+00 47 43 41
1.266795e+01 2.996437e+01 7.937126e+00 57 51 32
-1.422774e+01 -1.789358e+00 -3.107346e-01 119 102 78
-4.612673e+00 -1.028500e+00 7.025670e-01 186 169 155
-2.724001e+01 3.174628e+00 8.143635e+00 190 179 167
-2.724001e+01 3.174628e+00 8.143635e+00 190 179 167
-1.032993e+01 7.005948e+00 2.753996e-01 204 188 173
-1.121774e+01 5.078182e+00 9.199668e+00 189 174 159
-1.626409e+01 7.915341e+00 2.496332e+00 199 180 166
-2.290380e+00 9.852161e+00 1.965324e+00 89 72 48
2.160481e+00 1.031378e+01 2.071102e+00 106 90 68
-1.333124e+00 1.029313e+01 1.922649e+00 167 143 117
5.675248e+00 1.053005e+01 2.646500e+00 86 70 49
3.622331e+00 1.075673e+01 2.284368e+00 171 154 129
-4.853378e+00 1.044544e+01 1.957559e+00 114 104 79
1.869184e+01 1.118396e+01 4.604400e+00 185 178 157
1.241164e+01 1.121432e+01 3.480245e+00 98 82 57
1.410553e+01 1.117342e+01 4.726180e+00 93 76 54
1.272445e+01 1.151104e+01 3.699494e+00 166 150 122
1.376249e+01 1.145663e+01 4.690288e+00 165 146 120
1.106001e+01 1.464127e+01 3.843466e+00 71 71 65
1.877385e+01 1.678581e+01 4.547603e+00 112 96 68
5.276151e+00 1.673386e+01 4.471875e+00 127 110 89
1.240314e+01 2.539435e+01 6.608240e+00 54 43 31
1.240314e+01 2.539435e+01 6.608240e+00 54 43 31
1.235211e+01 2.600245e+01 6.722732e+00 61 49 40
1.235211e+01 2.600245e+01 6.722732e+00 61 49 40
-1.303064e+01 2.481982e+01 6.843794e+00 180 159 140
2.367735e+00 2.638539e+01 7.078945e+00 96 83 66
5.913942e+00 2.751397e+01 7.455961e+00 119 106 89
-1.029761e+01 2.714604e+01 7.519797e+00 173 154 139
1.428655e+01 3.157590e+01 9.023628e+00 89 82 63
-9.604029e+00 3.774825e+01 1.100165e+01 174 163 149
1.673144e+01 3.959979e+01 1.222937e+01 250 255 254
-1.779834e+01 4.103328e+01 1.291009e+01 140 129 113
-1.779834e+01 4.103328e+01 1.291009e+01 140 129 113
9.121611e+00 4.401415e+01 1.253842e+01 179 166 146
6.660501e+00 -2.988179e+00 5.296629e-01 79 62 36
8.402789e+00 -9.914260e-02 4.067869e-01 179 168 155
6.555040e+00 -4.150362e-01 1.478454e+00 184 171 154
-8.737860e+00 1.026228e+01 -2.904496e+00 67 52 29
8.406057e+00 1.083041e+01 3.168550e+00 85 70 44
1.547037e+01 1.170688e+01 4.995847e+00 66 46 16
1.733164e+01 1.183665e+01 5.184277e+00 161 149 126
5.349419e-01 1.521856e+01 4.357373e+00 33 30 19
1.252987e+01 2.479060e+01 6.427377e+00 59 45 33
1.331417e+01 2.535041e+01 6.559654e+00 185 172 155
1.384799e+01 2.542214e+01 6.571968e+00 156 148 129
1.417338e+01 2.551882e+01 6.648090e+00 72 69 59
-1.601891e+01 2.445249e+01 6.072033e+00 197 183 169
1.214976e+01 2.686036e+01 7.173991e+00 46 34 25
1.214598e+01 2.721619e+01 7.186890e+00 40 24 16
1.248045e+01 2.740533e+01 7.134403e+00 138 133 117
2.552079e+00 2.695264e+01 7.025495e+00 81 72 60
8.837204e+00 2.742676e+01 7.150253e+00 45 26 18
1.300413e+01 2.814388e+01 7.227108e+00 180 165 146
1.507684e+01 2.942839e+01 8.093446e+00 156 145 128
1.256858e+01 2.978549e+01 7.526147e+00 179 167 143
1.749846e+01 3.004413e+01 7.996826e+00 175 159 138
1.589965e+01 3.029164e+01 6.738121e+00 120 103 91
7.773928e+00 3.030398e+01 7.915894e+00 103 92 83
8.451453e+00 4.229445e+01 1.196353e+01 103 91 78
1.673277e+00 4.212189e+01 1.180780e+01 160 149 138
-1.785815e+01 4.129377e+01 1.322124e+01 252 255 255
1.587981e+01 4.506670e+01 1.295733e+01 251 255 255
-9.887002e+00 -2.823691e+00 4.936446e-02 14 14 8
1.964702e+00 -1.309925e+00 4.268569e-02 144 136 114
-5.740647e+00 -1.052763e+00 -1.239822e-01 177 162 143
8.984628e+00 9.165473e+00 3.189798e+00 97 79 61
1.116021e+01 9.356081e+00 3.050426e+00 172 147 117
1.063217e+01 9.538030e+00 3.197978e+00 177 165 145
-1.253534e+01 8.947802e+00 2.031731e+00 160 143 124
-1.117037e+01 9.202574e+00 1.135846e+00 153 138 121
-9.902387e+00 9.432154e+00 7.126640e-01 157 142 122
-6.889345e+00 9.589806e+00 1.857876e+00 142 133 112
-7.212109e+00 9.608919e+00 2.051873e+00 59 40 13
3.706833e+00 1.022445e+01 2.147291e+00 173 148 126
1.217745e+01 1.045290e+01 5.337042e+00 171 156 132
-4.950965e+00 1.141062e+01 2.482068e+00 192 174 150
1.069821e+00 1.180040e+01 2.512075e+00 146 127 112
-1.062339e+01 1.133628e+01 2.372642e+00 185 172 155
2.568955e+00 1.221494e+01 4.101543e+00 181 165 142
7.194747e+00 1.284902e+01 3.571625e+00 126 112 90
-1.057399e+01 1.223392e+01 3.640781e+00 202 191 174
1.593229e+00 1.449698e+01 4.937493e+00 188 179 162
1.237290e+01 1.595772e+01 4.116658e+00 195 178 150
4.513776e-01 1.552838e+01 4.110050e+00 202 189 170
-3.257468e-01 1.535343e+01 5.366065e+00 202 189 170
2.467184e+00 1.580667e+01 4.918804e+00 65 32 14
1.888543e+01 1.703764e+01 4.562141e+00 198 195 179
1.197327e+01 1.661931e+01 4.843240e+00 119 96 77
4.255376e+00 1.664563e+01 3.810786e+00 165 150 133
8.752091e+00 1.970199e+01 5.454287e+00 135 116 93
-3.478674e+00 1.981810e+01 5.053571e+00 194 181 165
7.491146e+00 2.184670e+01 5.384622e+00 116 94 69
5.238397e+00 2.233376e+01 5.624092e+00 200 190 173
1.781465e+01 2.405332e+01 6.320831e+00 137 104 76
1.276464e+01 2.497415e+01 6.701439e+00 164 165 149
-4.375805e+00 2.605965e+01 6.964312e+00 71 59 42
1.158828e+01 2.691944e+01 7.222297e+00 118 103 80
8.137625e+00 2.874173e+01 7.097324e+00 101 88 75
1.050781e+01 2.882527e+01 7.717337e+00 195 183 159
6.729624e+00 2.891826e+01 7.457030e+00 155 140 120
-1.450846e+01 2.797538e+01 8.488290e+00 181 166 146
9.868355e+00 2.944216e+01 7.962341e+00 180 173 151
8.747907e+00 2.980118e+01 7.904975e+00 167 149 127
6.504102e+00 3.026461e+01 7.979718e+00 160 153 138
5.814232e+00 3.099732e+01 7.586631e+00 102 86 72
9.126035e+00 3.118410e+01 8.062736e+00 85 75 62
9.806791e+00 3.181760e+01 8.723087e+00 173 168 154
1.020692e+01 3.196859e+01 8.583033e+00 169 159 143
-4.499759e+00 3.649446e+01 1.212228e+01 129 131 125
4.856147e+00 4.207443e+01 1.211962e+01 121 105 90
5.648017e+00 4.295229e+01 1.216849e+01 117 103 92
2.092476e+01 -2.593598e+00 1.695184e+00 84 84 76
-2.853127e+00 -1.649025e+00 2.660219e-01 149 136 114
6.719286e+00 -7.712934e-01 7.832127e-01 162 162 145
1.898998e+01 5.783733e-02 3.372112e+00 131 119 104
6.417633e+00 -1.511877e-01 1.276406e+00 104 84 61
1.696373e+01 2.534279e+00 4.489401e+00 187 180 162
1.885705e+01 2.796776e+00 4.470155e+00 122 111 98
1.054623e+01 5.733934e+00 2.626634e+00 197 177 156
-8.639931e+00 8.405524e+00 1.552740e+00 118 99 77
1.847873e+01 9.479255e+00 3.338490e+00 206 189 172
-8.087006e+00 8.871322e+00 9.962652e-01 98 79 54
-4.053167e+00 9.183928e+00 1.804098e+00 185 165 141
-1.677733e+01 8.419656e+00 2.171616e+00 171 159 140
2.709565e-01 9.573471e+00 1.880414e+00 166 156 137
-1.082756e+00 9.628768e+00 1.833662e+00 91 69 43
1.596843e+01 1.058698e+01 3.337305e+00 104 80 61
-4.088920e+00 1.006950e+01 1.945412e+00 66 55 33
1.988101e+00 1.049807e+01 2.149686e+00 97 72 34
1.458063e+01 1.092909e+01 3.470083e+00 165 158 146
1.423297e+01 1.101327e+01 4.655983e+00 150 149 137
1.592036e-01 1.151512e+01 2.503294e+00 209 195 176
-4.559664e+00 1.145717e+01 4.093946e+00 192 177 152
-5.439866e+00 1.208078e+01 2.376737e+00 192 175 158
3.759221e+00 1.230115e+01 3.981774e+00 119 95 78
7.756388e+00 1.312327e+01 3.518630e+00 183 173 153
1.158288e+01 1.343707e+01 3.916747e+00 108 85 60
1.870133e+00 1.278589e+01 4.771613e+00 48 44 36
2.401862e+00 1.313336e+01 3.329343e+00 48 44 36
-1.341805e+00 1.296342e+01 3.680600e+00 200 182 161
-1.647970e+00 1.299415e+01 4.043251e+00 67 40 19
1.805291e+01 1.429252e+01 4.065157e+00 179 167 145
-1.790572e+00 1.352429e+01 3.951797e+00 174 164 145
3.738630e+00 1.423011e+01 3.643100e+00 177 168 153
-2.464414e+00 1.407154e+01 4.264494e+00 188 171 155
1.754435e+00 1.425603e+01 5.672110e+00 174 165 150
7.944143e+00 1.565140e+01 3.989902e+00 192 178 155
-1.170265e+00 1.544914e+01 4.404942e+00 186 173 155
7.833524e+00 1.729239e+01 4.625177e+00 133 112 85
4.984101e+00 1.802241e+01 4.641067e+00 127 112 94
3.388914e-01 1.795762e+01 4.917193e+00 24 13 5
-8.644805e+00 1.758675e+01 4.716685e+00 128 110 89
-9.147520e+00 1.764535e+01 5.255431e+00 120 105 83
1.130717e+01 1.902423e+01 4.957955e+00 141 116 95
1.547425e+01 1.942676e+01 5.045495e+00 117 100 77
1.443183e+00 1.953801e+01 5.161706e+00 148 134 109
9.915550e+00 2.015232e+01 5.667507e+00 126 101 74
1.429312e+01 2.068287e+01 5.295112e+00 120 104 85
-2.756352e+00 2.015733e+01 5.603233e+00 118 100 85
1.351919e+01 2.120405e+01 5.324575e+00 118 104 84
4.621430e+00 2.093948e+01 5.324194e+00 126 104 84
4.621430e+00 2.093948e+01 5.324194e+00 126 104 84
1.264125e+01 2.151490e+01 5.512833e+00 115 102 82
1.523968e+01 2.297067e+01 5.962829e+00 108 97 85
1.413246e+01 2.477310e+01 6.437863e+00 191 180 166
1.413246e+01 2.477310e+01 6.437863e+00 191 180 166
1.771099e+01 2.503825e+01 6.521361e+00 94 91 72
-7.542951e+00 2.575800e+01 6.255627e+00 197 181 161
1.336604e+01 2.678912e+01 7.004652e+00 76 41 27
-5.273240e-01 2.624016e+01 6.887919e+00 84 74 55
-1.815703e+01 2.548080e+01 7.215628e+00 171 157 141
1.091333e+01 2.854902e+01 7.551620e+00 104 89 68
1.091333e+01 2.854902e+01 7.551620e+00 104 89 68
-2.241157e+00 2.786997e+01 7.642458e+00 104 93 75
-1.648735e+00 2.800250e+01 7.618672e+00 109 98 76
-1.648735e+00 2.800250e+01 7.618672e+00 109 98 76
-1.115393e+00 2.808228e+01 7.672963e+00 106 93 76
2.909929e-01 2.833713e+01 7.731560e+00 107 96 80
1.312967e+01 2.912146e+01 7.740247e+00 151 135 117
1.299632e+01 2.927856e+01 7.740778e+00 111 80 56
1.954062e+00 2.865123e+01 7.790011e+00 99 83 67
1.947553e+01 3.087194e+01 8.995111e+00 132 134 139
1.947553e+01 3.087194e+01 8.995111e+00 132 134 139
8.991984e+00 3.176197e+01 8.484670e+00 139 146 133
9.629565e+00 3.197150e+01 8.603424e+00 127 118 106
9.804089e+00 3.236728e+01 8.721129e+00 177 168 152
9.503746e+00 3.623480e+01 9.981814e+00 142 122 106
-1.301970e+01 3.787464e+01 1.137987e+01 182 172 152
1.542396e+00 4.001131e+01 1.124113e+01 255 239 223
-1.773083e+01 4.087334e+01 1.281264e+01 150 120 101
5.209089e+00 4.255014e+01 1.219942e+01 125 107 97
1.572476e+01 4.360066e+01 1.244399e+01 153 150 135
9.018759e+00 4.360379e+01 1.245074e+01 118 99 85
-1.225042e+01 -3.938563e+00 -6.097751e-01 170 152 124
-1.243213e+01 3.449257e+00 6.807941e-01 186 164 140
8.327737e+00 8.619323e+00 2.544239e+00 89 68 44
1.044563e+01 9.910787e+00 3.371638e+00 180 172 152
-6.608083e+00 9.931858e+00 -1.414253e-01 153 133 111
6.181647e+00 9.797502e+00 3.789849e+00 136 116 101
-2.060121e+00 9.845065e+00 1.896908e+00 108 94 77
-2.060121e+00 9.845065e+00 1.896908e+00 108 94 77
1.130529e+01 1.046933e+01 4.403829e+00 96 72 41
1.130529e+01 1.046933e+01 4.403829e+00 96 72 41
1.767292e+01 1.143728e+01 5.054976e+00 165 136 110
-9.662520e-01 1.140498e+01 2.420044e+00 206 192 179
6.379605e-01 1.160281e+01 2.366315e+00 198 182 162
1.866723e+01 1.452431e+01 4.069484e+00 136 122 105
8.164329e+00 1.522807e+01 3.931138e+00 160 132 105
8.164329e+00 1.522807e+01 3.931138e+00 160 132 105
2.289362e+00 1.696002e+01 4.472964e+00 64 68 58
-7.790532e+00 1.688285e+01 4.427655e+00 132 114 93
3.711007e+00 1.716308e+01 5.792213e+00 84 62 40
-1.379581e+01 1.682566e+01 4.761792e+00 114 99 79
1.582130e+01 1.871269e+01 4.933568e+00 118 102 85
1.224733e+01 1.882565e+01 4.907787e+00 136 121 107
1.083357e+01 1.884194e+01 4.759668e+00 144 125 110
1.258115e+01 1.902226e+01 4.968789e+00 131 118 106
1.017829e+01 1.879996e+01 5.735146e+00 141 128 110
5.191790e+00 1.871564e+01 4.953052e+00 135 116 100
8.230307e+00 1.946506e+01 4.837733e+00 135 113 88
8.605426e+00 2.016138e+01 5.068716e+00 127 105 88
1.023943e+01 2.053645e+01 5.107593e+00 130 104 77
-1.311707e+00 2.103930e+01 5.406337e+00 176 157 142
-7.189114e-01 2.101238e+01 5.678011e+00 123 106 88
1.299025e+00 2.123666e+01 5.447069e+00 109 98 83
5.645001e-01 2.124571e+01 5.478605e+00 113 96 78
-3.687158e-01 2.123686e+01 5.676489e+00 167 151 132
-9.403563e+00 2.082012e+01 5.532452e+00 149 132 119
-4.267390e+00 2.198453e+01 5.573089e+00 190 176 157
6.672447e+00 2.322134e+01 5.432503e+00 100 87 71
8.106472e+00 2.377650e+01 6.229250e+00 160 136 111
1.533614e+01 2.424283e+01 6.287031e+00 145 131 112
1.417698e+01 2.463522e+01 6.416837e+00 120 111 93
1.434948e+01 2.466073e+01 6.443937e+00 127 119 105
2.036634e+01 2.677969e+01 7.745123e+00 232 252 254
2.013133e+01 2.694144e+01 7.895584e+00 230 254 255
-3.154994e+00 2.625838e+01 6.731863e+00 161 158 141
2.656254e+00 2.675223e+01 6.919689e+00 239 254 250
-1.356326e+00 2.692929e+01 6.938205e+00 245 240 229
-3.660043e+00 2.721957e+01 7.403957e+00 79 55 42
8.138191e+00 2.822063e+01 7.336214e+00 139 140 125
-3.244770e+00 2.775322e+01 7.533831e+00 102 90 73
4.031420e+00 2.860935e+01 7.856749e+00 177 168 147
1.005388e+01 2.902556e+01 7.431264e+00 90 72 46
1.580684e+01 2.926219e+01 8.196155e+00 118 101 87
1.207260e+01 2.947444e+01 7.877485e+00 149 136 119
1.096176e+01 2.987389e+01 8.046431e+00 90 70 50
8.167566e+00 2.981545e+01 8.120732e+00 101 87 69
1.955255e+01 3.075970e+01 8.967550e+00 224 244 245
9.624062e+00 3.226882e+01 8.667394e+00 121 112 99
9.523864e+00 3.282161e+01 8.853422e+00 137 120 104
6.170852e+00 3.268099e+01 8.838976e+00 141 124 102
5.988284e+00 3.404553e+01 9.308876e+00 147 126 104
1.319278e+01 3.558950e+01 9.460931e+00 121 111 100
9.211819e+00 3.527084e+01 9.665749e+00 141 124 112
1.310859e+01 3.574800e+01 9.773422e+00 135 115 104
-3.721693e+00 3.442371e+01 1.166066e+01 252 255 255
1.312813e+01 3.610662e+01 9.645690e+00 131 115 101
1.298138e+01 3.627754e+01 9.911088e+00 144 123 106
1.297430e+01 3.718102e+01 1.000054e+01 123 111 96
1.293627e+01 3.743863e+01 1.008159e+01 129 118 106
5.604574e+00 3.699648e+01 1.028534e+01 141 124 105
1.278412e+01 3.763298e+01 1.037624e+01 136 119 105
1.286638e+01 3.799211e+01 1.025715e+01 129 115 99
1.275943e+01 3.788479e+01 1.044929e+01 129 115 99
1.265880e+01 3.842583e+01 1.066327e+01 126 113 96
5.487072e+00 3.802311e+01 1.059326e+01 148 127 111
5.259726e+00 3.980234e+01 1.117665e+01 144 122 105
-1.883125e+01 3.832842e+01 1.190759e+01 133 130 133
-1.883125e+01 3.832842e+01 1.190759e+01 133 130 133
-5.435468e+00 3.933024e+01 1.273178e+01 150 149 150
8.502653e+00 4.051910e+01 1.133580e+01 136 122 106
3.929566e+00 4.144523e+01 1.201296e+01 160 154 139
1.569721e+01 4.541149e+01 1.314294e+01 219 253 253
1.197036e+01 5.013249e+01 1.497505e+01 242 255 255
-5.256289e+00 8.956175e+00 1.530855e+00 116 89 64
-4.505465e+00 8.975683e+00 1.659208e+00 117 102 89
-7.995838e+00 8.907485e+00 1.702188e+00 154 133 110
-9.353784e+00 8.961030e+00 1.750911e+00 144 132 116
4.374333e+00 1.040751e+01 2.332869e+00 132 108 85
-3.106545e+00 1.053186e+01 2.121215e+00 111 93 71
-4.511647e+00 1.090835e+01 2.332211e+00 167 149 137
-1.655956e+00 1.239196e+01 3.549881e+00 155 139 121
1.833856e+00 1.274039e+01 3.716563e+00 86 68 51
1.833856e+00 1.274039e+01 3.716563e+00 86 68 51
-1.212087e-01 1.538717e+01 5.476050e+00 158 143 122
1.033967e+01 1.915190e+01 4.937935e+00 159 138 120
-1.576364e+01 1.970394e+01 5.576196e+00 160 141 125
8.674251e+00 2.133632e+01 5.131545e+00 132 119 105
4.555828e+00 2.114780e+01 5.360469e+00 122 103 90
-7.607699e+00 2.068388e+01 5.235994e+00 146 137 122
4.294809e+00 2.146540e+01 5.572875e+00 143 131 113
7.683180e-01 2.130117e+01 5.639706e+00 169 158 139
4.349392e+00 2.162522e+01 5.437471e+00 104 86 62
8.800736e+00 2.223930e+01 5.621680e+00 193 182 160
1.041050e+01 2.402143e+01 5.950177e+00 170 158 142
1.999782e+01 2.678284e+01 7.823564e+00 218 200 182
5.311859e+00 2.713395e+01 7.412251e+00 192 170 146
4.658640e+00 2.762451e+01 7.538539e+00 137 120 101
9.599709e+00 2.810336e+01 7.219177e+00 178 169 152
8.310618e+00 2.816430e+01 7.292623e+00 118 119 104
1.039176e+01 2.849428e+01 7.593024e+00 116 114 95
8.312466e+00 2.883089e+01 7.696955e+00 171 152 137
9.017248e+00 2.949866e+01 7.665667e+00 158 148 130
1.227455e+01 3.001751e+01 8.120887e+00 104 78 51
1.220814e+00 3.942963e+01 1.118330e+01 251 235 231
3.635848e+00 4.133349e+01 1.185346e+01 165 146 128
6.297395e+00 4.250409e+01 1.203543e+01 100 88 71
1.098436e+00 1.954375e+01 4.561240e+00 155 152 145
1.098436e+00 1.954375e+01 4.561240e+00 155 152 145
-1.681269e+01 3.933335e+01 7.258591e+00 96 99 108
1.256248e+01 -4.737554e-01 2.995686e+00 117 111 104
1.865866e+00 2.101544e+01 5.611061e+00 112 107 110
8.690036e+00 -3.080600e+00 2.765650e+00 74 73 68
-9.404620e+00 5.147262e-01 -5.059213e-01 66 65 60
-1.429536e+01 1.395336e+01 3.797576e+00 114 110 112
1.279136e+01 2.893184e+01 8.271128e+00 123 122 131
-6.206167e+00 3.483211e+01 6.741930e+00 132 131 136
-8.141284e+00 2.333679e+01 5.783226e+00 100 99 97
-9.413612e+00 3.805242e+01 6.225567e+00 117 121 130
3.913964e+00 3.623129e+01 1.026720e+01 136 134 136
-1.185690e+01 4.155574e+01 6.555905e+00 131 140 139
-8.967039e+00 4.079743e+01 7.601592e+00 96 96 106
1.027083e+01 4.269374e+01 1.109764e+01 145 149 158
9.675051e+00 2.363020e+01 6.578730e+00 156 155 160
5.036544e+00 2.904026e+01 8.559979e+00 132 129 130
-1.871182e+01 2.237720e+01 5.391960e+00 253 253 253
-1.527160e+01 -4.269561e-01 1.286630e-01 144 144 142
5.912933e+00 3.329425e+01 8.273254e+00 107 104 110
3.951835e+00 2.976054e+01 7.220092e+00 44 44 56
-1.589818e+01 4.106775e+01 1.351541e+01 236 245 253
-1.721379e+01 4.049690e+01 1.333131e+01 110 109 115
1.507535e+01 3.231722e+01 7.112479e+00 36 40 51
1.726414e+01 1.422292e+01 3.011768e+00 95 87 89
-1.350233e+01 1.105989e+01 4.242545e+00 127 120 116
7.935651e+00 3.217328e+01 7.282235e+00 28 34 51
1.341739e+01 4.326741e+01 1.174397e+01 57 61 73
-1.695581e+01 9.060159e+00 2.003280e+00 57 56 62
1.546151e+01 2.567923e+01 4.143079e+00 104 103 108
1.673471e+01 2.608166e+01 5.019721e+00 138 130 127
6.146142e+00 2.890247e+01 7.218073e+00 137 133 139
6.361375e+00 2.997820e+01 8.237756e+00 38 41 47
1.937837e+01 3.512916e+01 6.621471e+00 235 239 251
1.033345e+01 4.022605e+01 1.059883e+01 21 34 54
-3.959149e+00 8.972579e+00 9.771206e-01 129 121 117
2.080492e+01 3.134664e+01 4.300945e+00 71 70 84
-1.320414e+01 2.386548e+01 7.437859e+00 27 28 48
1.495474e+01 3.100752e+01 7.550938e+00 50 51 53
5.502360e+00 3.091264e+01 8.738024e+00 70 70 79
4.316788e+00 3.088623e+01 8.464718e+00 66 70 81
9.462063e+00 3.412290e+01 7.638639e+00 108 110 107
1.238631e+01 3.876899e+01 1.012790e+01 110 108 114
5.966201e+00 3.747057e+01 1.050991e+01 113 112 118
2.185747e+01 2.712075e+01 3.077969e+00 224 236 252
1.408478e+01 2.560094e+01 4.820206e+00 129 127 125
1.942162e+01 3.090711e+01 5.381251e+00 124 121 122
-2.199087e+00 2.669512e+01 8.086317e+00 33 39 54
1.927144e+01 3.197307e+01 5.950657e+00 80 79 86
5.468372e+00 3.064645e+01 8.185075e+00 106 106 106
1.449592e+01 3.203496e+01 9.075150e+00 116 115 116
8.496344e+00 3.272505e+01 8.888428e+00 22 35 52
7.576267e+00 3.342733e+01 7.557776e+00 29 41 66
1.052206e+01 3.782093e+01 9.713964e+00 11 23 49
1.417428e+01 -2.754777e+00 3.820210e+00 82 75 57
5.253990e+00 2.362124e+01 5.486587e+00 135 128 126
2.088537e+01 3.228700e+01 5.123615e+00 227 239 248
2.066471e+01 3.205538e+01 5.470946e+00 227 239 248
1.977939e+01 3.258220e+01 5.807725e+00 122 118 119
-9.028084e-01 2.788792e+01 7.567925e+00 97 97 95
1.947561e+01 3.458133e+01 6.418315e+00 64 68 91
6.006879e+00 3.088827e+01 8.612497e+00 125 124 129
7.001295e+00 3.325133e+01 8.971326e+00 16 24 50
1.209988e+01 4.006261e+01 9.779925e+00 9 24 44
1.581456e+01 4.465016e+01 1.142094e+01 107 108 116
1.360908e+01 4.391850e+01 1.192420e+01 51 58 69
5.917173e+00 -2.398931e+00 1.139863e+00 97 87 75
-1.438960e+01 9.971736e+00 4.280662e+00 110 107 99
-1.074851e+00 1.548818e+01 5.677549e+00 23 26 37
-9.996507e-01 1.593488e+01 5.747029e+00 35 32 50
1.782532e+01 1.934284e+01 4.244427e+00 54 57 64
2.147060e+01 2.376581e+01 2.798895e+00 127 131 136
4.754421e+00 2.124980e+01 4.522846e+00 71 69 65
8.194406e+00 2.386496e+01 4.965414e+00 133 129 130
1.398845e+01 2.616711e+01 4.400307e+00 18 26 46
1.601917e+01 2.947646e+01 6.504299e+00 122 118 118
1.493713e+01 3.258470e+01 8.034978e+00 123 120 119
1.512696e+01 3.291932e+01 8.497542e+00 64 62 77
1.557036e+01 3.400268e+01 7.620658e+00 56 60 73
5.246844e+00 3.128129e+01 8.748447e+00 118 117 117
4.487576e+00 3.128324e+01 8.490218e+00 129 124 128
8.361453e+00 4.210022e+01 1.219334e+01 43 46 61
7.483619e+00 4.311136e+01 1.250257e+01 74 75 77
-2.895842e+00 -2.832012e+00 -1.389673e-02 36 27 20
-1.647062e+00 -2.451474e+00 2.138853e-01 43 34 27
-6.370961e+00 -2.263515e+00 2.367413e-01 94 92 79
9.982456e+00 7.969633e-02 -2.779255e+00 53 47 47
-1.285000e+01 -8.457136e-01 5.041354e-01 50 41 32
6.395262e+00 1.662154e+01 3.545396e+00 70 62 60
-1.204495e+01 1.672794e+01 5.683075e+00 51 47 44
1.134361e+01 2.135533e+01 3.462584e+00 42 38 39
1.409522e+01 2.172735e+01 3.828555e+00 71 60 50
-1.220694e+00 1.917701e+01 4.941232e+00 81 75 63
-8.781798e+00 1.909825e+01 5.755478e+00 61 56 52
-2.361095e-01 2.081910e+01 5.259567e+00 60 54 54
7.293289e+00 2.349910e+01 4.891349e+00 56 50 53
6.479810e+00 2.382139e+01 5.381667e+00 132 124 117
1.396234e+01 2.584389e+01 4.298504e+00 30 33 52
2.158351e+01 2.777305e+01 3.242286e+00 226 238 248
-1.327910e+01 2.154338e+01 6.858299e+00 115 116 117
1.372994e+01 2.874450e+01 5.140124e+00 14 17 25
-2.134618e+00 2.598524e+01 7.629929e+00 134 135 145
1.245056e+01 2.962499e+01 5.966655e+00 125 120 119
2.093237e+01 3.160717e+01 5.416318e+00 239 243 253
1.680639e+01 3.059442e+01 6.668880e+00 129 125 123
4.406789e+00 2.813344e+01 7.406184e+00 133 133 133
1.789727e+01 3.103644e+01 7.009791e+00 138 136 141
2.531333e+00 2.849060e+01 7.325209e+00 34 30 40
1.516971e+01 3.129129e+01 7.599883e+00 58 57 56
1.404417e+00 2.873628e+01 7.772490e+00 101 99 98
1.693976e+01 3.245995e+01 7.846998e+00 90 88 91
5.752695e+00 3.093302e+01 8.307264e+00 23 20 40
1.501977e+01 3.375186e+01 8.167052e+00 111 110 124
-1.634762e+01 3.725580e+01 1.215745e+01 60 69 76
8.123117e-02 9.861682e+00 1.317743e+00 33 23 22
1.149932e-01 1.770166e+01 6.001199e+00 31 28 43
1.457362e+01 2.220740e+01 3.489222e+00 82 75 65
1.417086e+01 2.225796e+01 3.740082e+00 73 68 63
9.968225e+00 2.118550e+01 5.353039e+00 116 108 98
1.332671e+01 2.264810e+01 3.674773e+00 76 68 62
1.291930e+01 2.265636e+01 3.860704e+00 74 69 66
-8.967791e+00 2.099948e+01 4.017427e+00 95 94 91
9.028313e+00 2.368634e+01 4.798419e+00 114 108 110
6.551959e+00 2.322432e+01 5.826837e+00 116 115 113
6.551959e+00 2.322432e+01 5.826837e+00 116 115 113
7.126786e+00 2.359379e+01 5.553396e+00 44 40 36
1.858851e+01 2.581369e+01 5.308108e+00 155 150 146
1.358158e+01 2.642389e+01 4.194148e+00 122 122 120
-1.281827e+01 2.349935e+01 7.488431e+00 115 111 110
2.194104e+01 3.171190e+01 3.457218e+00 52 62 97
1.855275e+01 2.986755e+01 7.630583e+00 57 57 72
-2.577782e+00 2.627981e+01 7.317532e+00 249 252 255
1.218464e+00 2.719558e+01 7.156235e+00 55 53 66
6.454560e+00 2.838059e+01 6.913495e+00 122 117 123
4.448408e+00 2.802324e+01 7.212010e+00 72 67 72
8.022738e+00 2.925249e+01 6.633899e+00 95 94 99
6.885494e+00 2.929801e+01 7.042505e+00 102 97 102
4.248232e+00 2.868639e+01 7.413155e+00 82 76 76
-4.046014e+00 2.698354e+01 8.724484e+00 61 56 63
-8.052294e-01 2.808290e+01 8.172432e+00 106 106 105
2.007738e+00 2.889310e+01 7.694052e+00 98 99 104
2.007738e+00 2.889310e+01 7.694052e+00 98 99 104
1.786947e+01 3.231564e+01 7.255163e+00 113 115 132
4.458493e+00 3.192634e+01 8.686799e+00 82 84 91
3.633318e+00 4.253181e+01 2.625586e+00 42 55 98
2.847296e+00 3.756428e+01 1.282284e+01 135 133 143
1.474498e+01 4.459129e+01 1.196432e+01 117 115 125
1.393464e+01 4.426551e+01 1.209255e+01 109 113 124
8.327193e+00 4.269750e+01 1.225144e+01 62 66 71
1.305118e+01 4.456329e+01 1.187561e+01 40 40 52
1.851396e+01 9.460502e+00 2.679808e+00 129 123 123
1.053467e+01 2.082972e+01 3.652671e+00 69 60 63
-1.450618e+00 1.878064e+01 6.143033e+00 83 77 67
3.378711e+00 2.142837e+01 4.986762e+00 83 73 74
8.233581e-01 2.114716e+01 6.048690e+00 132 127 123
3.244914e+00 2.252435e+01 4.969450e+00 46 43 42
-8.745951e-01 2.163072e+01 5.772045e+00 111 108 106
-1.268014e+00 2.149544e+01 5.976752e+00 120 116 123
-1.578096e+00 2.147599e+01 5.886850e+00 106 107 109
2.796242e+00 2.243029e+01 5.314080e+00 111 103 106
2.425026e+00 2.238007e+01 5.287581e+00 111 110 106
1.664885e+00 2.216981e+01 5.508651e+00 120 115 119
1.283191e+00 2.207711e+01 5.580966e+00 119 115 116
3.864167e+00 2.264739e+01 5.230119e+00 104 98 102
3.532925e+00 2.262696e+01 5.153573e+00 97 96 93
3.148696e+00 2.253428e+01 5.240915e+00 99 99 101
3.148696e+00 2.253428e+01 5.240915e+00 99 99 101
1.147496e+01 2.415540e+01 4.652789e+00 107 109 106
1.380630e+01 2.455867e+01 4.662208e+00 116 113 116
1.523437e+01 2.500538e+01 4.217632e+00 105 107 102
1.762252e+01 2.534027e+01 5.296445e+00 103 99 97
1.714444e+01 2.523781e+01 5.349259e+00 91 89 92
1.808044e+01 2.537776e+01 5.398983e+00 110 108 109
1.040662e+01 2.473660e+01 4.519927e+00 158 152 153
1.472510e+01 2.494845e+01 5.603282e+00 77 76 81
2.143691e+01 2.749766e+01 3.279156e+00 123 137 141
-1.309735e+01 2.394787e+01 7.694570e+00 50 45 51
5.489050e+00 2.824487e+01 6.450307e+00 69 69 70
1.466165e+01 3.017805e+01 6.255735e+00 72 69 70
-1.813272e+00 2.670358e+01 7.855621e+00 111 115 125
2.179974e-01 2.785086e+01 7.284344e+00 59 57 60
8.643202e+00 2.910716e+01 7.794065e+00 129 129 124
-4.573352e+00 2.741617e+01 8.105696e+00 118 119 123
8.091848e+00 3.138828e+01 7.711292e+00 93 90 97
1.669837e+01 3.435142e+01 7.661895e+00 120 121 118
5.319032e+00 3.188720e+01 8.472878e+00 83 82 85
4.997931e+00 3.233224e+01 9.318693e+00 93 90 94
1.521905e+01 3.530995e+01 8.749181e+00 129 127 133
-9.495837e+00 3.654732e+01 8.046249e+00 68 67 75
-9.627664e+00 3.797328e+01 8.318058e+00 71 72 84
1.474621e+01 4.466173e+01 1.209746e+01 67 69 82
-1.115218e+01 3.933293e+01 1.252239e+01 69 65 79
1.876130e+01 1.464183e+01 3.146745e+00 79 71 70
1.775334e+00 1.281828e+01 5.861464e+00 18 17 33
1.490328e+01 2.261339e+01 3.794726e+00 84 76 82
1.633936e+01 2.350581e+01 3.898750e+00 71 71 66
8.593064e+00 2.245306e+01 4.111008e+00 69 60 55
8.625739e+00 2.331121e+01 5.845175e+00 72 66 65
2.090036e+01 2.613917e+01 4.092527e+00 128 125 132
9.051443e+00 2.428265e+01 4.760581e+00 113 110 110
8.581559e+00 2.375292e+01 6.083315e+00 142 138 138
1.529671e+01 2.580177e+01 4.228252e+00 139 137 147
7.761023e+00 2.827391e+01 6.297863e+00 109 106 101
8.678853e+00 2.879521e+01 6.294943e+00 73 68 63
7.220678e+00 2.800358e+01 7.611788e+00 62 60 61
1.589404e+01 3.036483e+01 7.067102e+00 120 114 111
1.056783e+01 2.923903e+01 7.634030e+00 136 129 134
1.265608e+01 3.089396e+01 6.533954e+00 107 101 101
2.019223e+01 3.320756e+01 5.830958e+00 43 48 64
4.012789e+00 3.067596e+01 8.515564e+00 59 57 72
1.544752e+01 4.209830e+01 1.088653e+01 126 128 141
1.395249e+01 4.458886e+01 1.190945e+01 71 74 89
-9.187078e+00 2.212588e+01 6.590329e+00 153 146 127
1.216212e+01 4.445664e+01 1.216058e+01 183 175 163
1.127807e+01 4.115359e+01 1.142884e+01 33 36 40
-3.096675e+00 1.509755e+01 4.627124e+00 57 55 57
8.317794e+00 2.413158e+01 6.569049e+00 65 64 66
-1.582203e+00 1.524545e+01 4.533519e+00 186 177 150
-9.483695e+00 3.168661e+01 8.596863e+00 20 20 22
1.245315e+01 3.768698e+01 8.800462e+00 43 44 46
7.168432e+00 3.764795e+01 8.688297e+00 17 19 18
9.837335e+00 4.058701e+01 1.174399e+01 29 35 34
5.623456e+00 4.097218e+01 1.045293e+01 138 126 112
1.656006e+00 1.745533e+01 5.019359e+00 175 168 149
6.981027e+00 2.285869e+01 4.957186e+00 193 184 166
1.075952e+00 1.767263e+01 5.976092e+00 165 157 138
1.415811e+01 2.221937e+01 6.655382e+00 124 115 95
-9.078125e+00 3.010386e+01 8.437848e+00 158 151 134
-9.307417e+00 3.241339e+01 9.179075e+00 162 156 141
1.155048e+01 4.113314e+01 1.100999e+01 34 32 36
1.235997e+01 4.328382e+01 1.211728e+01 173 161 146
-5.083751e+00 9.141396e+00 2.332931e+00 137 132 106
-1.927652e+00 1.526096e+01 4.798489e+00 73 55 54
-1.853356e+00 1.688965e+01 4.963808e+00 56 64 62
-4.061221e-01 1.533189e+01 1.109960e+01 55 33 21
-2.824310e+00 1.757266e+01 5.375893e+00 38 28 19
-8.439831e+00 1.725020e+01 4.915025e+00 108 91 73
-8.439831e+00 1.725020e+01 4.915025e+00 108 91 73
7.807362e+00 2.357710e+01 5.417293e+00 180 168 154
-5.429125e+00 2.115611e+01 5.906726e+00 172 164 151
-3.194251e+00 2.602372e+01 7.557772e+00 191 184 168
2.348534e+00 2.812627e+01 7.975812e+00 58 49 34
8.981885e+00 4.061110e+01 1.071334e+01 187 174 157
-2.277530e+00 1.334821e+01 4.075131e+00 182 181 166
-7.497425e+00 1.616566e+01 4.582880e+00 124 109 90
1.451993e+01 2.135500e+01 5.014789e+00 190 180 160
-9.056565e+00 1.769051e+01 4.998114e+00 102 91 69
7.681558e+00 2.697739e+01 7.456187e+00 53 46 30
6.449970e+00 2.808257e+01 7.451745e+00 95 78 60
7.125798e+00 2.877325e+01 6.960897e+00 135 132 120
6.704346e+00 2.927221e+01 7.505730e+00 56 48 32
1.923567e+00 2.820092e+01 7.601962e+00 56 50 37
1.922344e+00 2.819850e+01 7.603744e+00 56 50 37
3.452037e+00 2.952214e+01 9.023494e+00 191 181 177
1.373185e+01 4.293009e+01 1.308776e+01 170 159 143
-4.359284e+00 1.721035e+01 4.910397e+00 110 98 82
2.130427e+00 1.921961e+01 5.183705e+00 146 133 113
8.879423e+00 2.559691e+01 7.085195e+00 50 47 40
-3.232145e+00 2.629064e+01 7.872342e+00 94 81 72
-4.593670e+00 2.636172e+01 7.515640e+00 155 150 137
-2.508175e+00 2.709767e+01 7.749605e+00 94 81 66
-2.756521e+00 2.714919e+01 7.912334e+00 68 58 45
-6.406871e+00 2.711200e+01 7.752897e+00 157 155 141
1.222151e+01 3.181204e+01 8.586073e+00 174 158 145
1.222151e+01 3.181204e+01 8.586073e+00 174 158 145
1.410930e+01 3.190181e+01 9.644968e+00 182 172 159
9.781441e+00 3.485919e+01 8.225213e+00 125 113 99
1.336748e+01 3.654993e+01 9.061326e+00 118 108 95
1.532299e+01 3.663423e+01 1.091062e+01 193 180 165
6.156474e+00 3.567942e+01 8.824330e+00 128 117 99
9.362453e+00 4.014115e+01 1.027682e+01 128 116 101
2.631877e+00 1.509792e+01 4.645764e+00 59 61 56
8.776348e+00 2.266233e+01 3.643334e+00 105 89 70
8.503136e+00 2.955425e+01 7.728938e+00 92 82 57
-2.560497e+00 2.703158e+01 7.537924e+00 136 129 110
-2.820997e+00 2.721518e+01 7.655368e+00 162 154 138
-3.844985e+00 2.701756e+01 7.632727e+00 163 156 138
1.210045e+01 3.173579e+01 8.528913e+00 86 75 66
1.423350e+01 3.226960e+01 9.753798e+00 92 85 75
4.419307e+00 3.150474e+01 8.760544e+00 114 107 88
-5.994949e+00 3.228798e+01 9.196419e+00 116 107 90
1.570267e+01 4.249585e+01 1.232965e+01 152 144 128
1.560865e+01 4.257111e+01 1.225423e+01 89 81 69
1.411487e+01 4.198830e+01 1.311913e+01 143 134 122
1.404405e+01 4.217202e+01 1.311102e+01 187 176 164
1.346812e+01 4.212087e+01 1.293727e+01 193 184 167
3.490872e+00 4.034624e+01 1.124398e+01 132 123 102
3.490872e+00 4.034624e+01 1.124398e+01 132 123 102
1.407215e+01 4.246144e+01 1.307524e+01 167 164 149
1.345891e+01 4.234865e+01 1.295852e+01 181 169 154
1.345891e+01 4.234865e+01 1.295852e+01 181 169 154
1.351224e+01 4.237214e+01 1.309081e+01 128 118 106
2.582487e+00 1.625461e+01 4.493956e+00 139 135 131
-6.263982e-01 1.630184e+01 4.602474e+00 55 52 52
1.403328e+00 1.767267e+01 4.813108e+00 138 139 138
1.070010e+01 2.204337e+01 5.261324e+00 207 203 191
1.612545e+00 1.779631e+01 4.735859e+00 45 45 47
8.891314e+00 2.048120e+01 4.892048e+00 98 95 78
-3.299946e+00 1.975141e+01 5.423015e+00 89 84 72
1.337674e+01 3.652727e+01 9.091730e+00 87 89 85
1.546750e+01 2.265244e+01 5.715581e+00 76 74 66
1.402301e+01 2.938748e+01 7.612154e+00 57 58 50
3.426303e+00 2.262275e+01 6.585052e+00 92 89 74
7.053698e+00 2.864102e+01 7.994094e+00 5 9 12
1.268203e+01 3.456917e+01 9.401108e+00 84 76 70
1.036813e+01 2.945045e+01 8.074615e+00 11 7 13
3.509546e+00 2.312792e+01 6.125059e+00 98 90 77
5.904921e+00 3.077197e+01 8.774716e+00 96 92 83
-3.076015e+00 1.989384e+01 5.687816e+00 32 21 17
-4.031594e+00 2.552598e+01 7.187896e+00 79 79 60
-3.324334e+00 2.657759e+01 7.572312e+00 98 90 79
1.365772e+01 3.026589e+01 8.345366e+00 22 23 25
7.015437e-01 1.918382e+01 6.063524e+00 2 2 0
-2.507976e-01 1.919880e+01 5.987532e+00 6 1 0
1.932569e+01 2.499308e+01 5.452072e+00 82 79 67
7.950930e+00 2.790868e+01 7.683601e+00 9 6 15
7.859598e+00 2.006357e+01 5.384820e+00 45 35 33
-1.680576e+00 -1.643363e+00 1.446278e+00 156 152 133
-1.227986e+00 -3.714419e+00 2.441940e-01 62 49 34
-3.141539e+00 4.100195e+00 3.003764e+00 153 142 122
1.358392e+00 -1.201704e+00 1.553766e+00 141 130 116
-1.876087e+01 1.722747e+01 1.908863e+01 232 238 234
-1.205667e+01 6.303224e+00 3.191209e+01 227 236 235
6.406238e+00 -1.537956e+00 8.211272e-01 122 111 93
5.758580e+00 -9.337189e-01 7.654185e-01 38 34 28
-7.529297e-01 -3.189232e+00 3.216537e+01 109 103 76
-7.746187e+00 2.625934e+01 6.855709e+00 174 172 159
-1.157441e+01 6.253050e+00 3.267123e+01 60 64 43
-1.183655e+01 6.846937e+00 3.196344e+01 106 105 92
-5.322470e-01 -3.280711e+00 3.166801e+01 42 35 22
-1.191319e+01 6.109284e+00 3.223802e+01 98 102 80
-1.804986e+01 2.789897e+01 1.446674e+01 81 81 73
-1.540449e+01 2.264327e+01 2.014718e+01 75 76 69
1.451714e+01 2.550375e+01 6.863638e+00 37 32 28
4.139263e+00 -1.925392e+00 1.151555e+00 119 122 127
1.397733e+00 -8.937337e-01 1.516504e+00 184 187 192
-6.856096e+00 -2.145031e+00 5.041506e-01 84 83 89
-1.374301e+00 5.849307e-01 1.174136e+00 183 183 183
4.909002e+00 -2.761569e+00 1.782424e+00 163 166 171
-1.298400e+01 -1.031159e+00 -1.188729e-01 187 190 197
-1.351124e+01 -1.022779e+00 -2.402410e-01 189 192 201
-1.534744e+01 6.444880e+00 -3.574688e-01 91 97 109
6.023191e+00 -1.568736e+00 1.968952e+00 122 125 132
9.754685e+00 -9.947856e-01 1.197710e+00 53 51 54
-1.060545e+01 -1.045574e+00 2.109746e-01 115 114 118
-1.073202e+01 -7.240806e-02 2.673399e-01 123 123 131
-1.412004e+01 7.485114e+00 -1.116472e-01 175 182 198
4.493934e+00 -1.431171e+00 1.601407e+00 83 88 94
-2.290094e+00 3.888799e-01 9.564777e-01 194 190 189
5.141113e+00 -2.526421e+00 1.749654e+00 92 93 97
-1.259163e+01 8.151341e-02 -1.517842e-02 109 108 113
-1.246287e+01 -4.390948e+00 -1.564663e-01 142 145 160
6.790304e+00 5.559971e-01 3.118302e+00 117 119 131
1.286003e+01 -7.022266e-01 1.565631e+00 184 184 184
5.683336e+00 -6.491343e-01 2.175072e+00 136 138 144
5.245641e+00 1.105591e+00 3.368790e+00 91 96 102
1.008819e+00 4.109796e+00 2.001209e+00 42 37 27
