ply
format ascii 1.0
element face 0
property list uchar int vertex_indices
element vertex 946
property float x
property float y
property float z
property uchar diffuse_red
property uchar diffuse_green
property uchar diffuse_blue
end_header
8.720849e-01 1.143117e+00 1.995225e+00 193 190 184
-9.820012e-01 1.061288e+00 1.751489e+00 120 107 91
6.958042e-01 1.160824e+00 1.956826e+00 129 124 113
3.488752e+00 9.156681e-01 3.755389e+00 71 68 63
2.064144e+00 1.181881e+00 2.319181e+00 177 168 159
-1.013777e+00 1.095806e+00 1.773497e+00 168 157 136
3.105824e+00 1.054514e+00 3.320117e+00 152 146 126
2.932537e+00 1.104752e+00 3.226763e+00 72 60 53
-2.359077e+00 9.572226e-01 2.204493e+00 92 80 70
2.686961e+00 1.180863e+00 2.999129e+00 63 56 50
4.402465e+00 8.659446e-01 4.700792e+00 114 106 98
2.027577e-01 1.294256e+00 1.874573e+00 118 109 102
1.984046e-01 1.283138e+00 1.896934e+00 118 109 102
2.960503e-01 1.328246e+00 1.843604e+00 123 118 113
-3.390133e+00 7.991656e-01 2.695692e+00 173 164 154
2.357325e+00 1.296704e+00 2.636214e+00 134 122 106
-4.132064e+00 6.628099e-01 3.035579e+00 75 63 48
2.381913e+00 1.304557e+00 2.669543e+00 157 149 130
9.149819e-02 1.357991e+00 1.845284e+00 112 101 85
2.296989e+00 1.356215e+00 2.591890e+00 183 175 156
2.082832e+00 1.400785e+00 2.412992e+00 63 52 47
-3.110932e+00 1.003658e+00 2.591391e+00 89 83 87
-2.441161e+00 1.137800e+00 2.292341e+00 94 87 77
-2.441161e+00 1.137800e+00 2.292341e+00 94 87 77
-3.842475e+00 8.779809e-01 2.918192e+00 158 153 141
-1.457016e+00 1.352748e+00 1.844849e+00 114 101 85
-6.061411e+00 5.086826e-01 3.930572e+00 105 103 106
-3.958679e+00 9.353366e-01 2.981765e+00 153 154 154
-3.958679e+00 9.353366e-01 2.981765e+00 153 154 154
-4.048068e+00 9.217315e-01 3.017748e+00 109 98 90
2.302866e+00 1.510959e+00 2.674969e+00 129 118 100
2.144600e-01 1.565472e+00 1.891732e+00 99 83 69
2.144600e-01 1.565472e+00 1.891732e+00 99 83 69
-4.976719e+00 7.858664e-01 3.435536e+00 147 143 121
2.299520e+00 1.551142e+00 2.700738e+00 72 60 59
4.547363e-01 1.619613e+00 1.931104e+00 182 176 164
-1.479875e+00 1.470338e+00 1.872855e+00 89 73 50
-5.875008e+00 6.411727e-01 3.857115e+00 203 200 193
2.833986e+00 1.495841e+00 3.260863e+00 122 117 110
2.833986e+00 1.495841e+00 3.260863e+00 122 117 110
1.130520e+00 1.738777e+00 1.951311e+00 63 60 53
2.718276e+00 1.568961e+00 3.143682e+00 70 64 53
2.718276e+00 1.568961e+00 3.143682e+00 70 64 53
2.136661e-01 1.714475e+00 1.912198e+00 180 173 162
-6.187587e-01 1.684269e+00 1.760763e+00 177 177 167
-4.423002e+00 1.046236e+00 3.212559e+00 90 80 80
-1.438120e-01 1.740631e+00 1.785108e+00 152 149 142
2.143866e+00 1.702274e+00 2.585264e+00 174 163 134
-3.932888e+00 1.155703e+00 2.995261e+00 95 83 72
3.678322e+00 1.472525e+00 3.992940e+00 126 116 116
-3.959589e-01 1.751790e+00 1.785488e+00 79 63 48
1.814540e+00 1.773748e+00 2.343883e+00 142 126 110
-1.342221e+00 1.653551e+00 1.913945e+00 160 149 129
-2.709125e+00 1.415792e+00 2.450383e+00 153 145 126
8.171494e-01 1.805143e+00 2.001253e+00 170 156 132
-1.371928e+00 1.667873e+00 1.921221e+00 94 83 66
-1.371928e+00 1.667873e+00 1.921221e+00 94 83 66
-4.553315e+00 1.107208e+00 3.294498e+00 136 123 114
8.832642e-01 1.840133e+00 2.020400e+00 102 88 73
-1.348926e+00 1.711264e+00 1.911290e+00 171 164 153
-4.110483e-01 1.829228e+00 1.750260e+00 131 125 110
-4.368246e+00 1.198332e+00 3.217377e+00 186 179 171
-1.872565e+00 1.683610e+00 2.134744e+00 156 135 110
2.554834e+00 1.767250e+00 3.128997e+00 160 154 140
-7.300310e-01 1.856665e+00 1.793004e+00 170 166 154
7.624516e-01 1.974226e+00 1.908440e+00 143 135 127
4.487218e-01 1.963246e+00 1.865592e+00 110 109 105
-6.664402e+00 8.794830e-01 4.199493e+00 107 100 92
-2.836935e+00 1.571715e+00 2.558521e+00 55 46 42
-5.275902e+00 1.143278e+00 3.639971e+00 181 178 174
-5.275902e+00 1.143278e+00 3.639971e+00 181 178 174
2.586313e+00 1.822999e+00 3.188803e+00 75 66 53
1.479335e+00 1.983226e+00 2.194576e+00 155 137 115
1.479335e+00 1.983226e+00 2.194576e+00 155 137 115
-4.384160e+00 1.320612e+00 3.252094e+00 55 48 42
-5.628428e+00 1.100517e+00 3.786942e+00 172 171 170
1.960359e+00 1.945163e+00 2.549900e+00 173 160 138
1.092263e-01 2.017864e+00 1.736351e+00 47 43 34
-1.247873e+00 1.918702e+00 1.934372e+00 51 41 32
-1.026284e+00 1.971119e+00 1.886042e+00 170 155 122
-6.662603e+00 1.021170e+00 4.206068e+00 162 158 141
-3.512773e+00 1.584940e+00 2.885164e+00 176 176 166
-6.544708e+00 1.057169e+00 4.156152e+00 59 51 57
1.913159e+00 2.033869e+00 2.600030e+00 155 142 126
2.397473e+00 1.975899e+00 3.033493e+00 171 163 157
-1.985390e+00 1.863674e+00 2.254082e+00 44 31 28
3.147563e+00 1.871702e+00 3.642597e+00 65 60 54
3.147563e+00 1.871702e+00 3.642597e+00 65 60 54
-1.943688e+00 1.885966e+00 2.260663e+00 81 70 51
-6.552332e+00 1.098605e+00 4.172765e+00 171 171 168
-1.871589e+00 1.913509e+00 2.241468e+00 80 73 72
-6.597966e+00 1.138033e+00 4.189995e+00 61 54 59
1.625888e+00 2.136476e+00 2.392986e+00 101 93 84
-1.840035e+00 1.943932e+00 2.233923e+00 181 185 186
-6.576269e+00 1.192715e+00 4.183924e+00 161 158 154
3.310500e+00 1.955571e+00 3.901523e+00 163 158 151
3.312532e+00 1.959002e+00 3.871536e+00 163 158 151
3.396113e+00 1.966754e+00 3.953251e+00 188 183 172
-1.989189e+00 2.001857e+00 2.315431e+00 76 66 56
3.423590e+00 1.978705e+00 3.982451e+00 180 175 170
-9.029742e-01 2.176413e+00 1.943245e+00 158 143 125
-2.630754e+00 1.928525e+00 2.575053e+00 179 175 164
-2.546173e-01 2.265734e+00 1.871308e+00 181 172 155
-6.551341e+00 1.319578e+00 4.189103e+00 161 158 153
-1.917522e+00 2.107971e+00 2.288421e+00 85 76 71
-3.372066e+00 1.914155e+00 2.751248e+00 157 155 142
2.636371e-01 2.347977e+00 1.915781e+00 170 161 151
-6.220390e+00 1.424915e+00 4.062245e+00 64 54 54
-1.722514e+00 2.158579e+00 2.254678e+00 44 37 27
-4.333625e+00 1.743154e+00 3.292843e+00 72 63 58
-4.333625e+00 1.743154e+00 3.292843e+00 72 63 58
-3.128812e+00 1.973479e+00 2.715023e+00 181 177 168
-6.103326e+00 1.479801e+00 4.010213e+00 96 88 76
1.696866e+00 2.317226e+00 2.652577e+00 102 93 76
-1.681922e+00 2.193944e+00 2.276076e+00 104 95 89
-1.681922e+00 2.193944e+00 2.276076e+00 104 95 89
1.740519e+00 2.322231e+00 2.684608e+00 173 160 139
-1.564021e+00 2.217835e+00 2.228730e+00 55 50 47
9.892945e-01 2.399699e+00 2.127220e+00 135 123 109
2.127565e+00 2.318957e+00 2.968792e+00 77 66 55
9.982007e-01 2.422401e+00 2.194712e+00 75 63 58
-6.395107e-01 2.372093e+00 1.949930e+00 69 52 45
9.128629e-01 2.450304e+00 2.133883e+00 158 149 130
-5.245845e-01 2.416949e+00 1.956945e+00 154 142 116
-1.749018e+00 2.297401e+00 2.310928e+00 97 87 80
-1.749018e+00 2.297401e+00 2.310928e+00 97 87 80
-2.322611e+00 2.231658e+00 2.550229e+00 63 54 49
2.172203e+00 2.412572e+00 3.064058e+00 172 168 165
8.342074e-01 2.534333e+00 2.137978e+00 62 49 32
1.302236e+00 2.519199e+00 2.393675e+00 164 148 123
-6.119542e+00 1.690241e+00 4.057365e+00 167 162 138
2.550136e+00 2.391125e+00 3.400610e+00 150 145 140
7.755199e-01 2.563228e+00 2.146598e+00 133 120 103
2.587731e+00 2.402980e+00 3.403388e+00 66 56 43
-1.714095e+00 2.382539e+00 2.333219e+00 166 160 146
-1.454389e+00 2.428338e+00 2.308171e+00 95 77 65
-6.081232e+00 1.754326e+00 4.061773e+00 181 178 168
-3.579563e-01 2.565740e+00 2.008454e+00 78 64 40
-8.486186e-01 2.535239e+00 2.097526e+00 186 175 157
-4.680008e+00 2.000611e+00 3.521506e+00 118 112 112
4.297844e+00 2.211710e+00 4.869578e+00 184 175 158
4.297844e+00 2.211710e+00 4.869578e+00 184 175 158
1.987932e+00 2.545034e+00 2.966952e+00 174 165 152
2.492746e+00 2.504670e+00 3.390751e+00 88 81 72
4.294959e+00 2.267780e+00 4.889998e+00 166 160 148
-1.486726e+00 2.539722e+00 2.350735e+00 77 65 56
4.228742e+00 2.294732e+00 4.824071e+00 144 130 117
4.133351e+00 2.314662e+00 4.721390e+00 88 78 73
4.133351e+00 2.314662e+00 4.721390e+00 88 78 73
2.462700e+00 2.544942e+00 3.396116e+00 158 153 133
2.452332e+00 2.539283e+00 3.445921e+00 158 153 133
2.462700e+00 2.544942e+00 3.396116e+00 158 153 133
-1.302063e-01 2.678675e+00 2.042541e+00 141 124 104
-6.865794e-01 2.652366e+00 2.039014e+00 182 172 145
-2.882828e+00 2.384000e+00 2.766396e+00 73 63 53
-2.902281e+00 2.392674e+00 2.855329e+00 179 174 167
2.000407e+00 2.629196e+00 3.085015e+00 197 191 180
2.008831e+00 2.635815e+00 3.030277e+00 197 191 180
2.985838e+00 2.516249e+00 3.840551e+00 178 172 154
1.855435e+00 2.653198e+00 2.937876e+00 79 69 60
4.419494e-01 2.737481e+00 2.130003e+00 70 60 45
-2.089109e+00 2.522252e+00 2.563546e+00 62 56 44
1.492955e+00 2.702472e+00 2.672500e+00 90 82 77
-1.492598e-02 2.738739e+00 2.043825e+00 149 136 120
5.328881e-01 2.754139e+00 2.151251e+00 117 106 88
-3.560134e+00 2.341656e+00 3.129350e+00 43 34 38
-4.599977e+00 2.230400e+00 3.552974e+00 111 110 106
-2.548359e+00 2.535037e+00 2.737404e+00 176 172 160
-2.548359e+00 2.535037e+00 2.737404e+00 176 172 160
-4.603118e-01 2.777362e+00 2.169471e+00 99 86 70
-4.603118e-01 2.777362e+00 2.169471e+00 99 86 70
-4.508633e-01 2.813808e+00 2.191496e+00 160 142 115
-1.248443e+00 2.744390e+00 2.373531e+00 89 82 77
8.698361e-01 2.868722e+00 2.407283e+00 173 162 140
9.135581e-01 2.875840e+00 2.464465e+00 165 156 141
-5.568170e-01 2.886608e+00 2.167115e+00 146 131 103
2.836865e-01 2.923648e+00 2.246673e+00 168 159 145
4.618011e-01 2.926728e+00 2.318910e+00 66 56 46
-4.388255e+00 2.426159e+00 3.513872e+00 174 167 159
3.374722e+00 2.688337e+00 4.293614e+00 193 186 166
-1.679242e+00 2.799169e+00 2.601999e+00 164 157 150
-1.679242e+00 2.799169e+00 2.601999e+00 164 157 150
-2.593315e+00 2.701697e+00 2.833518e+00 185 178 170
-1.623007e+00 2.819646e+00 2.553401e+00 59 49 38
-5.844719e+00 2.260479e+00 4.057344e+00 86 80 84
-3.381813e+00 2.609511e+00 3.145386e+00 153 150 135
1.261770e+00 2.958236e+00 2.692853e+00 180 172 158
3.918587e+00 2.659791e+00 4.679269e+00 120 106 93
-3.637187e+00 2.633459e+00 3.235767e+00 104 97 92
-1.386653e+00 2.909370e+00 2.491247e+00 127 116 95
-1.505065e+00 2.903869e+00 2.587866e+00 170 165 162
-4.576030e+00 2.523135e+00 3.599455e+00 137 133 129
-3.490122e-01 3.029225e+00 2.271199e+00 166 163 141
3.324084e+00 2.793867e+00 4.278323e+00 58 45 31
1.162468e+00 3.020753e+00 2.678614e+00 163 155 136
-4.879642e-01 3.014644e+00 2.408462e+00 69 53 38
-3.095122e-01 3.049558e+00 2.279942e+00 158 147 129
3.142377e+00 2.844285e+00 4.146091e+00 175 167 157
-2.206393e+00 2.872311e+00 2.775496e+00 128 118 106
-5.497660e+00 2.461018e+00 3.962100e+00 94 87 81
3.683960e+00 2.811305e+00 4.508175e+00 206 206 207
-4.131113e+00 2.669249e+00 3.469637e+00 54 44 42
3.780029e+00 2.802956e+00 4.620326e+00 176 163 144
-4.213649e+00 2.671906e+00 3.501892e+00 59 52 47
-5.320345e+00 2.523432e+00 3.900353e+00 191 187 176
4.092462e-01 3.126924e+00 2.451756e+00 86 73 57
2.027556e+00 3.040026e+00 3.339346e+00 108 99 93
-4.515353e-01 3.102855e+00 2.424069e+00 82 66 48
-1.572287e+00 3.010677e+00 2.623412e+00 39 29 28
3.165310e+00 2.918125e+00 4.208210e+00 96 87 83
3.691266e-01 3.135111e+00 2.462578e+00 130 122 108
-1.317873e+00 3.048742e+00 2.595249e+00 168 153 134
-2.396561e-01 3.138119e+00 2.421087e+00 78 61 51
2.646498e-01 3.161159e+00 2.439388e+00 151 140 117
-8.990435e-02 3.158794e+00 2.413026e+00 183 176 154
3.066621e+00 2.962865e+00 4.155239e+00 161 155 141
-4.459666e+00 2.720907e+00 3.595859e+00 61 59 60
-1.214242e+00 3.104335e+00 2.610792e+00 43 32 27
3.618016e+00 2.944601e+00 4.521411e+00 158 148 136
-1.220167e+00 3.138743e+00 2.628901e+00 176 162 136
4.352036e-01 3.225488e+00 2.550940e+00 87 74 63
1.367567e-01 3.239464e+00 2.452250e+00 97 83 57
6.974138e-01 3.247127e+00 2.635779e+00 123 116 101
-1.275628e+00 3.176229e+00 2.669625e+00 175 167 154
-3.104059e+00 2.989880e+00 3.190871e+00 172 165 155
1.109575e+00 3.249813e+00 2.871073e+00 55 42 36
-2.858099e+00 3.042528e+00 3.118264e+00 52 46 41
-3.035051e+00 3.051864e+00 3.191149e+00 182 179 173
-4.820529e+00 2.845527e+00 3.762530e+00 167 161 136
3.507379e+00 3.082820e+00 4.487278e+00 81 69 64
9.823913e-01 3.310985e+00 2.869647e+00 175 163 140
9.823913e-01 3.310985e+00 2.869647e+00 175 163 140
6.472113e-01 3.330508e+00 2.664808e+00 82 69 52
-5.141732e+00 2.824907e+00 3.912820e+00 175 169 157
1.053779e+00 3.315847e+00 2.902983e+00 172 165 147
2.908629e+00 3.164094e+00 4.097451e+00 82 75 73
-4.910404e+00 2.865616e+00 3.812852e+00 170 161 152
2.251841e+00 3.248241e+00 3.704616e+00 171 164 147
3.407924e+00 3.129478e+00 4.425795e+00 188 180 168
-2.118239e+00 3.218406e+00 2.905894e+00 126 122 116
1.477179e+00 3.339106e+00 3.247162e+00 177 170 152
9.271901e-01 3.371066e+00 2.896500e+00 183 174 162
-5.245768e+00 2.883152e+00 3.956987e+00 154 150 147
-3.039174e+00 3.189913e+00 3.221149e+00 98 93 88
-1.841161e+00 3.315656e+00 2.896170e+00 59 48 44
2.316306e+00 3.328821e+00 3.784005e+00 198 197 192
3.416464e+00 3.218968e+00 4.499281e+00 176 169 144
3.416464e+00 3.218968e+00 4.499281e+00 176 169 144
2.011794e+00 3.369954e+00 3.551310e+00 75 60 55
1.257421e+00 3.424173e+00 3.047910e+00 150 138 125
1.986056e+00 3.394250e+00 3.607128e+00 178 173 165
1.667977e+00 3.428379e+00 3.305710e+00 134 127 111
-2.614752e+00 3.289444e+00 3.118283e+00 79 71 63
1.273960e+00 3.462918e+00 3.126860e+00 161 153 141
-6.655064e-01 3.461096e+00 2.733469e+00 157 150 123
1.096812e+00 3.485933e+00 3.001594e+00 96 80 66
5.849529e-01 3.498700e+00 2.861610e+00 29 20 6
-2.831318e+00 3.293867e+00 3.209371e+00 187 188 189
-1.326693e+00 3.439570e+00 2.789242e+00 166 164 150
1.109044e+00 3.507297e+00 3.031674e+00 122 107 83
2.916121e+00 3.365265e+00 4.198749e+00 184 175 162
5.292285e-01 3.536475e+00 2.857257e+00 71 59 50
5.292285e-01 3.536475e+00 2.857257e+00 71 59 50
-5.452304e-01 3.536587e+00 2.762742e+00 51 39 28
-1.170813e+00 3.516698e+00 2.783865e+00 144 128 102
-2.440022e+00 3.417126e+00 3.152593e+00 168 167 156
-2.452246e+00 3.433856e+00 3.143295e+00 175 169 157
3.576040e-01 3.633219e+00 2.828952e+00 54 47 31
-1.241972e+00 3.594567e+00 2.907080e+00 60 47 39
-1.658237e+00 3.579279e+00 2.963110e+00 128 124 121
-4.538965e+00 3.295115e+00 3.817304e+00 94 84 75
4.652977e-01 3.675674e+00 2.900655e+00 112 104 88
3.222147e-01 3.682387e+00 2.910786e+00 178 170 156
-1.489078e+00 3.605574e+00 2.977266e+00 201 200 195
9.613583e-01 3.669017e+00 3.176060e+00 157 146 131
1.570973e+00 3.642012e+00 3.398812e+00 129 119 95
-4.255553e+00 3.360601e+00 3.724893e+00 170 164 140
-4.610990e+00 3.327519e+00 3.872016e+00 179 172 163
2.386934e+00 3.593000e+00 3.985699e+00 160 148 139
-4.668237e+00 3.339497e+00 3.889086e+00 170 165 149
-4.668237e+00 3.339497e+00 3.889086e+00 170 165 149
-1.334118e+00 3.642315e+00 3.038231e+00 56 43 33
-1.291161e+00 3.654980e+00 2.957345e+00 56 43 33
2.400734e+00 3.615077e+00 4.019403e+00 167 163 152
-1.128153e+00 3.683258e+00 2.935849e+00 170 159 139
1.172975e+00 3.725654e+00 3.256092e+00 82 75 68
9.001908e-01 3.727692e+00 3.203047e+00 186 180 166
1.559094e+00 3.746364e+00 3.536162e+00 78 68 59
-2.821784e+00 3.629352e+00 3.337893e+00 160 150 130
1.696019e+00 3.785406e+00 3.602589e+00 164 156 145
-4.106374e+00 3.548043e+00 3.746914e+00 84 76 67
-2.723040e+00 3.687301e+00 3.342746e+00 158 147 134
1.280151e+00 3.827308e+00 3.408044e+00 78 68 56
-3.049199e+00 3.671033e+00 3.463356e+00 57 48 44
2.974125e+00 3.718598e+00 4.440305e+00 195 188 167
-3.118942e+00 3.698755e+00 3.504223e+00 188 183 178
1.650432e+00 3.846730e+00 3.625622e+00 72 64 53
-1.884661e+00 3.813666e+00 3.191413e+00 182 178 169
-1.692396e+00 3.841632e+00 3.186417e+00 175 169 152
8.382796e-01 3.913791e+00 3.237087e+00 169 161 145
4.778084e-01 3.918943e+00 3.165204e+00 86 75 65
-4.207266e+00 3.644182e+00 3.834278e+00 204 207 190
2.799423e+00 3.788916e+00 4.337251e+00 172 164 153
6.529903e-01 3.929936e+00 3.148519e+00 163 155 145
-1.736620e+00 3.860111e+00 3.178505e+00 55 43 36
2.914885e+00 3.784823e+00 4.429385e+00 170 163 149
1.953062e+00 3.874989e+00 3.889662e+00 204 199 186
1.953062e+00 3.874989e+00 3.889662e+00 204 199 186
1.303190e+00 3.910671e+00 3.484930e+00 188 183 176
-6.944739e-01 3.936828e+00 3.088455e+00 169 161 148
-1.952526e+00 3.861453e+00 3.233847e+00 196 192 189
2.129016e+00 3.882696e+00 4.018547e+00 192 186 172
-2.737029e+00 3.819972e+00 3.430813e+00 147 144 127
1.384958e+00 3.945093e+00 3.602471e+00 198 193 186
-1.269921e+00 3.932258e+00 3.085957e+00 104 91 75
-4.159045e+00 3.708193e+00 3.853971e+00 175 171 162
-3.699521e+00 3.759204e+00 3.681409e+00 124 118 103
2.963932e-01 4.000510e+00 3.174777e+00 107 95 81
-1.613028e+00 3.941772e+00 3.230063e+00 95 82 75
-2.750688e+00 3.862785e+00 3.485708e+00 87 77 74
-2.750688e+00 3.862785e+00 3.485708e+00 87 77 74
-2.836632e+00 3.875969e+00 3.491765e+00 83 70 69
2.657954e+00 3.910811e+00 4.307717e+00 177 171 158
-1.168898e+00 4.007377e+00 3.121421e+00 142 126 103
2.242223e+00 3.959074e+00 4.082957e+00 153 143 139
1.643832e+00 4.007543e+00 3.733344e+00 138 125 101
1.034108e+00 4.059839e+00 3.484177e+00 76 66 58
1.945385e+00 4.031995e+00 3.982656e+00 206 205 192
-1.283146e+00 4.066654e+00 3.252046e+00 144 134 124
1.968406e-01 4.107580e+00 3.200948e+00 183 184 171
-2.884627e+00 3.991003e+00 3.562637e+00 126 119 113
6.910499e-01 4.132146e+00 3.391370e+00 152 146 124
4.844773e-01 4.135545e+00 3.281840e+00 82 67 46
2.401919e+00 4.036498e+00 4.204795e+00 95 78 72
-1.721427e-01 4.139706e+00 3.175265e+00 60 49 44
8.113767e-01 4.147804e+00 3.485753e+00 93 80 76
7.090457e-01 4.165677e+00 3.449276e+00 149 146 131
-2.372297e+00 4.073116e+00 3.475719e+00 160 154 137
2.346293e+00 4.078497e+00 4.185838e+00 108 94 84
8.126957e-01 4.194821e+00 3.530422e+00 151 145 131
-3.430773e+00 4.042540e+00 3.724049e+00 79 69 64
-2.087517e+00 4.169817e+00 3.478791e+00 47 36 36
-3.428635e+00 4.081652e+00 3.762553e+00 174 171 155
8.958454e-01 4.249612e+00 3.551813e+00 114 104 94
2.340821e+00 4.173326e+00 4.262785e+00 99 81 67
3.683375e-01 4.278352e+00 3.438568e+00 172 162 150
-3.679020e+00 4.101664e+00 3.832403e+00 178 178 162
-3.679020e+00 4.101664e+00 3.832403e+00 178 178 162
7.425843e-02 4.292477e+00 3.303219e+00 123 116 98
-1.270164e+00 4.274233e+00 3.355044e+00 97 85 80
2.034488e+00 4.236771e+00 4.097600e+00 103 91 83
-3.422031e+00 4.159957e+00 3.795380e+00 183 180 163
-6.970352e-01 4.326323e+00 3.363300e+00 178 174 162
2.014386e+00 4.267671e+00 4.116177e+00 180 175 152
-9.270162e-01 4.326765e+00 3.359059e+00 175 167 156
-7.663563e-01 4.343268e+00 3.349049e+00 50 40 38
-7.690668e-01 4.337468e+00 3.366957e+00 50 40 38
-7.690668e-01 4.337468e+00 3.366957e+00 50 40 38
-3.552058e+00 4.194245e+00 3.857098e+00 94 80 69
-3.552058e+00 4.194245e+00 3.857098e+00 94 80 69
1.310242e+00 4.343318e+00 3.863808e+00 112 107 104
-2.219455e+00 4.318536e+00 3.587350e+00 172 170 157
-2.980751e+00 4.277178e+00 3.712528e+00 103 92 89
-3.032347e+00 4.301247e+00 3.752237e+00 168 157 138
1.239120e+00 4.397106e+00 3.817729e+00 186 183 175
-3.308668e+00 4.289553e+00 3.831734e+00 191 189 177
1.689048e-01 4.433640e+00 3.521539e+00 210 201 192
4.942807e-02 4.430444e+00 3.449360e+00 135 123 114
-2.086977e+00 4.384356e+00 3.616977e+00 183 180 171
-2.400876e+00 4.369278e+00 3.631902e+00 192 190 179
-1.858432e+00 4.418551e+00 3.586440e+00 57 44 42
2.197413e+00 4.395193e+00 4.345464e+00 137 133 132
-3.311509e+00 4.356737e+00 3.859345e+00 192 193 179
6.348629e-01 4.488387e+00 3.650636e+00 136 124 108
-3.363083e+00 4.363195e+00 3.881618e+00 118 114 117
2.160422e+00 4.418612e+00 4.335373e+00 145 135 139
1.747867e+00 4.447004e+00 4.096579e+00 87 74 58
1.760739e+00 4.445350e+00 4.084441e+00 87 74 58
-2.619587e+00 4.415772e+00 3.681253e+00 91 89 87
2.122206e+00 4.446061e+00 4.328299e+00 126 118 120
-1.316168e-01 4.527296e+00 3.541379e+00 78 64 55
-1.098354e+00 4.507330e+00 3.489051e+00 164 148 132
9.798984e-01 4.511164e+00 3.863654e+00 90 81 73
1.648113e+00 4.484972e+00 4.043629e+00 188 181 163
-2.605980e+00 4.449028e+00 3.704761e+00 185 192 181
-1.369825e+00 4.527483e+00 3.590044e+00 174 165 148
-1.369825e+00 4.527483e+00 3.590044e+00 174 165 148
-1.009229e+00 4.536983e+00 3.491488e+00 152 137 117
3.231475e-01 4.566611e+00 3.599735e+00 67 53 46
9.247112e-01 4.560612e+00 3.876755e+00 201 195 179
3.589556e-01 4.578608e+00 3.630911e+00 106 94 78
-3.087201e+00 4.474273e+00 3.861558e+00 174 170 158
1.144716e+00 4.559482e+00 3.914605e+00 188 184 173
-2.381667e+00 4.530031e+00 3.695164e+00 125 116 107
1.490512e+00 4.565990e+00 4.006254e+00 171 166 140
1.594653e+00 4.572309e+00 4.125061e+00 104 89 70
1.609354e+00 4.571154e+00 4.087841e+00 104 89 70
1.458272e+00 4.582562e+00 4.003883e+00 181 176 147
-2.425350e+00 4.553582e+00 3.726236e+00 185 180 160
-1.476789e+00 4.617269e+00 3.645105e+00 145 139 125
1.814492e+00 4.583978e+00 4.228364e+00 103 89 79
1.425484e+00 4.615825e+00 4.012202e+00 76 64 65
2.981641e-01 4.679914e+00 3.730753e+00 85 72 62
-2.856331e+00 4.596491e+00 3.871483e+00 195 190 171
1.278813e+00 4.688270e+00 4.039872e+00 78 65 58
1.278813e+00 4.688270e+00 4.039872e+00 78 65 58
-3.650962e-01 4.717779e+00 3.599669e+00 148 132 108
3.442030e-01 4.729103e+00 3.786775e+00 89 75 65
-2.036098e+00 4.697559e+00 3.739753e+00 109 96 85
-2.015640e+00 4.691672e+00 3.715709e+00 109 96 85
3.473133e-01 4.768527e+00 3.835007e+00 78 70 62
-6.484143e-01 4.780887e+00 3.695478e+00 80 67 58
-2.367864e+00 4.730885e+00 3.827869e+00 181 174 156
1.054862e+00 4.763112e+00 4.011030e+00 157 144 125
-2.228927e+00 4.766429e+00 3.828629e+00 175 170 158
-1.814430e+00 4.802541e+00 3.754878e+00 178 165 148
-2.238121e+00 4.796472e+00 3.852224e+00 176 173 150
-2.536161e+00 4.787302e+00 3.901532e+00 127 117 121
8.268152e-01 4.870635e+00 4.023652e+00 74 59 53
-2.037553e+00 4.853110e+00 3.839630e+00 80 62 43
-1.844286e+00 4.936229e+00 3.868651e+00 91 77 68
9.068271e-01 4.952416e+00 4.117929e+00 81 75 61
-1.506298e-01 4.980371e+00 3.821419e+00 108 94 88
-2.317262e+00 4.944428e+00 3.936886e+00 225 229 232
-1.559848e+00 5.009576e+00 3.878943e+00 177 168 154
-9.726336e-01 5.047854e+00 3.825394e+00 117 103 81
5.104380e-01 5.047792e+00 4.044675e+00 173 166 145
-1.290633e+00 5.064906e+00 3.875359e+00 168 158 138
2.546338e-01 5.082769e+00 3.981600e+00 183 172 158
-8.177286e-01 5.086016e+00 3.839197e+00 94 78 64
-1.354908e+00 5.113648e+00 3.962070e+00 100 82 70
1.663770e-01 5.139801e+00 4.006866e+00 161 147 120
3.163269e-01 5.162967e+00 4.070848e+00 81 70 61
2.733216e+00 -1.747840e+00 3.185077e+00 182 181 179
3.280910e+00 -1.808538e+00 3.646234e+00 147 146 141
9.561470e-01 -1.459632e+00 2.005298e+00 114 113 111
-4.485287e+00 -3.037560e+00 4.219522e+00 141 134 118
-5.748784e+00 -3.136239e+00 4.340896e+00 158 155 147
6.164473e-01 -1.482628e+00 2.207283e+00 57 56 52
9.974498e-02 -1.511912e+00 2.120032e+00 153 151 146
8.531476e-01 -1.357614e+00 2.019268e+00 131 128 121
-6.676367e+00 -3.061448e+00 4.600537e+00 77 77 77
-3.635645e-01 -9.419113e-01 1.355187e+00 77 70 62
-4.414526e+00 -2.324108e+00 3.666905e+00 41 36 32
-4.140114e-01 -8.327766e-01 1.190140e+00 139 132 116
-3.615608e-01 -8.302320e-01 1.188639e+00 166 164 158
-4.083460e+00 -2.263437e+00 3.605933e+00 148 148 150
2.330320e+00 -1.059590e+00 2.615383e+00 103 103 101
2.330320e+00 -1.059590e+00 2.615383e+00 103 103 101
1.331338e+00 -9.822796e-01 2.091055e+00 148 146 132
-2.998508e-01 -9.611058e-01 1.600490e+00 170 172 166
1.252328e+00 -9.757231e-01 2.132308e+00 110 107 103
1.341824e+00 -9.165581e-01 2.040422e+00 80 77 70
1.170761e+00 -9.318146e-01 2.104960e+00 193 194 189
1.358024e+00 -9.272682e-01 2.172107e+00 121 121 113
1.358024e+00 -9.272682e-01 2.172107e+00 121 121 113
-4.084232e-01 -6.812346e-01 1.109030e+00 122 122 115
2.656969e+00 -8.749105e-01 2.869479e+00 107 99 97
-5.496383e+00 -2.163289e+00 3.934867e+00 165 165 172
2.594172e+00 -8.216422e-01 2.868331e+00 163 156 145
2.594172e+00 -8.216422e-01 2.868331e+00 163 156 145
-3.763589e+00 -1.794039e+00 3.356967e+00 156 155 153
2.618585e+00 -8.031650e-01 2.867253e+00 99 89 81
2.618585e+00 -8.031650e-01 2.867253e+00 99 89 81
-4.453539e-01 -7.277790e-01 1.722462e+00 189 183 170
2.829031e+00 -7.321524e-01 2.943781e+00 184 181 172
2.593319e+00 -6.940809e-01 2.831755e+00 168 162 146
1.269409e+00 -5.949677e-01 2.066124e+00 79 78 74
-5.461171e+00 -1.994871e+00 3.887339e+00 155 157 157
2.698935e+00 -6.865007e-01 2.894008e+00 184 179 150
2.579528e+00 -6.677486e-01 2.826279e+00 91 87 77
2.579528e+00 -6.677486e-01 2.826279e+00 91 87 77
3.076358e+00 -7.048256e-01 3.271652e+00 161 156 153
3.076358e+00 -7.048256e-01 3.271652e+00 161 156 153
3.161163e+00 -6.780564e-01 3.334419e+00 173 169 156
9.507613e-01 -5.418889e-01 2.120572e+00 188 188 174
1.403953e+00 -4.823793e-01 2.149794e+00 122 118 109
1.403953e+00 -4.823793e-01 2.149794e+00 122 118 109
1.690622e+00 -4.577739e-01 2.238468e+00 186 183 176
-7.011326e+00 -2.142747e+00 4.470821e+00 188 201 205
-5.888091e-01 -6.137718e-01 1.993558e+00 189 189 182
-6.608314e+00 -2.024281e+00 4.317029e+00 142 146 149
-5.749706e+00 -1.803436e+00 3.959136e+00 123 120 112
7.729500e-01 -4.352399e-01 2.068021e+00 178 177 172
-3.747400e-01 -6.232501e-01 2.195465e+00 183 179 167
-5.115653e+00 -1.576421e+00 3.661966e+00 172 168 148
3.831544e+00 -6.596797e-01 4.021018e+00 140 134 121
1.648111e-01 -4.059748e-01 2.076464e+00 195 194 190
-3.534711e+00 -1.121902e+00 2.993854e+00 123 113 98
3.549518e+00 -5.020391e-01 3.717535e+00 57 50 47
3.549518e+00 -5.020391e-01 3.717535e+00 57 50 47
3.419404e+00 -4.888829e-01 3.625906e+00 168 161 146
-4.801822e+00 -1.356514e+00 3.495813e+00 155 150 146
-5.796511e+00 -1.570279e+00 3.912817e+00 92 86 91
-3.149290e+00 -9.043062e-01 2.717892e+00 82 70 64
-3.305794e+00 -9.500986e-01 2.849101e+00 75 67 61
-3.513082e+00 -1.002183e+00 2.940993e+00 89 84 78
2.608128e+00 -2.283618e-01 2.759427e+00 173 168 160
4.897477e-01 -2.110523e-01 1.968264e+00 100 101 91
-3.285946e+00 -8.959494e-01 2.811427e+00 178 179 174
6.755280e-01 -1.915528e-01 2.049771e+00 100 93 83
-2.751568e-01 -3.208882e-01 2.106590e+00 191 190 186
-1.929004e+00 -4.775462e-01 2.084262e+00 189 190 184
-8.054646e-01 -2.693920e-01 1.892894e+00 102 100 92
-1.612215e+00 -3.686527e-01 1.938659e+00 188 187 185
-2.778001e+00 -7.268931e-01 2.583848e+00 60 56 45
-2.778001e+00 -7.268931e-01 2.583848e+00 60 56 45
-6.726115e+00 -1.642441e+00 4.301792e+00 110 111 115
1.305859e-01 -2.337506e-01 2.162972e+00 193 193 186
3.014234e+00 -2.053757e-01 3.171592e+00 80 77 73
8.144419e-01 -8.101371e-02 1.985668e+00 124 118 104
-5.630902e+00 -1.305451e+00 3.807117e+00 173 167 154
3.153057e+00 -1.915920e-01 3.232730e+00 72 68 63
-1.099572e+00 -1.651250e-01 1.785402e+00 92 91 84
-3.155084e+00 -6.827855e-01 2.710576e+00 174 175 161
-3.294431e+00 -7.164300e-01 2.768211e+00 173 170 164
-4.203612e+00 -9.336584e-01 3.171899e+00 87 78 66
3.401612e+00 -2.216977e-01 3.581611e+00 194 191 184
-5.504316e+00 -1.194239e+00 3.736659e+00 104 100 93
-5.534113e+00 -1.162871e+00 3.754147e+00 182 179 172
3.443153e+00 -1.660701e-01 3.608053e+00 75 70 66
-5.798166e+00 -1.183139e+00 3.862971e+00 76 71 64
3.776305e+00 -1.791947e-01 3.983427e+00 78 65 59
4.314486e+00 -2.601313e-01 4.525175e+00 66 62 58
1.784251e+00 1.978178e-01 2.153747e+00 187 180 162
9.734231e-01 1.462153e-01 2.037595e+00 194 191 188
8.147565e-01 1.906060e-01 1.943269e+00 89 88 86
3.421267e+00 -1.609750e-02 3.568707e+00 186 186 175
5.059359e-01 2.359229e-01 1.893383e+00 155 151 140
4.315385e+00 -1.558063e-01 4.548297e+00 189 186 175
-4.019835e+00 -5.121347e-01 3.019662e+00 144 139 135
-3.451272e+00 -3.793224e-01 2.753475e+00 104 97 83
8.468509e-01 2.745368e-01 2.039908e+00 177 172 171
1.896028e+00 3.556090e-01 2.196433e+00 188 181 162
-3.919220e+00 -4.513978e-01 2.981199e+00 81 68 53
-3.919220e+00 -4.513978e-01 2.981199e+00 81 68 53
-4.420803e+00 -4.828132e-01 3.211308e+00 142 138 127
-4.360659e+00 -4.287467e-01 3.145006e+00 71 66 61
-2.568480e+00 2.821825e-02 2.275988e+00 180 177 172
-3.298082e+00 -1.485864e-01 2.670453e+00 68 58 58
-1.137510e+00 3.559383e-01 1.799352e+00 196 189 183
1.453463e+00 5.335185e-01 2.083372e+00 175 164 146
1.378711e+00 5.522670e-01 2.039882e+00 92 83 79
1.431935e+00 5.542231e-01 2.088099e+00 115 107 90
5.959163e-01 4.985719e-01 2.018597e+00 176 174 169
7.306431e-01 5.541043e-01 1.957042e+00 163 160 152
-1.827492e+00 3.357890e-01 1.822525e+00 63 58 55
1.525521e+00 5.950477e-01 2.093624e+00 190 184 168
-1.697731e+00 3.756031e-01 1.810291e+00 88 80 72
1.466996e+00 6.164317e-01 2.065580e+00 138 130 117
-6.441266e-01 5.004766e-01 1.831197e+00 115 110 96
4.088396e+00 2.433681e-01 4.311133e+00 162 159 155
4.088396e+00 2.433681e-01 4.311133e+00 162 159 155
2.055488e+00 6.514857e-01 2.226230e+00 168 158 146
-6.152098e+00 -6.156873e-01 3.953548e+00 93 87 88
-1.259106e+00 4.949096e-01 1.751782e+00 96 88 79
2.042321e+00 6.701361e-01 2.233302e+00 74 67 56
-1.358535e+00 5.028095e-01 1.732474e+00 173 168 155
-1.400361e+00 5.115560e-01 1.744463e+00 86 76 65
-1.400361e+00 5.115560e-01 1.744463e+00 86 76 65
-9.372737e-02 6.494231e-01 1.906581e+00 98 93 84
-3.440639e+00 1.167483e-01 2.710100e+00 184 178 166
-3.816956e+00 3.990498e-02 2.877975e+00 78 65 57
3.670773e+00 4.668039e-01 3.868687e+00 128 120 112
3.572254e+00 4.837262e-01 3.775304e+00 91 80 75
-2.738587e+00 3.132054e-01 2.353516e+00 104 95 86
2.467754e+00 7.244391e-01 2.625225e+00 182 176 162
2.467754e+00 7.244391e-01 2.625225e+00 182 176 162
3.983604e-01 7.565448e-01 1.906186e+00 178 175 166
-4.358523e+00 -2.637188e-02 3.140500e+00 169 166 155
1.594181e+00 8.447070e-01 2.068603e+00 181 175 161
1.850523e+00 8.500155e-01 2.141284e+00 100 92 76
1.553302e+00 8.536464e-01 2.047670e+00 84 80 69
1.220422e+00 8.563607e-01 1.991288e+00 100 95 90
8.432288e-01 8.449604e-01 1.945546e+00 52 48 44
-8.298039e-01 7.530071e-01 1.736335e+00 185 180 164
-1.230042e-01 7.883980e-01 1.848368e+00 175 175 163
-1.435173e+00 7.051899e-01 1.734119e+00 95 79 74
1.983089e+00 8.934882e-01 2.195888e+00 82 74 68
1.786018e+00 9.014000e-01 2.119289e+00 87 79 72
3.609092e+00 5.969725e-01 3.833958e+00 68 63 59
3.609092e+00 5.969725e-01 3.833958e+00 68 63 59
-2.778347e+00 4.255744e-01 2.402757e+00 165 166 161
2.276878e-01 8.737734e-01 1.877406e+00 59 55 49
-1.208430e+00 7.959384e-01 1.739606e+00 185 173 152
-5.036758e+00 -1.124876e-02 3.449668e+00 84 76 68
-5.031087e+00 2.366724e-02 3.450914e+00 159 156 139
2.232722e+00 9.494337e-01 2.425587e+00 55 41 40
4.059454e+00 6.064917e-01 4.348895e+00 85 79 71
-5.911505e+00 -1.242511e-01 3.839545e+00 126 122 119
-2.042681e-01 9.785830e-01 1.720734e+00 100 96 93
-4.658024e-01 9.251335e-01 1.808444e+00 103 99 95
-4.658024e-01 9.251335e-01 1.808444e+00 103 99 95
2.136588e+00 1.013423e+00 2.382517e+00 162 151 128
-1.861905e-01 9.968298e-01 1.741773e+00 179 175 172
-5.645700e-01 9.470076e-01 1.791910e+00 180 179 184
2.157007e+00 1.041515e+00 2.351349e+00 98 87 72
1.867092e+00 1.060889e+00 2.207006e+00 184 183 186
-2.601630e+00 6.444037e-01 2.305211e+00 70 57 41
-4.665134e-01 9.887789e-01 1.797260e+00 78 73 67
-4.665134e-01 9.887789e-01 1.797260e+00 78 73 67
-5.285912e+00 9.053498e-02 3.570179e+00 109 102 96
3.558345e+00 7.920011e-01 3.816212e+00 99 96 89
1.316146e+00 1.097194e+00 2.036460e+00 195 185 174
-3.499748e+00 4.865541e-01 2.720709e+00 156 147 131
1.547745e+00 1.119683e+00 2.046041e+00 193 182 169
2.111738e+00 1.089409e+00 2.335078e+00 174 166 147
1.655262e+00 1.121742e+00 2.092633e+00 190 185 174
-4.244552e-01 1.061578e+00 1.688380e+00 180 176 173
-1.684138e-01 1.099663e+00 1.713950e+00 166 159 147
-1.569248e+00 9.532019e-01 1.778236e+00 177 165 149
1.021607e-01 1.089734e+00 1.871170e+00 128 124 115
-3.470980e+00 5.419739e-01 2.709256e+00 60 51 42
-3.470980e+00 5.419739e-01 2.709256e+00 60 51 42
5.943673e-01 1.102432e+00 2.000071e+00 191 188 181
2.527841e+00 1.059906e+00 2.742386e+00 92 81 77
-5.904740e+00 4.430058e-02 3.857515e+00 67 61 60
2.077387e+00 1.150718e+00 2.320333e+00 176 168 157
-4.106038e+00 4.555749e-01 3.028282e+00 169 167 145
-5.876111e+00 8.802136e-02 3.838882e+00 196 194 187
3.518286e+00 8.995025e-01 3.794385e+00 185 182 177
9.558692e-01 1.200313e+00 1.940792e+00 134 131 119
-1.072656e+00 1.089821e+00 1.783541e+00 171 160 140
3.470849e+00 9.438961e-01 3.735819e+00 193 186 179
-3.147208e+00 7.277245e-01 2.571181e+00 129 117 91
-1.024124e+00 1.136806e+00 1.771104e+00 60 51 40
-1.024124e+00 1.136806e+00 1.771104e+00 60 51 40
3.447154e+00 1.003212e+00 3.716482e+00 87 78 64
3.447154e+00 1.003212e+00 3.716482e+00 87 78 64
-1.047074e+00 1.153883e+00 1.790488e+00 168 157 140
1.660345e-01 1.236490e+00 1.913963e+00 173 171 160
-2.338796e-01 1.255745e+00 1.786615e+00 183 173 154
4.042911e-01 1.325347e+00 1.860089e+00 110 106 101
4.042911e-01 1.325347e+00 1.860089e+00 110 106 101
-2.392026e+00 9.827833e-01 2.220532e+00 179 174 160
3.868904e+00 9.797201e-01 4.188233e+00 63 55 53
-6.714091e-02 1.328258e+00 1.681946e+00 58 48 42
-2.354589e+00 1.019293e+00 2.221556e+00 174 171 159
-3.150346e+00 8.701272e-01 2.574727e+00 46 32 31
-1.777789e+00 1.150941e+00 1.993592e+00 170 163 145
-2.443360e+00 1.023967e+00 2.257825e+00 153 147 132
2.910457e+00 1.220352e+00 3.237551e+00 63 53 43
2.952315e+00 1.250476e+00 3.287258e+00 175 168 149
-3.139375e+00 9.518260e-01 2.592396e+00 98 97 93
-1.842345e+00 1.215009e+00 2.033568e+00 154 145 130
2.379414e+00 1.384449e+00 2.676716e+00 173 163 151
3.424594e+00 1.233451e+00 3.755137e+00 170 164 150
2.848572e+00 1.354992e+00 3.222548e+00 56 49 42
-2.458260e+00 1.174473e+00 2.309804e+00 170 163 144
1.870336e+00 1.535774e+00 2.301810e+00 144 136 118
6.416267e-01 1.551656e+00 1.915437e+00 67 51 48
3.334893e+00 1.322995e+00 3.715616e+00 182 175 165
-2.887516e+00 1.196725e+00 2.504660e+00 178 171 156
2.887278e+00 1.452078e+00 3.291593e+00 105 102 95
3.731343e+00 1.304224e+00 4.111421e+00 179 172 162
-1.527741e+00 1.471477e+00 1.886097e+00 136 125 98
2.851071e+00 1.468532e+00 3.274222e+00 198 195 187
3.805647e+00 1.344401e+00 4.190043e+00 195 186 180
-3.973660e+00 1.095675e+00 3.001079e+00 93 81 65
-4.480610e+00 1.014165e+00 3.241099e+00 174 168 151
3.321019e+00 1.493646e+00 3.690100e+00 115 106 97
1.770470e+00 1.747489e+00 2.256662e+00 59 42 34
-3.980882e+00 1.138895e+00 2.996777e+00 182 180 166
2.152915e+00 1.721976e+00 2.609134e+00 97 84 66
2.025273e+00 1.756883e+00 2.506078e+00 139 127 106
-1.805905e+00 1.582112e+00 2.061703e+00 117 106 88
2.108987e+00 1.750600e+00 2.596928e+00 97 83 69
-6.592065e+00 7.108971e-01 4.159675e+00 158 153 141
3.123059e+00 1.584171e+00 3.591129e+00 181 171 161
7.776935e-01 1.853573e+00 1.911108e+00 63 53 47
4.051522e+00 1.445759e+00 4.470846e+00 89 80 75
2.147404e+00 1.771866e+00 2.649754e+00 157 146 124
2.109487e+00 1.778421e+00 2.631376e+00 157 150 133
1.661005e+00 1.843093e+00 2.290750e+00 69 57 41
7.671946e-01 1.885054e+00 1.936662e+00 43 39 35
-1.632585e+00 1.677289e+00 2.040073e+00 137 122 99
-1.632585e+00 1.677289e+00 2.040073e+00 137 122 99
-6.484564e+00 8.205044e-01 4.097278e+00 70 55 56
-2.163819e-01 1.859053e+00 1.841503e+00 35 31 35
2.041921e+00 1.851192e+00 2.586828e+00 75 65 61
1.553437e+00 1.907803e+00 2.194408e+00 164 155 139
-2.930597e+00 1.495350e+00 2.595364e+00 87 77 64
2.086873e+00 1.837379e+00 2.672554e+00 61 53 50
-2.707021e+00 1.540055e+00 2.497671e+00 145 139 121
-2.707021e+00 1.540055e+00 2.497671e+00 145 139 121
-6.619894e+00 8.352143e-01 4.177329e+00 179 176 160
3.903031e-01 1.939661e+00 1.877155e+00 177 176 171
2.256747e+00 1.847284e+00 2.801380e+00 79 69 67
2.213934e+00 1.878658e+00 2.779784e+00 60 51 43
-5.690492e+00 1.063710e+00 3.808739e+00 169 166 160
4.051761e+00 1.578817e+00 4.503922e+00 83 74 67
-1.876459e+00 1.750978e+00 2.153349e+00 151 139 117
3.549064e+00 1.670220e+00 4.041864e+00 166 159 153
-2.864107e+00 1.602470e+00 2.585315e+00 165 160 152
-1.888860e+00 1.776381e+00 2.175122e+00 65 56 41
1.344964e-01 2.022622e+00 1.747350e+00 167 161 142
1.678932e+00 1.983517e+00 2.445560e+00 183 179 166
-1.810748e+00 1.805796e+00 2.157708e+00 53 46 27
-3.507290e+00 1.644899e+00 2.892885e+00 174 170 161
-8.827711e-01 2.075177e+00 1.865956e+00 101 87 60
-3.384412e+00 1.684851e+00 2.846689e+00 79 69 68
-3.577484e+00 1.656228e+00 2.920536e+00 172 173 167
3.517101e+00 1.863588e+00 4.043091e+00 179 176 170
1.471965e+00 2.149447e+00 2.326361e+00 39 28 24
2.920535e+00 1.966002e+00 3.530543e+00 79 72 64
-1.314749e+00 2.045311e+00 2.030014e+00 139 130 114
-3.475306e+00 1.711851e+00 2.910608e+00 160 161 159
3.320520e+00 1.933861e+00 3.872408e+00 92 83 78
1.931198e+00 2.132722e+00 2.700042e+00 88 74 69
-6.621140e+00 1.239504e+00 4.220868e+00 191 189 191
1.931573e+00 2.183582e+00 2.744635e+00 192 185 177
1.338027e+00 2.244992e+00 2.317487e+00 176 171 164
2.495419e+00 2.131016e+00 3.162685e+00 185 180 174
3.390668e+00 2.000872e+00 3.971803e+00 94 85 81
-1.522914e+00 2.126693e+00 2.130729e+00 56 46 35
-4.063156e+00 1.724909e+00 3.174715e+00 59 49 48
3.330734e+00 2.041918e+00 3.940277e+00 83 73 69
3.334092e+00 2.035688e+00 3.957737e+00 83 73 69
-1.649547e+00 2.124100e+00 2.238585e+00 116 111 106
-3.275947e+00 1.874971e+00 2.855469e+00 166 158 146
3.920805e+00 1.964858e+00 4.490948e+00 121 119 122
-5.006354e+00 1.633181e+00 3.579090e+00 176 173 168
3.353216e+00 2.072350e+00 3.992619e+00 89 82 76
-4.271783e-01 2.328280e+00 1.848348e+00 105 92 76
-4.271783e-01 2.328280e+00 1.848348e+00 105 92 76
-6.424494e+00 1.416032e+00 4.155430e+00 162 157 146
-2.463617e+00 2.060149e+00 2.536176e+00 171 167 152
1.563470e+00 2.336957e+00 2.457393e+00 107 93 85
-6.184909e+00 1.459557e+00 4.055051e+00 175 171 167
2.290269e+00 2.261340e+00 3.059110e+00 70 58 53
4.367091e+00 1.956443e+00 4.834811e+00 107 92 80
3.258205e+00 2.122571e+00 3.918812e+00 110 103 96
2.212227e+00 2.284408e+00 3.000718e+00 181 168 160
1.660513e+00 2.345011e+00 2.621150e+00 83 76 75
-3.866395e+00 1.882702e+00 3.109626e+00 93 89 90
9.980879e-01 2.447298e+00 2.218554e+00 170 166 155
-2.236078e+00 2.188047e+00 2.501158e+00 56 43 37
2.045545e+00 2.366175e+00 2.889907e+00 78 68 58
2.189094e+00 2.383475e+00 3.056084e+00 54 44 45
3.281814e+00 2.241597e+00 3.963359e+00 94 91 84
2.280989e+00 2.382552e+00 3.097490e+00 73 65 55
-4.409297e-01 2.476370e+00 1.960798e+00 165 149 125
-4.409297e-01 2.476370e+00 1.960798e+00 165 149 125
3.306447e+00 2.246487e+00 3.996497e+00 186 186 178
2.095356e+00 2.412524e+00 3.002396e+00 184 177 162
3.260060e+00 2.266524e+00 3.980395e+00 204 200 197
-6.282004e-01 2.474166e+00 2.044030e+00 149 144 124
-1.463032e+00 2.388083e+00 2.261738e+00 148 136 113
-2.412810e+00 2.260022e+00 2.574807e+00 67 57 55
-2.412810e+00 2.260022e+00 2.574807e+00 67 57 55
-4.175582e+00 2.004251e+00 3.280804e+00 179 180 171
1.558659e+00 2.525581e+00 2.626425e+00 152 143 127
-1.137672e+00 2.466003e+00 2.158793e+00 151 141 118
6.874677e-01 2.590060e+00 2.115008e+00 123 107 86
-2.801999e+00 2.279913e+00 2.769069e+00 61 51 47
-5.986921e+00 1.797363e+00 4.028231e+00 188 183 177
-3.916081e+00 2.146453e+00 3.224346e+00 184 181 179
-6.069865e+00 1.855673e+00 4.085032e+00 183 178 174
-2.011245e+00 2.481661e+00 2.539515e+00 174 167 141
-2.713076e+00 2.398012e+00 2.778293e+00 159 150 136
-2.233915e+00 2.467964e+00 2.579046e+00 164 161 142
-5.988701e+00 1.915628e+00 4.045312e+00 171 171 161
-2.722985e+00 2.425024e+00 2.792435e+00 101 89 82
-2.722985e+00 2.425024e+00 2.792435e+00 101 89 82
-1.418301e+00 2.594418e+00 2.317759e+00 99 85 65
1.831533e+00 2.664987e+00 2.925900e+00 156 143 134
1.831533e+00 2.664987e+00 2.925900e+00 156 143 134
1.942518e+00 2.671092e+00 3.008453e+00 107 95 83
1.942518e+00 2.671092e+00 3.008453e+00 107 95 83
2.487179e+00 2.631407e+00 3.444141e+00 131 127 115
3.616262e+00 2.494526e+00 4.365676e+00 133 126 117
2.384952e+00 2.670403e+00 3.372377e+00 87 77 72
-5.782671e+00 2.064487e+00 3.986236e+00 170 167 153
2.127193e-02 2.808894e+00 2.095226e+00 142 126 103
-1.221617e-01 2.797758e+00 2.149415e+00 90 72 57
-4.738387e+00 2.240170e+00 3.616724e+00 183 179 177
4.044697e+00 2.468214e+00 4.716485e+00 186 178 165
4.044697e+00 2.468214e+00 4.716485e+00 186 178 165
2.737283e+00 2.651912e+00 3.724070e+00 178 171 158
-8.436771e-01 2.765956e+00 2.266910e+00 176 169 156
-1.892606e+00 2.664173e+00 2.565222e+00 70 57 48
1.714928e+00 2.798008e+00 2.954652e+00 177 173 163
-4.297543e+00 2.359427e+00 3.421471e+00 111 105 105
-1.922965e+00 2.685909e+00 2.622196e+00 167 167 156
-2.050314e+00 2.682296e+00 2.596948e+00 142 133 121
-1.523734e+00 2.755001e+00 2.471606e+00 84 72 62
-1.640528e+00 2.738609e+00 2.528823e+00 141 133 104
8.602454e-01 2.895536e+00 2.416235e+00 89 76 60
9.335589e-01 2.895239e+00 2.491901e+00 112 103 85
-1.625110e+00 2.761655e+00 2.531846e+00 58 46 46
-3.590263e+00 2.513061e+00 3.194281e+00 176 176 166
8.559272e-02 2.942004e+00 2.201374e+00 50 40 31
-4.059915e+00 2.494098e+00 3.344252e+00 129 122 113
-5.502604e+00 2.295868e+00 3.913934e+00 166 159 147
6.621483e-01 2.975167e+00 2.422208e+00 56 43 33
2.776313e+00 2.809140e+00 3.841530e+00 190 189 187
-3.560465e+00 2.616706e+00 3.198426e+00 111 106 100
3.236729e+00 2.756665e+00 4.197920e+00 169 160 144
-7.763669e-02 2.992996e+00 2.260057e+00 80 68 55
2.151594e+00 2.915990e+00 3.350823e+00 187 183 175
-2.258519e+00 2.813942e+00 2.776148e+00 68 58 56
3.968060e+00 2.696709e+00 4.750088e+00 108 98 89
-5.674155e+00 2.383685e+00 4.015352e+00 129 119 117
-5.674155e+00 2.383685e+00 4.015352e+00 129 119 117
3.892976e+00 2.738658e+00 4.696958e+00 55 44 40
-3.531362e+00 2.701726e+00 3.214807e+00 84 76 74
-4.117784e+00 2.629125e+00 3.448751e+00 156 148 128
-8.294514e-01 3.018328e+00 2.420911e+00 73 64 49
-2.263977e+00 2.877270e+00 2.810078e+00 193 189 178
1.503777e+00 3.086624e+00 2.953195e+00 188 180 157
-5.639209e+00 2.520009e+00 4.034283e+00 120 116 120
3.150146e+00 2.945411e+00 4.229061e+00 105 95 92
1.770187e+00 3.111898e+00 3.073150e+00 176 166 145
7.971139e-01 3.173680e+00 2.638035e+00 171 163 149
1.231386e+00 3.164420e+00 2.889405e+00 180 173 158
-2.274962e+00 3.006910e+00 2.887674e+00 132 126 119
2.555591e+00 3.060547e+00 3.787275e+00 185 179 173
1.095104e+00 3.207600e+00 2.839423e+00 174 162 136
3.600144e+00 2.974232e+00 4.520823e+00 58 47 45
3.600144e+00 2.974232e+00 4.520823e+00 58 47 45
1.213634e+00 3.224445e+00 2.862318e+00 194 190 178
1.096313e-01 3.251426e+00 2.449620e+00 139 132 112
-2.857579e+00 3.011585e+00 3.100831e+00 172 165 141
-1.199454e+00 3.190182e+00 2.673506e+00 170 164 151
2.372065e+00 3.165492e+00 3.748612e+00 90 79 68
2.372065e+00 3.165492e+00 3.748612e+00 90 79 68
3.093368e+00 3.098172e+00 4.247858e+00 106 102 101
2.935940e+00 3.157277e+00 4.138002e+00 184 181 173
-1.159214e+00 3.272734e+00 2.664695e+00 85 76 68
-4.877315e+00 2.893253e+00 3.811098e+00 87 71 73
-5.132558e+00 2.868008e+00 3.921468e+00 85 75 74
-5.132558e+00 2.868008e+00 3.921468e+00 85 75 74
2.381306e+00 3.252688e+00 3.758418e+00 130 125 113
-4.831859e+00 2.903965e+00 3.794891e+00 165 158 147
2.309040e+00 3.273725e+00 3.723539e+00 200 194 183
9.035678e-01 3.376558e+00 2.877493e+00 82 70 54
-1.698316e+00 3.288370e+00 2.847649e+00 174 166 150
-3.019449e+00 3.160815e+00 3.206164e+00 192 187 181
2.288693e+00 3.304203e+00 3.724467e+00 202 197 191
-5.259567e+00 2.913311e+00 3.983430e+00 114 109 113
9.918139e-01 3.406044e+00 2.911140e+00 67 53 43
-2.017995e+00 3.281290e+00 2.887760e+00 160 156 145
-2.974560e+00 3.193492e+00 3.205655e+00 193 192 189
-4.889389e+00 2.974405e+00 3.853298e+00 193 189 183
-1.737880e+00 3.332827e+00 2.880596e+00 65 52 44
-1.737880e+00 3.332827e+00 2.880596e+00 65 52 44
6.089372e-01 3.471645e+00 2.832015e+00 129 119 99
-2.700465e+00 3.275833e+00 3.151310e+00 136 132 128
3.411065e+00 3.270262e+00 4.526409e+00 179 172 154
-5.487932e-01 3.478801e+00 2.725172e+00 53 42 45
2.644682e+00 3.368867e+00 4.056929e+00 70 57 53
2.530250e-01 3.514626e+00 2.689613e+00 120 105 84
2.772071e+00 3.358650e+00 4.124065e+00 175 167 146
1.370550e+00 3.467978e+00 3.290686e+00 193 185 174
-3.737733e+00 3.213491e+00 3.518627e+00 85 76 75
-4.695295e+00 3.103351e+00 3.812902e+00 180 174 164
-6.097079e-01 3.495587e+00 2.743883e+00 91 81 70
-4.723584e+00 3.109786e+00 3.820527e+00 60 49 58
-4.808505e+00 3.148032e+00 3.882428e+00 157 150 134
3.234089e+00 3.364918e+00 4.406274e+00 75 63 57
2.674596e-01 3.572396e+00 2.758660e+00 91 73 59
2.917677e+00 3.411674e+00 4.225039e+00 131 124 116
-4.750137e+00 3.177653e+00 3.867477e+00 191 187 185
-1.705422e+00 3.499244e+00 2.951639e+00 60 56 55
-2.389441e+00 3.445072e+00 3.149761e+00 165 157 144
-4.304909e-01 3.599497e+00 2.813129e+00 195 192 187
3.071939e+00 3.439495e+00 4.312922e+00 111 107 104
-2.369367e+00 3.464312e+00 3.134618e+00 87 79 77
-3.396780e+00 3.375495e+00 3.476405e+00 72 62 64
-4.575573e+00 3.264674e+00 3.820361e+00 184 179 161
3.066254e+00 3.469103e+00 4.328815e+00 183 178 158
9.055260e-01 3.645289e+00 3.117413e+00 80 70 60
-1.405098e+00 3.623650e+00 2.950977e+00 94 87 79
2.496083e+00 3.574477e+00 4.037419e+00 179 175 164
7.857690e-01 3.684761e+00 3.101726e+00 76 65 59
2.597217e+00 3.574712e+00 4.113364e+00 78 71 78
-3.478905e+00 3.461449e+00 3.552367e+00 206 206 196
-4.420762e+00 3.361487e+00 3.794539e+00 177 168 159
1.857116e+00 3.649801e+00 3.644008e+00 206 203 199
1.840303e+00 3.668752e+00 3.635925e+00 123 119 108
-3.807860e-02 3.739789e+00 2.889175e+00 73 62 56
-1.236876e+00 3.702623e+00 2.975042e+00 86 79 69
-1.275451e+00 3.712148e+00 2.979968e+00 186 181 161
-2.938312e+00 3.576987e+00 3.345549e+00 98 87 82
3.083634e+00 3.594316e+00 4.442597e+00 111 95 80
-4.496513e+00 3.430210e+00 3.855670e+00 187 180 172
3.135943e+00 3.592378e+00 4.485081e+00 162 160 149
-4.399395e+00 3.443624e+00 3.824518e+00 66 56 59
8.717740e-01 3.777477e+00 3.217801e+00 143 136 130
2.190385e+00 3.728035e+00 3.953710e+00 154 145 136
1.342451e+00 3.785027e+00 3.409921e+00 103 94 77
2.865345e+00 3.670635e+00 4.293722e+00 114 97 86
-1.322909e-01 3.819273e+00 2.884095e+00 125 112 95
-1.322909e-01 3.819273e+00 2.884095e+00 125 112 95
1.354104e+00 3.797348e+00 3.477854e+00 176 167 156
-3.139361e+00 3.644219e+00 3.491232e+00 196 193 188
1.556606e+00 3.802954e+00 3.589167e+00 198 195 187
2.949798e+00 3.690934e+00 4.397709e+00 185 180 167
6.615606e-01 3.868093e+00 3.159655e+00 200 199 194
2.231730e+00 3.788791e+00 4.014368e+00 181 171 154
2.400644e+00 3.782976e+00 4.075371e+00 136 127 119
-4.077660e+00 3.611266e+00 3.762120e+00 163 154 142
4.909314e-01 3.889802e+00 3.141127e+00 143 136 110
-1.846063e+00 3.803581e+00 3.169746e+00 75 65 64
1.932998e+00 3.828161e+00 3.777018e+00 159 151 132
2.184117e+00 3.814520e+00 4.002706e+00 77 68 61
1.671619e+00 3.862147e+00 3.636231e+00 181 171 150
5.357083e-01 3.923811e+00 3.183853e+00 45 35 26
-4.218644e+00 3.669013e+00 3.854467e+00 96 86 85
3.910572e-01 3.959887e+00 3.152622e+00 129 118 105
5.149423e-01 3.967748e+00 3.157436e+00 106 96 86
1.308512e+00 3.946830e+00 3.561327e+00 76 69 62
-4.014050e-01 3.970552e+00 3.084276e+00 185 173 153
-1.609472e+00 3.916283e+00 3.209668e+00 199 194 173
2.697631e+00 3.859678e+00 4.306737e+00 150 142 132
-3.926918e+00 3.748334e+00 3.776045e+00 186 179 169
1.182958e+00 3.976408e+00 3.480810e+00 146 137 126
-4.006157e-01 3.991764e+00 3.100919e+00 90 74 69
1.925629e+00 3.940128e+00 3.886770e+00 89 79 66
-2.955921e+00 3.864027e+00 3.543081e+00 69 59 57
-3.648643e+00 3.794862e+00 3.674045e+00 119 111 97
-3.729308e+00 3.806614e+00 3.708359e+00 74 63 61
-4.073468e+00 3.785560e+00 3.843600e+00 104 92 87
-2.978681e+00 3.882048e+00 3.536942e+00 65 57 61
2.815874e+00 3.902929e+00 4.428405e+00 86 75 68
2.681625e+00 3.924115e+00 4.349099e+00 182 174 154
2.514199e-01 4.057368e+00 3.201254e+00 199 195 186
6.143196e-01 4.063044e+00 3.272984e+00 161 155 129
-3.536580e+00 3.868625e+00 3.667732e+00 119 111 100
-1.682823e+00 4.018781e+00 3.294064e+00 194 191 186
-3.719194e+00 3.872843e+00 3.734604e+00 160 145 126
2.014975e+00 4.021482e+00 3.995714e+00 80 74 72
-3.534814e+00 3.896590e+00 3.693532e+00 168 162 138
9.107062e-01 4.087503e+00 3.456731e+00 202 196 183
9.020285e-01 4.093936e+00 3.477097e+00 202 196 183
2.609756e+00 4.008235e+00 4.354786e+00 203 202 177
1.577425e+00 4.114921e+00 3.821450e+00 87 77 68
-1.299802e-01 4.161096e+00 3.228272e+00 195 190 177
7.544973e-01 4.154477e+00 3.464978e+00 179 172 154
7.544973e-01 4.154477e+00 3.464978e+00 179 172 154
2.595300e+00 4.045169e+00 4.373819e+00 170 161 145
-3.531516e+00 4.037880e+00 3.769862e+00 160 154 132
-1.334456e+00 4.189847e+00 3.320397e+00 113 104 95
-3.190727e+00 4.089199e+00 3.662780e+00 102 92 90
1.783390e+00 4.200502e+00 3.969208e+00 122 114 109
1.449918e+00 4.237855e+00 3.840629e+00 159 146 121
