ply
format ascii 1.0
element face 0
property list uchar int vertex_indices
element vertex 942
property float x
property float y
property float z
property uchar diffuse_red
property uchar diffuse_green
property uchar diffuse_blue
end_header
2.788151e+00 4.379208e+00 3.671188e+00 172 159 141
-2.445626e+00 4.176512e+00 2.900317e+00 164 159 152
-3.523958e+00 4.176407e+00 2.984283e+00 80 65 58
-3.523958e+00 4.176407e+00 2.984283e+00 80 65 58
2.633944e+00 4.389883e+00 3.615650e+00 169 158 138
2.633944e+00 4.389883e+00 3.615650e+00 169 158 138
-2.241964e+00 4.187473e+00 2.857162e+00 69 53 46
2.757760e-02 4.196053e+00 2.728261e+00 158 149 134
-3.480717e+00 4.329500e+00 3.012815e+00 182 179 168
-9.922897e-01 4.312797e+00 2.796969e+00 189 182 174
1.617363e+00 4.466909e+00 3.303112e+00 90 80 71
-1.065072e+00 4.337204e+00 2.805158e+00 201 198 190
-1.090006e+00 4.375284e+00 2.801095e+00 83 75 73
-3.188843e+00 4.400320e+00 2.962547e+00 73 64 62
-3.027701e+00 4.393550e+00 2.944966e+00 109 104 98
-3.031858e+00 4.394258e+00 2.948193e+00 109 104 98
-3.333807e+00 4.494557e+00 3.007228e+00 95 76 61
7.025869e-01 4.507126e+00 2.982023e+00 164 157 147
-2.995353e+00 4.496256e+00 2.960431e+00 74 56 53
-2.995353e+00 4.496256e+00 2.960431e+00 74 56 53
-2.219462e+00 4.531330e+00 2.906123e+00 152 148 137
-3.250906e+00 4.564769e+00 3.042447e+00 102 87 85
1.269874e+00 4.642884e+00 3.220242e+00 192 186 174
4.075257e-01 4.571438e+00 2.935351e+00 92 83 67
-1.738925e+00 4.583788e+00 2.922768e+00 182 178 166
2.110970e+00 4.740208e+00 3.480407e+00 101 89 77
1.240075e+00 4.729451e+00 3.236620e+00 202 193 185
-2.935199e+00 4.681327e+00 2.989897e+00 74 61 52
-1.204012e+00 4.714142e+00 2.917640e+00 102 88 69
-2.623570e+00 4.773306e+00 2.959694e+00 62 53 46
-2.623570e+00 4.773306e+00 2.959694e+00 62 53 46
-2.779967e+00 4.799600e+00 2.991056e+00 100 82 69
-2.776645e+00 4.795339e+00 2.988245e+00 100 82 69
-2.232056e+00 4.853876e+00 2.937225e+00 112 95 78
-1.002356e+00 4.907916e+00 2.948833e+00 202 202 190
1.687465e+00 5.028746e+00 3.417962e+00 148 137 120
-2.285206e+00 4.920571e+00 2.956472e+00 72 59 49
1.830337e-01 4.974664e+00 3.029498e+00 95 78 61
1.830337e-01 4.974664e+00 3.029498e+00 95 78 61
1.275632e+00 5.088425e+00 3.304348e+00 171 162 150
1.816674e-01 5.057093e+00 3.053591e+00 176 168 157
1.816674e-01 5.057093e+00 3.053591e+00 176 168 157
-2.335904e+00 5.072187e+00 2.992500e+00 120 110 100
1.351542e+00 5.148340e+00 3.338477e+00 105 91 65
-1.482286e+00 5.077273e+00 2.945578e+00 179 164 146
-1.768715e+00 5.108728e+00 2.970724e+00 80 66 64
9.022059e-01 5.164675e+00 3.181061e+00 79 61 48
-1.657088e+00 5.146285e+00 2.945366e+00 161 153 139
7.541023e-01 5.220573e+00 3.184639e+00 176 162 142
-2.608945e-02 5.213464e+00 3.032007e+00 192 185 175
-1.534603e+00 5.250638e+00 2.986480e+00 105 86 71
8.948066e-01 5.314749e+00 3.255906e+00 161 150 128
-2.054446e-01 5.261426e+00 3.021603e+00 126 111 105
-1.272579e+00 5.277764e+00 2.983992e+00 178 167 148
1.036402e+00 5.370759e+00 3.303401e+00 127 116 112
-1.400363e+00 5.367264e+00 3.015275e+00 85 67 49
-1.176363e+00 5.375552e+00 3.008611e+00 179 171 144
-1.177192e+00 5.375436e+00 3.005185e+00 179 171 144
-6.173101e-01 5.371639e+00 2.996344e+00 86 69 51
2.574714e+00 -1.883295e+00 3.549769e+00 52 42 47
2.574714e+00 -1.883295e+00 3.549769e+00 52 42 47
-5.017198e+00 -3.299847e+00 4.358534e+00 158 157 152
2.495761e-02 -2.053574e+00 2.970492e+00 131 134 130
2.650485e-01 -1.917260e+00 2.955347e+00 150 146 143
-8.046189e-03 -1.875759e+00 2.890651e+00 34 32 32
-7.000605e+00 -3.394652e+00 4.672675e+00 147 146 144
-2.704339e+00 -2.639083e+00 4.107855e+00 141 144 144
-2.565670e+00 -2.550071e+00 4.020041e+00 161 163 162
2.634225e+00 -1.516309e+00 3.438129e+00 162 158 154
-2.689345e+00 -2.484428e+00 3.987972e+00 169 170 165
-1.477925e-01 -1.673947e+00 2.761544e+00 44 44 47
-1.477925e-01 -1.673947e+00 2.761544e+00 44 44 47
2.620159e+00 -1.360828e+00 3.348915e+00 175 176 172
-6.108052e-01 -1.663760e+00 2.845043e+00 73 69 58
-6.108052e-01 -1.663760e+00 2.845043e+00 73 69 58
-5.668450e-01 -1.625325e+00 2.827016e+00 178 174 170
1.439042e+00 -1.359778e+00 2.994314e+00 84 79 72
-4.770227e+00 -2.467189e+00 3.899106e+00 145 141 138
1.011387e+00 -1.336379e+00 2.803684e+00 125 122 115
-4.653828e+00 -2.344982e+00 3.816084e+00 140 139 134
-4.294972e+00 -2.243655e+00 3.668018e+00 50 45 49
1.183922e+00 -1.206046e+00 2.812806e+00 183 185 184
1.183922e+00 -1.206046e+00 2.812806e+00 183 185 184
4.235650e+00 -1.166846e+00 4.527317e+00 154 152 142
4.235650e+00 -1.166846e+00 4.527317e+00 154 152 142
-1.645571e+00 -1.792478e+00 3.408224e+00 107 105 100
-4.273790e+00 -2.147137e+00 3.622071e+00 154 153 158
1.745051e+00 -1.134366e+00 2.940540e+00 106 106 94
1.745051e+00 -1.134366e+00 2.940540e+00 106 106 94
1.840638e+00 -1.131841e+00 3.003931e+00 186 185 180
2.092777e+00 -1.070086e+00 3.025547e+00 190 189 185
-1.666502e+00 -1.747113e+00 3.447344e+00 173 174 168
-1.882727e+00 -1.808569e+00 3.576360e+00 167 163 159
1.222696e+00 -1.107254e+00 2.861933e+00 186 185 183
-5.400248e+00 -2.193759e+00 3.905803e+00 175 178 185
-3.392929e+00 -1.817249e+00 3.444226e+00 179 176 162
-2.877304e+00 -1.787666e+00 3.528598e+00 92 78 68
-5.931525e+00 -2.258230e+00 4.042099e+00 99 91 91
-6.687045e+00 -2.376220e+00 4.271428e+00 131 126 124
-6.719551e+00 -2.215152e+00 4.235244e+00 160 161 163
-6.719551e+00 -2.215152e+00 4.235244e+00 160 161 163
2.264152e+00 -7.487125e-01 2.975051e+00 61 60 57
1.446082e+00 -8.003213e-01 2.754745e+00 172 172 170
-5.436639e-01 -1.022214e+00 2.590918e+00 189 184 178
3.001174e+00 -7.083126e-01 3.467189e+00 173 170 163
-2.586725e+00 -1.541124e+00 3.594878e+00 111 108 100
4.753052e+00 -7.183146e-01 4.811018e+00 163 163 155
1.025532e+00 -7.575928e-01 2.709951e+00 152 149 139
4.108115e+00 -6.521445e-01 4.248927e+00 167 161 141
4.008581e+00 -6.485808e-01 4.176450e+00 156 152 140
-3.433566e-01 -9.232747e-01 2.701161e+00 177 173 159
2.400602e+00 -5.891047e-01 3.000414e+00 67 66 62
2.984271e+00 -5.785385e-01 3.393649e+00 174 169 164
3.949810e+00 -5.313936e-01 4.119421e+00 52 45 46
-3.469508e+00 -1.216323e+00 3.193535e+00 157 154 145
3.892471e+00 -4.255645e-01 4.070336e+00 77 71 60
-2.881343e+00 -1.104775e+00 3.137152e+00 152 149 131
-3.318022e+00 -1.136105e+00 3.113511e+00 179 178 172
4.043751e+00 -3.702780e-01 4.141092e+00 189 187 175
4.002379e+00 -3.604187e-01 4.127004e+00 89 84 74
4.002379e+00 -3.604187e-01 4.127004e+00 89 84 74
-5.199636e+00 -1.420071e+00 3.668354e+00 92 82 75
-2.093527e+00 -1.029958e+00 3.346168e+00 71 66 63
1.943744e+00 -3.488973e-01 2.792905e+00 185 182 177
-7.178302e+00 -1.706650e+00 4.191621e+00 180 182 182
4.772147e-01 -4.703475e-01 2.596344e+00 192 192 186
3.073657e+00 -2.509195e-01 3.367778e+00 123 118 114
-3.538171e-01 -5.623786e-01 2.744969e+00 171 169 159
3.812324e+00 -2.418796e-01 3.977355e+00 172 171 162
3.812324e+00 -2.418796e-01 3.977355e+00 172 171 162
8.523814e-01 -3.751702e-01 2.645724e+00 178 177 170
-1.617888e+00 -6.725061e-01 2.632816e+00 161 162 160
-3.522133e-01 -5.452428e-01 2.868350e+00 164 164 153
-6.141597e+00 -1.345554e+00 3.886589e+00 183 182 179
3.924382e+00 -1.392542e-01 4.021949e+00 186 185 180
1.688995e-01 -3.293420e-01 2.567347e+00 198 198 194
4.298039e+00 -8.694462e-02 4.312006e+00 168 162 147
-1.882700e-02 -3.155204e-01 2.527961e+00 154 147 137
-4.931661e+00 -1.041075e+00 3.490672e+00 96 88 82
4.580420e+00 -6.166080e-02 4.491295e+00 179 165 146
4.948406e+00 1.249047e-02 4.802011e+00 170 167 159
3.332051e+00 2.540103e-02 3.532361e+00 136 132 123
3.332051e+00 2.540103e-02 3.532361e+00 136 132 123
8.144251e-01 -1.159383e-01 2.536639e+00 177 176 172
5.028628e+00 2.634417e-02 4.842860e+00 52 48 35
3.903593e+00 3.741204e-02 3.953261e+00 93 87 73
-5.311608e+00 -9.675638e-01 3.580870e+00 176 175 172
3.290278e+00 4.219963e-02 3.533444e+00 159 154 151
-6.540073e+00 -1.147666e+00 3.926614e+00 155 149 131
-1.397562e+00 -2.356139e-01 2.026457e+00 79 70 61
-1.583751e+00 -3.356112e-01 2.413364e+00 79 70 61
1.825322e+00 6.681817e-02 2.620417e+00 186 181 165
-3.905554e+00 -6.215087e-01 3.113846e+00 64 48 41
4.704371e-01 -2.409728e-02 2.463443e+00 75 73 61
-7.057659e+00 -1.103140e+00 4.048996e+00 153 146 127
2.417037e+00 1.643132e-01 2.816227e+00 72 62 58
2.417037e+00 1.643132e-01 2.816227e+00 72 62 58
-2.416634e+00 -3.666468e-01 2.670811e+00 58 51 35
-2.416634e+00 -3.666468e-01 2.670811e+00 58 51 35
3.711032e+00 1.949463e-01 3.820691e+00 83 75 65
-6.933216e+00 -1.016704e+00 3.991744e+00 113 103 97
2.803482e+00 2.295447e-01 3.124810e+00 105 98 82
2.803482e+00 2.295447e-01 3.124810e+00 105 98 82
2.139619e+00 2.266046e-01 2.705320e+00 68 60 49
4.242907e+00 2.850544e-01 4.230575e+00 130 121 121
3.107388e+00 2.841216e-01 3.353394e+00 130 120 108
-3.185838e+00 -3.039897e-01 2.868645e+00 137 131 119
-3.857573e+00 -3.946299e-01 3.056655e+00 167 163 144
-6.819303e+00 -8.067556e-01 3.925221e+00 52 50 55
-6.819303e+00 -8.067556e-01 3.925221e+00 52 50 55
3.151149e+00 3.676742e-01 3.376454e+00 90 82 64
3.151071e+00 3.658244e-01 3.383446e+00 90 82 64
-3.880882e+00 -3.618858e-01 3.056806e+00 54 47 40
-3.894597e+00 -3.623047e-01 3.074806e+00 54 47 40
-2.932134e+00 -1.922322e-01 2.732956e+00 96 82 73
-2.932134e+00 -1.922322e-01 2.732956e+00 96 82 73
1.697277e+00 3.373139e-01 2.613002e+00 86 75 67
-3.843138e+00 -3.132808e-01 3.035713e+00 170 163 139
2.199303e+00 3.850407e-01 2.739932e+00 104 93 82
-4.886422e-01 2.365701e-01 2.196184e+00 182 177 174
-5.727569e+00 -4.930541e-01 3.590368e+00 186 185 182
7.633821e-02 3.011784e-01 2.281488e+00 89 83 72
7.633821e-02 3.011784e-01 2.281488e+00 89 83 72
6.997553e-01 3.989031e-01 2.459401e+00 179 175 164
-6.214831e+00 -4.638616e-01 3.722802e+00 167 163 152
5.500208e-01 4.224521e-01 2.391930e+00 164 160 151
-3.515072e+00 -4.239078e-02 2.871360e+00 117 106 88
2.937284e+00 6.019724e-01 3.220664e+00 106 97 84
-6.627631e+00 -4.486107e-01 3.812632e+00 71 64 58
4.018286e+00 6.328387e-01 4.015544e+00 186 179 161
-4.464600e+00 -1.502248e-01 3.185378e+00 167 163 139
-4.641954e+00 -1.693112e-01 3.301828e+00 167 165 150
4.635539e+00 6.771519e-01 4.486534e+00 167 159 151
2.573163e+00 6.457204e-01 2.956076e+00 190 185 175
2.573163e+00 6.457204e-01 2.956076e+00 190 185 175
-3.380712e-01 4.628110e-01 2.227799e+00 174 170 163
4.002486e+00 7.242433e-01 4.012055e+00 176 169 146
2.900816e+00 7.118819e-01 3.196182e+00 65 62 51
2.900816e+00 7.118819e-01 3.196182e+00 65 62 51
-2.387418e-01 4.900968e-01 2.258504e+00 171 169 155
-3.470330e+00 9.904221e-02 2.829938e+00 61 48 40
4.055432e+00 7.503580e-01 4.039291e+00 161 152 134
-1.882000e+00 3.206064e-01 2.260311e+00 184 178 166
2.520828e+00 7.430300e-01 2.910698e+00 102 91 73
6.430347e-01 6.171178e-01 2.400094e+00 161 154 141
2.363010e+00 7.510863e-01 2.792319e+00 135 126 113
-5.164036e+00 -2.892326e-02 3.360060e+00 126 117 115
4.593523e+00 8.557599e-01 4.457090e+00 161 157 136
3.018175e+00 8.353133e-01 3.264402e+00 83 74 62
4.652783e+00 8.769806e-01 4.491969e+00 182 177 174
-4.571608e+00 9.412411e-02 3.240557e+00 187 182 158
-5.660000e-01 6.177831e-01 2.116268e+00 119 120 115
1.199928e+00 7.697992e-01 2.404336e+00 107 103 98
-1.380057e+00 5.449055e-01 2.036553e+00 112 103 93
1.535966e+00 8.092953e-01 2.454213e+00 177 169 150
1.143193e+00 7.819804e-01 2.522149e+00 180 177 168
1.076558e+00 7.866654e-01 2.416622e+00 184 178 167
-6.508644e+00 -6.846751e-02 3.740811e+00 165 165 163
-1.161788e+00 6.494543e-01 1.996148e+00 88 76 66
3.104004e-01 7.750061e-01 2.319275e+00 122 113 102
-3.637543e-01 7.211164e-01 2.194142e+00 173 170 165
-3.471471e+00 3.700879e-01 2.801967e+00 86 73 62
-3.471471e+00 3.700879e-01 2.801967e+00 86 73 62
-8.617955e-01 7.086569e-01 2.029016e+00 164 154 145
-1.009719e+00 6.961362e-01 2.017421e+00 177 164 138
-1.111085e+00 6.867902e-01 1.992680e+00 176 169 152
-1.055903e+00 6.966403e-01 2.004232e+00 173 166 148
-4.099327e+00 3.178778e-01 3.002140e+00 161 158 144
1.057418e-01 8.079816e-01 2.342772e+00 192 187 183
-2.301874e-01 7.898000e-01 2.198475e+00 130 120 106
-2.301874e-01 7.898000e-01 2.198475e+00 130 120 106
-2.301874e-01 7.898000e-01 2.198475e+00 130 120 106
-1.634078e+00 6.514527e-01 2.115036e+00 109 99 90
-1.634078e+00 6.514527e-01 2.115036e+00 109 99 90
9.617917e-01 8.999011e-01 2.316872e+00 193 190 184
-8.935410e-01 7.576256e-01 2.021003e+00 120 107 91
7.365156e-01 8.883946e-01 2.402637e+00 129 124 113
3.854688e+00 1.072586e+00 3.885511e+00 71 68 63
2.178293e+00 1.008930e+00 2.668922e+00 177 168 159
-9.281300e-01 7.951147e-01 2.040291e+00 168 157 136
3.375921e+00 1.114762e+00 3.479589e+00 152 146 126
3.182162e+00 1.142169e+00 3.409161e+00 72 60 53
-2.286461e+00 7.306650e-01 2.380869e+00 92 80 70
2.892257e+00 1.166772e+00 3.174694e+00 63 56 50
5.026511e+00 1.247422e+00 4.732084e+00 114 106 98
2.472695e-01 1.005834e+00 2.283938e+00 118 109 102
2.472695e-01 1.005834e+00 2.283938e+00 118 109 102
3.299810e-01 1.027987e+00 2.283203e+00 123 118 113
-3.326404e+00 6.698199e-01 2.734189e+00 173 164 154
2.506675e+00 1.195834e+00 2.928166e+00 134 122 106
-4.092354e+00 5.994490e-01 2.975050e+00 75 63 48
2.535061e+00 1.211531e+00 2.953489e+00 157 149 130
1.424724e-01 1.067483e+00 2.195986e+00 112 101 85
2.437746e+00 1.248069e+00 2.851783e+00 183 175 156
2.197468e+00 1.250555e+00 2.702307e+00 63 52 47
-3.041038e+00 8.577859e-01 2.636652e+00 89 83 87
-2.364994e+00 9.325832e-01 2.415122e+00 94 87 77
-2.364994e+00 9.325832e-01 2.415122e+00 94 87 77
-3.790284e+00 7.974791e-01 2.866825e+00 158 153 141
-1.385540e+00 1.058989e+00 2.062170e+00 114 101 85
-6.175762e+00 6.286938e-01 3.561002e+00 105 103 106
-3.909862e+00 8.702489e-01 2.899486e+00 153 154 154
-3.900505e+00 8.675261e-01 2.886686e+00 153 154 154
-4.001321e+00 8.601362e-01 2.922072e+00 109 98 90
2.449257e+00 1.421959e+00 2.893408e+00 129 118 100
2.638126e-01 1.285013e+00 2.203563e+00 99 83 69
2.638126e-01 1.285013e+00 2.203563e+00 99 83 69
-4.994302e+00 8.111088e-01 3.221088e+00 147 143 121
2.443977e+00 1.468424e+00 2.902208e+00 72 60 59
5.040021e-01 1.348662e+00 2.239648e+00 182 176 164
-1.410773e+00 1.181558e+00 2.069571e+00 89 73 50
-5.966995e+00 7.535587e-01 3.496898e+00 203 200 193
3.060991e+00 1.546087e+00 3.337891e+00 122 117 110
3.060991e+00 1.546087e+00 3.337891e+00 122 117 110
1.178981e+00 1.476801e+00 2.256331e+00 63 60 53
2.924240e+00 1.592422e+00 3.253737e+00 70 64 53
2.924240e+00 1.592422e+00 3.253737e+00 70 64 53
2.611151e-01 1.437450e+00 2.194524e+00 180 173 162
-5.608262e-01 1.373880e+00 1.993967e+00 177 177 167
-4.394858e+00 1.035075e+00 3.031196e+00 90 80 80
-9.643247e-02 1.435461e+00 2.049309e+00 152 149 142
2.264936e+00 1.592208e+00 2.784547e+00 174 163 134
-3.888837e+00 1.098934e+00 2.885780e+00 95 83 72
4.075895e+00 1.702769e+00 4.048066e+00 126 116 116
-3.439409e-01 1.445997e+00 2.026760e+00 79 63 48
1.902640e+00 1.605497e+00 2.577355e+00 142 126 110
-1.275590e+00 1.372822e+00 2.088024e+00 160 149 129
-2.643505e+00 1.245104e+00 2.497053e+00 153 145 126
8.876615e-01 1.554097e+00 2.201767e+00 170 156 132
-1.305251e+00 1.388511e+00 2.089939e+00 94 83 66
-1.305251e+00 1.388511e+00 2.089939e+00 94 83 66
-4.533156e+00 1.116296e+00 3.079963e+00 136 123 114
9.501439e-01 1.591824e+00 2.221281e+00 102 88 73
-1.283237e+00 1.429587e+00 2.075751e+00 171 164 153
-3.605043e-01 1.515236e+00 1.978864e+00 131 125 110
-4.339051e+00 1.193080e+00 3.018973e+00 186 179 171
-1.803740e+00 1.448126e+00 2.242258e+00 156 135 110
2.744114e+00 1.785033e+00 3.168797e+00 160 154 140
-6.740186e-01 1.550409e+00 1.989387e+00 170 166 154
8.026067e-01 1.697974e+00 2.163670e+00 143 135 127
4.885946e-01 1.675670e+00 2.115353e+00 110 109 105
-6.869908e+00 1.089798e+00 3.652125e+00 107 100 92
-2.738679e+00 1.430937e+00 2.496811e+00 55 46 42
-5.309550e+00 1.233270e+00 3.294351e+00 181 178 174
-5.309550e+00 1.233270e+00 3.294351e+00 181 178 174
2.780999e+00 1.855373e+00 3.211204e+00 75 66 53
1.543115e+00 1.776804e+00 2.414702e+00 155 137 115
1.543115e+00 1.776804e+00 2.414702e+00 155 137 115
-4.357066e+00 1.327020e+00 3.028774e+00 55 48 42
-5.697724e+00 1.223321e+00 3.389209e+00 172 171 170
2.064800e+00 1.824574e+00 2.710480e+00 173 160 138
1.463475e-01 1.700045e+00 1.972063e+00 47 43 34
-1.186913e+00 1.640279e+00 2.073126e+00 51 41 32
-9.684464e-01 1.682317e+00 2.036507e+00 170 155 122
-6.867299e+00 1.244735e+00 3.628401e+00 162 158 141
-3.452811e+00 1.513930e+00 2.756795e+00 176 176 166
-6.733251e+00 1.270314e+00 3.596917e+00 59 51 57
2.018239e+00 1.924724e+00 2.743216e+00 155 142 126
2.564354e+00 1.971614e+00 3.091118e+00 171 163 157
-1.916123e+00 1.653866e+00 2.307313e+00 44 31 28
3.421469e+00 2.020261e+00 3.587593e+00 65 60 54
3.421469e+00 2.020261e+00 3.587593e+00 65 60 54
-1.873724e+00 1.677637e+00 2.311820e+00 81 70 51
-6.739369e+00 1.319124e+00 3.600283e+00 171 171 168
-1.801733e+00 1.701016e+00 2.295484e+00 80 73 72
-6.792572e+00 1.366418e+00 3.600201e+00 61 54 59
1.704918e+00 1.976140e+00 2.553996e+00 101 93 84
-1.770747e+00 1.729731e+00 2.286435e+00 181 185 186
-6.766115e+00 1.423926e+00 3.584733e+00 161 158 154
3.626295e+00 2.171754e+00 3.801916e+00 163 158 151
3.622445e+00 2.170775e+00 3.759335e+00 163 158 151
3.734245e+00 2.196073e+00 3.880705e+00 188 183 172
-1.921351e+00 1.805272e+00 2.339799e+00 76 66 56
3.767168e+00 2.216727e+00 3.906442e+00 180 175 170
-8.484840e-01 1.897864e+00 2.062221e+00 158 143 125
-2.560336e+00 1.790443e+00 2.518023e+00 179 175 164
-2.115602e-01 1.971939e+00 2.025528e+00 181 172 155
-6.739023e+00 1.561496e+00 3.568675e+00 161 158 153
-1.851256e+00 1.905340e+00 2.303325e+00 85 76 71
-3.349964e+00 1.816757e+00 2.651843e+00 157 155 142
3.012317e-01 2.065144e+00 2.076922e+00 170 161 151
-6.366781e+00 1.638490e+00 3.492546e+00 64 54 54
-1.592834e+00 1.954795e+00 2.161941e+00 44 37 27
-4.310459e+00 1.771834e+00 3.001943e+00 72 63 58
-4.310459e+00 1.771834e+00 3.001943e+00 72 63 58
-3.068991e+00 1.868695e+00 2.587236e+00 181 177 168
-6.236764e+00 1.682988e+00 3.454272e+00 96 88 76
1.796765e+00 2.213510e+00 2.702791e+00 102 93 76
-1.614703e+00 1.988135e+00 2.293582e+00 104 95 89
-1.614703e+00 1.988135e+00 2.293582e+00 104 95 89
1.843882e+00 2.226443e+00 2.727549e+00 173 160 139
-1.498708e+00 2.001322e+00 2.257782e+00 55 50 47
1.025634e+00 2.169145e+00 2.299843e+00 135 123 109
2.264126e+00 2.297828e+00 2.999127e+00 77 66 55
1.040335e+00 2.207701e+00 2.350501e+00 75 63 58
-5.906914e-01 2.093037e+00 2.051651e+00 69 52 45
-4.774321e-01 2.139083e+00 2.056871e+00 154 142 116
-1.683344e+00 2.099076e+00 2.302304e+00 97 87 80
-1.683344e+00 2.099076e+00 2.302304e+00 97 87 80
-2.214166e+00 2.092345e+00 2.404282e+00 63 54 49
2.315660e+00 2.415269e+00 3.055266e+00 172 168 165
8.677323e-01 2.304892e+00 2.287929e+00 62 49 32
1.367299e+00 2.350757e+00 2.472490e+00 164 148 123
-6.252312e+00 1.919597e+00 3.446395e+00 167 162 138
2.744876e+00 2.476706e+00 3.290298e+00 150 145 140
8.102338e-01 2.333396e+00 2.278111e+00 133 120 103
2.784453e+00 2.490478e+00 3.307601e+00 66 56 43
-1.648059e+00 2.188893e+00 2.307755e+00 166 160 146
-1.388639e+00 2.228315e+00 2.295986e+00 95 77 65
-6.207201e+00 1.988248e+00 3.441124e+00 181 178 168
-3.127393e-01 2.297716e+00 2.084019e+00 78 64 40
-7.949858e-01 2.286812e+00 2.137285e+00 186 175 157
-4.674775e+00 2.094981e+00 3.109111e+00 118 112 112
4.865188e+00 2.710802e+00 4.579823e+00 184 175 158
4.865188e+00 2.710802e+00 4.579823e+00 184 175 158
2.115061e+00 2.518576e+00 2.928714e+00 174 165 152
2.680891e+00 2.587666e+00 3.277350e+00 88 81 72
4.863393e+00 2.775180e+00 4.583632e+00 166 160 148
-1.421037e+00 2.348811e+00 2.310043e+00 77 65 56
4.774853e+00 2.783451e+00 4.521721e+00 144 130 117
4.647785e+00 2.773627e+00 4.430227e+00 88 78 73
4.647785e+00 2.773627e+00 4.430227e+00 88 78 73
2.648978e+00 2.628761e+00 3.274074e+00 158 153 133
2.645901e+00 2.631931e+00 3.291183e+00 158 153 133
2.648978e+00 2.628761e+00 3.274074e+00 158 153 133
-8.756584e-02 2.417438e+00 2.104574e+00 141 124 104
-6.688968e-01 2.395285e+00 2.154967e+00 182 172 145
-2.793593e+00 2.292663e+00 2.537990e+00 73 63 53
-2.833309e+00 2.323413e+00 2.649459e+00 179 174 167
2.138465e+00 2.628745e+00 2.989576e+00 197 191 180
2.140203e+00 2.624383e+00 2.963157e+00 197 191 180
3.251122e+00 2.719564e+00 3.641062e+00 178 172 154
1.973941e+00 2.617360e+00 2.884610e+00 79 69 60
4.841224e-01 2.498142e+00 2.190738e+00 70 60 45
-2.018148e+00 2.381883e+00 2.448118e+00 62 56 44
1.580027e+00 2.598986e+00 2.660783e+00 90 82 77
1.492608e-02 2.488587e+00 2.149974e+00 149 136 120
5.752057e-01 2.520081e+00 2.209752e+00 117 106 88
-3.503866e+00 2.340916e+00 2.829566e+00 43 34 38
-4.589800e+00 2.339691e+00 3.100909e+00 111 110 106
-2.478934e+00 2.437398e+00 2.556886e+00 176 172 160
-2.478934e+00 2.437398e+00 2.556886e+00 176 172 160
-4.094881e-01 2.542789e+00 2.175422e+00 99 86 70
-4.094881e-01 2.542789e+00 2.175422e+00 99 86 70
-3.995584e-01 2.583850e+00 2.187661e+00 160 142 115
-1.184270e+00 2.556991e+00 2.307308e+00 89 82 77
9.278821e-01 2.694886e+00 2.405739e+00 173 162 140
9.759574e-01 2.715589e+00 2.451528e+00 165 156 141
-5.284019e-01 2.656961e+00 2.208129e+00 146 131 103
3.313638e-01 2.707568e+00 2.245600e+00 168 159 145
5.134717e-01 2.728370e+00 2.310171e+00 66 56 46
-4.367733e+00 2.529812e+00 3.054947e+00 174 167 159
3.723328e+00 3.020315e+00 3.981062e+00 193 186 166
-1.603115e+00 2.659074e+00 2.436896e+00 164 157 150
-1.603115e+00 2.659074e+00 2.436896e+00 164 157 150
-2.522821e+00 2.627904e+00 2.602355e+00 185 178 170
-1.552139e+00 2.674513e+00 2.417963e+00 59 49 38
-5.944244e+00 2.521709e+00 3.361046e+00 86 80 84
-3.319565e+00 2.613682e+00 2.802393e+00 153 150 135
1.342851e+00 2.854517e+00 2.625877e+00 180 172 158
4.386417e+00 3.114158e+00 4.314188e+00 120 106 93
-2.555545e+00 2.671432e+00 2.515938e+00 100 93 78
-3.585931e+00 2.665330e+00 2.858013e+00 104 97 92
-1.319230e+00 2.748708e+00 2.365291e+00 127 116 95
-1.432965e+00 2.765898e+00 2.438587e+00 170 165 162
-4.570577e+00 2.654988e+00 3.089525e+00 137 133 129
-3.219068e-01 2.812295e+00 2.301373e+00 166 163 141
3.663947e+00 3.123275e+00 3.946433e+00 58 45 31
1.240856e+00 2.911861e+00 2.598826e+00 163 155 136
-4.189256e-01 2.819758e+00 2.312353e+00 69 53 38
-2.799010e-01 2.833295e+00 2.299019e+00 158 147 129
3.447768e+00 3.134294e+00 3.822352e+00 175 167 157
-2.131474e+00 2.782588e+00 2.549163e+00 128 118 106
-5.562831e+00 2.701231e+00 3.287640e+00 94 87 81
4.099334e+00 3.209296e+00 4.123183e+00 206 206 207
-4.098211e+00 2.766064e+00 2.996363e+00 54 44 42
4.217981e+00 3.241566e+00 4.231956e+00 176 163 144
-4.184453e+00 2.778203e+00 3.013232e+00 59 52 47
-5.370636e+00 2.747075e+00 3.247630e+00 191 187 176
4.675180e-01 2.956838e+00 2.376684e+00 86 73 57
2.181178e+00 3.102717e+00 3.130291e+00 108 99 93
-3.911530e-01 2.923574e+00 2.324491e+00 82 66 48
-1.500350e+00 2.881326e+00 2.443019e+00 39 29 28
3.479854e+00 3.227121e+00 3.862163e+00 96 87 83
4.281953e-01 2.967209e+00 2.382476e+00 130 122 108
-1.246443e+00 2.911335e+00 2.428313e+00 168 153 134
-1.807167e-01 2.958067e+00 2.324426e+00 78 61 51
3.220794e-01 2.986997e+00 2.354996e+00 151 140 117
-3.250546e-02 2.977039e+00 2.320217e+00 183 176 154
3.365170e+00 3.255549e+00 3.806064e+00 161 155 141
-4.448586e+00 2.857629e+00 3.058688e+00 61 59 60
-1.121291e+00 2.970131e+00 2.397427e+00 43 32 27
4.020100e+00 3.355704e+00 4.118627e+00 158 148 136
-1.147772e+00 3.008513e+00 2.444241e+00 176 162 136
4.991064e-01 3.077933e+00 2.438192e+00 87 74 63
1.945924e-01 3.066971e+00 2.344934e+00 97 83 57
7.672035e-01 3.121460e+00 2.509512e+00 123 116 101
-1.174512e+00 3.056705e+00 2.417037e+00 175 167 154
-3.033535e+00 3.006960e+00 2.790130e+00 172 165 155
1.198546e+00 3.190700e+00 2.719900e+00 55 42 36
-2.785384e+00 3.042616e+00 2.749171e+00 52 46 41
-2.964839e+00 3.072161e+00 2.792220e+00 182 179 173
-4.834858e+00 3.038663e+00 3.127697e+00 167 161 136
3.890600e+00 3.485278e+00 4.058954e+00 81 69 64
1.068122e+00 3.249644e+00 2.703666e+00 175 163 140
1.068122e+00 3.249644e+00 2.703666e+00 175 163 140
7.179062e-01 3.210780e+00 2.515185e+00 82 69 52
-5.176012e+00 3.063309e+00 3.212710e+00 175 169 157
1.141994e+00 3.264489e+00 2.730816e+00 172 165 147
3.186140e+00 3.441818e+00 3.719820e+00 82 75 73
-4.929979e+00 3.074700e+00 3.152804e+00 170 161 152
2.449047e+00 3.405646e+00 3.371725e+00 171 164 147
3.771618e+00 3.512859e+00 3.998479e+00 188 180 168
-2.041293e+00 3.160903e+00 2.597449e+00 126 122 116
1.612117e+00 3.362087e+00 2.951410e+00 177 170 152
1.014911e+00 3.312905e+00 2.705136e+00 183 174 162
-5.281792e+00 3.134425e+00 3.232163e+00 154 150 147
-2.970616e+00 3.220643e+00 2.789216e+00 98 93 88
-1.766416e+00 3.257794e+00 2.587953e+00 59 48 44
2.523291e+00 3.509192e+00 3.419888e+00 198 197 192
3.790172e+00 3.625484e+00 4.037533e+00 176 169 144
3.790172e+00 3.625484e+00 4.037533e+00 176 169 144
2.181055e+00 3.486302e+00 3.232965e+00 75 60 55
1.362112e+00 3.402982e+00 2.814053e+00 150 138 125
2.161516e+00 3.522265e+00 3.261305e+00 178 173 165
1.802977e+00 3.477203e+00 3.023455e+00 134 127 111
-2.538901e+00 3.290078e+00 2.719393e+00 79 71 63
1.385439e+00 3.461028e+00 2.868574e+00 161 153 141
-5.883934e-01 3.349103e+00 2.491392e+00 157 150 123
1.195161e+00 3.451196e+00 2.761310e+00 96 80 66
-2.757388e+00 3.319956e+00 2.775665e+00 187 188 189
-1.249750e+00 3.348088e+00 2.508486e+00 166 164 150
1.209721e+00 3.480069e+00 2.781578e+00 122 107 83
3.211029e+00 3.675234e+00 3.770102e+00 184 175 162
-4.649691e-01 3.429890e+00 2.500718e+00 51 39 28
-1.094383e+00 3.423143e+00 2.497290e+00 144 128 102
-2.359183e+00 3.424948e+00 2.734343e+00 168 167 156
-2.387731e+00 3.448863e+00 2.733664e+00 175 169 157
4.313356e-01 3.535537e+00 2.588184e+00 54 47 31
-1.160663e+00 3.534376e+00 2.578540e+00 60 47 39
-1.576269e+00 3.533343e+00 2.600943e+00 128 124 121
-4.530706e+00 3.515119e+00 3.101609e+00 94 84 75
5.499571e-01 3.609982e+00 2.627151e+00 112 104 88
4.175485e-01 3.596481e+00 2.592949e+00 178 170 156
-1.404610e+00 3.561203e+00 2.617331e+00 201 200 195
1.071099e+00 3.674345e+00 2.856457e+00 157 146 131
1.710337e+00 3.713445e+00 3.052160e+00 129 119 95
-4.232258e+00 3.551430e+00 3.045471e+00 170 164 140
-4.605645e+00 3.565091e+00 3.129611e+00 179 172 163
2.615641e+00 3.833372e+00 3.532487e+00 160 148 139
-4.663959e+00 3.580756e+00 3.134744e+00 170 165 149
-4.666693e+00 3.584385e+00 3.132195e+00 170 165 149
-1.249952e+00 3.611594e+00 2.668128e+00 56 43 33
-1.208758e+00 3.608627e+00 2.605496e+00 56 43 33
2.633639e+00 3.865566e+00 3.556889e+00 167 163 152
-1.045271e+00 3.629233e+00 2.590530e+00 170 159 139
1.291730e+00 3.755049e+00 2.915027e+00 82 75 68
1.010919e+00 3.745340e+00 2.863452e+00 186 180 166
1.710412e+00 3.852747e+00 3.138630e+00 78 68 59
-2.746633e+00 3.694596e+00 2.810377e+00 160 150 130
1.856953e+00 3.912455e+00 3.184879e+00 164 156 145
-4.073997e+00 3.748180e+00 3.035892e+00 84 76 67
-2.644940e+00 3.752928e+00 2.809526e+00 158 147 134
1.413288e+00 3.897236e+00 3.016018e+00 78 68 56
-2.975955e+00 3.773151e+00 2.883406e+00 57 48 44
3.297102e+00 4.108156e+00 3.874059e+00 195 188 167
-3.046694e+00 3.813552e+00 2.904064e+00 188 183 178
1.812106e+00 3.979455e+00 3.188940e+00 72 64 53
-1.805592e+00 3.839146e+00 2.736591e+00 182 178 169
-1.601080e+00 3.853190e+00 2.723594e+00 175 169 152
9.501069e-01 3.935402e+00 2.853271e+00 169 161 145
-4.188674e+00 3.876907e+00 3.093394e+00 204 207 190
3.095626e+00 4.145496e+00 3.775544e+00 172 164 153
7.532715e-01 3.927967e+00 2.777247e+00 163 155 145
-1.655195e+00 3.880314e+00 2.725231e+00 55 43 36
3.225332e+00 4.177907e+00 3.878894e+00 170 163 149
2.150987e+00 4.083733e+00 3.395600e+00 204 199 186
2.150987e+00 4.083733e+00 3.395600e+00 204 199 186
1.436265e+00 4.020351e+00 3.094629e+00 188 183 176
-5.989498e-01 3.913879e+00 2.672582e+00 169 161 148
-1.871959e+00 3.899577e+00 2.754468e+00 196 192 189
2.346710e+00 4.132480e+00 3.503949e+00 192 186 172
-2.674209e+00 3.923962e+00 2.871552e+00 147 144 127
1.535982e+00 4.068897e+00 3.152049e+00 198 193 186
-1.180964e+00 3.916000e+00 2.647613e+00 104 91 75
-4.125459e+00 3.944659e+00 3.076152e+00 175 171 162
-3.656700e+00 3.945100e+00 2.973025e+00 124 118 103
4.083737e-01 3.992754e+00 2.733811e+00 107 95 81
-1.519296e+00 3.964717e+00 2.741876e+00 95 82 75
-2.667659e+00 3.968648e+00 2.883619e+00 87 77 74
-2.667659e+00 3.968648e+00 2.883619e+00 87 77 74
-2.774421e+00 3.999404e+00 2.899506e+00 83 70 69
2.937462e+00 4.262901e+00 3.744066e+00 177 171 158
-1.077658e+00 3.999869e+00 2.665132e+00 142 126 103
2.473859e+00 4.230827e+00 3.532826e+00 153 143 139
1.815256e+00 4.171055e+00 3.239654e+00 138 125 101
1.161760e+00 4.160762e+00 3.039153e+00 76 66 58
2.152686e+00 4.269135e+00 3.434467e+00 206 205 192
-1.185411e+00 4.093129e+00 2.751119e+00 144 134 124
2.999519e-01 4.117003e+00 2.765291e+00 183 184 171
-2.804576e+00 4.124634e+00 2.904555e+00 126 119 113
8.130417e-01 4.193490e+00 2.924771e+00 152 146 124
5.955408e-01 4.167555e+00 2.831884e+00 82 67 46
2.654551e+00 4.353871e+00 3.626839e+00 95 78 72
-8.217093e-02 4.140464e+00 2.718403e+00 60 49 44
9.489743e-01 4.230971e+00 2.985564e+00 93 80 76
8.359688e-01 4.242358e+00 2.963675e+00 149 146 131
-2.281322e+00 4.174399e+00 2.857124e+00 160 154 137
2.596016e+00 4.386503e+00 3.586372e+00 108 94 84
9.529691e-01 4.287111e+00 2.999837e+00 151 145 131
-3.365916e+00 4.236995e+00 2.967250e+00 79 69 64
-1.990360e+00 4.268358e+00 2.858300e+00 47 36 36
-3.362087e+00 4.287749e+00 2.991270e+00 174 171 155
1.031061e+00 4.365742e+00 3.068357e+00 114 104 94
2.599925e+00 4.505688e+00 3.624115e+00 99 81 67
4.875062e-01 4.348540e+00 2.907660e+00 172 162 150
-3.629740e+00 4.343409e+00 3.019873e+00 178 178 162
-3.629740e+00 4.343409e+00 3.019873e+00 178 178 162
1.834902e-01 4.330279e+00 2.800524e+00 123 116 98
-1.167773e+00 4.331110e+00 2.786335e+00 97 85 80
2.260310e+00 4.520293e+00 3.484834e+00 103 91 83
-3.356963e+00 4.386828e+00 3.006495e+00 183 180 163
-5.837797e-01 4.374376e+00 2.799255e+00 178 174 162
2.240434e+00 4.551753e+00 3.485120e+00 180 175 152
-8.159879e-01 4.379061e+00 2.787859e+00 175 167 156
-6.626464e-01 4.392185e+00 2.809755e+00 50 40 38
-6.613388e-01 4.393703e+00 2.807247e+00 50 40 38
-6.575256e-01 4.388646e+00 2.783671e+00 50 40 38
-3.486961e+00 4.434575e+00 3.020687e+00 94 80 69
-3.486961e+00 4.434575e+00 3.020687e+00 94 80 69
1.485335e+00 4.541686e+00 3.262407e+00 112 107 104
-2.120666e+00 4.452761e+00 2.899345e+00 172 170 157
-2.898933e+00 4.464381e+00 2.942795e+00 103 92 89
-2.947321e+00 4.500549e+00 2.960518e+00 168 157 138
1.402797e+00 4.589518e+00 3.230685e+00 186 183 175
-3.224327e+00 4.519424e+00 3.002139e+00 191 189 177
1.692464e-01 4.508235e+00 2.883587e+00 135 123 114
-1.983841e+00 4.525239e+00 2.917252e+00 183 180 171
-2.312951e+00 4.521571e+00 2.906241e+00 192 190 179
-1.752333e+00 4.547955e+00 2.900429e+00 57 44 42
2.460435e+00 4.754637e+00 3.634265e+00 137 133 132
-3.240401e+00 4.605698e+00 3.017327e+00 192 193 179
7.775704e-01 4.624102e+00 3.046183e+00 136 124 108
-3.288272e+00 4.612039e+00 3.014073e+00 118 114 117
2.420665e+00 4.774731e+00 3.618991e+00 145 135 139
1.968002e+00 4.724317e+00 3.426681e+00 87 74 58
1.968002e+00 4.724317e+00 3.426681e+00 87 74 58
-2.527682e+00 4.590162e+00 2.914408e+00 91 89 87
2.379890e+00 4.800189e+00 3.606757e+00 126 118 120
5.817466e-03 4.606415e+00 2.885214e+00 78 64 55
-9.867762e-01 4.602841e+00 2.846535e+00 164 148 132
1.147733e+00 4.708310e+00 3.216918e+00 90 81 73
1.848327e+00 4.752800e+00 3.385759e+00 188 181 163
-2.512484e+00 4.630464e+00 2.925773e+00 185 192 181
-1.259990e+00 4.649149e+00 2.895505e+00 174 165 148
-1.255601e+00 4.652759e+00 2.907763e+00 174 165 148
-8.965472e-01 4.633155e+00 2.845698e+00 152 137 117
4.576098e-01 4.688719e+00 2.978377e+00 67 53 46
1.092893e+00 4.762034e+00 3.213702e+00 201 195 179
4.965812e-01 4.709305e+00 3.000668e+00 106 94 78
-3.003487e+00 4.721090e+00 3.008933e+00 174 170 158
1.321694e+00 4.775772e+00 3.247052e+00 188 184 173
-2.282340e+00 4.706177e+00 2.915719e+00 125 116 107
1.681369e+00 4.822630e+00 3.336609e+00 171 166 140
1.807203e+00 4.857749e+00 3.413150e+00 104 89 70
1.811399e+00 4.853629e+00 3.401465e+00 104 89 70
1.647239e+00 4.838573e+00 3.331882e+00 181 176 147
-2.319249e+00 4.745045e+00 2.931468e+00 185 180 160
-1.358754e+00 4.762244e+00 2.925328e+00 145 139 125
2.040182e+00 4.913398e+00 3.511783e+00 103 89 79
1.614286e+00 4.874747e+00 3.330909e+00 76 64 65
4.433497e-01 4.839797e+00 3.053364e+00 85 72 62
-2.762067e+00 4.836868e+00 2.993604e+00 195 190 171
1.475624e+00 4.945621e+00 3.307263e+00 78 65 58
1.473400e+00 4.947313e+00 3.312769e+00 78 65 58
-2.378983e-01 4.843805e+00 2.915503e+00 148 132 108
4.950422e-01 4.906010e+00 3.086086e+00 89 75 65
-1.915207e+00 4.883984e+00 2.929156e+00 109 96 85
-1.906152e+00 4.870971e+00 2.917535e+00 109 96 85
5.025885e-01 4.956638e+00 3.108094e+00 78 70 62
-5.175662e-01 4.935436e+00 2.963566e+00 80 67 58
1.332551e+00 5.012706e+00 3.279935e+00 194 188 165
-2.260651e+00 4.951268e+00 2.966400e+00 181 174 156
1.241000e+00 5.012630e+00 3.267910e+00 157 144 125
-2.117922e+00 4.984648e+00 2.969277e+00 175 170 158
-1.698039e+00 4.992615e+00 2.932808e+00 178 165 148
-2.125867e+00 5.022795e+00 2.978447e+00 176 173 150
-2.429255e+00 5.035772e+00 2.992087e+00 127 117 121
1.012951e+00 5.112806e+00 3.223913e+00 74 59 53
-1.920781e+00 5.073791e+00 2.968123e+00 80 62 43
-1.697778e+00 5.154997e+00 2.948948e+00 91 77 68
1.102286e+00 5.237837e+00 3.296194e+00 81 75 61
-1.902915e-03 5.176547e+00 3.026979e+00 108 94 88
-2.200670e+00 5.205096e+00 2.990624e+00 225 229 232
-1.518728e+00 5.195340e+00 2.952126e+00 203 195 180
-1.429390e+00 5.237802e+00 2.989062e+00 177 168 154
-8.349999e-01 5.254178e+00 2.971331e+00 117 103 81
6.909704e-01 5.312225e+00 3.203103e+00 173 166 145
-1.154732e+00 5.290311e+00 2.986791e+00 168 158 138
4.250382e-01 5.329554e+00 3.135877e+00 183 172 158
-6.761261e-01 5.296497e+00 2.978524e+00 94 78 64
-1.192952e+00 5.345281e+00 3.010968e+00 100 82 70
3.383284e-01 5.396304e+00 3.135509e+00 161 147 120
4.974094e-01 5.439623e+00 3.182772e+00 81 70 61
3.165926e+00 -1.928868e+00 3.972375e+00 182 181 179
3.840501e+00 -1.911868e+00 4.390423e+00 147 146 141
4.480892e+00 -1.901562e+00 4.854891e+00 80 76 73
1.089131e+00 -1.894488e+00 3.011747e+00 114 113 111
-4.211370e+00 -2.973278e+00 4.170846e+00 141 134 118
-5.767080e+00 -3.222287e+00 4.402648e+00 158 155 147
7.864742e-01 -1.812080e+00 3.008475e+00 57 56 52
2.326805e-01 -1.874445e+00 2.943916e+00 153 151 146
9.874374e-01 -1.757675e+00 2.953885e+00 131 128 121
-6.880807e+00 -3.160429e+00 4.594921e+00 77 77 77
5.048982e+00 -1.528994e+00 5.164914e+00 160 162 159
-1.927017e+00 -2.210213e+00 3.649323e+00 53 53 55
-5.585854e-01 -1.660993e+00 2.830757e+00 77 70 62
-4.246227e+00 -2.371796e+00 3.730451e+00 41 36 32
-6.723741e-01 -1.617802e+00 2.779407e+00 139 132 116
-6.415097e-01 -1.639922e+00 2.851203e+00 166 164 158
-3.893967e+00 -2.307903e+00 3.702411e+00 148 148 150
2.602561e+00 -1.263557e+00 3.310362e+00 103 103 101
2.602561e+00 -1.263557e+00 3.310362e+00 103 103 101
1.492761e+00 -1.310454e+00 2.901830e+00 148 146 132
-2.617219e+00 -2.223462e+00 3.904682e+00 117 116 110
-2.493095e+00 -2.186108e+00 3.875577e+00 122 122 114
-3.484040e-01 -1.504409e+00 2.715335e+00 170 172 166
1.417774e+00 -1.285508e+00 2.906956e+00 110 107 103
1.479945e+00 -1.277884e+00 2.916984e+00 80 77 70
5.679593e-01 -1.335506e+00 2.702501e+00 97 93 83
-1.057126e+00 -1.658374e+00 2.981763e+00 176 173 159
-1.181329e+00 -1.695887e+00 3.091021e+00 141 135 114
1.327997e+00 -1.243694e+00 2.873736e+00 193 194 189
1.530197e+00 -1.223394e+00 2.930815e+00 121 121 113
1.530197e+00 -1.223394e+00 2.930815e+00 121 121 113
-7.041720e-01 -1.489445e+00 2.758009e+00 122 122 115
-2.009143e+00 -1.871684e+00 3.695280e+00 105 102 95
2.977221e+00 -1.019315e+00 3.512791e+00 107 99 97
-1.582681e+00 -1.673705e+00 3.417877e+00 90 83 76
-5.497931e+00 -2.221687e+00 3.951900e+00 165 165 172
2.904924e+00 -9.593477e-01 3.495469e+00 163 156 145
2.904924e+00 -9.593477e-01 3.495469e+00 163 156 145
-1.949276e+00 -1.704207e+00 3.579436e+00 140 133 122
-3.592261e+00 -1.863538e+00 3.497890e+00 156 155 153
2.930112e+00 -9.391591e-01 3.488888e+00 99 89 81
2.930112e+00 -9.391591e-01 3.488888e+00 99 89 81
-4.229445e-01 -1.153993e+00 2.569281e+00 189 183 170
3.165045e+00 -8.535397e-01 3.577577e+00 184 181 172
-8.049803e-01 -1.230780e+00 2.752878e+00 63 60 55
2.891372e+00 -8.277272e-01 3.434444e+00 168 162 146
1.413931e+00 -8.876276e-01 2.774908e+00 79 78 74
-5.460398e+00 -2.046573e+00 3.893915e+00 155 157 157
3.011111e+00 -8.078778e-01 3.489393e+00 184 179 150
2.874061e+00 -8.000999e-01 3.423542e+00 91 87 77
2.874061e+00 -8.000999e-01 3.423542e+00 91 87 77
-5.305363e-01 -1.080528e+00 2.620121e+00 105 98 82
3.464090e+00 -7.467480e-01 3.803422e+00 161 156 153
3.464090e+00 -7.467480e-01 3.803422e+00 161 156 153
-2.435399e+00 -1.555575e+00 3.603417e+00 184 183 172
3.562278e+00 -7.057476e-01 3.854363e+00 173 169 156
1.095845e+00 -8.033379e-01 2.733551e+00 188 188 174
1.570392e+00 -7.449178e-01 2.779696e+00 122 118 109
1.570392e+00 -7.449178e-01 2.779696e+00 122 118 109
1.871553e+00 -7.023886e-01 2.876231e+00 186 183 176
-7.278451e+00 -2.171435e+00 4.322943e+00 188 201 205
-4.943405e-01 -9.231070e-01 2.609621e+00 189 189 182
-6.809946e+00 -2.056322e+00 4.225753e+00 142 146 149
-5.792504e+00 -1.838076e+00 3.919911e+00 123 120 112
9.093144e-01 -7.005971e-01 2.669262e+00 178 177 172
-2.271200e-01 -8.579833e-01 2.693822e+00 183 179 167
-5.090807e+00 -1.632104e+00 3.685264e+00 172 168 148
4.396283e+00 -5.468210e-01 4.450320e+00 140 134 121
2.901215e-01 -6.685800e-01 2.639612e+00 195 194 190
-3.425486e+00 -1.253155e+00 3.205794e+00 123 113 98
4.023438e+00 -4.357500e-01 4.145971e+00 57 50 47
4.023438e+00 -4.357500e-01 4.145971e+00 57 50 47
3.865206e+00 -4.381944e-01 4.056114e+00 168 161 146
-4.751335e+00 -1.421326e+00 3.539407e+00 155 150 146
-5.852015e+00 -1.598267e+00 3.849549e+00 92 86 91
-3.060317e+00 -1.088843e+00 3.013445e+00 82 70 64
-3.192399e+00 -1.098234e+00 3.077326e+00 75 67 61
-3.417462e+00 -1.143708e+00 3.165257e+00 89 84 78
2.867718e+00 -3.441238e-01 3.299757e+00 173 168 160
6.024123e-01 -4.917328e-01 2.548104e+00 100 101 91
-3.170089e+00 -1.047132e+00 3.032694e+00 178 179 174
8.040702e-01 -4.442929e-01 2.583303e+00 100 93 83
-1.765354e-01 -5.916113e-01 2.685915e+00 191 190 186
-2.076213e+00 -9.026028e-01 3.002602e+00 189 190 184
-8.222932e-01 -6.453713e-01 2.660825e+00 102 100 92
-1.743460e+00 -8.093403e-01 2.872148e+00 188 187 185
-2.754950e+00 -9.647296e-01 3.042169e+00 60 56 45
-2.754950e+00 -9.647296e-01 3.042169e+00 60 56 45
-6.931600e+00 -1.634619e+00 4.129399e+00 110 111 115
2.572888e-01 -4.701930e-01 2.678946e+00 193 193 186
3.346285e+00 -2.311908e-01 3.615635e+00 80 77 73
9.267647e-01 -3.549367e-01 2.565687e+00 124 118 104
-5.667260e+00 -1.328085e+00 3.737355e+00 173 167 154
3.503483e+00 -2.063970e-01 3.676016e+00 72 68 63
-3.053591e+00 -8.500762e-01 2.953062e+00 174 175 161
-3.197970e+00 -8.762427e-01 2.997634e+00 173 170 164
-4.136088e+00 -1.033857e+00 3.284082e+00 87 78 66
3.818160e+00 -1.605322e-01 3.962776e+00 194 191 184
-5.528155e+00 -1.219786e+00 3.673803e+00 104 100 93
-5.555594e+00 -1.180931e+00 3.675742e+00 182 179 172
3.863022e+00 -9.622663e-02 3.977153e+00 75 70 66
-5.867942e+00 -1.194429e+00 3.772427e+00 76 71 64
4.283363e+00 -3.036267e-02 4.304581e+00 78 65 59
4.989663e+00 -7.267731e-03 4.823903e+00 66 62 58
1.914913e+00 -4.007129e-02 2.738888e+00 187 180 162
1.099722e+00 -9.298940e-02 2.508425e+00 194 191 188
9.192991e-01 -8.133169e-02 2.465800e+00 89 88 86
3.822510e+00 5.457643e-02 3.914757e+00 186 186 175
5.789544e-01 -6.704857e-02 2.476003e+00 155 151 140
4.983325e+00 1.126035e-01 4.817014e+00 189 186 175
-3.953263e+00 -6.210821e-01 3.120595e+00 144 139 135
-3.397292e+00 -5.438423e-01 2.977724e+00 104 97 83
9.739196e-01 4.784360e-02 2.440790e+00 177 172 171
2.027706e+00 1.331926e-01 2.744003e+00 188 181 162
-3.852115e+00 -5.654910e-01 3.094962e+00 81 68 53
-3.852115e+00 -5.654910e-01 3.094962e+00 81 68 53
-4.386894e+00 -5.609291e-01 3.264021e+00 142 138 127
-4.327542e+00 -5.182765e-01 3.206744e+00 71 66 61
-2.528777e+00 -2.219123e-01 2.633504e+00 180 177 172
-3.237735e+00 -3.169704e-01 2.881747e+00 68 58 58
-9.935418e-01 8.031833e-02 2.063572e+00 196 189 183
1.553506e+00 2.905035e-01 2.605057e+00 175 164 146
1.478943e+00 3.065205e-01 2.534489e+00 92 83 79
1.536298e+00 3.145933e-01 2.591615e+00 115 107 90
6.870055e-01 2.440345e-01 2.489988e+00 176 174 169
8.162440e-01 2.887025e-01 2.438837e+00 163 160 152
-1.822974e+00 -7.338335e-03 2.320779e+00 63 58 55
1.625462e+00 3.550833e-01 2.606762e+00 190 184 168
-1.643948e+00 5.415938e-02 2.219365e+00 88 80 72
1.575711e+00 3.880487e-01 2.509197e+00 138 130 117
-5.726471e-01 1.992416e-01 2.272214e+00 115 110 96
4.649014e+00 4.926990e-01 4.510990e+00 162 159 155
4.649014e+00 4.926990e-01 4.510990e+00 162 159 155
2.180975e+00 4.428275e-01 2.721051e+00 168 158 146
-6.277883e+00 -5.740496e-01 3.747234e+00 93 87 88
-1.133484e+00 2.013869e-01 2.027762e+00 96 88 79
2.167261e+00 4.638502e-01 2.720752e+00 74 67 56
-1.242716e+00 2.001127e-01 2.023252e+00 173 168 155
-1.294867e+00 2.060168e-01 2.052423e+00 86 76 65
-1.294867e+00 2.060168e-01 2.052423e+00 86 76 65
-3.597031e-02 3.600657e-01 2.393781e+00 98 93 84
-3.366840e+00 -2.735181e-02 2.832176e+00 184 178 166
-3.765539e+00 -7.917507e-02 2.969251e+00 78 65 57
4.099905e+00 6.306171e-01 4.074062e+00 128 120 112
3.977424e+00 6.274233e-01 3.989208e+00 91 80 75
-2.671206e+00 1.001913e-01 2.587260e+00 104 95 86
2.648744e+00 6.150721e-01 2.997952e+00 182 176 162
2.648744e+00 6.150721e-01 2.997952e+00 182 176 162
4.582981e-01 4.754352e-01 2.388722e+00 178 175 166
-4.316624e+00 -9.346641e-02 3.132023e+00 169 166 155
1.681669e+00 6.018374e-01 2.547928e+00 181 175 161
1.951807e+00 6.247189e-01 2.610800e+00 100 92 76
1.645713e+00 6.147861e-01 2.484906e+00 84 80 69
1.302568e+00 6.038069e-01 2.438194e+00 100 95 90
9.178487e-01 5.799756e-01 2.392014e+00 52 48 44
-7.311365e-01 4.507905e-01 2.049740e+00 185 180 164
-6.733862e-02 4.910591e-01 2.306433e+00 175 175 163
-1.340873e+00 3.946713e-01 2.029557e+00 95 79 74
2.092234e+00 6.822506e-01 2.646033e+00 82 74 68
1.881351e+00 6.716236e-01 2.580970e+00 87 79 72
4.017657e+00 7.593699e-01 4.015959e+00 68 63 59
4.017657e+00 7.593699e-01 4.015959e+00 68 63 59
-2.700794e+00 2.293454e-01 2.592279e+00 165 166 161
2.871935e-01 5.870987e-01 2.326352e+00 59 55 49
-1.102947e+00 4.938006e-01 2.008929e+00 185 173 152
-5.039006e+00 -1.888756e-02 3.328503e+00 84 76 68
-5.030719e+00 1.885172e-02 3.322303e+00 159 156 139
2.372796e+00 7.983421e-01 2.798529e+00 55 41 40
4.592403e+00 8.879472e-01 4.463465e+00 85 79 71
-6.001808e+00 -6.526651e-02 3.593941e+00 126 122 119
-1.923647e-01 6.459548e-01 2.231269e+00 100 96 93
-4.026457e-01 6.248224e-01 2.194456e+00 103 99 95
-4.026457e-01 6.248224e-01 2.194456e+00 103 99 95
2.266313e+00 8.548775e-01 2.715677e+00 162 151 128
-1.620535e-01 6.698205e-01 2.234150e+00 179 175 172
-4.960288e-01 6.456182e-01 2.153867e+00 180 179 184
2.283575e+00 8.752631e-01 2.718112e+00 98 87 72
1.980794e+00 8.699942e-01 2.522225e+00 184 183 186
-2.529877e+00 4.319493e-01 2.499247e+00 70 57 41
-4.016859e-01 6.879112e-01 2.165369e+00 78 73 67
-4.016859e-01 6.879112e-01 2.165369e+00 78 73 67
-5.309417e+00 1.118239e-01 3.392784e+00 109 102 96
3.946382e+00 9.585894e-01 3.961154e+00 99 96 89
1.404415e+00 8.581912e-01 2.403128e+00 195 185 174
-3.439824e+00 3.527844e-01 2.796150e+00 156 147 131
1.629062e+00 8.828374e-01 2.447889e+00 193 182 169
2.230311e+00 9.128577e-01 2.738794e+00 174 166 147
1.742026e+00 8.955894e-01 2.489313e+00 190 185 174
-4.069896e-01 7.217097e-01 2.165416e+00 180 176 173
-1.115778e-01 7.830972e-01 2.094385e+00 166 159 147
-1.492729e+00 6.455458e-01 2.053588e+00 177 165 149
1.381310e-01 7.940416e-01 2.341492e+00 128 124 115
-3.411537e+00 4.073009e-01 2.782250e+00 60 51 42
-3.411537e+00 4.073009e-01 2.782250e+00 60 51 42
6.676769e-01 8.498452e-01 2.394760e+00 191 188 181
2.706469e+00 9.839277e-01 3.028769e+00 92 81 77
-5.991561e+00 1.193899e-01 3.583337e+00 67 61 60
2.193272e+00 9.777394e-01 2.676416e+00 176 168 157
-4.053420e+00 3.862662e-01 2.988120e+00 169 167 145
-5.958698e+00 1.624971e-01 3.561306e+00 196 194 187
3.892818e+00 1.064988e+00 3.921158e+00 185 182 177
1.015478e+00 9.328982e-01 2.353791e+00 134 131 119
-9.856507e-01 7.910724e-01 2.044710e+00 171 160 140
3.831018e+00 1.097116e+00 3.864436e+00 193 186 179
-3.079336e+00 5.709966e-01 2.662089e+00 129 117 91
-9.407365e-01 8.348039e-01 2.034747e+00 60 51 40
-9.407365e-01 8.348039e-01 2.034747e+00 60 51 40
3.799245e+00 1.153851e+00 3.836376e+00 87 78 64
3.799245e+00 1.153851e+00 3.836376e+00 87 78 64
-9.643318e-01 8.552599e-01 2.050192e+00 168 157 140
2.098269e-01 9.619873e-01 2.346490e+00 173 171 160
-1.778175e-01 9.531161e-01 2.131805e+00 183 173 154
4.416849e-01 1.030345e+00 2.292976e+00 110 106 101
4.416849e-01 1.030345e+00 2.292976e+00 110 106 101
-2.321037e+00 7.593711e-01 2.390429e+00 179 174 160
4.328911e+00 1.241984e+00 4.244891e+00 63 55 53
-1.924751e-02 1.006119e+00 2.046464e+00 58 48 42
-2.282320e+00 7.969957e-01 2.387273e+00 174 171 159
-3.082061e+00 7.176592e-01 2.640276e+00 46 32 31
-1.699637e+00 8.868490e-01 2.199485e+00 170 163 145
-2.369844e+00 8.094527e-01 2.407306e+00 153 147 132
3.153789e+00 1.262531e+00 3.394968e+00 63 53 43
3.205181e+00 1.303135e+00 3.437294e+00 175 168 149
-3.070341e+00 8.049676e-01 2.643488e+00 98 97 93
-1.766191e+00 9.585924e-01 2.223425e+00 154 145 130
2.530164e+00 1.296212e+00 2.916625e+00 173 163 151
3.766255e+00 1.399891e+00 3.822811e+00 170 164 150
3.079924e+00 1.395408e+00 3.356542e+00 56 49 42
-2.382243e+00 9.732677e-01 2.423139e+00 170 163 144
1.964220e+00 1.359039e+00 2.587030e+00 144 136 118
6.919135e-01 1.279224e+00 2.243570e+00 67 51 48
3.658845e+00 1.481602e+00 3.771331e+00 182 175 165
-2.818440e+00 1.035422e+00 2.556365e+00 178 171 156
3.122326e+00 1.509477e+00 3.374439e+00 105 102 95
4.145708e+00 1.559966e+00 4.111794e+00 179 172 162
-1.459119e+00 1.185089e+00 2.079187e+00 136 125 98
3.081725e+00 1.522082e+00 3.354342e+00 198 195 187
4.237189e+00 1.621301e+00 4.172452e+00 195 186 180
-3.933386e+00 1.038039e+00 2.899543e+00 93 81 65
-4.455662e+00 1.008101e+00 3.055701e+00 174 168 151
3.634949e+00 1.650840e+00 3.746850e+00 115 106 97
1.850503e+00 1.559186e+00 2.514308e+00 59 42 34
-3.940278e+00 1.081823e+00 2.885748e+00 182 180 166
2.275812e+00 1.617431e+00 2.799852e+00 97 84 66
2.133760e+00 1.627629e+00 2.709726e+00 139 127 106
-1.738305e+00 1.331012e+00 2.201783e+00 117 106 88
2.232825e+00 1.642695e+00 2.782082e+00 97 83 69
-6.787719e+00 8.975833e-01 3.662430e+00 158 153 141
3.402843e+00 1.716680e+00 3.614950e+00 181 171 161
8.203767e-01 1.579130e+00 2.190064e+00 63 53 47
4.549200e+00 1.798458e+00 4.396631e+00 89 80 75
2.277753e+00 1.676756e+00 2.827243e+00 157 146 124
2.231317e+00 1.678462e+00 2.805579e+00 157 150 133
1.739788e+00 1.661092e+00 2.518631e+00 69 57 41
8.112116e-01 1.615898e+00 2.204037e+00 43 39 35
-1.565387e+00 1.421972e+00 2.179128e+00 137 122 99
-1.565387e+00 1.421972e+00 2.179128e+00 137 122 99
-6.669599e+00 1.000388e+00 3.604950e+00 70 55 56
-1.682452e-01 1.564213e+00 2.074522e+00 35 31 35
2.155049e+00 1.740226e+00 2.757159e+00 75 65 61
1.620186e+00 1.702928e+00 2.432453e+00 164 155 139
-2.860901e+00 1.358056e+00 2.579736e+00 87 77 64
2.210007e+00 1.746483e+00 2.826219e+00 61 53 50
-2.634686e+00 1.382101e+00 2.506827e+00 145 139 121
-2.634686e+00 1.382101e+00 2.506827e+00 145 139 121
-6.819231e+00 1.036293e+00 3.648843e+00 179 176 160
4.315117e-01 1.654436e+00 2.127688e+00 177 176 171
2.399043e+00 1.788047e+00 2.932198e+00 79 69 67
2.349731e+00 1.813800e+00 2.904681e+00 60 51 43
-5.767332e+00 1.189599e+00 3.408348e+00 169 166 160
4.547647e+00 1.945532e+00 4.397358e+00 83 74 67
-1.807777e+00 1.519488e+00 2.246609e+00 151 139 117
3.916498e+00 1.917977e+00 3.978038e+00 166 159 153
-2.795753e+00 1.463965e+00 2.562187e+00 165 160 152
-1.820493e+00 1.549464e+00 2.261536e+00 65 56 41
1.716601e-01 1.707217e+00 1.982350e+00 167 161 142
1.762856e+00 1.835682e+00 2.625210e+00 183 179 166
-1.742353e+00 1.575223e+00 2.246676e+00 53 46 27
