ply
format ascii 1.0
element face 0
property list uchar int vertex_indices
element vertex 940
property float x
property float y
property float z
property uchar diffuse_red
property uchar diffuse_green
property uchar diffuse_blue
end_header
-3.406012e+00 -5.290523e-01 1.810927e+00 147 143 133
-1.690499e+00 4.976638e-01 1.303068e+00 87 78 69
-1.111865e+01 6.776030e+00 2.251040e+00 149 148 144
-7.195260e+00 8.433564e+00 3.253250e+00 71 69 69
-7.473897e+00 8.856619e+00 2.624057e+00 144 139 131
-7.445250e+00 8.614863e+00 3.215972e+00 144 139 131
-1.257825e+01 9.073139e+00 2.562686e+00 65 64 67
-1.179933e+01 1.051265e+01 2.636081e+00 121 118 119
-1.486263e+01 1.327897e+01 2.077539e+00 92 90 96
-2.979330e+00 1.545502e+01 2.417457e+00 163 164 167
4.255324e+00 1.709163e+01 3.185794e+00 150 145 139
-9.469395e-01 1.796587e+01 3.536489e+00 156 156 151
1.447735e+00 1.862516e+01 3.216611e+00 61 61 60
-9.865119e+00 6.416350e+00 2.476145e+00 109 107 112
-7.499126e+00 7.071185e+00 2.779135e+00 55 56 58
-9.561291e+00 8.667539e+00 2.863210e+00 66 64 64
-9.552349e+00 8.612689e+00 2.971991e+00 66 64 64
-8.280003e+00 1.049105e+01 3.204685e+00 77 82 87
5.343740e+00 1.709400e+01 4.923547e+00 109 109 110
5.343740e+00 1.709400e+01 4.923547e+00 109 109 110
-2.680487e+00 1.792187e+01 3.218748e+00 134 129 133
3.615657e+00 1.887513e+01 3.535730e+00 149 145 135
-1.328057e+01 1.839233e+01 3.011167e+00 164 163 158
-1.052185e+01 1.914906e+01 3.045931e+00 93 92 87
3.024145e+00 3.378268e+00 2.542715e+00 75 70 64
4.124711e+00 4.217675e+00 4.026883e+00 110 104 98
-1.031070e+00 4.775476e+00 3.163277e+00 92 86 71
4.679238e+00 7.789901e+00 4.934992e+00 57 58 60
1.866510e+00 8.958710e+00 4.684087e+00 170 166 165
-6.281069e+00 1.046064e+01 4.016568e+00 178 178 176
-1.320466e+01 1.276759e+01 1.231770e+00 144 147 143
-1.478877e+01 1.356010e+01 1.844695e+00 176 171 171
7.838693e+00 1.837446e+01 5.532683e+00 118 115 109
8.238063e+00 1.906894e+01 5.109896e+00 124 124 119
-1.307360e+01 1.860943e+01 3.562807e+00 177 176 172
9.847092e+00 2.099909e+01 5.932866e+00 126 121 115
-1.070578e+01 1.924336e+01 3.897889e+00 158 158 157
-4.302659e+00 8.053030e-01 2.477736e+00 91 90 89
5.837831e+00 7.405636e+00 5.303364e+00 163 163 174
-4.673432e+00 1.050803e+01 4.103569e+00 175 175 175
-1.071101e+01 1.125800e+01 3.047528e+00 184 185 187
-6.579218e+00 1.408487e+01 4.752340e+00 172 173 177
2.800391e+00 1.966480e+01 3.506345e+00 80 77 74
4.363204e+00 -9.649808e-01 3.277277e+00 137 134 141
3.680020e+00 -1.146381e+00 2.511973e+00 152 139 156
4.302135e+00 -9.318229e-01 3.236614e+00 91 80 85
3.832811e+00 -9.436947e-01 2.720577e+00 159 149 165
3.725343e+00 -1.179973e+00 2.297755e+00 43 32 33
4.112511e+00 -9.789720e-01 2.978949e+00 151 147 166
4.369904e+00 -9.788019e-01 3.281102e+00 142 131 141
4.544257e+00 -8.917020e-01 3.508442e+00 136 134 145
4.255949e+00 -1.111279e+00 2.917794e+00 27 17 16
3.515533e+00 -9.845951e-01 2.560927e+00 112 101 117
3.868573e+00 -1.163839e+00 2.558619e+00 154 139 144
3.299258e+00 -1.052920e+00 2.243428e+00 165 162 176
4.248742e+00 -1.106647e+00 2.946076e+00 147 132 137
3.545136e+00 -9.969367e-01 2.568802e+00 114 106 118
4.016128e+00 -9.281837e-01 2.972387e+00 167 162 166
4.081776e+00 -8.910342e-01 3.011574e+00 160 151 173
4.060804e+00 -1.510068e+00 2.274993e+00 29 12 20
3.999729e+00 -1.465769e+00 2.294684e+00 146 133 135
3.915338e+00 -1.419069e+00 2.284019e+00 64 51 60
3.915338e+00 -1.419069e+00 2.284019e+00 64 51 60
3.685769e+00 -1.183904e+00 2.196325e+00 89 74 92
3.685769e+00 -1.183904e+00 2.196325e+00 89 74 92
3.592632e+00 -1.042469e+00 2.544447e+00 139 129 126
4.271636e+00 -1.137908e+00 2.971357e+00 110 90 95
3.636342e+00 -1.092676e+00 2.493255e+00 155 144 152
3.544032e+00 -1.032284e+00 2.516900e+00 143 129 127
3.738028e+00 -1.022689e+00 2.612913e+00 69 64 71
4.125025e+00 -1.086269e+00 3.029806e+00 127 119 116
3.564272e+00 -1.122276e+00 2.421292e+00 87 74 73
3.293679e+00 -1.013825e+00 2.285357e+00 104 90 113
6.247606e+00 -2.335976e+00 3.478157e+00 173 168 164
6.247606e+00 -2.335976e+00 3.478157e+00 173 168 164
2.432874e+00 -8.375253e-01 1.802432e+00 188 185 180
-3.489239e+00 -3.036562e-01 1.376106e+00 197 195 187
6.669476e+00 -2.385446e+00 3.858328e+00 163 161 152
-1.995052e+00 -2.461162e+00 1.072288e+00 180 176 164
-3.111678e+00 -1.989357e+00 1.495559e+00 186 183 187
-3.505520e+00 -7.923746e-01 1.677331e+00 128 110 102
6.735747e+00 -2.341086e+00 3.949407e+00 174 172 164
6.186418e+00 -2.152991e+00 3.642099e+00 188 183 177
2.179908e+00 -8.174437e-01 1.741210e+00 58 53 50
-2.243781e+00 -2.075926e+00 8.127014e-01 138 131 114
3.584118e+00 -1.363633e+00 3.092844e+00 31 21 19
-3.044297e+00 4.584798e-01 1.601183e+00 175 163 137
-1.841562e+00 -4.005752e-01 1.309437e+00 182 172 145
4.427037e+00 -5.152309e-01 3.738600e+00 169 156 131
-2.480741e+00 -4.095235e-01 1.398371e+00 89 73 47
1.622274e+00 -1.371482e+00 1.668766e+00 45 36 26
4.777479e+00 2.170273e-01 4.179765e+00 75 57 35
8.818867e-01 -1.974214e+00 1.551386e+00 35 28 20
4.507427e+00 -3.154141e-01 3.857622e+00 57 39 16
4.507427e+00 -3.154141e-01 3.857622e+00 57 39 16
-2.838340e+00 -3.105973e-01 1.459707e+00 169 148 117
-2.128470e+00 9.108069e-01 1.328940e+00 81 64 39
3.664266e+00 -2.502836e+00 2.243755e+00 143 131 111
-1.375315e+01 9.157819e+00 2.210582e+00 45 42 34
-4.984053e+00 2.762498e+01 6.650328e+00 145 137 126
-1.436993e+01 1.419123e+01 2.098309e+00 103 92 76
-1.474580e+01 2.085443e+01 4.057429e+00 148 145 142
-1.283774e+01 7.810157e+00 1.664554e+00 59 57 45
-1.296688e+01 2.229011e+01 3.887499e+00 33 36 39
-1.415364e+01 2.259091e+01 3.358307e+00 140 129 110
-1.397409e+01 8.988400e+00 1.997779e+00 36 33 26
-1.487750e+01 1.478627e+01 1.990102e+00 150 145 123
-1.040297e+01 2.585043e+01 4.521357e+00 35 36 28
-3.381297e+00 -1.677963e+00 1.298602e+00 109 97 79
-3.917110e+00 -1.067035e+00 1.335625e+00 57 49 36
-1.422124e+01 1.659358e+01 2.712497e+00 90 89 69
1.159723e+01 2.642741e+01 7.194845e+00 131 128 121
-8.307536e+00 2.648679e+01 6.187590e+00 110 110 101
-7.761288e+00 2.646565e+01 6.867816e+00 174 172 159
1.591311e+00 -1.347287e+00 1.969179e+00 91 87 75
4.825631e+00 -5.460019e-01 2.727171e+00 70 58 41
-7.379927e+00 9.868068e-01 3.745315e-01 53 44 37
-7.814508e+00 1.645308e+00 4.109175e-01 52 46 34
-1.150852e+01 4.704245e+00 6.562022e-01 156 143 124
1.470747e+01 1.674733e+01 6.843918e+00 72 68 44
-1.445284e+01 1.514802e+01 3.985786e+00 144 136 120
-1.454067e+01 1.666863e+01 2.843656e+00 84 76 64
-1.013354e+01 2.543607e+01 4.917848e+00 81 82 75
-1.015677e+01 2.571098e+01 4.584388e+00 81 82 75
2.421054e+00 2.897477e+01 7.691698e+00 73 63 54
-4.299071e+00 2.779682e+01 7.445925e+00 64 58 47
-4.778255e+00 2.811605e+01 6.973063e+00 66 59 52
-2.556694e+00 -4.315153e-01 1.317457e+00 81 68 50
-2.908866e+00 -1.084310e-01 1.471652e+00 54 50 32
-2.908866e+00 -1.084310e-01 1.471652e+00 54 50 32
-8.295823e+00 2.261894e+00 4.910838e-01 50 43 36
-1.127025e+01 3.150374e+00 6.701854e-01 95 89 71
-9.680867e+00 3.584947e+00 8.964793e-01 116 110 94
1.306939e+01 7.753824e+00 7.054560e+00 169 161 142
-1.335819e+01 8.066427e+00 1.818936e+00 58 51 38
-1.380793e+01 8.594850e+00 1.866578e+00 61 56 53
-9.708688e+00 2.533470e+01 5.101137e+00 33 35 44
-8.426935e+00 2.656243e+01 5.828217e+00 132 128 114
-9.156693e+00 2.643206e+01 6.022631e+00 151 145 122
-2.440769e+00 -1.799915e+00 1.047155e+00 106 97 82
3.689842e+00 -1.084036e+00 2.178870e+00 50 36 33
-3.990039e+00 -6.801393e-01 1.270552e+00 42 32 25
-3.990039e+00 -6.801393e-01 1.270552e+00 42 32 25
-2.625750e+00 -2.611169e-01 1.354947e+00 125 110 87
5.007075e+00 1.493281e-01 3.290821e+00 116 103 82
-5.111184e+00 3.024734e-01 1.579221e+00 135 131 123
8.184878e+00 1.385371e+00 4.466085e+00 50 41 22
-7.300401e+00 1.250392e+00 5.996132e-01 52 42 30
-8.333265e+00 2.681674e+00 7.312694e-01 127 119 98
-9.819760e+00 3.668580e+00 8.536607e-01 129 123 107
-1.218313e+01 6.645446e+00 1.578053e+00 144 143 129
1.338003e+01 2.099775e+01 7.330616e+00 65 57 46
1.338003e+01 2.099775e+01 7.330616e+00 65 57 46
-1.345367e+01 2.050539e+01 4.257623e+00 148 144 134
-8.548383e+00 2.563098e+01 6.034104e+00 146 141 129
-8.611085e+00 2.698493e+01 6.141933e+00 91 93 78
1.903670e+00 -9.669952e-01 1.567605e+00 25 21 14
6.214363e+00 -2.596496e-01 1.134267e+00 131 122 92
-2.936932e+00 -8.056592e-01 1.232597e+00 68 56 38
3.151854e+00 -4.287451e-01 2.034898e+00 128 122 96
5.296783e+00 -2.682026e-01 3.479459e+00 151 143 122
-5.226400e+00 2.788380e-01 5.237804e-02 74 64 63
-6.974155e+00 7.753891e-01 5.858210e-01 120 110 101
-1.241831e+01 6.839451e+00 1.662969e+00 166 162 144
-1.474060e+01 1.416583e+01 2.036899e+00 78 72 48
-1.424882e+01 1.440467e+01 1.981855e+00 72 72 61
-1.361025e+01 1.812971e+01 3.441105e+00 158 153 124
-9.624686e+00 2.589036e+01 5.981909e+00 153 150 135
-1.553508e+01 -1.985235e+00 -2.066718e-01 122 129 145
-1.123086e+01 -1.031481e+00 6.830793e-01 167 166 172
-1.388629e+01 -1.053720e+00 6.483521e-04 127 130 139
-8.372569e+00 1.166716e-01 7.006596e-01 201 204 211
-9.769144e+00 6.649068e+00 -1.640213e+00 209 215 227
-1.117659e+01 7.687049e+00 -2.794427e+00 176 191 204
-9.548655e+00 4.003590e+00 -5.808664e-01 171 174 179
9.687386e+00 -1.173889e+00 3.079887e-01 190 189 194
-1.195701e+01 -1.495018e+00 -7.716786e-02 77 71 45
3.976087e+00 9.573132e+00 3.069273e+00 89 90 76
-1.058160e+01 2.097497e+01 6.300258e+00 198 186 171
-4.795357e+00 1.566352e+01 4.305950e+00 149 133 109
4.819775e+00 1.043309e+01 1.233152e+00 192 175 153
-8.790845e+00 6.429769e-01 6.944593e-01 161 143 117
-7.141372e+00 2.057370e+01 5.052795e+00 202 184 160
-7.778813e+00 2.570252e+01 7.009273e+00 171 158 142
-1.485695e+01 3.003725e-01 -2.758867e-01 125 117 105
-4.733711e+00 1.967881e+01 5.169359e+00 106 91 71
-7.649894e+00 2.503914e+01 6.710973e+00 195 182 164
-9.213080e+00 1.779486e+01 5.228821e+00 120 105 83
-2.297405e+00 2.773526e+01 7.361070e+00 167 162 145
-1.314395e+01 1.413924e+00 2.003093e-01 114 87 62
3.659922e+00 1.101413e+01 1.927170e+00 65 54 29
2.201509e+00 1.607243e+01 4.449053e+00 62 61 48
-1.016598e+01 1.825449e+01 5.258860e+00 117 104 85
-1.266268e+01 1.822784e+01 5.507138e+00 200 189 170
-3.194307e+00 1.932213e+01 4.827829e+00 113 97 73
-4.926066e+00 2.216161e+01 6.036815e+00 157 142 123
-9.581168e+00 2.543891e+01 7.172194e+00 120 106 83
-3.146100e+00 2.710696e+01 7.532782e+00 48 18 11
-4.862943e+00 2.740120e+01 7.588309e+00 176 156 137
-3.807743e+00 2.788204e+01 7.497092e+00 104 91 75
-2.737577e+00 2.804919e+01 7.663468e+00 109 98 76
-1.232901e+01 2.114799e+00 3.995689e-01 110 94 74
-1.467446e+01 6.583645e+00 1.425030e+00 110 93 77
-4.995941e+00 1.737559e+01 4.983558e+00 144 125 101
-9.616291e+00 1.825052e+01 5.301734e+00 178 159 136
-2.677457e+00 1.975553e+01 4.936191e+00 107 92 71
-4.130975e+00 2.062592e+01 5.640773e+00 101 95 79
4.642698e-01 2.154749e+01 5.493004e+00 178 162 146
-1.122846e+00 2.181685e+01 5.627626e+00 167 153 135
-1.003043e+01 2.534119e+01 7.316050e+00 124 110 96
-4.792123e+00 2.697511e+01 7.412148e+00 184 171 150
-3.855668e+00 2.801634e+01 7.698920e+00 169 154 137
-9.451933e+00 -2.320144e+00 -1.416589e-01 98 77 56
-8.695218e+00 -1.691586e+00 1.431542e-01 98 75 56
-7.667071e+00 7.804159e-01 5.311270e-01 93 72 46
-1.262905e+01 1.472930e+00 3.652387e-01 140 122 101
-1.088397e+01 3.498303e+00 7.188454e-01 105 88 60
-1.000871e+01 1.345388e+01 3.300552e+00 187 169 145
-9.814887e+00 1.890807e+01 5.166383e+00 161 142 128
-4.462913e+00 2.027009e+01 5.475556e+00 160 148 128
-6.012012e+00 2.135977e+01 5.472255e+00 112 100 84
-8.452883e+00 2.129797e+01 6.068034e+00 150 132 117
-7.542950e+00 2.568256e+01 7.011762e+00 177 158 136
-2.572848e+00 2.770435e+01 7.314188e+00 81 56 39
-1.755501e+00 2.773367e+01 7.468741e+00 172 155 134
3.241757e+00 2.723787e+01 7.127788e+00 119 119 119
-3.863966e+00 7.659214e+00 2.819120e+00 50 50 53
8.759779e+00 1.050821e+01 5.838723e+00 89 87 90
-4.717110e-01 2.114859e+01 5.335382e+00 148 147 144
-7.697834e+00 7.783720e+00 2.539949e+00 138 136 121
-8.703075e+00 8.264931e+00 2.332019e+00 102 99 94
-7.785104e+00 9.553437e+00 2.619899e+00 63 61 64
-8.445358e+00 1.797170e+01 3.700471e+00 111 106 104
-1.437414e+01 1.905003e+01 3.323862e+00 126 125 127
-1.437414e+01 1.905003e+01 3.323862e+00 126 125 127
-3.368074e+00 7.706510e+00 2.630035e+00 58 57 53
4.808962e+00 9.300030e+00 4.866019e+00 164 160 156
-9.801204e+00 -1.798800e+00 -2.840459e-01 124 120 108
-9.801204e+00 -1.798800e+00 -2.840459e-01 124 120 108
-2.555078e+00 1.455285e+01 2.156423e+00 176 175 174
8.349283e+00 1.728304e+01 4.803272e+00 115 111 108
7.371654e-01 1.804113e+01 3.413591e+00 166 168 166
7.371654e-01 1.804113e+01 3.413591e+00 166 168 166
-7.338711e+00 1.690763e+01 3.582937e+00 159 160 155
-1.298382e+01 1.843885e+01 3.336960e+00 165 163 158
-2.023346e-01 2.811344e+01 7.079492e+00 116 116 118
6.227879e-01 2.815870e+01 7.235102e+00 163 163 163
-3.236058e-01 7.596924e+00 3.385496e+00 55 56 50
-8.703707e+00 8.824865e+00 2.274623e+00 71 66 63
-8.703707e+00 8.824865e+00 2.274623e+00 71 66 63
-5.247911e+00 8.918322e+00 3.009607e+00 155 151 148
-8.041748e+00 8.779353e+00 2.688400e+00 122 118 109
4.838265e+00 9.834299e+00 4.730826e+00 142 138 137
-1.425115e+01 1.733849e+01 3.020445e+00 169 169 167
-7.107767e+00 1.972711e+01 4.309293e+00 124 118 118
-2.438160e-01 2.148384e+01 5.496729e+00 159 158 158
-2.372607e+00 3.051421e+01 -2.844452e+00 120 119 120
-5.744306e+00 2.239152e+01 6.200574e+00 125 125 125
-2.250910e+00 2.726944e+01 5.729942e+00 90 93 103
-2.250910e+00 2.726944e+01 5.729942e+00 90 93 103
-4.299543e-01 2.823744e+01 7.120973e+00 93 92 98
3.040845e+00 9.142280e+00 4.198158e+00 124 119 116
2.398235e+00 1.750251e+01 3.405331e+00 162 157 152
1.074220e+00 1.867682e+01 3.545649e+00 69 72 79
4.072388e-01 -4.522081e+00 2.300032e+00 184 184 176
4.072388e-01 -4.522081e+00 2.300032e+00 184 184 176
1.247241e-01 -3.671191e+00 1.721374e+00 59 54 59
-8.505668e-01 -4.098068e+00 1.214577e+00 52 50 46
4.390841e-03 -4.142468e+00 2.078772e+00 64 61 62
-2.319800e+00 -3.086935e+00 1.168315e+00 102 96 87
-1.009391e+00 -5.662558e+00 1.173123e+00 165 166 177
7.305430e-01 -3.804762e+00 2.438897e+00 70 63 63
-6.673593e-01 -5.768520e+00 1.459505e+00 60 62 76
-6.673593e-01 -5.768520e+00 1.459505e+00 60 62 76
-7.424601e-01 -5.694399e+00 1.398677e+00 129 137 146
-6.123511e-01 -5.694968e+00 1.552093e+00 129 132 144
-1.140426e+00 -5.631438e+00 1.044749e+00 163 163 172
-9.478083e-01 -5.454913e+00 1.267807e+00 56 55 64
-9.068788e-01 -5.150978e+00 1.020028e+00 158 145 139
5.203610e-01 -3.852094e+00 2.287676e+00 168 164 160
4.557992e-01 -3.762906e+00 2.214036e+00 87 74 68
-8.851368e-01 -5.693080e+00 1.305551e+00 132 133 140
-2.312425e-01 -5.726104e+00 1.850047e+00 123 124 134
7.563301e-01 -4.156813e+00 2.450125e+00 53 43 52
-9.291670e-01 -4.000774e+00 9.687563e-01 178 171 164
3.165199e-01 -3.801572e+00 2.154593e+00 95 82 78
3.165199e-01 -3.801572e+00 2.154593e+00 95 82 78
6.819694e-01 -3.757079e+00 2.292688e+00 96 83 80
5.671444e+00 -3.582720e-01 6.258379e+00 128 120 121
-5.465466e-01 -5.623294e+00 1.602476e+00 63 62 80
-5.465466e-01 -5.623294e+00 1.602476e+00 63 62 80
2.607353e-01 -4.556777e+00 2.189988e+00 171 168 161
-9.886215e-01 -4.211206e+00 1.085655e+00 183 175 163
6.200081e-01 -4.307630e+00 2.426590e+00 172 172 169
6.964741e-01 -3.853113e+00 2.308126e+00 165 165 161
5.794942e-01 -3.847388e+00 2.310133e+00 179 172 163
4.396487e-01 -3.854503e+00 2.316357e+00 179 174 166
6.895696e-01 -3.834425e+00 2.444875e+00 66 55 56
-6.387700e-01 -5.646937e+00 1.536107e+00 132 135 139
-1.273423e+00 -5.195985e+00 8.651710e-01 163 161 158
-8.255557e-01 -5.012346e+00 1.074309e+00 60 57 63
-1.010459e+00 -4.997721e+00 1.032315e+00 55 53 75
-1.049286e+00 -4.770538e+00 8.565458e-01 171 161 141
-1.049286e+00 -4.770538e+00 8.565458e-01 171 161 141
-1.272860e+00 -4.622017e+00 8.823274e-01 184 186 182
-1.052810e+00 -4.433200e+00 1.018235e+00 125 107 100
-1.052810e+00 -4.433200e+00 1.018235e+00 125 107 100
3.923188e-01 -4.520798e+00 2.285489e+00 188 188 181
4.079883e-01 -4.342943e+00 2.356289e+00 126 115 112
6.678195e-01 -4.165018e+00 2.443097e+00 184 185 172
6.238138e-01 -3.996229e+00 2.374174e+00 189 186 177
3.805256e-01 -3.851991e+00 2.173195e+00 162 152 141
7.116224e-01 -3.692746e+00 2.399027e+00 171 169 164
-6.365082e-01 -5.830374e+00 1.507999e+00 144 143 146
-7.867259e-01 -5.784885e+00 1.413580e+00 85 80 96
-8.397102e-01 -5.587153e+00 1.297691e+00 115 117 117
-5.825296e-01 -5.612638e+00 1.541282e+00 68 64 80
-1.232986e+00 -4.994450e+00 7.178934e-01 65 56 80
-1.315755e+00 -4.759341e+00 8.838064e-01 94 90 103
-1.048241e+00 -4.730981e+00 9.366324e-01 111 91 82
-8.884777e-01 -4.648510e+00 1.068163e+00 179 173 149
4.233979e-01 -4.647504e+00 2.291153e+00 200 199 204
3.774741e-01 -4.523457e+00 2.220451e+00 147 138 140
-9.687584e-01 -4.382462e+00 1.098635e+00 111 92 84
-9.687584e-01 -4.382462e+00 1.098635e+00 111 92 84
6.457477e-01 -4.377445e+00 2.484324e+00 77 61 62
1.088336e-01 -4.209322e+00 2.047449e+00 73 63 68
5.480893e-01 -4.210481e+00 2.377020e+00 118 109 109
5.810124e-01 -3.953934e+00 2.304138e+00 181 182 183
5.864538e-01 -3.913733e+00 2.336361e+00 117 111 117
6.224584e-01 -3.743419e+00 2.317914e+00 110 101 95
6.480863e-01 -3.698720e+00 2.315986e+00 181 180 175
6.567886e+00 -2.703620e+00 3.415448e+00 121 106 107
-8.198851e-01 -5.821573e+00 1.384926e+00 143 147 149
-7.234723e-01 -5.824777e+00 1.428698e+00 139 141 133
-2.587566e-01 -5.836079e+00 1.792764e+00 147 148 141
-1.267307e+00 -5.732320e+00 1.138381e+00 172 173 187
-8.106341e-01 -5.738502e+00 1.379870e+00 140 144 158
-8.548087e-01 -5.627485e+00 1.297479e+00 66 64 76
-7.839365e-01 -5.489993e+00 1.360480e+00 103 101 112
-1.322387e+00 -5.378365e+00 9.124696e-01 154 154 157
-6.879999e-01 -5.390077e+00 1.344962e+00 101 103 102
-7.383536e-01 -5.385689e+00 1.359535e+00 59 58 65
-1.311306e+00 -5.250750e+00 8.975031e-01 159 157 165
-4.640322e-01 -5.235841e+00 1.593041e+00 53 45 59
-5.748651e-01 -5.218685e+00 1.476139e+00 96 95 89
-9.503756e-01 -4.962937e+00 1.153357e+00 175 179 169
-1.119830e+00 -4.915495e+00 1.053393e+00 105 95 106
3.042431e-01 -4.806762e+00 1.994428e+00 107 99 105
2.006297e-01 -4.671351e+00 2.197078e+00 174 165 156
-1.290284e+00 -4.283006e+00 7.916797e-01 173 166 154
4.640520e-01 -4.261657e+00 2.331792e+00 168 167 163
3.010576e-01 -4.207454e+00 2.204298e+00 122 113 112
4.442526e-01 -4.145527e+00 2.224938e+00 190 183 178
4.442526e-01 -4.145527e+00 2.224938e+00 190 183 178
-9.794737e-01 -3.967474e+00 1.016387e+00 187 184 177
5.198336e-01 -4.089436e+00 2.383349e+00 182 172 168
-9.484593e-01 -3.936191e+00 1.055484e+00 181 173 165
7.162394e-01 -4.001432e+00 2.409500e+00 179 181 167
4.928582e-01 -3.903434e+00 2.266039e+00 149 137 139
3.527557e-01 -3.744553e+00 2.169898e+00 145 142 135
6.203559e-01 -3.658441e+00 2.272111e+00 194 193 189
5.839617e-01 -3.634615e+00 2.295587e+00 52 44 52
5.419655e+00 -2.133097e+00 2.979790e+00 89 74 72
-1.690651e-01 -1.152253e+00 1.283293e+00 21 17 16
1.814105e+00 2.629373e+00 2.094196e+00 152 141 115
-2.502935e+00 -1.665736e+00 9.594742e-01 155 152 131
9.752887e-01 -3.017980e+00 1.461124e+00 44 35 29
-1.820581e+01 2.446067e+01 5.232646e+00 58 59 50
-9.803384e+00 -3.502582e+00 7.037706e-01 21 20 21
-9.684759e+00 -1.343354e+00 -4.092659e-02 55 47 42
1.101178e+01 -4.470259e-01 8.074789e-01 179 180 184
-3.412233e-01 -3.445137e+00 1.080542e+00 66 65 72
-1.181670e+01 7.698025e+00 -3.220108e+00 191 203 219
-1.252826e+01 7.980690e+00 -3.591355e+00 24 28 54
-1.623582e+01 -1.935444e+00 -5.954824e-01 102 111 126
3.571063e+00 -1.929681e-01 1.646625e+00 114 115 119
-1.573821e+01 6.939634e-01 -1.381301e+00 71 77 93
-9.163139e+00 -1.916698e+00 3.367926e-01 119 122 127
3.533988e+00 -7.454591e-02 1.524197e+00 182 183 187
-1.408218e+01 7.746375e+00 -4.537830e+00 176 187 205
-1.408218e+01 7.746375e+00 -4.537830e+00 176 187 205
-1.756826e+00 -2.694929e-01 1.078685e+00 192 192 192
-1.161628e+01 7.316425e+00 -3.665576e-02 189 201 217
-4.525930e+00 7.068015e+00 2.159502e+00 81 70 81
-9.594581e+00 9.562982e+00 2.013908e+00 84 70 57
-7.717667e-01 1.054299e+01 2.764646e+00 35 35 31
-8.976136e-01 1.129020e+01 3.169224e+00 177 178 172
-2.136202e+00 -2.167341e+00 2.999905e-01 112 102 88
-2.696602e+00 7.144527e+00 1.640575e+00 92 82 73
-3.084151e+00 9.441444e+00 2.200137e+00 168 160 144
1.905641e+00 9.825702e+00 2.704930e+00 163 159 146
-7.494890e+00 -2.926899e+00 -2.802446e-01 131 123 117
-1.067969e+01 6.860660e+00 1.510754e+00 175 168 169
-6.133550e+00 7.152582e+00 2.154668e+00 175 171 166
1.097195e+00 1.044472e+01 2.886862e+00 138 115 100
-5.635355e+00 -1.625484e+00 1.275950e+00 160 149 136
1.589035e+00 -2.718416e+00 1.944907e+01 149 155 151
-3.683546e+00 1.775535e+00 1.485031e-01 86 84 70
4.727007e+00 5.566092e+00 8.570232e-01 170 163 160
-5.071721e+00 7.576135e+00 2.291684e+00 69 56 48
2.855827e+00 8.416636e+00 2.263527e+00 52 41 35
4.874472e-01 1.027980e+01 2.863854e+00 139 121 108
-8.615247e+00 9.686531e+00 2.269105e+00 120 108 93
-4.886039e+00 1.146655e+01 2.845107e+00 171 163 153
-1.204065e+00 -1.951840e+00 5.071312e-01 129 119 108
-3.579652e+00 -1.874624e+00 -9.642058e-02 79 71 56
-3.339076e+00 -1.692255e+00 -9.868108e-02 112 103 92
-7.997120e+00 -4.941034e-01 4.200161e-01 41 50 34
-1.030417e+01 -5.246303e-01 -2.062677e-01 58 52 43
4.124212e+00 5.743539e+00 9.083149e-01 89 72 62
-1.601297e+01 1.801514e+00 1.655920e+01 175 171 167
-4.492130e+00 6.662862e+00 2.283617e+00 76 65 59
-1.526956e+00 7.745548e+00 2.327076e+00 33 26 34
1.519003e+00 9.646571e+00 2.801993e+00 153 141 141
-2.686109e+00 1.147916e+01 3.121570e+00 159 162 153
-2.686109e+00 1.147916e+01 3.121570e+00 159 162 153
-5.123208e+00 1.154630e+01 2.978449e+00 92 85 67
-2.690842e+00 -2.555604e+00 9.892219e-01 64 57 54
-3.075565e+00 -1.495979e+00 1.410548e+00 26 26 22
-1.480963e+01 -1.199201e+00 -1.002736e-01 120 104 89
-6.822245e+00 -5.357546e-01 6.499088e-01 59 47 33
-6.778751e+00 2.546590e-01 8.780129e-01 65 49 42
-7.831755e+00 1.587393e+00 5.630954e-01 60 52 46
-6.034092e-01 8.097056e+00 2.070157e+00 80 80 72
-5.374889e+00 8.755940e+00 2.103064e+00 161 150 138
-2.846042e+00 8.987539e+00 2.306526e+00 124 123 103
-5.136210e+00 9.183664e+00 2.246872e+00 64 61 59
-2.860803e+00 1.122377e+01 2.824953e+00 172 166 163
-1.588484e+00 1.126102e+01 3.058134e+00 184 175 179
-1.461488e+01 -2.130342e+00 -2.164347e-01 147 142 151
-6.126760e+00 -1.582774e+00 7.592022e-01 93 90 74
-9.611661e+00 -1.727775e+00 -1.540037e-01 39 32 24
-3.216890e+00 -1.105175e+00 2.566240e-02 109 91 81
-4.570346e+00 -1.037544e+00 -3.757583e-01 108 104 108
-6.229105e+00 -7.180786e-01 9.759026e-01 89 71 57
-6.382874e+00 -6.164142e-01 8.254241e-01 139 125 114
-7.103845e+00 -5.591675e-01 4.763242e-01 61 49 45
-6.597704e+00 5.091970e-01 1.832470e+00 75 60 48
9.144288e+00 1.693799e+00 1.375976e+00 57 52 32
9.527944e+00 2.545593e+00 1.229613e+00 65 56 34
-8.660589e+00 2.944106e+00 8.859305e-01 60 51 43
-9.356466e+00 3.468116e+00 8.522469e-01 57 47 47
-1.203540e+01 3.895871e+00 8.490211e-01 163 154 145
-2.088531e-01 5.899938e+00 1.261619e+00 129 121 119
1.293935e+00 7.085345e+00 1.608875e+00 153 142 135
-6.849832e-01 7.620776e+00 2.181326e+00 69 72 81
-5.381766e+00 7.270930e+00 2.214540e+00 165 163 161
-5.381766e+00 7.270930e+00 2.214540e+00 165 163 161
-6.885476e+00 7.462369e+00 1.789930e+00 150 137 127
3.404225e+00 8.294931e+00 2.092157e+00 69 67 51
-8.099436e-01 8.054375e+00 1.944339e+00 174 164 166
2.763389e+00 1.086284e+01 -7.513624e-01 168 154 149
-2.160811e+00 8.865931e+00 2.472622e+00 151 140 142
-4.519928e+00 8.830266e+00 2.471842e+00 85 83 76
2.071737e+00 9.416865e+00 2.827089e+00 86 72 62
-5.618803e+00 9.095562e+00 2.015095e+00 113 112 103
-4.224146e+00 9.250636e+00 2.004458e+00 125 112 113
1.960191e+00 9.685343e+00 2.677670e+00 184 174 167
-1.299931e+01 -4.635256e+00 -9.307071e-01 134 121 121
4.573653e-02 -9.564284e-01 1.613705e+00 107 107 90
-9.548795e-01 -3.613037e-01 1.195985e+00 79 78 66
-4.258894e+00 -5.388158e-01 1.759394e+00 135 122 113
9.297970e+00 9.186425e-01 8.990298e-01 48 49 34
-5.270557e+00 2.783392e-01 1.998204e+00 62 53 54
-5.249213e+00 9.002712e-01 2.190461e+00 134 130 114
-5.195251e+00 1.164471e+00 -2.097173e-01 134 130 114
-5.026669e+00 1.540266e+00 -1.945727e-01 157 156 158
4.450581e+00 4.931005e+00 6.790452e-01 56 56 50
3.359349e+00 8.187885e+00 2.068336e+00 144 142 133
-7.560217e-01 8.243938e+00 1.317120e+00 77 73 74
-5.394278e+00 8.632193e+00 1.977035e+00 113 105 94
-5.380668e+00 8.469298e+00 2.370157e+00 113 105 94
-5.845818e+00 8.748749e+00 2.035136e+00 169 156 163
-2.786664e+00 9.102872e+00 2.376653e+00 131 123 122
1.934969e+00 9.454313e+00 2.855442e+00 95 97 88
-3.390427e+00 9.328508e+00 2.099612e+00 115 108 100
7.708232e-01 9.936495e+00 2.860981e+00 109 99 103
-1.304611e+01 -4.317498e+00 -8.370342e-01 100 87 75
-1.175748e+00 -3.288121e+00 9.111924e-01 53 47 38
-3.510551e-01 -1.160307e+00 1.205699e+00 80 80 76
-2.563471e+00 2.534722e+00 2.318393e+00 84 74 67
-2.972427e+00 -1.420123e+00 1.312015e+00 99 90 83
7.832622e+00 3.520741e+01 9.454281e+00 38 44 41
7.840483e+00 3.527222e+01 9.206792e+00 38 44 41
7.388805e+00 3.853890e+01 1.041468e+01 37 42 35
7.388805e+00 3.853890e+01 1.041468e+01 37 42 35
-4.738120e+00 2.086561e+01 4.925958e+00 147 124 108
-9.120073e+00 2.238668e+01 6.556626e+00 71 39 16
-4.872850e+00 2.196651e+01 5.634849e+00 165 150 136
-1.585021e+01 4.171094e+01 1.327547e+01 255 255 255
1.519530e+01 2.081782e+01 4.175243e+00 130 114 97
-1.330221e+01 2.689102e+01 7.893352e+00 152 130 110
-8.508304e+00 2.742495e+01 7.440838e+00 106 94 71
-5.888727e+00 2.780941e+01 7.122909e+00 109 95 77
-2.990620e+00 2.136142e+01 5.438493e+00 130 115 92
-8.636111e+00 2.112447e+01 5.835808e+00 184 171 156
-3.295629e+00 2.198087e+01 5.419402e+00 175 160 144
7.463702e+00 2.319418e+01 5.128011e+00 100 91 74
5.902478e+00 4.112318e+01 1.197601e+01 170 153 132
4.577215e+00 7.939801e+00 8.477842e-01 124 108 91
6.877351e+00 1.643055e+01 3.262026e+00 196 179 162
8.251277e+00 2.499491e+01 5.674107e+00 177 152 129
-6.621483e+00 2.713134e+01 7.450616e+00 195 179 164
6.924477e+00 3.316422e+01 8.487854e+00 178 166 151
5.031739e+00 4.171964e+01 1.177829e+01 179 164 140
-1.538199e+01 7.977228e-02 -1.000513e+00 199 186 170
2.624515e+00 1.300651e+01 3.481998e+00 169 152 137
-1.539972e+01 1.276376e+01 3.296890e+00 200 185 172
-6.190905e-01 1.375349e+01 3.194702e+00 201 184 168
1.133648e+01 1.704828e+01 4.401525e+00 140 125 109
-1.850724e+01 1.555174e+01 5.396257e+00 196 185 173
1.844259e+00 1.706163e+01 5.205637e+00 53 53 43
1.421663e+01 2.259499e+01 5.694582e+00 181 160 126
-5.951702e+00 2.532739e+01 6.627290e+00 131 110 89
-4.390228e+00 2.596154e+01 6.912550e+00 78 74 57
-3.594073e+00 2.606011e+01 7.319118e+00 73 66 49
1.079676e+01 2.902860e+01 7.383175e+00 194 183 162
-5.348079e+00 3.014561e+01 8.239009e+00 180 161 140
-7.664996e+00 3.024563e+01 8.334703e+00 197 181 166
1.074049e+01 4.104630e+01 1.130176e+01 98 98 96
1.806581e+01 2.136288e+00 2.230274e+00 121 104 84
1.752723e+01 1.181787e+01 4.524556e+00 73 56 27
-5.581891e+00 1.469565e+01 3.113423e+00 206 190 177
1.151960e+01 1.657162e+01 4.987645e+00 129 118 96
1.697670e+00 1.769687e+01 4.546038e+00 194 177 159
1.065714e+01 1.823214e+01 5.111020e+00 107 93 68
-1.431152e-01 1.793793e+01 4.734037e+00 195 174 151
-3.553230e-01 1.772376e+01 5.515874e+00 195 174 151
8.516752e+00 2.102105e+01 5.166955e+00 193 178 155
1.471359e+01 2.205553e+01 5.490440e+00 184 166 144
1.889552e+00 2.861569e+01 7.468463e+00 139 128 109
6.833167e-01 2.932512e+01 7.953313e+00 177 164 147
1.443291e+01 3.276512e+01 9.024236e+00 171 160 141
1.127003e+01 3.976691e+01 1.088533e+01 92 91 86
7.614130e+00 4.031373e+01 1.121475e+01 94 94 92
5.028159e+00 4.114959e+01 1.157755e+01 175 161 142
-1.381010e+01 4.050590e+01 1.135781e+01 152 138 129
1.396307e+01 4.454445e+01 1.256336e+01 180 170 155
1.128469e+01 4.623859e+01 1.302378e+01 143 125 110
1.961967e+01 1.656664e+00 2.410017e+00 127 113 96
-4.854694e+00 1.404691e+01 3.563228e+00 116 98 72
-5.375462e+00 1.493093e+01 3.174116e+00 159 145 125
7.965386e-01 1.564155e+01 4.794597e+00 191 176 154
1.330482e+00 1.579965e+01 4.392549e+00 45 29 20
8.092368e+00 2.126706e+01 5.218546e+00 122 101 81
-7.365547e+00 2.160842e+01 5.460877e+00 205 190 175
1.565931e+01 2.484661e+01 5.865105e+00 170 158 139
-1.620225e+01 2.408600e+01 6.981730e+00 181 161 149
-6.318490e+00 2.527922e+01 6.711906e+00 202 184 162
-9.718631e+00 2.616810e+01 7.070609e+00 48 34 18
6.576206e-01 2.838966e+01 7.544898e+00 149 130 113
1.661099e+01 3.025889e+01 8.029689e+00 110 94 75
-1.400864e+01 3.977446e+01 1.123781e+01 157 144 127
5.012463e+00 4.222756e+01 1.189248e+01 184 170 148
5.012463e+00 4.222756e+01 1.189248e+01 184 170 148
8.584940e+00 4.268026e+01 1.201246e+01 103 91 78
1.228438e+01 4.633062e+01 1.305223e+01 116 105 95
7.230704e+00 1.366199e+01 2.883261e+00 195 180 165
-2.922837e+00 1.487999e+01 4.040356e+00 190 168 154
1.091743e+00 1.589734e+01 3.246419e+00 201 185 166
1.208858e+01 1.659722e+01 4.328764e+00 198 189 174
-7.965824e+00 1.585392e+01 4.182505e+00 119 104 82
1.350463e+00 1.673754e+01 4.288920e+00 60 40 23
-1.389990e+01 1.636927e+01 5.111366e+00 135 115 91
-1.266017e+00 1.712139e+01 4.486506e+00 195 183 170
2.112166e+00 1.753532e+01 4.780911e+00 199 185 169
1.542195e+01 1.851396e+01 4.695043e+00 107 94 79
-1.142614e+00 1.735872e+01 5.406285e+00 184 165 146
-1.038080e+01 1.745313e+01 4.668158e+00 171 157 137
2.886314e+00 1.914035e+01 4.520140e+00 148 128 103
1.509406e+01 2.017976e+01 5.301384e+00 118 101 83
9.507540e+00 2.057082e+01 5.050815e+00 133 112 90
1.103955e+01 2.106640e+01 5.205424e+00 153 141 119
1.380175e+01 2.212349e+01 4.770905e+00 202 191 179
7.424572e+00 2.351906e+01 5.739397e+00 189 182 166
-7.520696e+00 2.547822e+01 6.757531e+00 139 121 100
-4.834440e+00 2.658021e+01 7.049421e+00 173 154 132
9.720671e+00 2.861347e+01 7.247919e+00 179 170 153
-6.560937e+00 2.776489e+01 7.485028e+00 109 97 79
7.096592e+00 2.941656e+01 7.560044e+00 154 141 123
8.991098e+00 2.961615e+01 7.460752e+00 173 162 141
9.782880e+00 3.433417e+01 9.407763e+00 182 169 150
9.743150e+00 3.458940e+01 9.462538e+00 185 175 158
9.514487e+00 3.636523e+01 1.001705e+01 181 171 156
9.477326e+00 3.695508e+01 9.883812e+00 186 178 163
9.043447e+00 3.995814e+01 1.108252e+01 183 173 155
8.999573e+00 4.026130e+01 1.121187e+01 180 172 153
-1.478926e+01 3.958814e+01 1.112382e+01 95 81 71
-1.266894e+01 4.014340e+01 1.128666e+01 103 92 80
5.400086e+00 4.273163e+01 1.187242e+01 187 176 159
-1.000938e+01 4.233273e+01 1.299840e+01 254 252 247
-9.301408e+00 4.255972e+01 1.304727e+01 250 253 251
9.398610e+00 4.515401e+01 1.270753e+01 97 82 71
8.975807e+00 4.558227e+01 1.286571e+01 87 78 63
1.109790e+01 4.836137e+01 1.353452e+01 156 146 150
1.821425e+01 -3.586198e-01 3.028155e-01 152 138 114
-4.307323e+00 2.034191e+00 -1.291788e+00 129 111 95
6.016708e+00 8.905467e+00 9.778318e-01 161 147 128
-1.345043e+01 8.771902e+00 1.870015e+00 92 76 60
2.389810e+00 1.244115e+01 2.908685e+00 120 100 80
2.058194e+00 1.293938e+01 3.705652e+00 189 171 154
8.397025e+00 1.544563e+01 4.021271e+00 189 167 141
-1.660395e+00 1.512729e+01 4.492364e+00 31 30 24
-1.457231e+01 1.469354e+01 4.710989e+00 128 106 83
-7.750295e+00 1.563770e+01 4.168121e+00 116 101 78
2.878246e+00 1.631825e+01 4.388689e+00 36 26 9
-1.407563e+01 1.609095e+01 4.997676e+00 135 112 91
2.732791e+00 1.720644e+01 4.304736e+00 67 28 11
-1.011462e+00 1.705951e+01 4.518306e+00 42 33 18
-1.063273e+01 1.674537e+01 4.533726e+00 99 83 57
-1.052065e+01 1.707834e+01 4.642637e+00 122 106 89
3.962563e+00 1.825312e+01 4.489414e+00 145 137 116
-8.696593e+00 1.771887e+01 4.724930e+00 128 110 89
3.293506e+00 1.894068e+01 4.710621e+00 138 122 98
1.149722e+01 1.973806e+01 5.284605e+00 99 86 64
8.789563e+00 2.003839e+01 4.621693e+00 189 178 155
1.476939e+01 2.052754e+01 5.365324e+00 126 105 88
-1.802772e-01 1.999493e+01 5.091894e+00 138 123 104
1.456224e+01 2.087792e+01 5.554126e+00 173 157 133
8.995598e+00 2.076909e+01 4.926763e+00 196 180 158
-3.182740e+00 2.025980e+01 5.259896e+00 187 174 158
-2.856324e+00 2.033853e+01 5.176960e+00 118 99 76
1.409502e+01 2.127814e+01 5.444148e+00 176 160 129
1.139912e+01 2.118612e+01 5.277892e+00 97 80 52
9.809951e+00 2.134052e+01 5.312242e+00 126 103 78
1.345098e+01 2.163646e+01 4.788362e+00 116 101 79
1.049061e+01 2.182476e+01 5.239406e+00 122 104 83
1.101778e+01 2.190187e+01 5.413816e+00 176 156 131
1.091393e+01 2.208418e+01 4.824165e+00 124 104 80
1.046005e+01 2.193815e+01 5.440585e+00 198 183 162
1.120984e+01 2.224033e+01 4.896705e+00 126 108 85
8.262775e+00 2.612528e+01 6.660793e+00 87 53 17
-5.291389e+00 2.598067e+01 6.912522e+00 116 108 89
-4.564821e+00 2.626032e+01 6.892250e+00 167 156 136
7.568738e+00 2.737302e+01 7.199670e+00 187 172 149
3.624542e+00 2.724896e+01 7.047938e+00 95 87 70
-3.416838e+00 2.676330e+01 7.331709e+00 65 52 38
-4.440166e+00 2.678409e+01 7.109292e+00 175 160 137
-8.192894e+00 2.703083e+01 7.436380e+00 112 102 80
5.435989e+00 2.814886e+01 7.336413e+00 192 180 161
4.377431e+00 2.828333e+01 7.371586e+00 187 186 170
8.989147e+00 2.864779e+01 7.105507e+00 174 154 127
-8.575844e+00 2.770000e+01 7.525467e+00 136 120 108
-2.942997e+00 2.799863e+01 7.490831e+00 113 99 77
-8.497885e+00 2.788087e+01 7.560776e+00 78 74 61
8.789278e+00 2.900308e+01 7.674670e+00 109 81 62
-1.225296e-01 2.854271e+01 7.555261e+00 101 89 71
2.482750e+00 2.881714e+01 7.578934e+00 160 146 127
-1.381345e-01 2.867298e+01 7.670705e+00 168 152 135
1.793746e+00 2.885340e+01 7.652281e+00 103 83 62
9.378008e-01 2.898128e+01 7.430728e+00 162 149 134
4.151378e+00 2.927818e+01 7.779473e+00 91 83 63
6.675569e+00 2.955498e+01 7.854906e+00 149 139 118
1.074494e+01 3.064723e+01 7.806837e+00 105 90 72
-1.402319e+01 2.956278e+01 8.330434e+00 85 91 87
3.984484e+00 3.081260e+01 8.291323e+00 185 164 142
1.726265e+01 3.165327e+01 8.595813e+00 175 156 137
-1.227883e+01 3.012028e+01 8.984798e+00 188 179 165
1.631046e+01 3.189762e+01 8.916770e+00 87 78 57
-1.206430e+01 3.058628e+01 8.482251e+00 190 181 167
1.248110e+01 3.206146e+01 8.267770e+00 174 165 142
-1.513527e+01 3.116613e+01 8.674741e+00 177 165 147
-1.460765e+01 3.172542e+01 8.893271e+00 175 162 145
1.942774e+01 3.398011e+01 8.603586e+00 240 254 254
1.907432e+01 3.417752e+01 8.870404e+00 254 253 254
9.293600e+00 3.680275e+01 9.811956e+00 135 123 107
-1.492020e+01 3.545458e+01 1.004908e+01 178 161 143
-1.583095e+01 3.818562e+01 1.078862e+01 111 105 87
-1.664170e+01 3.871320e+01 1.073871e+01 182 162 140
-1.364947e+01 3.904168e+01 1.096819e+01 118 111 105
-1.526008e+01 3.898268e+01 1.091079e+01 179 162 144
-1.531855e+01 3.950808e+01 1.106922e+01 104 94 82
-1.427783e+01 3.979128e+01 1.115149e+01 98 90 82
-1.427783e+01 3.979128e+01 1.115149e+01 98 90 82
-1.212907e+01 4.030366e+01 1.131460e+01 96 89 76
-1.159310e+01 4.040551e+01 1.136599e+01 97 84 76
8.658807e+00 4.196085e+01 1.156075e+01 166 157 138
-8.234282e+00 4.194314e+01 1.190877e+01 175 160 141
8.553483e+00 4.316377e+01 1.213135e+01 111 99 86
8.286228e+00 4.315413e+01 1.212749e+01 185 172 150
5.633641e+00 4.302025e+01 1.213811e+01 180 170 151
8.803629e+00 4.325650e+01 1.201882e+01 169 167 150
1.405827e+01 4.382099e+01 1.239496e+01 171 158 138
1.333652e+01 4.376671e+01 1.241450e+01 104 91 79
8.869081e+00 4.361828e+01 1.218850e+01 114 102 91
9.643524e+00 4.416264e+01 1.243354e+01 180 168 152
1.011511e+01 4.445155e+01 1.244648e+01 180 168 145
1.082746e+01 4.453893e+01 1.248692e+01 182 170 152
4.493824e+00 4.451376e+01 1.256157e+01 105 105 100
7.059685e+00 4.513866e+01 1.274514e+01 95 85 75
7.059685e+00 4.513866e+01 1.274514e+01 95 85 75
1.139284e+01 4.564284e+01 1.279846e+01 99 87 75
1.030768e+01 4.596880e+01 1.291413e+01 96 83 71
1.067966e+01 4.664930e+01 1.310333e+01 171 168 153
1.404637e+01 4.708873e+01 1.319515e+01 101 95 83
1.219472e+01 5.090533e+01 1.427853e+01 253 241 241
-1.538095e+01 -1.220232e+00 -1.168477e+00 196 179 159
-4.190971e+00 1.935021e+00 -1.207903e+00 182 169 151
1.934926e+01 2.757936e+00 2.680600e+00 180 173 158
1.934926e+01 2.757936e+00 2.680600e+00 180 173 158
5.013480e+00 5.357104e+00 -1.420975e+00 109 89 68
1.858351e+01 9.516236e+00 3.476262e+00 116 100 77
1.827177e+01 9.542584e+00 3.603107e+00 179 161 142
1.419277e+01 1.082477e+01 4.615276e+00 102 71 43
1.419277e+01 1.082477e+01 4.615276e+00 102 71 43
1.314149e+00 1.254172e+01 2.660430e+00 97 81 55
-1.989552e+00 1.361122e+01 3.867233e+00 65 53 40
-4.806301e+00 1.547020e+01 3.940851e+00 138 116 93
8.861720e+00 1.643563e+01 3.963031e+00 109 94 65
-1.448068e+01 1.509232e+01 4.791751e+00 135 114 88
1.264061e+01 1.691664e+01 4.210559e+00 104 91 68
-4.440740e+00 1.601772e+01 4.077003e+00 143 122 95
-1.073044e+01 1.589821e+01 3.961225e+00 142 125 115
6.610792e+00 1.699647e+01 3.574582e+00 148 127 103
6.911842e-01 1.681594e+01 3.818933e+00 134 116 90
1.232428e+01 1.816779e+01 4.610580e+00 197 175 152
-1.118099e+01 1.702451e+01 4.569547e+00 141 125 109
-1.470635e+01 1.711251e+01 5.350677e+00 159 139 115
8.301444e+00 1.867245e+01 4.133088e+00 131 106 84
-8.483730e+00 1.777066e+01 4.719163e+00 181 162 139
1.629991e+01 1.955909e+01 3.848596e+00 121 107 90
-3.923412e+00 1.827888e+01 4.806331e+00 118 101 81
1.056023e+01 1.908370e+01 5.007279e+00 141 128 110
1.174152e+01 1.969430e+01 3.589599e+00 186 171 148
-1.066942e+01 1.827150e+01 4.824331e+00 103 85 61
8.251989e+00 1.939109e+01 4.410348e+00 140 116 94
-1.195600e+01 1.855046e+01 4.882424e+00 123 106 90
1.203363e+01 2.024918e+01 4.053900e+00 174 156 139
1.557413e+01 2.017366e+01 5.290616e+00 137 118 102
-1.119950e+01 1.892460e+01 4.695568e+00 119 110 91
1.215642e+01 2.024725e+01 5.066863e+00 144 116 94
1.206015e+01 2.035173e+01 4.960364e+00 170 160 145
1.515064e+01 2.060787e+01 5.423038e+00 130 114 97
1.124903e+01 2.074058e+01 5.111005e+00 128 112 90
-1.609449e+01 1.976685e+01 5.640960e+00 172 159 142
-3.734931e+00 2.064754e+01 5.180555e+00 106 101 96
1.504409e+01 2.165118e+01 5.585414e+00 144 131 112
-4.846250e+00 2.066082e+01 5.308440e+00 156 141 124
1.358817e+01 2.204210e+01 4.755716e+00 119 110 96
-2.980313e-01 2.124643e+01 5.296213e+00 171 151 128
9.805759e-01 2.144430e+01 5.302916e+00 110 96 77
1.515369e+01 2.234271e+01 5.786232e+00 161 159 142
6.232580e+00 2.316313e+01 5.782179e+00 99 83 66
1.108455e+01 2.356119e+01 6.050933e+00 107 95 71
7.028149e+00 2.343222e+01 5.814431e+00 171 152 126
-1.931102e+01 2.341892e+01 7.261240e+00 161 148 142
-1.292290e+01 2.428563e+01 6.636573e+00 37 41 27
-1.348037e+01 2.522755e+01 7.558131e+00 138 120 97
-3.949896e+00 2.636652e+01 6.971601e+00 126 114 100
-4.546171e+00 2.663406e+01 7.074659e+00 49 37 24
-3.138830e+00 2.682669e+01 7.059629e+00 179 169 156
-1.217633e+01 2.634150e+01 7.098770e+00 112 99 80
-4.579430e+00 2.693571e+01 7.202602e+00 107 97 79
-1.010878e+01 2.675575e+01 7.246780e+00 106 90 74
-1.955820e+01 2.611108e+01 8.108100e+00 249 249 246
-5.896587e+00 2.729035e+01 7.293083e+00 158 145 128
8.922995e+00 2.843805e+01 7.302677e+00 74 41 10
-1.387420e+00 2.792030e+01 7.136598e+00 169 157 141
2.694626e+00 2.818107e+01 7.354770e+00 103 105 93
-1.329104e+01 2.734669e+01 8.134760e+00 172 151 131
4.713847e+00 2.839528e+01 7.555352e+00 204 192 181
8.526864e+00 2.900399e+01 7.395951e+00 105 85 64
1.210516e+01 2.938902e+01 7.258549e+00 187 173 153
4.262030e+00 2.904392e+01 7.733792e+00 111 101 89
1.534321e+01 2.983377e+01 7.657177e+00 169 159 138
1.353564e+01 3.063954e+01 7.712743e+00 77 57 31
5.915104e+00 3.091273e+01 8.353807e+00 163 143 131
-1.213772e+01 2.981044e+01 9.068164e+00 144 133 117
1.631550e+01 3.182443e+01 8.439681e+00 102 90 72
-1.197624e+01 3.084269e+01 9.424794e+00 137 123 109
1.589091e+01 3.349464e+01 8.693849e+00 79 77 60
1.022820e+01 3.328253e+01 8.573905e+00 142 123 106
-6.354445e+00 3.234638e+01 8.940494e+00 155 137 120
1.528245e+01 3.384820e+01 8.979357e+00 129 118 99
-7.498110e+00 3.297007e+01 9.078659e+00 155 135 126
-6.472877e+00 3.341283e+01 9.278343e+00 134 123 105
-6.935877e+00 3.377369e+01 9.353170e+00 147 127 111
-7.213890e+00 3.395945e+01 9.480644e+00 155 138 117
1.345830e+01 3.528764e+01 9.240612e+00 134 121 105
-7.000077e+00 3.431801e+01 9.548321e+00 154 135 110
-1.593306e+01 3.395083e+01 1.071001e+01 186 172 156
9.799211e+00 3.593872e+01 9.861326e+00 124 110 94
-1.643731e+01 3.560747e+01 1.007887e+01 121 110 96
-1.636363e+01 3.567094e+01 9.955357e+00 121 110 96
-1.566898e+01 3.577090e+01 1.024031e+01 104 94 79
9.231103e+00 3.731308e+01 9.993209e+00 129 113 97
-1.666176e+01 3.766242e+01 1.048248e+01 131 121 106
-1.675030e+01 3.783560e+01 1.050014e+01 188 184 168
-1.606876e+01 3.801079e+01 1.195308e+01 180 164 146
-1.509911e+01 3.888683e+01 1.088563e+01 119 107 95
3.494711e+00 3.985988e+01 1.117839e+01 178 174 162
-1.463436e+01 3.911386e+01 1.099972e+01 111 97 83
-1.167681e+01 3.962123e+01 1.113235e+01 171 161 146
-1.066692e+01 3.978702e+01 1.122615e+01 169 161 144
-1.103178e+01 3.983413e+01 1.120718e+01 170 161 146
3.390595e+00 4.064060e+01 1.141737e+01 178 173 157
8.616527e+00 4.104969e+01 1.123176e+01 174 156 136
1.412289e+01 4.171369e+01 1.184002e+01 141 128 115
-7.509213e+00 4.094093e+01 1.154084e+01 173 170 153
-1.238218e+01 4.092179e+01 1.151384e+01 164 149 128
1.379751e+01 4.291738e+01 1.223999e+01 174 175 161
-1.230510e+01 4.185151e+01 1.177788e+01 194 177 159
-1.529364e+01 -1.124240e+00 -1.076729e+00 152 129 111
-1.869912e+00 9.233276e+00 1.230268e+00 172 161 145
-4.340996e-01 1.337710e+01 2.896921e+00 166 144 121
-6.844457e+00 1.423080e+01 3.210072e+00 107 91 70
-1.608400e+01 1.397006e+01 3.732463e+00 196 180 164
4.555637e-02 1.582438e+01 4.429269e+00 89 45 14
1.089049e+00 1.601689e+01 4.106679e+00 72 61 44
1.207465e+01 1.683491e+01 4.245305e+00 161 151 132
1.102737e+00 1.625383e+01 4.396594e+00 64 62 50
-5.008130e+00 1.624178e+01 4.093512e+00 160 137 113
-5.008130e+00 1.624178e+01 4.093512e+00 160 137 113
-3.366458e+00 1.658444e+01 4.358785e+00 111 85 57
-4.964793e+00 1.686632e+01 4.285005e+00 144 123 100
3.804641e+00 1.767706e+01 4.540137e+00 80 77 65
-9.674632e+00 1.758312e+01 4.564497e+00 141 127 110
8.329312e+00 2.055022e+01 4.479812e+00 152 134 114
-2.302628e+00 1.998605e+01 5.092035e+00 141 128 108
-1.354567e+01 1.967487e+01 5.837329e+00 119 112 93
1.004847e+01 2.104349e+01 5.269077e+00 166 145 119
-1.430481e+01 1.965855e+01 5.866133e+00 176 164 146
-4.569207e+00 2.041911e+01 5.215039e+00 109 97 81
-4.388047e+00 2.044926e+01 5.222703e+00 115 98 74
9.729524e-02 2.092188e+01 5.176922e+00 135 126 108
-4.147416e+00 2.075646e+01 5.270915e+00 154 141 128
8.831548e+00 2.169114e+01 5.227697e+00 188 176 151
-4.979019e+00 2.112729e+01 5.424848e+00 109 98 82
-5.191223e+00 2.122341e+01 5.437827e+00 148 135 116
-4.982587e+00 2.124039e+01 5.451315e+00 165 149 131
1.449513e+01 2.295096e+01 5.950186e+00 131 119 99
1.449513e+01 2.295096e+01 5.950186e+00 131 119 99
7.824935e+00 2.391263e+01 5.729492e+00 204 186 163
1.056806e+01 2.439214e+01 5.680658e+00 208 197 177
-1.348428e+01 2.449607e+01 6.588565e+00 146 128 107
-1.927428e+01 2.399897e+01 7.756498e+00 169 155 158
-1.038231e+01 2.500418e+01 6.744664e+00 84 73 49
-7.010717e+00 2.548733e+01 6.681849e+00 158 142 120
9.700552e+00 2.673479e+01 6.803242e+00 129 138 129
-6.829302e+00 2.620319e+01 5.932072e+00 179 162 141
-1.038232e+01 2.596051e+01 7.037066e+00 157 147 129
-2.762742e+00 2.644454e+01 6.757074e+00 126 106 93
-4.759035e+00 2.692338e+01 7.104476e+00 126 113 97
-6.595457e+00 2.744196e+01 7.256566e+00 200 176 154
8.235865e+00 2.829709e+01 7.392010e+00 65 59 53
8.235865e+00 2.829709e+01 7.392010e+00 65 59 53
9.656312e+00 2.873823e+01 7.476760e+00 113 98 86
2.387750e+00 2.849524e+01 7.528143e+00 152 129 112
-7.570928e+00 2.841960e+01 7.543888e+00 184 177 163
7.826986e+00 2.928891e+01 7.520958e+00 136 145 131
4.898584e+00 2.909850e+01 7.767962e+00 191 169 147
4.249574e+00 2.920490e+01 7.723455e+00 167 161 137
7.772261e+00 2.952367e+01 7.532942e+00 157 145 117
8.520305e+00 2.966454e+01 7.513777e+00 111 103 83
4.106610e+00 2.958489e+01 7.810667e+00 90 79 58
1.629010e+01 3.099457e+01 8.449069e+00 128 125 112
-8.652496e+00 2.986777e+01 8.237835e+00 141 129 115
4.611256e+00 3.187389e+01 8.531271e+00 125 110 93
-1.450574e+01 3.866067e+01 1.109543e+01 168 152 130
-1.456487e+01 3.899452e+01 1.096239e+01 174 157 139
2.327349e+00 4.090768e+01 1.156170e+01 150 139 123
2.327349e+00 4.090768e+01 1.156170e+01 150 139 123
-1.124681e+01 4.025077e+01 1.132679e+01 157 147 132
-1.212429e+01 4.183130e+01 1.179523e+01 144 136 126
-5.036701e-03 8.283688e+00 3.469678e+00 156 155 150
-1.270921e+01 9.743235e+00 1.246278e+00 69 68 73
-9.267780e+00 3.910847e+01 7.014245e+00 157 159 164
-6.909767e+00 9.968744e+00 2.573309e+00 89 89 86
-1.100774e+01 3.619779e+01 5.566084e+00 51 67 82
-1.438343e+01 1.418275e+01 2.147424e+00 138 134 133
-3.047051e+00 1.585198e+01 2.701360e+00 61 71 84
-2.004608e+00 -1.474567e+00 1.356695e+00 50 49 45
-1.350215e+01 5.241817e-01 -7.103543e-02 97 93 84
1.684170e+00 9.102588e+00 4.792752e+00 163 160 157
-7.521290e+00 9.415447e+00 2.728690e+00 149 148 144
1.027230e+01 1.078155e+01 6.670639e+00 127 122 112
8.233306e+00 2.728482e+01 7.500404e+00 76 86 95
-9.799328e+00 4.131224e+01 8.755207e+00 168 168 170
1.288772e+01 8.808613e+00 6.349006e+00 110 105 112
-1.776133e+00 1.640898e+01 2.760818e+00 175 174 171
-1.881534e+00 1.626215e+01 3.118283e+00 175 174 171
1.184698e+01 1.951947e+01 6.566693e+00 110 109 108
-1.673745e+01 1.991988e+01 4.247489e+00 114 112 112
1.173614e+01 2.703464e+01 7.311972e+00 91 97 105
-1.464418e+00 -1.771516e+00 7.743404e-01 61 61 51
-2.736322e+00 -1.459266e+00 8.121124e-01 53 52 48
-6.023418e+00 9.022163e+00 2.511662e+00 92 91 87
2.144854e+00 9.385273e+00 4.651480e+00 159 153 147
6.803060e+00 9.374148e+00 6.087624e+00 169 163 160
-1.338227e+01 1.126305e+01 1.339459e+00 137 139 135
-8.321102e+00 1.129864e+01 2.967666e+00 74 73 79
1.421006e+00 1.790979e+01 4.196977e+00 170 169 166
4.610575e+00 -1.255532e+00 2.080813e+00 113 115 102
-7.551972e+00 -1.373695e+00 -6.131374e-01 77 77 70
5.854391e+00 1.280375e+00 3.462599e+00 88 84 72
-6.816614e+00 1.272688e+00 4.461875e-01 97 92 89
-1.251356e+01 1.857920e+00 1.647642e-01 136 132 127
-1.367418e+01 6.913997e+00 8.874312e-01 110 104 104
1.482210e+00 7.493688e+00 3.835864e+00 168 166 162
-1.299490e+01 7.067201e+00 1.613010e+00 140 137 131
8.712806e+00 7.795035e+00 5.469651e+00 150 155 149
7.717841e+00 7.824876e+00 5.250796e+00 93 89 86
7.275614e+00 8.007841e+00 5.357184e+00 74 75 79
-1.305519e+01 7.897506e+00 1.763726e+00 150 145 139
-1.309793e+01 8.391075e+00 2.037393e+00 138 135 126
-9.702982e+00 8.836647e+00 2.088431e+00 136 133 124
-7.751397e+00 8.998083e+00 2.395943e+00 134 133 129
3.466438e+00 1.428803e+01 3.464727e+00 64 65 67
-1.517137e+01 1.324473e+01 3.267586e+00 72 73 76
2.718660e+00 1.638673e+01 3.196403e+00 70 71 83
3.980051e+00 1.695319e+01 4.205063e+00 75 73 75
-1.627630e+01 1.474543e+01 3.349849e+00 173 174 179
-2.723950e+00 1.782537e+01 3.385687e+00 134 129 133
-1.043950e+01 1.886414e+01 2.741723e+00 87 82 79
1.392398e+01 1.984269e+01 6.896953e+00 129 128 126
-1.100015e+00 1.956061e+01 4.174553e+00 147 144 133
1.347713e+01 1.973668e+01 7.302193e+00 132 130 132
-2.038898e+00 2.077653e+01 5.351446e+00 110 108 109
-8.611969e+00 2.370960e+01 5.431938e+00 148 146 147
1.205325e+01 2.748442e+01 7.925149e+00 132 135 143
8.820897e+00 2.801498e+01 8.616264e+00 166 168 173
-6.630620e-01 2.767525e+01 7.168181e+00 173 173 173
5.476685e+00 4.538398e+01 1.138319e+01 113 116 125
-1.159038e+01 -3.386769e+00 -1.015131e+00 66 69 61
-1.227518e+01 -2.234419e+00 -4.405888e-01 61 57 53
1.307143e+00 -1.255773e+00 1.504427e+00 59 56 51
-6.266554e+00 -2.726361e-01 4.075624e-01 92 86 81
4.813044e+00 2.665361e-01 2.701979e+00 87 81 71
-4.472224e+00 1.073931e+00 1.607446e+00 163 167 170
-2.787521e-01 6.898360e+00 3.598499e+00 97 94 86
-1.571956e+01 6.671444e+00 7.545558e-01 174 174 180
-1.339927e+01 6.950690e+00 7.763337e-01 90 90 91
-1.585786e+01 6.591381e+00 1.394352e+00 80 81 85
-1.175902e+01 7.222989e+00 1.002918e+00 82 81 83
1.146466e+01 8.097226e+00 5.775868e+00 110 109 108
1.323414e+01 9.865830e+00 6.880709e+00 152 151 147
-1.595844e+01 1.424799e+01 3.225528e+00 124 127 131
-1.595844e+01 1.424799e+01 3.225528e+00 124 127 131
-1.460548e+01 1.516206e+01 2.279846e+00 108 104 102
