ply
format ascii 1.0
element face 0
property list uchar int vertex_indices
element vertex 940
property float x
property float y
property float z
property uchar diffuse_red
property uchar diffuse_green
property uchar diffuse_blue
end_header
-3.197689e+00 3.001079e+00 3.187403e+00 184 181 176
3.498138e+00 3.114132e+00 4.508214e+00 168 159 142
1.485830e+00 3.312164e+00 3.162386e+00 173 166 146
-1.926061e+00 3.174634e+00 2.832047e+00 179 175 163
-9.822367e-01 3.269727e+00 2.629692e+00 181 173 163
1.595745e+00 3.322408e+00 3.243194e+00 81 68 61
3.733613e+00 3.125250e+00 4.748643e+00 142 142 145
1.616586e+00 3.341432e+00 3.195201e+00 183 175 164
1.558958e+00 3.351271e+00 3.241630e+00 157 146 125
-1.054924e+00 3.308094e+00 2.687054e+00 95 88 80
-1.277712e+00 3.290954e+00 2.662101e+00 124 112 96
-4.993268e+00 2.845217e+00 3.809382e+00 119 109 103
-1.808644e+00 3.245029e+00 2.835422e+00 177 169 151
-1.808644e+00 3.245029e+00 2.835422e+00 177 169 151
2.887410e+00 3.267119e+00 4.172968e+00 98 83 84
-4.967382e+00 2.868826e+00 3.796384e+00 179 171 166
8.604752e-01 3.408446e+00 2.884588e+00 156 144 130
-1.847092e+00 3.273730e+00 2.863234e+00 192 188 177
-1.841205e+00 3.271404e+00 2.859508e+00 192 188 177
-1.778712e+00 3.294406e+00 2.851263e+00 173 163 141
1.507063e+00 3.399694e+00 3.328622e+00 204 199 193
3.646584e+00 3.237129e+00 4.724012e+00 213 214 218
1.702018e+00 3.422639e+00 3.335076e+00 168 161 151
-3.864943e+00 3.091416e+00 3.486965e+00 131 130 127
1.510714e+00 3.443263e+00 3.293095e+00 148 142 130
-1.910644e+00 3.321454e+00 2.904256e+00 181 174 164
-1.910644e+00 3.321454e+00 2.904256e+00 181 174 164
-5.814244e-01 3.435675e+00 2.673820e+00 152 144 127
-6.410329e-01 3.429679e+00 2.670690e+00 147 135 121
3.337938e+00 3.299792e+00 4.487035e+00 148 140 121
3.391379e+00 3.298443e+00 4.551827e+00 101 88 70
6.728765e-01 3.484309e+00 2.899308e+00 185 173 151
6.806959e-01 3.486845e+00 2.872572e+00 185 173 151
-6.314878e-01 3.449062e+00 2.680213e+00 75 66 52
3.370343e+00 3.304818e+00 4.525222e+00 179 172 154
-1.951252e+00 3.339881e+00 2.918712e+00 173 166 156
-1.949381e+00 3.339104e+00 2.923549e+00 173 166 156
-4.873077e+00 2.985903e+00 3.809459e+00 108 99 93
-3.799933e+00 3.142678e+00 3.477306e+00 171 158 133
-4.509605e-01 3.479032e+00 2.693038e+00 76 66 64
-4.841417e+00 3.010248e+00 3.796182e+00 192 190 177
-2.378050e+00 3.329066e+00 3.039924e+00 103 88 72
-3.668176e+00 3.179911e+00 3.450511e+00 112 105 99
-4.795391e+00 3.036580e+00 3.793254e+00 148 140 128
-6.981507e-01 3.489101e+00 2.743411e+00 161 152 142
2.592170e+00 3.427330e+00 4.069545e+00 197 194 180
2.040739e+00 3.477204e+00 3.671341e+00 160 154 138
4.073627e+00 3.283551e+00 4.951738e+00 169 170 172
-3.663503e+00 3.198113e+00 3.462262e+00 191 187 177
2.018001e+00 3.488774e+00 3.659695e+00 99 92 88
2.018001e+00 3.488774e+00 3.659695e+00 99 92 88
-2.632684e+00 3.333940e+00 3.144889e+00 89 80 83
3.168410e-01 3.554324e+00 2.768774e+00 28 21 13
3.215476e+00 3.395171e+00 4.429558e+00 170 159 137
-2.602569e+00 3.343918e+00 3.142842e+00 88 83 85
2.011660e+00 3.505222e+00 3.670956e+00 193 189 180
4.309942e-01 3.566131e+00 2.855492e+00 166 155 133
-4.240904e-01 3.539292e+00 2.727545e+00 52 44 38
-4.801764e+00 3.098543e+00 3.812347e+00 69 61 66
-4.801764e+00 3.098543e+00 3.812347e+00 69 61 66
1.988410e+00 3.527653e+00 3.660397e+00 115 105 97
3.855886e-01 3.582152e+00 2.845476e+00 100 87 70
-3.537230e+00 3.266084e+00 3.449096e+00 63 52 48
-3.537230e+00 3.266084e+00 3.449096e+00 63 52 48
-7.894980e-01 3.541015e+00 2.747314e+00 64 57 51
-3.961243e+00 3.221216e+00 3.543660e+00 199 196 189
-1.629547e+00 3.481864e+00 2.916160e+00 52 48 50
-1.629547e+00 3.481864e+00 2.916160e+00 52 48 50
-3.584665e+00 3.277368e+00 3.465792e+00 62 52 50
3.348268e+00 3.423084e+00 4.573713e+00 164 152 136
-2.465119e+00 3.415791e+00 3.137116e+00 128 121 111
-3.599258e+00 3.295345e+00 3.478346e+00 184 177 173
1.924544e+00 3.561945e+00 3.691067e+00 178 171 148
2.185055e+00 3.552152e+00 3.750164e+00 140 131 116
2.185055e+00 3.552152e+00 3.750164e+00 140 131 116
1.347651e+00 3.601283e+00 3.284398e+00 207 202 198
-1.483469e+00 3.533287e+00 2.912753e+00 155 152 139
1.911231e+00 3.586629e+00 3.701147e+00 121 114 109
1.215559e+00 3.625066e+00 3.254698e+00 190 186 175
2.506423e+00 3.547573e+00 4.056865e+00 143 136 125
1.922329e+00 3.603633e+00 3.676425e+00 198 195 187
-2.595322e+00 3.456298e+00 3.201004e+00 186 185 179
-2.359782e+00 3.482938e+00 3.135492e+00 180 173 144
-1.354639e+00 3.576758e+00 2.909360e+00 103 93 84
-1.453945e+00 3.567456e+00 2.911449e+00 183 179 176
-4.292100e+00 3.268528e+00 3.658388e+00 114 105 96
1.045081e+00 3.658342e+00 3.160042e+00 75 59 45
1.036911e+00 3.663751e+00 3.185968e+00 75 59 45
-2.351726e+00 3.495274e+00 3.120627e+00 79 71 62
8.958667e-01 3.670271e+00 3.165464e+00 77 68 61
-4.645720e+00 3.250628e+00 3.807870e+00 95 83 79
-2.898985e-01 3.674710e+00 2.808652e+00 128 123 117
2.413316e+00 3.611504e+00 4.035850e+00 98 88 82
1.734986e+00 3.660242e+00 3.623316e+00 79 72 66
-4.442996e-02 3.691841e+00 2.803510e+00 68 51 42
-3.062196e-01 3.686334e+00 2.808515e+00 178 175 170
1.785299e+00 3.666196e+00 3.619119e+00 145 142 133
2.408915e+00 3.627202e+00 4.050262e+00 184 174 162
-1.128594e+00 3.648278e+00 2.904642e+00 177 166 147
8.691435e-01 3.714258e+00 3.172160e+00 182 174 151
-1.197258e+00 3.648286e+00 2.910707e+00 183 174 158
-2.185582e+00 3.561643e+00 3.109255e+00 169 162 152
-3.206093e+00 3.453777e+00 3.389200e+00 90 80 79
1.220732e+00 3.715671e+00 3.264988e+00 113 106 100
7.120379e-01 3.734210e+00 3.063428e+00 169 163 149
-4.573818e+00 3.326274e+00 3.805745e+00 146 138 126
-4.344655e+00 3.353517e+00 3.714270e+00 79 69 70
7.620548e-01 3.753445e+00 3.133254e+00 182 176 173
-2.282147e+00 3.607608e+00 3.189713e+00 189 184 178
-1.131033e+00 3.711045e+00 2.953017e+00 122 115 96
2.454694e+00 3.690124e+00 4.094317e+00 132 128 127
1.490168e+00 3.763509e+00 3.561227e+00 193 186 165
2.884258e+00 3.686009e+00 4.347558e+00 189 177 166
2.416385e+00 3.724998e+00 4.095449e+00 205 203 198
-4.534617e+00 3.416411e+00 3.828589e+00 199 196 184
-1.177173e+00 3.754261e+00 2.979228e+00 127 121 113
-3.218706e+00 3.580779e+00 3.458396e+00 184 181 174
-1.126154e+00 3.772519e+00 2.994853e+00 174 166 154
1.370898e+00 3.813285e+00 3.500049e+00 95 86 81
-1.367227e+00 3.758864e+00 2.997439e+00 131 125 113
-4.635513e+00 3.437488e+00 3.876316e+00 180 180 170
7.764076e-01 3.847870e+00 3.212670e+00 126 122 110
8.247945e-01 3.851342e+00 3.225388e+00 110 104 99
-4.365522e+00 3.489681e+00 3.786362e+00 172 163 148
1.309798e+00 3.857395e+00 3.497297e+00 166 156 144
-1.067634e+00 3.830695e+00 3.020765e+00 192 188 179
-1.818939e+00 3.791741e+00 3.158789e+00 94 81 73
2.074096e+00 3.840501e+00 3.963788e+00 67 60 51
2.074096e+00 3.840501e+00 3.963788e+00 67 60 51
2.108442e+00 3.841804e+00 3.981594e+00 113 106 95
-3.123475e+00 3.678176e+00 3.475633e+00 159 152 130
2.020156e+00 3.851427e+00 3.925778e+00 187 183 170
1.380835e+00 3.892003e+00 3.580021e+00 196 190 175
-1.101197e+00 3.863070e+00 3.038613e+00 183 180 174
4.926927e-01 3.918010e+00 3.123699e+00 79 66 57
-3.130851e+00 3.710289e+00 3.486913e+00 175 172 161
2.076431e+00 3.879750e+00 3.973276e+00 47 40 34
-1.933500e+00 3.830423e+00 3.214934e+00 104 99 94
3.062013e-01 3.947157e+00 3.132487e+00 96 86 81
-9.413969e-01 3.910301e+00 3.034828e+00 204 201 195
-1.718265e+00 3.862164e+00 3.183065e+00 83 72 70
-3.939068e+00 3.650368e+00 3.690821e+00 160 151 138
1.834067e-01 3.958862e+00 3.085540e+00 71 58 42
-1.965299e+00 3.850504e+00 3.226691e+00 133 131 127
2.124216e+00 3.906006e+00 4.040230e+00 197 192 177
-5.523686e-01 3.947663e+00 3.042143e+00 78 62 57
3.210740e-01 3.980100e+00 3.170291e+00 109 99 90
1.213873e-01 3.983751e+00 3.093824e+00 81 67 56
-3.551130e-01 3.971853e+00 3.033315e+00 156 144 135
2.600517e+00 3.904776e+00 4.267695e+00 79 71 66
2.600517e+00 3.904776e+00 4.267695e+00 79 71 66
-1.988490e+00 3.889737e+00 3.250814e+00 178 175 166
-4.235712e+00 3.673788e+00 3.825873e+00 134 130 124
3.163113e-01 4.003235e+00 3.186198e+00 186 182 170
1.169744e+00 3.999446e+00 3.502999e+00 118 109 100
-7.157390e-01 3.979368e+00 3.073253e+00 77 68 66
-1.687577e+00 3.921372e+00 3.207416e+00 71 58 52
-4.005317e+00 3.707733e+00 3.751662e+00 78 71 66
-6.920979e-01 3.986670e+00 3.086825e+00 193 190 183
-7.688519e-01 4.016542e+00 3.089705e+00 146 139 130
-2.674813e+00 3.900647e+00 3.477741e+00 121 112 110
-4.621121e-01 4.046626e+00 3.123816e+00 192 188 180
-3.794874e+00 3.792311e+00 3.700424e+00 162 150 131
3.382751e-01 4.071901e+00 3.218281e+00 166 158 139
2.062778e+00 4.018726e+00 4.042292e+00 205 196 187
2.671848e+00 3.979402e+00 4.385990e+00 77 66 63
-1.820014e+00 3.989754e+00 3.286869e+00 125 121 118
-2.861532e-01 4.077297e+00 3.128503e+00 179 176 168
-3.204106e+00 3.878874e+00 3.574871e+00 137 127 117
-1.608403e-01 4.084283e+00 3.123945e+00 66 58 51
-3.861235e+00 3.817232e+00 3.737205e+00 61 50 55
-1.425558e+00 4.044854e+00 3.233400e+00 197 188 176
-1.474738e+00 4.060751e+00 3.247466e+00 104 95 91
-1.474738e+00 4.060751e+00 3.247466e+00 104 95 91
-3.524676e+00 3.891148e+00 3.645570e+00 176 168 156
6.978919e-01 4.136472e+00 3.412724e+00 34 28 16
-1.361090e-01 4.149210e+00 3.211215e+00 173 168 163
2.565029e+00 4.074359e+00 4.372941e+00 95 84 81
2.565029e+00 4.074359e+00 4.372941e+00 95 84 81
-4.032196e+00 3.884014e+00 3.839169e+00 188 186 178
-1.290348e-01 4.167931e+00 3.223129e+00 177 169 156
2.326711e+00 4.112787e+00 4.225847e+00 181 171 158
-2.534253e+00 4.043573e+00 3.465576e+00 179 172 154
1.372049e+00 4.179164e+00 3.736904e+00 71 59 45
-2.557032e+00 4.065622e+00 3.526938e+00 67 54 54
2.288137e+00 4.141684e+00 4.222822e+00 173 161 139
2.559073e+00 4.127283e+00 4.418253e+00 215 209 195
2.559073e+00 4.127283e+00 4.418253e+00 215 209 195
2.525415e+00 4.132345e+00 4.393149e+00 200 195 180
2.525415e+00 4.132345e+00 4.393149e+00 200 195 180
-1.144922e+00 4.185036e+00 3.294155e+00 171 165 140
-3.289963e+00 4.021572e+00 3.635809e+00 115 106 99
-4.642094e-02 4.225127e+00 3.214384e+00 149 141 122
-1.102583e-01 4.226870e+00 3.208446e+00 94 76 72
-1.444294e+00 4.180710e+00 3.321058e+00 194 190 180
-3.496242e+00 4.025434e+00 3.721527e+00 89 79 78
-1.368895e+00 4.199999e+00 3.325709e+00 190 185 165
1.486441e+00 4.247310e+00 3.898263e+00 108 101 94
-1.357389e+00 4.217506e+00 3.326707e+00 110 102 94
4.641248e-01 4.291407e+00 3.466405e+00 182 176 160
2.391981e+00 4.223643e+00 4.346382e+00 183 176 160
1.424498e+00 4.285570e+00 3.902727e+00 126 121 117
-2.225897e+00 4.220291e+00 3.521557e+00 82 73 63
2.375621e+00 4.264773e+00 4.375399e+00 109 99 94
1.688474e+00 4.324652e+00 4.016548e+00 155 151 149
3.194834e-01 4.359577e+00 3.477322e+00 73 63 54
-2.018923e+00 4.281214e+00 3.520105e+00 175 168 150
1.689469e+00 4.338333e+00 4.027253e+00 212 209 202
-5.712842e-01 4.353579e+00 3.363972e+00 116 108 106
-3.168679e+00 4.191525e+00 3.689686e+00 108 103 101
-3.568537e+00 4.175694e+00 3.820702e+00 164 158 142
7.516265e-02 4.390163e+00 3.419774e+00 129 116 108
-3.283736e+00 4.223997e+00 3.753613e+00 184 179 170
-2.311558e-01 4.417735e+00 3.384139e+00 69 60 45
-2.485379e+00 4.308074e+00 3.593714e+00 143 136 133
1.222581e+00 4.417265e+00 3.837872e+00 141 138 132
2.103523e+00 4.388720e+00 4.291579e+00 191 183 163
-2.449758e-01 4.444205e+00 3.416886e+00 186 181 162
-8.775323e-01 4.427324e+00 3.397523e+00 162 154 140
-1.707238e-02 4.451407e+00 3.445610e+00 83 69 60
1.399336e+00 4.438158e+00 3.943365e+00 203 199 189
-3.546665e+00 4.275936e+00 3.858057e+00 220 225 228
-3.299705e+00 4.297973e+00 3.792795e+00 172 162 146
-3.114439e+00 4.316760e+00 3.755219e+00 86 76 75
1.789793e+00 4.445882e+00 4.137801e+00 183 178 167
1.198311e-01 4.488854e+00 3.519442e+00 194 185 182
9.121252e-01 4.488119e+00 3.823168e+00 202 197 179
9.121252e-01 4.488119e+00 3.823168e+00 202 197 179
-2.352865e-02 4.487958e+00 3.489598e+00 86 82 82
1.003620e+00 4.518519e+00 3.881903e+00 68 58 54
8.753359e-01 4.529494e+00 3.840839e+00 68 59 53
-1.680059e+00 4.475654e+00 3.579317e+00 118 112 100
-3.295000e+00 4.363023e+00 3.835837e+00 111 101 89
-1.978137e+00 4.465699e+00 3.609954e+00 183 181 169
-1.668398e+00 4.490390e+00 3.567288e+00 203 199 184
-3.040043e-01 4.541299e+00 3.486784e+00 201 194 179
-1.844394e+00 4.484031e+00 3.575927e+00 199 196 191
-1.493298e+00 4.505592e+00 3.563146e+00 72 57 57
7.422225e-01 4.558193e+00 3.812943e+00 170 159 142
7.422225e-01 4.558193e+00 3.812943e+00 170 159 142
-1.839870e+00 4.499052e+00 3.602072e+00 136 128 126
9.295294e-01 4.560825e+00 3.889311e+00 203 199 192
8.390914e-01 4.571403e+00 3.868024e+00 170 164 152
8.504467e-01 4.563324e+00 3.842062e+00 170 164 152
9.054960e-01 4.571272e+00 3.882283e+00 121 116 110
9.639440e-01 4.565571e+00 3.870344e+00 116 109 102
1.526394e+00 4.552844e+00 4.033246e+00 160 154 133
3.835755e+00 4.388531e+00 5.104694e+00 198 197 194
-4.300343e-01 4.579778e+00 3.479943e+00 105 96 89
1.527088e+00 4.568715e+00 4.047618e+00 83 73 74
-2.779354e+00 4.486386e+00 3.746555e+00 169 163 141
-1.339005e+00 4.599100e+00 3.617066e+00 73 63 52
-1.339005e+00 4.599100e+00 3.617066e+00 73 63 52
-2.465001e+00 4.555180e+00 3.719347e+00 91 80 80
-2.839835e+00 4.535416e+00 3.797235e+00 71 62 51
1.545621e+00 4.656269e+00 4.177205e+00 196 186 153
1.769242e+00 4.657691e+00 4.296081e+00 120 117 128
-2.840846e+00 4.583779e+00 3.825636e+00 181 178 162
-1.040558e+00 4.683204e+00 3.626306e+00 127 116 113
4.800936e-01 4.707505e+00 3.814488e+00 196 189 168
-2.885612e+00 4.598881e+00 3.856189e+00 192 189 174
-8.194820e-01 4.705805e+00 3.644916e+00 79 68 68
1.439496e+00 4.702208e+00 4.152706e+00 94 87 79
-1.007326e+00 4.708292e+00 3.654264e+00 195 191 175
-1.100264e+00 4.710702e+00 3.646439e+00 190 184 170
1.214172e+00 4.734956e+00 4.058573e+00 175 170 150
-8.079174e-01 4.755248e+00 3.668814e+00 118 109 89
-8.021740e-01 4.773391e+00 3.683011e+00 162 151 133
1.064525e+00 4.778826e+00 4.025935e+00 110 99 82
-4.393851e-02 4.786893e+00 3.703405e+00 129 117 99
-8.180425e-01 4.788143e+00 3.692321e+00 122 109 99
-9.252220e-01 4.789549e+00 3.706281e+00 192 187 175
1.614345e+00 4.777161e+00 4.286746e+00 229 229 231
-5.663827e-01 4.800293e+00 3.677383e+00 74 61 53
1.251135e+00 4.794182e+00 4.135565e+00 68 58 54
-2.076097e+00 4.744201e+00 3.746425e+00 169 162 146
-2.444911e+00 4.741330e+00 3.834347e+00 176 164 148
-5.405339e-01 4.822153e+00 3.697511e+00 174 166 148
-5.930615e-01 4.826009e+00 3.697635e+00 115 107 86
-5.930615e-01 4.826009e+00 3.697635e+00 115 107 86
-6.504083e-01 4.831376e+00 3.710196e+00 175 167 155
-1.116027e-02 4.841524e+00 3.772538e+00 146 138 114
-8.439235e-01 4.836464e+00 3.742786e+00 216 212 200
1.514804e+00 4.824980e+00 4.270927e+00 226 228 227
-1.752730e+00 4.826149e+00 3.739674e+00 153 142 117
-2.166108e+00 4.817571e+00 3.830543e+00 63 53 44
7.356644e-01 4.883626e+00 3.974256e+00 155 141 121
-2.000388e+00 4.845982e+00 3.813390e+00 161 146 125
-1.736971e+00 4.864848e+00 3.769560e+00 158 146 127
7.767391e-01 4.912714e+00 4.026362e+00 170 164 156
-1.556902e-01 4.915635e+00 3.793996e+00 95 84 83
-1.840910e+00 4.876549e+00 3.802944e+00 61 49 50
8.561361e-01 4.944500e+00 4.078417e+00 81 68 64
9.843794e-01 4.945722e+00 4.144224e+00 113 101 90
7.921410e-01 4.990798e+00 4.103341e+00 163 147 126
7.921410e-01 4.990798e+00 4.103341e+00 163 147 126
7.762572e-01 5.006903e+00 4.099224e+00 101 79 60
7.637536e-01 5.022953e+00 4.117009e+00 148 132 111
-1.940198e+00 4.992442e+00 3.898293e+00 137 123 110
-1.110645e+00 5.037530e+00 3.816132e+00 158 142 109
-1.513785e+00 5.038975e+00 3.897198e+00 78 67 66
1.348896e-01 5.078255e+00 3.941918e+00 154 138 114
3.793657e-01 5.082406e+00 4.018007e+00 145 134 109
-1.397669e+00 5.073759e+00 3.882121e+00 180 173 154
-1.320922e+00 5.080402e+00 3.870899e+00 172 163 141
-1.304568e+00 5.085735e+00 3.879797e+00 57 35 40
-1.282991e+00 5.108507e+00 3.934095e+00 196 194 182
-2.815240e-03 5.133706e+00 3.949360e+00 60 41 34
6.146180e-01 5.153543e+00 4.163556e+00 111 101 120
-5.925729e-01 5.188109e+00 3.902885e+00 101 85 63
-2.511200e-01 5.197700e+00 3.937919e+00 138 120 99
-7.670086e-01 5.206677e+00 3.926757e+00 84 66 46
-6.933568e+00 -3.969157e+00 4.823653e+00 176 174 178
-5.089165e+00 -3.539452e+00 4.343129e+00 155 151 148
3.236980e+00 -1.801129e+00 3.620875e+00 165 165 160
1.041592e-01 -1.575964e+00 1.833185e+00 73 67 74
2.302588e+00 -1.548013e+00 2.685460e+00 176 175 170
2.082109e-01 -1.567586e+00 1.952674e+00 50 46 43
1.998371e-01 -1.548399e+00 1.952277e+00 119 115 112
2.273378e+00 -1.486849e+00 2.647058e+00 117 114 109
2.273378e+00 -1.486849e+00 2.647058e+00 117 114 109
3.762970e+00 -1.742958e+00 4.117544e+00 173 172 168
3.872279e+00 -1.722198e+00 4.172064e+00 87 86 84
-3.871568e+00 -4.398607e+00 6.930666e+00 133 130 126
2.073484e+00 -1.355374e+00 2.425268e+00 147 146 143
3.833483e+00 -1.683030e+00 4.155276e+00 75 75 68
3.861089e+00 -1.678515e+00 4.162889e+00 97 98 93
2.238293e+00 -1.312841e+00 2.559078e+00 149 149 148
2.217631e+00 -1.313827e+00 2.554544e+00 86 86 86
4.821751e-01 -1.508659e+00 2.329772e+00 158 158 158
3.775813e+00 -1.642083e+00 4.131223e+00 162 158 155
3.267928e-01 -1.485950e+00 2.258932e+00 117 116 111
2.213227e+00 -1.297423e+00 2.566546e+00 163 161 164
2.552069e+00 -1.289586e+00 2.718816e+00 84 84 80
2.521923e+00 -1.280704e+00 2.688957e+00 82 84 81
3.788620e+00 -1.592444e+00 4.124477e+00 177 178 180
2.534020e+00 -1.262266e+00 2.704314e+00 88 87 85
1.026066e+00 -1.235506e+00 2.030543e+00 156 151 145
1.006330e+00 -1.208143e+00 2.037457e+00 170 167 160
-3.142591e+00 -2.464444e+00 3.605274e+00 75 73 78
-4.961691e-02 -1.137408e+00 1.634406e+00 218 218 218
2.102220e+00 -1.134495e+00 2.460338e+00 190 188 185
1.515175e+00 -1.061643e+00 2.167041e+00 98 99 93
2.868828e+00 -1.213918e+00 3.180296e+00 103 98 93
-3.299493e-01 -7.622926e-01 8.872385e-01 99 97 87
-3.299493e-01 -7.622926e-01 8.872385e-01 99 97 87
1.477092e+00 -1.042480e+00 2.157486e+00 194 194 195
1.443377e+00 -1.042138e+00 2.152589e+00 195 196 191
2.393831e+00 -1.038862e+00 2.554924e+00 116 116 116
1.402105e+00 -1.040084e+00 2.141311e+00 195 196 191
1.086193e-01 -1.090137e+00 1.789830e+00 167 163 150
-3.324657e-01 -7.458662e-01 8.947056e-01 184 184 179
1.421586e+00 -1.031339e+00 2.147320e+00 111 110 106
-2.143737e-01 -5.687843e-01 5.522196e-01 99 96 91
-8.879643e-02 -1.056768e+00 1.711271e+00 149 143 134
1.368571e+00 -1.009401e+00 2.124501e+00 109 102 96
2.211205e+00 -9.742045e-01 2.489613e+00 126 127 123
2.211205e+00 -9.742045e-01 2.489613e+00 126 127 123
-2.440733e-01 -9.921600e-01 1.630038e+00 66 65 60
1.323153e+00 -9.613667e-01 2.139856e+00 163 158 155
1.108534e-01 -9.971702e-01 1.785032e+00 173 173 162
1.105339e+00 -9.467397e-01 2.033554e+00 180 180 176
1.032843e+00 -9.298114e-01 1.993828e+00 177 178 172
1.159278e+00 -9.386706e-01 2.072448e+00 187 189 185
4.309859e-01 -9.691925e-01 1.901943e+00 115 114 97
-3.978145e-01 -7.806780e-01 1.211327e+00 124 123 119
3.403798e-01 -9.789466e-01 1.947307e+00 127 126 122
3.403798e-01 -9.789466e-01 1.947307e+00 127 126 122
5.251081e-01 -9.665151e-01 1.997366e+00 192 189 175
2.770272e-01 -9.340574e-01 1.843323e+00 132 132 122
3.809813e+00 -1.198797e+00 4.091636e+00 177 173 171
3.448007e-01 -9.367289e-01 1.891604e+00 195 194 192
1.012445e+00 -8.955061e-01 2.049930e+00 141 140 135
2.751934e-01 -9.568356e-01 1.947022e+00 196 197 192
2.287285e-01 -9.189267e-01 1.856045e+00 128 126 114
2.287285e-01 -9.189267e-01 1.856045e+00 128 126 114
1.006292e+00 -8.628050e-01 2.004920e+00 135 132 125
1.879439e+00 -8.041672e-01 2.254208e+00 143 144 139
2.659324e+00 -8.880279e-01 2.863732e+00 142 137 133
1.083637e+00 -8.414108e-01 2.060567e+00 140 141 136
1.054943e+00 -8.481299e-01 2.061761e+00 177 177 175
3.662587e+00 -1.114683e+00 3.991088e+00 166 165 164
2.775915e+00 -8.313417e-01 2.976333e+00 162 156 150
3.555692e+00 -1.004967e+00 3.861227e+00 159 156 152
2.785230e+00 -8.178376e-01 2.984290e+00 127 122 114
2.819765e+00 -8.093909e-01 3.001456e+00 133 129 120
-1.359885e-01 -8.476273e-01 1.907130e+00 139 140 135
-1.359885e-01 -8.476273e-01 1.907130e+00 139 140 135
2.611282e+00 -7.752698e-01 2.844096e+00 119 112 104
-3.914922e+00 -1.902156e+00 3.420570e+00 142 138 135
-4.514772e-01 -7.468100e-01 1.660596e+00 191 188 175
4.022810e+00 -1.031020e+00 4.338253e+00 111 107 97
-4.371417e-01 -6.902838e-01 1.562947e+00 180 177 161
9.278096e-01 -7.063854e-01 2.072435e+00 174 172 160
2.115777e+00 -6.226441e-01 2.369735e+00 131 130 126
2.015980e+00 -5.647271e-01 2.285799e+00 166 165 160
-4.382355e-01 -7.568657e-01 1.930246e+00 152 149 139
1.663658e+00 -5.351766e-01 2.160809e+00 167 162 158
4.011765e+00 -9.223488e-01 4.329386e+00 165 164 160
4.023994e+00 -9.105694e-01 4.331911e+00 116 115 113
2.613308e+00 -6.174935e-01 2.853072e+00 162 159 152
6.597708e-02 -7.233408e-01 2.090357e+00 107 101 97
-2.545634e+00 -1.438777e+00 3.016848e+00 173 172 167
3.013436e-02 -7.006775e-01 2.076990e+00 76 73 64
3.957628e+00 -8.497875e-01 4.240071e+00 166 165 162
3.933552e+00 -8.492268e-01 4.225968e+00 172 171 166
9.444106e-01 -5.539516e-01 2.077978e+00 157 153 142
1.881224e+00 -4.321607e-01 2.182599e+00 113 113 101
9.630430e-01 -5.286331e-01 2.088032e+00 87 83 74
6.483516e-01 -5.420446e-01 2.078319e+00 100 93 82
6.483516e-01 -5.420446e-01 2.078319e+00 100 93 82
3.828736e-03 -6.583687e-01 2.142440e+00 174 174 163
9.560365e-01 -4.998981e-01 2.104304e+00 110 108 96
1.384383e-02 -6.368466e-01 2.192971e+00 110 110 99
2.252102e+00 -3.631552e-01 2.366111e+00 152 146 130
2.609916e+00 -4.554808e-01 2.810958e+00 123 115 102
2.661985e+00 -4.308719e-01 2.844309e+00 152 146 138
1.220513e+00 -3.470458e-01 2.045580e+00 189 188 183
-3.777090e-01 -6.364075e-01 2.220488e+00 137 133 121
3.959107e+00 -6.156761e-01 4.173800e+00 153 147 137
2.664758e+00 -3.444101e-01 2.826409e+00 92 91 86
-3.420763e+00 -1.188112e+00 2.970223e+00 185 180 174
3.105282e+00 -3.736623e-01 3.241478e+00 111 110 106
3.522544e+00 -4.374939e-01 3.690729e+00 175 170 151
3.494475e+00 -4.367153e-01 3.686986e+00 100 94 79
2.725132e-01 -3.467551e-01 2.064407e+00 185 183 172
3.961574e+00 -5.193133e-01 4.187845e+00 88 82 77
3.514952e+00 -4.236837e-01 3.701258e+00 105 102 88
1.183209e+00 -2.019821e-01 2.082128e+00 172 171 167
3.578056e+00 -4.060163e-01 3.731336e+00 95 91 82
3.520153e+00 -4.042474e-01 3.705400e+00 150 144 133
3.520153e+00 -4.042474e-01 3.705400e+00 150 144 133
1.954284e+00 -1.448912e-01 2.267651e+00 168 165 156
1.782029e+00 -1.038436e-01 2.188468e+00 113 108 99
1.060466e+00 -1.223029e-01 2.078145e+00 183 178 172
2.779312e+00 -1.410290e-01 2.863737e+00 128 126 113
2.734530e+00 -1.307318e-01 2.835769e+00 118 114 105
2.734530e+00 -1.307318e-01 2.835769e+00 118 114 105
3.036620e+00 -1.950413e-01 3.176746e+00 155 150 146
-3.118379e+00 -8.152640e-01 2.702805e+00 147 142 138
2.789517e+00 -1.220061e-01 2.872128e+00 125 121 110
1.367673e+00 -7.199740e-02 2.157369e+00 92 87 81
1.891767e-01 -2.275972e-01 2.149774e+00 151 150 146
2.677609e+00 -9.373079e-02 2.800710e+00 124 119 113
8.614234e-01 -4.697734e-02 1.995680e+00 115 116 110
6.900654e-01 -7.139607e-02 2.025612e+00 173 173 173
8.687238e-02 -1.592289e-01 2.044664e+00 106 107 105
3.519256e+00 -2.051470e-01 3.668098e+00 157 153 150
4.340301e+00 -3.442774e-01 4.551105e+00 155 151 141
3.124335e+00 -9.165142e-02 3.241917e+00 161 158 151
3.151569e+00 -6.007712e-02 3.188242e+00 151 148 144
2.554939e+00 5.294816e-02 2.628982e+00 172 164 146
2.580552e+00 5.742729e-02 2.690729e+00 163 156 146
3.412401e+00 -7.913382e-02 3.597577e+00 114 109 103
3.330918e+00 -3.498416e-02 3.470068e+00 157 154 147
1.912742e+00 1.980772e-01 2.173969e+00 89 84 78
-1.668201e+00 -1.422300e-01 1.870376e+00 79 75 78
-3.094580e+00 -4.918032e-01 2.575081e+00 170 163 156
2.755722e+00 1.390927e-01 2.808596e+00 144 140 129
2.258499e+00 2.420759e-01 2.304367e+00 175 168 157
3.333164e+00 2.517320e-02 3.456059e+00 122 115 104
8.353740e-01 1.909766e-01 1.913984e+00 173 172 167
-5.437964e-01 2.385143e-02 1.915086e+00 98 86 77
-1.686828e+00 -5.002781e-02 1.772590e+00 80 76 73
1.394333e+00 2.301535e-01 2.075216e+00 129 126 119
9.399305e-01 1.997207e-01 2.005078e+00 192 191 186
-9.110838e-01 4.388643e-02 1.827878e+00 122 117 114
1.794559e+00 2.635192e-01 2.167191e+00 210 207 197
-1.518992e+00 -1.300302e-02 1.801989e+00 124 117 107
-2.481028e+00 -2.726080e-01 2.281312e+00 162 157 151
3.438043e+00 5.244101e-02 3.590491e+00 121 117 113
3.438043e+00 5.244101e-02 3.590491e+00 121 117 113
1.577100e+00 2.886570e-01 2.075328e+00 129 120 106
-3.888097e+00 -6.243456e-01 2.951832e+00 92 85 70
2.924339e+00 1.698283e-01 3.023871e+00 158 151 148
-1.182232e+00 6.459577e-02 1.766356e+00 75 67 55
-1.182232e+00 6.459577e-02 1.766356e+00 75 67 55
1.313741e+00 2.772121e-01 2.048317e+00 111 107 104
-3.219953e-01 1.241455e-01 1.926555e+00 139 136 129
-9.308336e-01 1.146906e-01 1.756158e+00 160 144 128
1.593717e+00 2.959557e-01 2.123423e+00 122 114 109
-9.027960e-01 1.143337e-01 1.793555e+00 66 61 54
1.355919e+00 3.267265e-01 1.986928e+00 148 145 138
-9.498368e-01 1.291541e-01 1.752594e+00 74 60 48
-1.583551e+00 4.457628e-02 1.796330e+00 133 125 105
3.328314e+00 1.206406e-01 3.499060e+00 170 167 156
7.270012e-01 2.838380e-01 1.941584e+00 127 125 119
7.270012e-01 2.838380e-01 1.941584e+00 127 125 119
4.985025e-01 2.479777e-01 1.982982e+00 86 80 73
-1.632447e+00 6.672238e-02 1.814255e+00 193 187 172
-9.919957e-01 1.577302e-01 1.780138e+00 74 66 64
-3.875876e+00 -5.170739e-01 2.928099e+00 152 141 123
5.735930e-01 2.912051e-01 1.959841e+00 180 176 167
-2.408869e+00 -1.371497e-01 2.238601e+00 59 53 42
-6.340610e+00 -1.085239e+00 4.010166e+00 158 154 144
2.198617e+00 4.068225e-01 2.294954e+00 98 89 82
-1.922416e+00 4.053456e-02 1.908712e+00 109 101 90
1.939534e+00 4.189246e-01 2.174613e+00 93 85 72
7.690441e-01 3.461441e-01 1.966490e+00 33 28 29
7.690441e-01 3.461441e-01 1.966490e+00 33 28 29
-2.474275e+00 -1.211446e-01 2.254960e+00 92 83 74
2.497301e+00 3.532567e-01 2.617363e+00 99 93 81
-3.793894e+00 -4.330554e-01 2.873759e+00 152 144 124
6.610042e-01 3.525486e-01 1.966134e+00 172 169 157
2.275166e+00 4.468776e-01 2.306171e+00 105 102 97
2.514855e+00 3.775140e-01 2.657141e+00 172 166 153
2.536551e+00 3.859099e-01 2.675424e+00 167 161 145
-6.662266e-02 3.352582e-01 1.891677e+00 187 183 174
1.992418e+00 4.921648e-01 2.210953e+00 125 120 114
1.992418e+00 4.921648e-01 2.210953e+00 125 120 114
-6.689685e-02 3.508380e-01 1.940983e+00 86 82 70
-3.470166e-01 3.275093e-01 1.930662e+00 112 108 97
-3.470166e-01 3.275093e-01 1.930662e+00 112 108 97
-2.465170e+00 3.714050e-04 2.222101e+00 117 114 109
-1.496688e+00 2.573382e-01 1.767284e+00 133 124 109
-4.029032e+00 -3.819621e-01 2.979579e+00 178 170 163
2.201441e+00 5.592987e-01 2.235538e+00 124 117 107
2.454055e+00 4.693518e-01 2.650816e+00 171 161 151
-1.980493e+00 1.829073e-01 1.912440e+00 103 94 86
-2.924270e+00 -8.050195e-02 2.463236e+00 81 70 66
4.682467e-01 4.580873e-01 1.945558e+00 177 173 163
-5.280501e-01 3.782939e-01 1.888521e+00 186 182 169
1.224131e+00 5.372922e-01 2.050150e+00 171 165 152
4.162162e+00 2.001184e-01 4.359975e+00 138 131 119
-3.726168e+00 -2.328772e-01 2.814340e+00 142 131 111
2.036098e+00 5.919628e-01 2.221941e+00 114 107 88
4.120299e+00 2.139419e-01 4.341277e+00 162 154 153
1.240797e+00 5.487779e-01 2.065263e+00 81 74 66
1.294764e+00 5.580038e-01 2.085068e+00 114 109 105
6.763660e-01 5.137551e-01 2.012123e+00 112 109 98
5.181996e-01 5.006234e-01 1.994322e+00 178 177 173
4.124522e+00 2.367756e-01 4.342420e+00 67 62 59
1.041467e+00 5.570512e-01 2.040592e+00 88 82 70
1.749319e+00 6.274028e-01 2.096532e+00 170 157 143
8.865764e-01 5.823469e-01 1.913157e+00 87 84 75
1.702813e+00 6.294394e-01 2.093952e+00 74 64 58
3.191866e-01 5.107944e-01 1.962861e+00 120 118 114
-1.577227e+00 3.610248e-01 1.760923e+00 193 186 178
-2.807614e+00 3.572604e-02 2.392073e+00 90 87 81
-1.476016e-01 4.755112e-01 1.922088e+00 126 123 114
-5.573198e-01 4.552900e-01 1.839010e+00 163 158 151
-1.592622e+00 3.657719e-01 1.757698e+00 92 88 84
-6.142300e-01 4.564545e-01 1.833426e+00 174 170 158
-1.477387e+00 3.846165e-01 1.772034e+00 112 105 95
1.841984e+00 6.533771e-01 2.140636e+00 93 86 66
1.571861e+00 6.403030e-01 2.080821e+00 114 106 96
2.457359e+00 5.852762e-01 2.619899e+00 122 114 100
-1.701505e+00 3.618751e-01 1.810149e+00 161 157 146
-1.774087e+00 3.523075e-01 1.816140e+00 164 161 152
3.227191e+00 4.584840e-01 3.388815e+00 109 102 90
3.227191e+00 4.584840e-01 3.388815e+00 109 102 90
-3.833397e+00 -1.743906e-01 2.869371e+00 169 161 153
-2.201545e-01 4.918285e-01 1.943180e+00 176 172 160
8.213734e-01 6.220781e-01 1.943482e+00 116 110 98
-8.242031e-01 4.991011e-01 1.769786e+00 124 117 101
-4.885071e+00 -4.065307e-01 3.348524e+00 174 171 166
-9.041927e-01 4.913987e-01 1.779764e+00 174 167 153
3.246056e+00 5.062703e-01 3.347997e+00 79 75 60
3.200171e+00 4.959022e-01 3.368700e+00 79 71 65
4.086115e+00 3.250893e-01 4.314175e+00 89 80 71
-1.233382e+00 4.913060e-01 1.764233e+00 185 177 167
-1.292995e+00 5.162233e-01 1.720052e+00 167 162 152
8.088442e-01 6.711112e-01 1.990123e+00 103 100 95
2.929316e-01 6.569530e-01 1.875597e+00 101 98 92
2.901582e-01 6.504863e-01 1.888260e+00 101 98 92
-8.837252e-01 5.636732e-01 1.762436e+00 125 116 106
5.536463e-01 6.887961e-01 1.917356e+00 112 107 101
3.298654e+00 5.431538e-01 3.494474e+00 96 89 75
1.574406e+00 7.656339e-01 2.079458e+00 178 169 153
2.746030e+00 6.581858e-01 2.912625e+00 153 142 137
2.746030e+00 6.581858e-01 2.912625e+00 153 142 137
9.178894e-01 7.358332e-01 1.973784e+00 127 121 112
4.818735e-01 7.196671e-01 1.899564e+00 171 163 147
8.569279e-01 7.335375e-01 2.038176e+00 95 85 77
2.915913e+00 6.744233e-01 3.057101e+00 106 97 87
4.541677e-01 7.369974e-01 1.909494e+00 178 174 163
5.258597e-01 7.463634e-01 1.930982e+00 178 175 170
3.583265e+00 5.542053e-01 3.808974e+00 189 180 171
3.583265e+00 5.542053e-01 3.808974e+00 189 180 171
-1.786558e-01 7.657941e-01 1.711961e+00 91 90 85
2.371507e+00 7.902503e-01 2.551076e+00 110 98 83
1.249773e+00 8.577714e-01 1.995323e+00 167 164 155
8.405640e-01 8.351491e-01 1.930030e+00 161 160 143
4.171590e-01 8.039740e-01 1.913329e+00 194 189 183
-6.008166e+00 -4.099607e-01 3.848273e+00 92 87 85
1.819975e+00 9.030333e-01 2.127501e+00 174 166 152
1.457898e+00 8.973949e-01 2.028778e+00 175 169 157
3.702058e+00 6.039930e-01 3.926524e+00 98 92 79
3.702058e+00 6.039930e-01 3.926524e+00 98 92 79
2.118171e+00 9.042679e-01 2.243573e+00 112 104 93
1.230914e+00 8.721811e-01 2.056483e+00 171 166 160
4.133599e+00 5.314008e-01 4.377190e+00 181 176 170
-1.351162e+00 6.902716e-01 1.728831e+00 185 176 157
-1.489381e+00 6.722693e-01 1.749843e+00 184 176 163
2.047233e+00 9.182526e-01 2.213380e+00 74 68 62
8.551462e-01 8.701940e-01 1.970011e+00 175 172 166
1.139730e+00 9.047628e-01 1.976699e+00 161 156 153
1.006218e+00 8.948412e-01 1.970550e+00 165 160 145
1.165562e+00 8.936836e-01 2.028435e+00 97 91 83
4.051306e+00 5.622204e-01 4.309743e+00 167 163 152
4.051306e+00 5.622204e-01 4.309743e+00 167 163 152
-1.208576e+00 7.350327e-01 1.715629e+00 192 178 159
-1.269177e+00 7.294472e-01 1.707963e+00 141 131 104
-1.652691e+00 6.832708e-01 1.779889e+00 178 172 156
2.765839e+00 8.264195e-01 3.008261e+00 121 118 113
4.151200e+00 5.844137e-01 4.403933e+00 171 167 155
4.005955e+00 6.056779e-01 4.275171e+00 66 60 55
3.580373e+00 6.805158e-01 3.840107e+00 178 170 154
1.118959e+00 9.279566e-01 2.041649e+00 179 177 166
1.042305e+00 9.412856e-01 1.976531e+00 125 117 109
1.461461e-01 8.930469e-01 1.817868e+00 57 56 52
-4.171959e-01 8.308468e-01 1.814294e+00 167 162 156
8.990990e-01 9.235468e-01 1.997375e+00 87 82 77
6.255229e-01 8.923123e-01 1.991287e+00 165 158 147
3.587451e+00 6.930288e-01 3.851352e+00 143 132 114
7.943850e-01 9.123693e-01 2.024577e+00 97 91 82
8.806872e-01 9.325398e-01 2.004840e+00 167 164 157
-3.721862e+00 2.347032e-01 2.795292e+00 104 97 82
2.278688e-01 9.114984e-01 1.871896e+00 102 95 81
7.803495e-01 9.744110e-01 1.950736e+00 165 160 154
-1.104601e+00 8.330422e-01 1.738353e+00 99 93 79
6.341199e-01 9.344358e-01 2.023453e+00 168 160 146
-1.546271e+00 7.862386e-01 1.754228e+00 91 83 72
-3.579773e+00 3.148190e-01 2.721837e+00 172 170 165
-2.246575e+00 6.489079e-01 2.063035e+00 154 148 148
-1.888984e-01 9.314138e-01 1.858707e+00 93 90 86
-8.221555e-01 9.022086e-01 1.731619e+00 117 113 99
1.462044e+00 1.052920e+00 2.069919e+00 186 178 163
2.810761e+00 9.546638e-01 3.011276e+00 163 156 146
2.280723e+00 1.031707e+00 2.531087e+00 117 106 92
-2.520251e+00 6.244371e-01 2.249487e+00 98 89 71
5.839032e-01 1.030590e+00 1.955267e+00 75 71 61
7.044506e-01 1.052451e+00 1.975990e+00 148 139 119
6.885778e-01 1.034859e+00 2.011775e+00 148 139 119
5.655696e-01 1.036613e+00 1.975615e+00 193 187 173
5.655696e-01 1.036613e+00 1.975615e+00 193 187 173
3.034434e+00 9.580076e-01 3.264414e+00 87 80 63
5.414101e-01 1.073998e+00 1.938708e+00 171 162 153
7.787153e-01 1.084409e+00 1.992724e+00 95 87 84
7.787153e-01 1.084409e+00 1.992724e+00 95 87 84
-4.174545e+00 2.973785e-01 3.007762e+00 142 132 122
3.518038e+00 8.809389e-01 3.772262e+00 157 151 137
-1.576742e-02 1.054206e+00 1.846014e+00 179 174 163
4.104203e-02 1.069025e+00 1.860224e+00 120 114 102
8.508248e-01 1.132233e+00 1.953065e+00 198 193 189
2.578292e-01 1.087551e+00 1.891739e+00 196 192 184
-3.434757e-02 1.055213e+00 1.910203e+00 112 109 99
-8.390546e-01 1.016912e+00 1.756948e+00 124 111 94
3.057368e+00 9.890138e-01 3.323687e+00 144 136 125
-2.430150e+00 7.552101e-01 2.196979e+00 85 79 71
-3.423192e+00 5.345386e-01 2.662159e+00 80 69 65
1.502562e+00 1.186339e+00 2.115602e+00 121 113 105
-1.158107e+00 1.023269e+00 1.736500e+00 147 143 138
-8.444666e-01 1.042684e+00 1.807742e+00 178 169 152
5.435582e-01 1.149238e+00 1.949502e+00 131 127 116
5.435582e-01 1.149238e+00 1.949502e+00 131 127 116
-6.866891e-01 1.084207e+00 1.717566e+00 175 168 158
-6.866891e-01 1.084207e+00 1.717566e+00 175 168 158
-3.422934e+00 5.552942e-01 2.663166e+00 174 169 167
-1.231564e+00 1.036944e+00 1.726122e+00 174 174 166
2.754343e+00 1.094999e+00 3.004873e+00 149 142 135
3.903586e+00 8.864986e-01 4.214409e+00 122 112 100
-1.132712e+00 1.055500e+00 1.732690e+00 144 139 136
1.075134e+00 1.216263e+00 2.001446e+00 83 77 73
6.606993e-01 1.162032e+00 2.023620e+00 178 175 166
6.606993e-01 1.162032e+00 2.023620e+00 178 175 166
-9.768740e-03 1.136002e+00 1.926138e+00 178 173 170
3.194434e-02 1.175875e+00 1.855773e+00 116 110 106
-3.090666e+00 6.886810e-01 2.525254e+00 164 158 141
-1.100300e+00 1.104127e+00 1.744689e+00 44 39 36
3.463287e+00 1.032615e+00 3.732822e+00 155 148 129
1.430695e+00 1.290269e+00 2.058859e+00 177 162 142
-3.083831e+00 7.287466e-01 2.517711e+00 179 173 161
5.810140e-01 1.273217e+00 1.906419e+00 123 118 107
2.069586e+00 1.292636e+00 2.351847e+00 180 169 153
2.644622e+00 1.201019e+00 2.932998e+00 88 86 82
3.440992e+00 1.067874e+00 3.733646e+00 173 162 146
-3.376610e-01 1.231556e+00 1.751948e+00 132 117 91
9.526547e-01 1.311333e+00 1.955987e+00 155 144 124
2.585560e+00 1.223346e+00 2.877935e+00 180 177 168
5.353351e-01 1.288198e+00 1.953227e+00 135 131 120
4.673938e-01 1.287951e+00 1.945383e+00 116 113 106
2.894373e+00 1.183537e+00 3.216027e+00 174 169 158
-2.649024e+00 8.726467e-01 2.347707e+00 151 141 124
4.463571e-01 1.320490e+00 1.869424e+00 185 180 173
-3.069462e-01 1.270452e+00 1.749135e+00 113 92 67
-1.682562e+00 1.091574e+00 1.887782e+00 155 147 136
3.156716e+00 1.171896e+00 3.397239e+00 182 173 166
-3.411035e+00 7.484996e-01 2.672417e+00 164 154 148
2.652322e-02 1.317206e+00 1.828233e+00 189 186 177
1.876769e-01 1.346594e+00 1.805918e+00 114 101 93
-3.197185e+00 8.117630e-01 2.578581e+00 148 132 112
-4.893371e+00 4.500329e-01 3.351792e+00 126 125 123
-3.116582e+00 8.432907e-01 2.542885e+00 166 153 136
2.113629e+00 1.423157e+00 2.442758e+00 135 123 103
2.273628e+00 1.410296e+00 2.579872e+00 145 133 116
3.345844e+00 1.229024e+00 3.682636e+00 72 62 53
1.968967e+00 1.452628e+00 2.340836e+00 146 138 118
1.923412e+00 1.468318e+00 2.297883e+00 123 113 103
2.913911e+00 1.315944e+00 3.277367e+00 131 119 105
-2.582041e+00 1.046832e+00 2.324735e+00 163 155 152
-2.313880e+00 1.106632e+00 2.209299e+00 165 162 150
2.962936e+00 1.323057e+00 3.338650e+00 157 149 133
-3.837702e+00 8.012615e-01 2.876119e+00 162 152 139
1.327846e-01 1.451926e+00 1.870401e+00 185 181 178
2.971510e+00 1.348618e+00 3.332380e+00 104 94 84
2.143515e+00 1.483512e+00 2.526823e+00 166 157 142
1.223354e+00 1.515632e+00 2.090911e+00 71 61 52
1.223354e+00 1.515632e+00 2.090911e+00 71 61 52
1.073649e-01 1.476784e+00 1.877264e+00 118 109 99
2.958989e+00 1.355790e+00 3.340234e+00 175 167 156
3.272285e+00 1.316484e+00 3.638358e+00 103 95 83
5.185148e-01 1.519312e+00 1.951285e+00 162 144 120
-2.258681e-01 1.487530e+00 1.785246e+00 67 53 41
2.337526e+00 1.495542e+00 2.662715e+00 68 56 40
1.889445e-02 1.519610e+00 1.763877e+00 116 114 106
-3.057888e+00 1.028882e+00 2.525905e+00 168 164 154
2.401257e+00 1.480659e+00 2.806891e+00 181 175 162
1.933982e+00 1.555039e+00 2.386327e+00 90 81 73
5.008546e-01 1.552051e+00 1.964830e+00 162 153 141
3.777877e+00 1.290202e+00 4.185890e+00 133 128 122
-3.743172e+00 9.363916e-01 2.846294e+00 119 104 84
3.242034e+00 1.405613e+00 3.600022e+00 113 100 94
-3.634180e+00 9.749676e-01 2.795724e+00 153 141 120
7.345132e-01 1.625046e+00 1.883262e+00 66 61 57
2.321481e+00 1.564418e+00 2.727138e+00 97 84 66
-4.690404e+00 7.914582e-01 3.282912e+00 157 155 143
2.741877e+00 1.512539e+00 3.169656e+00 141 132 124
1.920019e+00 1.647794e+00 2.389387e+00 77 70 60
-4.562408e+00 8.452301e-01 3.221414e+00 90 77 70
-1.944435e+00 1.389089e+00 2.057922e+00 162 160 149
-3.760803e+00 1.029862e+00 2.867406e+00 173 157 142
-8.805462e-01 1.567723e+00 1.792781e+00 179 171 153
2.224184e-01 1.673850e+00 1.890472e+00 118 110 103
3.350428e+00 1.488801e+00 3.741638e+00 114 105 92
1.178843e+00 1.731454e+00 2.040678e+00 134 129 126
-3.199722e+00 1.191703e+00 2.633199e+00 111 107 99
1.794340e+00 1.729311e+00 2.272692e+00 86 73 54
1.794340e+00 1.729311e+00 2.272692e+00 86 73 54
-2.659524e-01 1.674319e+00 1.796382e+00 174 162 146
-3.716468e+00 1.088662e+00 2.860365e+00 107 102 93
2.219529e-01 1.702550e+00 1.886352e+00 177 169 164
3.438277e-01 1.722088e+00 1.907865e+00 129 121 108
1.788695e+00 1.748298e+00 2.289625e+00 147 130 110
1.788695e+00 1.748298e+00 2.289625e+00 147 130 110
3.720787e+00 1.485924e+00 4.047273e+00 99 92 85
3.721848e+00 1.465316e+00 4.129886e+00 99 92 85
2.345920e+00 1.680445e+00 2.835435e+00 144 134 121
-1.353893e+00 1.591104e+00 1.869797e+00 170 161 144
2.682634e+00 1.650794e+00 3.170145e+00 181 172 164
-3.160081e-01 1.744419e+00 1.792767e+00 126 114 92
-2.961113e+00 1.331981e+00 2.570995e+00 174 164 155
3.163387e+00 1.610793e+00 3.637399e+00 173 165 154
-3.210548e-01 1.761177e+00 1.805866e+00 66 58 53
-1.340139e+00 1.649654e+00 1.885936e+00 165 154 132
-3.596527e+00 1.224539e+00 2.830967e+00 108 99 86
-3.596527e+00 1.224539e+00 2.830967e+00 108 99 86
3.148476e+00 1.624268e+00 3.623623e+00 122 113 101
3.148476e+00 1.624268e+00 3.623623e+00 122 113 101
8.546479e-01 1.848716e+00 1.926863e+00 166 148 123
-3.313987e-01 1.773101e+00 1.820549e+00 178 174 163
2.636866e+00 1.699417e+00 3.194089e+00 131 122 121
2.675487e+00 1.709862e+00 3.185252e+00 191 187 174
-3.456232e-01 1.807297e+00 1.796567e+00 79 74 65
-6.089173e-01 1.806035e+00 1.678959e+00 145 136 121
7.853232e-01 1.879509e+00 1.942423e+00 159 156 148
2.095351e+00 1.832292e+00 2.641915e+00 136 124 102
-1.563522e+00 1.670957e+00 2.006947e+00 72 57 38
-2.768915e+00 1.449054e+00 2.488815e+00 154 138 123
-2.800557e+00 1.452406e+00 2.516338e+00 101 86 73
-3.682505e+00 1.284186e+00 2.878068e+00 163 158 153
4.053385e+00 1.552801e+00 4.507810e+00 180 174 169
3.735772e-01 1.898422e+00 1.866241e+00 187 185 175
-2.883991e+00 1.442656e+00 2.554455e+00 128 114 97
2.056972e+00 1.881241e+00 2.642665e+00 161 157 149
-6.634329e-01 1.857964e+00 1.779433e+00 100 90 81
2.000553e+00 1.901375e+00 2.548979e+00 110 97 88
-3.425304e-01 1.892414e+00 1.802228e+00 108 108 105
1.501281e+00 1.954532e+00 2.180880e+00 103 91 79
1.126384e+00 1.967167e+00 2.007911e+00 108 105 100
2.524982e+00 1.820937e+00 3.133273e+00 178 171 162
-3.600411e-01 1.894946e+00 1.805689e+00 179 178 176
-6.604382e-01 1.875004e+00 1.791695e+00 169 159 147
1.821625e+00 1.931152e+00 2.479649e+00 91 79 81
-7.327024e-01 1.871520e+00 1.793852e+00 157 153 141
-4.468073e-01 1.934701e+00 1.780786e+00 131 124 105
1.656870e+00 1.975785e+00 2.420807e+00 105 96 88
-5.725125e+00 1.010647e+00 3.759555e+00 164 161 157
1.080980e+00 2.001476e+00 2.112817e+00 194 191 185
2.586071e+00 1.892682e+00 3.169704e+00 167 160 152
-2.768853e+00 1.611427e+00 2.541873e+00 176 169 163
2.628773e+00 1.917242e+00 3.193052e+00 126 119 103
-1.843678e+00 1.790486e+00 2.157547e+00 128 118 93
2.513191e+00 1.945275e+00 3.104908e+00 173 165 152
2.450275e+00 1.952625e+00 3.062110e+00 181 172 163
1.955834e+00 2.028635e+00 2.613265e+00 132 119 103
-3.535664e+00 1.510734e+00 2.854309e+00 103 98 91
-3.535664e+00 1.510734e+00 2.854309e+00 103 98 91
2.918178e+00 1.898914e+00 3.502826e+00 177 169 159
-2.627789e+00 1.678044e+00 2.501078e+00 153 146 139
2.902506e+00 1.920606e+00 3.491627e+00 118 109 102
2.350817e+00 2.018280e+00 2.983120e+00 133 125 105
-3.455359e+00 1.579324e+00 2.838353e+00 163 156 147
-4.223913e+00 1.438789e+00 3.159372e+00 159 148 129
-2.664826e+00 1.729860e+00 2.537317e+00 154 145 140
-1.075065e+00 2.005577e+00 1.898730e+00 89 76 59
-3.456212e+00 1.608490e+00 2.834839e+00 123 119 107
-4.158514e+00 1.485061e+00 3.135960e+00 171 165 150
2.944734e+00 1.973215e+00 3.531703e+00 160 153 134
-1.498501e+00 1.964307e+00 2.038439e+00 118 106 90
-3.418577e+00 1.625959e+00 2.821547e+00 150 142 132
2.456974e+00 2.035869e+00 3.180916e+00 137 128 120
1.851153e+00 2.117592e+00 2.587140e+00 131 117 90
-2.709288e+00 1.756379e+00 2.544574e+00 83 76 72
-1.913508e+00 1.894540e+00 2.252446e+00 175 170 162
-3.293420e+00 1.664142e+00 2.765211e+00 165 156 141
-3.266647e+00 1.680302e+00 2.763605e+00 91 82 78
2.465876e+00 2.072588e+00 3.145148e+00 186 177 172
1.640323e+00 2.172555e+00 2.413256e+00 179 171 159
-2.813731e+00 1.772676e+00 2.550661e+00 119 111 101
-2.738212e+00 1.794752e+00 2.535858e+00 177 171 155
6.430219e-01 2.217606e+00 1.908582e+00 85 75 73
-3.276220e+00 1.702796e+00 2.769157e+00 166 160 149
1.606575e+00 2.190132e+00 2.395262e+00 123 114 108
-2.850751e+00 1.784354e+00 2.566389e+00 132 120 107
-2.658264e+00 1.815674e+00 2.547010e+00 187 183 171
-2.433071e+00 1.858866e+00 2.438026e+00 176 175 173
-2.615813e+00 1.825115e+00 2.533414e+00 179 174 170
-9.569579e-01 2.104851e+00 1.862470e+00 153 140 119
-5.175520e+00 1.371530e+00 3.576445e+00 154 151 144
-3.574497e+00 1.673779e+00 2.896956e+00 170 169 167
-2.384490e+00 1.888306e+00 2.412818e+00 174 170 167
-9.921191e-01 2.113660e+00 1.906347e+00 147 130 110
2.879245e+00 2.056769e+00 3.534355e+00 117 107 96
2.042731e+00 2.170090e+00 2.759924e+00 89 82 71
1.663704e+00 2.210415e+00 2.454029e+00 158 149 132
1.663704e+00 2.210415e+00 2.454029e+00 158 149 132
-3.696017e-01 2.186731e+00 1.827315e+00 74 63 57
-3.326852e+00 1.726766e+00 2.804743e+00 123 114 105
-3.326852e+00 1.726766e+00 2.804743e+00 123 114 105
-3.433050e+00 1.711576e+00 2.846884e+00 195 195 187
-3.303475e+00 1.738409e+00 2.797297e+00 183 176 161
2.412887e+00 2.131505e+00 3.093965e+00 123 113 111
-1.242256e+00 2.095135e+00 2.032319e+00 166 162 135
2.861361e+00 2.089902e+00 3.508393e+00 110 100 90
1.384924e+00 2.249390e+00 2.366790e+00 158 144 123
1.366943e+00 2.251438e+00 2.363852e+00 104 90 73
1.366943e+00 2.251438e+00 2.363852e+00 104 90 73
-2.439690e-01 2.238190e+00 1.851670e+00 128 121 105
-1.639089e+00 2.055217e+00 2.202326e+00 138 128 118
-1.639089e+00 2.055217e+00 2.202326e+00 138 128 118
3.331084e+00 2.050313e+00 3.964079e+00 173 166 154
-1.438117e+00 2.130450e+00 2.066762e+00 121 110 92
-2.957642e-01 2.274444e+00 1.873656e+00 114 106 98
3.321849e+00 2.102846e+00 3.992352e+00 183 174 166
-3.191402e+00 1.875330e+00 2.795939e+00 151 142 133
-2.427614e+00 2.024544e+00 2.493510e+00 150 145 126
4.160268e-01 2.378822e+00 1.851628e+00 81 62 52
4.160268e-01 2.378822e+00 1.851628e+00 81 62 52
-6.300246e+00 1.364006e+00 4.032744e+00 93 86 77
3.334535e+00 2.138976e+00 4.030636e+00 201 197 189
4.366314e-01 2.398904e+00 1.861052e+00 125 117 96
2.266527e+00 2.286441e+00 3.063078e+00 173 164 139
-1.140795e+00 2.257209e+00 2.046336e+00 78 65 50
3.356048e+00 2.155162e+00 4.048191e+00 193 186 180
-2.338951e+00 2.079134e+00 2.486030e+00 104 93 84
-2.492936e+00 2.056361e+00 2.516357e+00 94 87 77
-4.330703e+00 1.748958e+00 3.252881e+00 119 115 118
-3.175969e+00 1.951590e+00 2.800813e+00 175 171 158
-4.956506e+00 1.645274e+00 3.523437e+00 98 94 84
2.238558e+00 2.320110e+00 3.064073e+00 107 98 90
-2.231886e+00 2.138462e+00 2.460863e+00 135 126 108
-2.231886e+00 2.138462e+00 2.460863e+00 135 126 108
2.136359e+00 2.372542e+00 3.006567e+00 66 62 61
-1.376324e+00 2.290049e+00 2.178868e+00 165 158 137
1.786555e+00 2.416692e+00 2.705653e+00 81 71 62
2.147680e+00 2.375449e+00 3.021246e+00 189 185 186
1.079012e+00 2.462396e+00 2.286097e+00 149 134 117
2.625892e+00 2.353987e+00 3.444819e+00 185 175 162
-2.196165e+00 2.211708e+00 2.490046e+00 99 87 73
1.666717e+00 2.463844e+00 2.656301e+00 75 70 59
1.666717e+00 2.463844e+00 2.656301e+00 75 70 59
2.200281e+00 2.414733e+00 3.080594e+00 191 184 173
-2.218429e+00 2.214564e+00 2.491768e+00 164 154 142
8.822515e-01 2.540872e+00 2.135178e+00 72 56 38
1.528332e+00 2.505002e+00 2.593451e+00 180 173 158
1.513579e+00 2.514497e+00 2.609609e+00 104 96 81
-4.864803e-01 2.497083e+00 1.948799e+00 130 118 95
2.034932e+00 2.474055e+00 2.995427e+00 133 125 112
-1.370577e+00 2.387615e+00 2.221892e+00 153 143 123
2.588316e+00 2.418618e+00 3.494482e+00 179 174 156
-2.320134e+00 2.273021e+00 2.545260e+00 75 66 59
-2.110891e+00 2.312629e+00 2.491967e+00 185 180 176
1.506430e+00 2.556790e+00 2.614992e+00 162 154 141
2.535119e+00 2.458826e+00 3.409465e+00 108 102 94
1.933865e+00 2.524644e+00 2.928576e+00 73 63 57
-2.571956e+00 2.256856e+00 2.595379e+00 136 132 120
2.562382e+00 2.461374e+00 3.438118e+00 171 170 158
-1.500660e+00 2.416587e+00 2.298665e+00 152 140 124
-1.645520e+00 2.401432e+00 2.330639e+00 91 79 64
-2.846035e+00 2.232585e+00 2.744759e+00 155 146 132
-2.846035e+00 2.232585e+00 2.744759e+00 155 146 132
-3.671168e-01 2.568773e+00 2.005959e+00 85 69 44
2.064913e+00 2.534912e+00 3.056711e+00 120 113 98
-6.990742e-01 2.542761e+00 2.105009e+00 186 178 162
3.073428e+00 2.431811e+00 3.867801e+00 162 155 145
-1.205899e+00 2.493094e+00 2.208768e+00 133 119 98
-2.872088e+00 2.252788e+00 2.764704e+00 163 156 141
-1.503536e+00 2.456682e+00 2.321148e+00 142 133 122
2.619653e+00 2.502118e+00 3.498622e+00 166 161 156
-1.223301e+00 2.501083e+00 2.221511e+00 77 64 43
-2.771424e+00 2.281964e+00 2.732216e+00 101 91 80
-1.135991e+00 2.517880e+00 2.197400e+00 139 129 104
1.550275e+00 2.618125e+00 2.686741e+00 151 138 128
1.501526e+00 2.633959e+00 2.683255e+00 111 99 88
-4.669642e+00 2.005276e+00 3.482330e+00 108 98 94
-1.093117e+00 2.553920e+00 2.195680e+00 88 80 65
4.306463e+00 2.329057e+00 4.933982e+00 89 82 72
3.085176e+00 2.494734e+00 3.904762e+00 121 112 103
-2.719820e+00 2.349267e+00 2.733177e+00 121 111 102
-3.096958e+00 2.291665e+00 2.854014e+00 146 142 127
4.223376e+00 2.358668e+00 4.861321e+00 140 126 115
1.969073e+00 2.642287e+00 2.995797e+00 170 166 141
9.910946e-01 2.722492e+00 2.357808e+00 100 87 69
4.298671e+00 2.379398e+00 4.954406e+00 161 154 144
2.942610e+00 2.552759e+00 3.832922e+00 151 143 131
1.971941e+00 2.667785e+00 3.026470e+00 122 116 109
-3.680857e+00 2.244759e+00 3.125194e+00 166 159 140
-3.680857e+00 2.244759e+00 3.125194e+00 166 159 140
-3.652866e+00 2.250977e+00 3.112045e+00 99 88 77
-4.740840e+00 2.081256e+00 3.530886e+00 82 72 71
-4.781640e+00 2.078503e+00 3.556870e+00 163 156 148
-2.652575e+00 2.413262e+00 2.736740e+00 191 183 174
2.936140e+00 2.570862e+00 3.850100e+00 106 98 86
-2.779891e+00 2.399142e+00 2.784802e+00 147 141 133
2.993093e+00 2.566911e+00 3.881830e+00 57 42 35
-3.684036e+00 2.265767e+00 3.136488e+00 108 100 86
2.348074e+00 2.650425e+00 3.345668e+00 170 162 150
-4.781730e+00 2.098149e+00 3.561952e+00 91 88 83
-4.846114e-01 2.721044e+00 2.142896e+00 127 116 100
