ply
format ascii 1.0
element face 0
property list uchar int vertex_indices
element vertex 942
property float x
property float y
property float z
property uchar diffuse_red
property uchar diffuse_green
property uchar diffuse_blue
end_header
-3.175205e+00 -1.299307e+00 1.839243e+00 97 85 70
3.597540e+00 -5.131611e-01 3.107655e+00 150 149 145
-2.567205e+00 -1.112936e+00 1.830073e+00 87 76 66
4.975585e+00 -9.321180e-01 4.364101e+00 163 155 144
2.680878e+00 -2.126652e-01 2.307876e+00 188 187 181
-2.743267e+00 -1.061537e+00 1.755872e+00 75 66 61
-1.925779e+00 -9.988394e-01 1.891919e+00 80 74 66
4.049725e+00 -6.151229e-01 3.542413e+00 106 101 89
2.173338e+00 -1.479312e-01 2.101041e+00 165 162 150
6.935223e-01 -2.089144e-01 1.663818e+00 111 110 105
-3.524771e+00 -1.178674e+00 1.849208e+00 80 76 72
1.066340e+00 -1.444859e-01 1.797814e+00 175 169 157
-1.665154e+00 -7.212384e-01 1.759090e+00 114 115 109
3.238452e+00 -2.472891e-01 2.807064e+00 166 164 152
1.078691e+00 -1.073595e-01 1.848046e+00 196 191 175
1.078691e+00 -1.073595e-01 1.848046e+00 196 191 175
1.795216e+00 -2.983106e-02 2.000745e+00 183 181 173
4.187790e-01 -1.873677e-01 1.749696e+00 191 191 183
-2.679264e+00 -8.126719e-01 1.720115e+00 88 79 76
3.931198e+00 -4.129461e-01 3.470577e+00 78 77 73
3.931198e+00 -4.129461e-01 3.470577e+00 78 77 73
3.869333e+00 -4.075221e-01 3.432292e+00 85 82 73
4.029491e+00 -4.135283e-01 3.553363e+00 109 107 94
4.384316e-01 -1.566838e-01 1.774854e+00 185 186 181
4.384316e-01 -1.566838e-01 1.774854e+00 185 186 181
9.981486e-01 -5.961500e-02 1.830815e+00 173 169 165
2.451317e+00 2.060437e-02 2.242703e+00 109 105 101
2.216926e+00 3.827159e-02 2.135867e+00 118 118 113
3.345515e+00 -1.483240e-01 2.900669e+00 118 109 102
-5.642943e+00 -1.574771e+00 2.171432e+00 169 165 158
3.492260e+00 -2.165229e-01 3.103932e+00 82 78 75
3.587927e+00 -2.261776e-01 3.158661e+00 70 67 60
4.844864e+00 -6.154453e-01 4.329093e+00 179 172 169
-5.654833e+00 -1.507869e+00 2.181794e+00 197 198 193
5.084134e+00 -6.293268e-01 4.532108e+00 153 150 134
3.888735e+00 -2.723416e-01 3.477826e+00 165 160 155
-3.112977e+00 -7.724172e-01 1.824544e+00 165 162 146
3.336811e+00 -6.866416e-02 2.934622e+00 145 139 121
-3.079891e+00 -7.587330e-01 1.822425e+00 79 75 65
-4.531035e+00 -1.131775e+00 2.014059e+00 167 164 154
3.184424e+00 -3.612304e-03 2.793296e+00 132 128 117
2.801753e+00 1.236760e-01 2.439923e+00 160 159 155
-3.088087e+00 -7.302470e-01 1.819791e+00 149 143 129
9.727718e-01 1.117386e-01 1.833117e+00 86 85 83
2.459097e+00 1.599218e-01 2.290489e+00 94 87 80
2.459097e+00 1.599218e-01 2.290489e+00 94 87 80
-2.025206e+00 -4.201114e-01 1.675477e+00 156 152 142
4.497190e+00 -3.756101e-01 4.029328e+00 170 161 146
2.651868e+00 1.764892e-01 2.352566e+00 70 62 59
2.651868e+00 1.764892e-01 2.352566e+00 70 62 59
2.443775e+00 1.969007e-01 2.254321e+00 180 175 171
5.002839e+00 -5.111800e-01 4.483939e+00 102 98 95
1.380193e+00 2.133190e-01 1.863264e+00 71 67 62
-2.197997e+00 -4.133349e-01 1.696091e+00 116 109 101
-1.446981e+00 -1.381256e-01 1.516114e+00 177 168 160
3.551486e+00 -7.370719e-03 3.153864e+00 184 179 172
-3.650669e+00 -7.452384e-01 1.892209e+00 156 149 133
-7.072398e-01 1.859216e-01 1.290790e+00 183 174 157
-1.978004e+00 -2.925304e-01 1.657578e+00 156 150 137
3.975506e+00 -1.304214e-01 3.566034e+00 187 180 161
1.960866e+00 2.536084e-01 2.125619e+00 195 185 176
1.960866e+00 2.536084e-01 2.125619e+00 195 185 176
3.826220e+00 -8.163282e-02 3.449271e+00 102 95 90
4.010490e+00 -1.255025e-01 3.594420e+00 174 170 159
-4.039546e-01 1.580311e-01 1.484640e+00 184 179 175
3.902332e+00 -9.261380e-02 3.528884e+00 181 178 163
3.902332e+00 -9.261380e-02 3.528884e+00 181 178 163
-3.037976e+00 -5.241455e-01 1.819079e+00 157 155 143
2.056138e+00 2.947380e-01 2.171579e+00 112 103 94
3.967645e+00 -8.692955e-02 3.583836e+00 173 170 165
2.033198e+00 3.036325e-01 2.156716e+00 183 174 154
2.033198e+00 3.036325e-01 2.156716e+00 183 174 154
4.908531e+00 -3.548416e-01 4.463317e+00 134 133 115
2.505178e+00 3.549077e-01 2.299350e+00 178 170 159
2.328318e+00 3.721011e-01 2.223141e+00 82 70 61
4.399220e+00 -1.713936e-01 4.007695e+00 184 176 166
1.063780e+00 3.413384e-01 1.854781e+00 174 168 152
2.412669e+00 3.636728e-01 2.307078e+00 113 103 85
1.091296e+00 3.709630e-01 1.856492e+00 167 161 146
-6.021032e+00 -1.222398e+00 2.285305e+00 137 135 126
-2.029304e+00 -1.078010e-01 1.619510e+00 176 167 160
2.873183e+00 3.160743e-01 2.659312e+00 159 152 144
-3.443045e+00 -4.858007e-01 1.882755e+00 91 82 75
4.786452e+00 -2.303827e-01 4.381271e+00 184 180 177
-6.012225e+00 -1.116590e+00 2.294880e+00 164 163 161
-2.510163e+00 -1.538269e-01 1.737637e+00 150 145 139
1.095055e+00 4.461854e-01 1.913324e+00 178 172 166
3.417438e-01 3.510768e-01 1.834565e+00 197 195 188
-7.259397e-01 4.116992e-01 1.369431e+00 108 96 81
3.233834e+00 3.194597e-01 2.999862e+00 177 168 158
5.571889e-02 4.303823e-01 1.651413e+00 112 105 102
5.571889e-02 4.303823e-01 1.651413e+00 112 105 102
8.633194e-01 4.725655e-01 1.920389e+00 132 125 109
-3.204616e+00 -2.652760e-01 1.868189e+00 175 165 153
1.900177e+00 5.834902e-01 2.113036e+00 183 172 151
2.546310e+00 5.668515e-01 2.372743e+00 154 150 141
1.789160e+00 5.893072e-01 2.073573e+00 87 79 73
1.389928e+00 5.657396e-01 1.982357e+00 105 99 82
1.537354e+00 5.872190e-01 2.018931e+00 90 86 76
1.537354e+00 5.872190e-01 2.018931e+00 90 86 76
3.303550e+00 3.575746e-01 3.090627e+00 174 167 158
-3.291632e+00 -2.335056e-01 1.873282e+00 171 158 143
1.921745e+00 5.845122e-01 2.184244e+00 160 154 139
3.627813e+00 2.940622e-01 3.366515e+00 70 64 64
-1.258744e+00 3.781737e-01 1.447183e+00 103 96 85
-2.001265e-01 4.730029e-01 1.659748e+00 49 44 37
4.742797e+00 -3.842452e-03 4.356421e+00 147 143 133
2.245724e+00 6.342015e-01 2.251791e+00 175 165 140
2.204064e+00 6.001354e-01 2.289311e+00 174 164 143
-4.246467e+00 -4.680868e-01 2.063960e+00 76 67 63
-4.246467e+00 -4.680868e-01 2.063960e+00 76 67 63
3.627808e+00 3.167268e-01 3.373444e+00 166 162 149
2.494153e+00 6.027598e-01 2.399028e+00 50 42 39
2.494153e+00 6.027598e-01 2.399028e+00 50 42 39
3.664416e+00 3.097525e-01 3.406183e+00 157 153 142
3.250932e+00 4.233967e-01 3.040681e+00 76 71 68
-3.180574e+00 -1.690736e-01 1.881420e+00 154 143 125
-4.987825e+00 -6.385680e-01 2.175337e+00 177 176 175
3.649591e+00 3.397788e-01 3.405265e+00 162 154 134
4.084674e+00 2.177054e-01 3.801810e+00 172 163 154
-2.717647e-01 5.365884e-01 1.633317e+00 102 95 86
3.625816e+00 3.531398e-01 3.393119e+00 77 69 59
1.185580e+00 6.627877e-01 1.946088e+00 45 39 38
-2.925647e-01 5.641860e-01 1.607128e+00 99 95 84
6.755388e-01 5.919778e-01 1.897285e+00 162 159 149
2.414433e+00 6.819465e-01 2.343318e+00 74 66 56
2.456387e+00 6.983692e-01 2.359892e+00 92 83 74
2.456387e+00 6.983692e-01 2.359892e+00 92 83 74
3.669287e+00 3.780197e-01 3.445996e+00 155 146 132
1.044044e+00 6.776156e-01 1.947165e+00 100 94 92
1.044044e+00 6.776156e-01 1.947165e+00 100 94 92
8.666438e-01 6.482729e-01 1.947692e+00 181 178 173
3.709240e+00 3.809802e-01 3.489308e+00 163 156 139
3.689431e+00 3.879880e-01 3.471384e+00 63 55 49
1.254240e+00 7.080714e-01 2.005052e+00 130 123 115
2.326319e+00 7.465736e-01 2.304586e+00 107 97 88
3.025277e-01 6.255722e-01 1.824360e+00 118 113 93
1.685286e+00 7.707756e-01 2.084639e+00 135 128 119
1.685286e+00 7.707756e-01 2.084639e+00 135 128 119
9.439766e-01 7.001636e-01 1.960043e+00 117 114 105
1.009923e+00 7.140758e-01 1.986229e+00 101 97 88
1.009923e+00 7.140758e-01 1.986229e+00 101 97 88
7.460190e-01 7.172879e-01 1.891948e+00 168 166 154
8.929786e-01 7.307736e-01 1.932909e+00 107 103 95
8.507219e-01 7.507570e-01 1.910915e+00 87 85 70
2.269864e-01 6.636205e-01 1.864092e+00 147 145 140
2.333638e+00 7.856370e-01 2.369633e+00 65 58 50
3.186117e+00 6.178881e-01 3.043762e+00 141 128 110
3.083319e+00 6.518130e-01 2.973974e+00 108 95 87
4.184698e+00 3.651452e-01 3.938112e+00 182 176 163
-4.137048e+00 -1.820847e-01 2.081620e+00 63 57 46
-4.137048e+00 -1.820847e-01 2.081620e+00 63 57 46
2.406221e+00 8.310542e-01 2.379131e+00 119 107 96
2.002015e+00 8.388912e-01 2.240855e+00 93 86 82
4.153516e+00 3.795216e-01 3.933181e+00 107 101 84
4.114264e+00 3.937533e-01 3.886307e+00 40 36 30
1.795594e+00 8.816567e-01 2.132789e+00 93 89 80
2.307751e+00 8.543056e-01 2.357567e+00 73 70 63
2.112393e+00 8.928918e-01 2.237665e+00 100 91 74
-1.218690e+00 6.890000e-01 1.456125e+00 103 97 85
2.340827e+00 8.583456e-01 2.387543e+00 172 169 162
-2.320937e+00 3.710660e-01 1.751761e+00 90 82 71
-7.796502e-01 8.139700e-01 1.433868e+00 100 86 74
4.143817e+00 4.354692e-01 3.948338e+00 172 165 148
-4.166699e-01 8.359835e-01 1.552299e+00 115 113 99
-4.091770e-01 8.452867e-01 1.536378e+00 115 113 99
2.362353e+00 9.173551e-01 2.355735e+00 177 174 167
-7.120317e-01 8.539903e-01 1.421465e+00 92 82 68
3.543454e+00 6.198056e-01 3.400415e+00 90 83 75
2.796673e+00 8.088349e-01 2.754194e+00 167 157 142
-1.160711e-01 8.188955e-01 1.723067e+00 115 111 102
-1.128741e+00 7.687255e-01 1.452368e+00 107 100 90
4.545856e+00 3.491447e-01 4.324078e+00 49 45 40
-3.213284e+00 1.765720e-01 1.943796e+00 176 171 167
2.035536e+00 9.216606e-01 2.287385e+00 154 148 135
3.037094e+00 7.575768e-01 2.989290e+00 103 97 92
-3.281165e+00 1.648458e-01 1.958413e+00 187 182 160
-3.281165e+00 1.648458e-01 1.958413e+00 187 182 160
2.811455e+00 8.323432e-01 2.764010e+00 90 81 67
2.104180e+00 9.559305e-01 2.316774e+00 176 168 158
4.534114e-02 8.565667e-01 1.809930e+00 186 180 174
4.302317e-01 9.143283e-01 1.839581e+00 40 34 37
2.721356e+00 8.742349e-01 2.737872e+00 172 163 148
-1.745108e+00 6.678986e-01 1.643308e+00 122 110 98
1.152073e+00 1.004376e+00 2.025497e+00 170 166 155
1.438688e+00 1.019437e+00 2.105643e+00 177 171 157
5.292576e-01 9.362902e-01 1.956084e+00 174 166 154
7.910718e-02 9.555978e-01 1.777032e+00 107 103 103
2.999010e+00 8.845326e-01 2.940819e+00 62 49 40
1.241905e+00 1.035461e+00 2.044319e+00 113 110 104
2.981211e-01 9.832602e-01 1.809893e+00 63 53 43
1.681724e+00 1.069986e+00 2.137766e+00 173 166 147
-5.664493e+00 -2.922310e-01 2.388060e+00 182 180 170
-2.165225e+00 6.098428e-01 1.774717e+00 147 134 113
4.116862e+00 6.101484e-01 3.982080e+00 101 95 87
3.561012e+00 8.073681e-01 3.468844e+00 119 118 107
3.164151e+00 9.143788e-01 3.128357e+00 94 87 81
-3.062812e-01 1.080747e+00 1.618457e+00 89 75 66
1.036963e+00 1.092687e+00 2.091783e+00 112 105 96
1.745616e+00 1.147258e+00 2.216796e+00 127 116 104
-2.299470e+00 6.614745e-01 1.807723e+00 123 109 89
1.379543e+00 1.166076e+00 2.130469e+00 91 82 81
-3.102546e+00 4.884194e-01 1.978028e+00 162 156 145
2.547148e+00 1.085126e+00 2.712283e+00 151 144 128
-6.604235e-01 1.107906e+00 1.568168e+00 52 44 43
1.254778e+00 1.199372e+00 2.081900e+00 135 127 113
4.422571e+00 6.498005e-01 4.341845e+00 189 184 180
-7.379275e-01 1.139227e+00 1.538918e+00 105 101 98
-3.763485e+00 3.703912e-01 2.116759e+00 57 48 44
3.082358e+00 1.016272e+00 3.132149e+00 64 59 48
4.912508e+00 5.757110e-01 4.741333e+00 187 181 159
3.034823e+00 1.042288e+00 3.127347e+00 150 141 126
-6.638123e-01 1.170028e+00 1.600365e+00 50 38 32
4.461913e-01 1.215399e+00 1.942164e+00 173 168 162
-2.735164e+00 6.859372e-01 1.938927e+00 79 70 63
4.377537e+00 7.340569e-01 4.329856e+00 66 65 60
-3.762435e+00 4.551213e-01 2.142551e+00 149 134 113
-2.732460e+00 7.207763e-01 1.945268e+00 171 166 153
4.790241e-01 1.246863e+00 1.965494e+00 180 181 166
-2.920108e+00 6.843714e-01 1.984868e+00 155 146 129
9.334159e-01 1.287123e+00 2.088039e+00 69 61 59
9.067612e-01 1.261264e+00 2.127043e+00 69 61 59
-6.491438e-01 1.193892e+00 1.756765e+00 165 157 138
5.786625e-01 1.287913e+00 2.004684e+00 186 180 174
3.269258e+00 1.080029e+00 3.380299e+00 122 116 112
-3.134066e+00 6.820473e-01 2.034400e+00 153 150 141
-2.729550e-01 1.342107e+00 1.678268e+00 180 175 165
-2.715985e+00 8.203610e-01 1.970155e+00 175 163 144
2.814049e+00 1.225907e+00 3.011333e+00 131 121 109
3.793232e+00 1.000710e+00 3.849374e+00 185 175 164
-3.715986e+00 5.883371e-01 2.164419e+00 98 90 83
3.826572e+00 1.001538e+00 3.875681e+00 121 113 111
2.286989e+00 1.367729e+00 2.550913e+00 78 69 56
-1.346256e+00 1.190512e+00 1.727220e+00 140 137 122
2.268191e+00 1.383175e+00 2.550781e+00 148 139 122
-1.300956e+00 1.216181e+00 1.696975e+00 60 52 43
-2.952318e+00 8.087527e-01 2.036753e+00 67 55 41
2.274810e+00 1.432167e+00 2.583289e+00 86 80 57
3.187856e+00 1.215739e+00 3.390025e+00 193 185 173
-1.857625e+00 1.135268e+00 1.832406e+00 38 29 26
8.958817e-01 1.472675e+00 2.073178e+00 73 59 48
-5.966794e-01 1.402209e+00 1.694831e+00 171 163 144
-6.019900e+00 1.710774e-01 2.569471e+00 104 104 100
2.230291e+00 1.452210e+00 2.555183e+00 144 131 114
-1.895373e+00 1.131294e+00 1.856467e+00 163 156 158
-1.967130e+00 1.124796e+00 1.850640e+00 93 87 89
3.285653e+00 1.210523e+00 3.469152e+00 81 70 61
2.641519e-01 1.514525e+00 1.824895e+00 162 151 139
3.713825e+00 1.132458e+00 3.846414e+00 164 153 135
3.713825e+00 1.132458e+00 3.846414e+00 164 153 135
2.222297e+00 1.490202e+00 2.572908e+00 55 46 41
-2.586511e+00 1.016924e+00 2.016244e+00 167 160 154
8.586158e-01 1.528251e+00 2.115084e+00 160 148 126
-3.692392e+00 7.730674e-01 2.216268e+00 191 183 171
-5.633364e+00 3.493054e-01 2.548077e+00 108 103 100
8.341611e-01 1.534200e+00 2.115924e+00 54 43 37
2.740308e+00 1.404626e+00 3.033751e+00 166 164 152
-4.414491e+00 6.366190e-01 2.353686e+00 103 93 90
2.285969e+00 1.521151e+00 2.705201e+00 170 162 153
5.939872e-01 1.582164e+00 2.019140e+00 157 145 117
2.863144e+00 1.439142e+00 3.131876e+00 125 116 110
-4.189821e+00 7.843593e-01 2.339239e+00 77 66 66
-4.354244e+00 7.583700e-01 2.371403e+00 165 157 136
-3.387932e+00 9.932164e-01 2.205103e+00 113 96 82
-4.798087e+00 6.866272e-01 2.443733e+00 169 165 153
7.031940e-01 1.683216e+00 2.073046e+00 181 171 161
1.637248e-01 1.711170e+00 1.879749e+00 185 178 161
3.067790e+00 1.484096e+00 3.379184e+00 165 158 150
1.480284e+00 1.723237e+00 2.315203e+00 185 180 177
4.110465e+00 1.250308e+00 4.273615e+00 178 171 160
6.311829e-01 1.716807e+00 2.066252e+00 172 162 150
-6.635610e+00 3.690749e-01 2.705343e+00 70 64 65
2.530663e+00 1.617273e+00 2.965831e+00 103 98 95
-5.587228e-02 1.741063e+00 1.821388e+00 85 70 52
-4.205755e+00 8.999502e-01 2.386132e+00 69 56 51
-4.205755e+00 8.999502e-01 2.386132e+00 69 56 51
2.602806e+00 1.609007e+00 3.055289e+00 173 167 154
3.495258e+00 1.431170e+00 3.798937e+00 175 166 152
-3.577358e+00 1.062931e+00 2.275844e+00 97 90 82
-3.577358e+00 1.062931e+00 2.275844e+00 97 90 82
2.959330e+00 1.566562e+00 3.373594e+00 202 196 193
-7.083121e-02 1.791608e+00 1.862104e+00 133 127 122
-3.002431e-02 1.825345e+00 1.904095e+00 167 155 139
1.885746e+00 1.840675e+00 2.522712e+00 168 159 142
1.123395e+00 1.878013e+00 2.220372e+00 197 194 190
-5.123198e+00 8.544700e-01 2.585089e+00 162 157 149
-3.404893e+00 1.222963e+00 2.290871e+00 179 178 175
2.330639e+00 1.787285e+00 2.862612e+00 155 146 125
7.615372e-01 1.908603e+00 2.092430e+00 50 46 43
-2.553402e+00 1.422313e+00 2.163502e+00 175 162 143
4.008018e+00 1.449562e+00 4.298179e+00 90 83 77
2.920004e+00 1.689276e+00 3.384016e+00 165 158 146
7.416131e-01 1.924776e+00 2.105433e+00 174 173 169
-2.463910e+00 1.457942e+00 2.156128e+00 179 171 163
4.028992e+00 1.467011e+00 4.311694e+00 107 105 106
2.374487e+00 1.808672e+00 2.964173e+00 173 169 167
2.938338e+00 1.700134e+00 3.418877e+00 185 178 171
-5.085108e+00 9.400065e-01 2.601128e+00 189 187 190
2.970431e+00 1.710912e+00 3.443253e+00 189 181 176
3.353741e+00 1.625791e+00 3.777847e+00 182 172 160
3.093755e+00 1.713101e+00 3.502298e+00 186 181 175
2.993988e+00 1.723787e+00 3.464630e+00 180 176 164
-6.250070e+00 7.397985e-01 2.731910e+00 167 164 155
-6.250070e+00 7.397985e-01 2.731910e+00 167 164 155
-1.920890e+00 1.653381e+00 2.063798e+00 106 99 87
-2.322726e+00 1.603494e+00 2.164680e+00 116 108 86
-6.451544e+00 8.050995e-01 2.798087e+00 165 158 131
-2.472941e+00 1.597184e+00 2.189409e+00 121 118 113
2.409718e+00 1.915500e+00 3.059498e+00 84 74 62
-1.499481e+00 1.804788e+00 2.047130e+00 59 48 34
-8.970326e-01 1.931680e+00 1.953139e+00 92 77 64
-3.045470e+00 1.505377e+00 2.302281e+00 173 165 155
-2.397483e+00 1.649817e+00 2.217553e+00 185 179 167
2.693024e+00 1.907953e+00 3.350307e+00 168 162 149
3.330607e+00 1.803553e+00 3.828494e+00 99 90 77
3.330607e+00 1.803553e+00 3.828494e+00 99 90 77
-3.157307e+00 1.538638e+00 2.349682e+00 165 161 152
2.907619e+00 1.891059e+00 3.493695e+00 195 193 180
1.448427e+00 2.142746e+00 2.376622e+00 161 152 135
2.682715e+00 1.928578e+00 3.350371e+00 95 87 84
2.790552e+00 1.919514e+00 3.426567e+00 153 145 132
-2.125931e+00 1.765708e+00 2.175078e+00 46 37 32
-3.236541e+00 1.542525e+00 2.373243e+00 175 168 160
7.383590e-01 2.163716e+00 2.129664e+00 193 193 195
-9.912325e-01 1.983942e+00 2.028863e+00 164 157 140
-1.613247e+00 1.874634e+00 2.125704e+00 192 186 173
-2.129716e+00 1.785942e+00 2.196735e+00 168 164 160
-2.974204e+00 1.627344e+00 2.341531e+00 68 60 58
-2.974204e+00 1.627344e+00 2.341531e+00 68 60 58
1.648976e+00 2.127506e+00 2.640466e+00 161 148 132
-3.236978e+00 1.586081e+00 2.386126e+00 168 165 154
-6.100598e-02 2.168883e+00 1.975898e+00 72 60 46
3.698447e+00 1.787257e+00 4.192803e+00 166 159 144
1.631070e+00 2.149107e+00 2.611310e+00 84 73 66
3.186224e+00 1.895000e+00 3.770236e+00 169 159 147
-2.244297e+00 1.808273e+00 2.259819e+00 187 183 178
2.783760e+00 1.985570e+00 3.467102e+00 95 88 81
2.750095e+00 1.995169e+00 3.440246e+00 199 191 180
-1.077303e+00 2.044690e+00 2.049187e+00 120 110 79
-2.221295e+00 1.824656e+00 2.259125e+00 63 55 50
2.233003e+00 2.094342e+00 3.052720e+00 167 159 146
1.043297e+00 2.233688e+00 2.297620e+00 191 188 183
4.895740e-01 2.254479e+00 2.087247e+00 77 61 36
-6.118222e+00 1.116446e+00 2.825668e+00 183 180 177
6.031888e-01 2.266427e+00 2.135763e+00 86 67 54
-1.622065e+00 1.979070e+00 2.153531e+00 160 157 142
9.939361e-01 2.262728e+00 2.290036e+00 178 177 178
3.784844e+00 1.837029e+00 4.300007e+00 175 171 161
-6.020421e+00 1.161154e+00 2.818245e+00 181 178 168
-6.210984e+00 1.141120e+00 2.846907e+00 121 117 114
-2.794162e+00 1.776385e+00 2.348166e+00 107 103 92
-2.845729e+00 1.765299e+00 2.377014e+00 189 183 166
3.087102e+00 2.002755e+00 3.761069e+00 162 154 138
3.087102e+00 2.002755e+00 3.761069e+00 162 154 138
2.609401e+00 2.115076e+00 3.376907e+00 159 151 132
6.873139e-01 2.349829e+00 2.151348e+00 155 140 107
2.521015e+00 2.142943e+00 3.349415e+00 190 180 173
3.698442e+00 1.929965e+00 4.283701e+00 182 175 160
-3.933771e+00 1.644121e+00 2.585702e+00 78 69 61
-4.071552e-01 2.290400e+00 2.072690e+00 163 154 124
-1.374455e+00 2.158520e+00 2.205040e+00 126 121 117
1.442999e+00 2.364405e+00 2.621866e+00 39 25 16
-4.329264e-01 2.330955e+00 2.101971e+00 94 76 56
-1.382742e+00 2.172581e+00 2.234752e+00 202 201 194
1.602298e+00 2.371149e+00 2.723785e+00 164 152 130
1.770753e+00 2.369498e+00 2.862196e+00 71 57 41
2.924427e+00 2.182822e+00 3.743208e+00 87 76 66
1.944850e+00 2.359927e+00 3.020529e+00 178 174 165
-3.632457e+00 1.849669e+00 2.607067e+00 117 116 114
-3.666223e+00 1.846625e+00 2.607485e+00 193 192 190
1.401577e+00 2.426296e+00 2.687067e+00 122 108 94
1.401577e+00 2.426296e+00 2.687067e+00 122 108 94
-1.085622e+00 2.292262e+00 2.257448e+00 177 170 155
-1.923809e+00 2.156460e+00 2.355909e+00 126 116 104
3.559359e+00 2.106502e+00 4.249743e+00 203 199 196
2.363729e+00 2.303945e+00 3.370263e+00 62 53 49
2.435712e+00 2.308419e+00 3.407031e+00 181 176 173
-1.793196e+00 2.200777e+00 2.329337e+00 135 121 100
4.947825e-01 2.509244e+00 2.196064e+00 155 139 122
2.292537e+00 2.326095e+00 3.339011e+00 197 189 178
2.889247e+00 2.245006e+00 3.764201e+00 184 177 160
2.947349e+00 2.242541e+00 3.799370e+00 124 116 105
2.947349e+00 2.242541e+00 3.799370e+00 124 116 105
-4.420830e+00 1.764097e+00 2.743277e+00 97 87 81
-1.973875e+00 2.198751e+00 2.386952e+00 165 157 136
-2.144846e+00 2.174401e+00 2.389206e+00 159 155 146
-1.959425e+00 2.217254e+00 2.387637e+00 79 69 57
4.726708e+00 1.980442e+00 5.161659e+00 185 175 165
-2.768984e+00 2.092655e+00 2.514759e+00 117 108 102
-2.768984e+00 2.092655e+00 2.514759e+00 117 108 102
-4.603338e-01 2.465340e+00 2.259251e+00 79 68 51
-1.996610e+00 2.259429e+00 2.425762e+00 169 163 151
-1.895928e+00 2.278695e+00 2.417633e+00 48 36 36
-8.457630e-01 2.455583e+00 2.287865e+00 150 138 113
-2.479143e+00 2.195463e+00 2.497636e+00 184 175 166
2.836714e+00 2.351322e+00 3.797889e+00 102 95 85
3.334395e+00 2.278688e+00 4.168558e+00 189 183 170
9.336316e-01 2.595711e+00 2.538960e+00 110 95 84
-6.012444e+00 1.646981e+00 2.984783e+00 106 97 90
3.462624e+00 2.265839e+00 4.251869e+00 133 129 121
-2.609985e+00 2.196355e+00 2.541089e+00 178 175 160
-1.786544e-01 2.568017e+00 2.295733e+00 163 147 123
-2.672242e+00 2.197515e+00 2.554178e+00 104 98 84
-3.655186e+00 2.034494e+00 2.698136e+00 142 141 139
-2.641474e+00 2.221773e+00 2.541733e+00 175 167 151
-2.641474e+00 2.221773e+00 2.541733e+00 175 167 151
-4.415468e+00 1.931069e+00 2.819791e+00 181 174 171
3.798884e+00 2.234083e+00 4.559721e+00 110 101 96
3.322720e+00 2.319247e+00 4.179174e+00 202 193 184
2.718659e+00 2.419591e+00 3.732744e+00 166 160 145
-2.686935e+00 2.237766e+00 2.556000e+00 176 167 151
-2.686935e+00 2.237766e+00 2.556000e+00 176 167 151
-5.750696e+00 1.753247e+00 2.967220e+00 121 117 105
-5.750696e+00 1.753247e+00 2.967220e+00 121 117 105
-1.776220e+00 2.389093e+00 2.456313e+00 60 52 42
-5.667511e+00 1.767020e+00 2.955396e+00 76 70 71
3.221035e+00 2.361190e+00 4.122805e+00 62 49 40
3.221035e+00 2.361190e+00 4.122805e+00 62 49 40
1.700193e+00 2.583556e+00 3.047757e+00 90 78 67
-2.856403e+00 2.231929e+00 2.566573e+00 91 88 87
-2.375153e+00 2.318440e+00 2.543870e+00 167 157 148
3.205063e+00 2.379295e+00 4.127098e+00 134 126 115
4.647866e+00 2.155197e+00 5.186615e+00 151 144 125
-1.968720e+00 2.397108e+00 2.475938e+00 172 168 160
1.441141e+00 2.669890e+00 2.941010e+00 174 170 169
3.135123e+00 2.450966e+00 4.112737e+00 69 58 52
-9.461750e-01 2.596721e+00 2.437357e+00 179 172 152
-6.155182e-01 2.642796e+00 2.395836e+00 146 130 107
2.590413e+00 2.543987e+00 3.739110e+00 97 86 77
-3.341643e+00 2.255102e+00 2.718317e+00 44 40 37
4.533859e+00 2.262037e+00 5.136573e+00 157 149 136
4.396925e+00 2.283985e+00 5.036041e+00 173 167 155
4.377108e+00 2.290968e+00 5.008223e+00 72 63 58
1.923189e+00 2.657392e+00 3.276393e+00 172 165 151
-3.250904e+00 2.293756e+00 2.713243e+00 83 75 73
-2.153459e+00 2.473137e+00 2.560303e+00 84 76 71
1.468035e-01 2.757915e+00 2.452950e+00 150 136 110
-4.546913e+00 2.105225e+00 2.911992e+00 134 130 128
1.467048e+00 2.729272e+00 3.004885e+00 94 89 83
1.467048e+00 2.729272e+00 3.004885e+00 94 89 83
-3.388249e+00 2.291238e+00 2.743685e+00 166 161 155
3.121748e+00 2.509113e+00 4.166349e+00 102 94 89
-1.806775e+00 2.552500e+00 2.519030e+00 127 125 114
-3.438383e+00 2.299144e+00 2.761868e+00 182 177 173
2.645619e+00 2.609529e+00 3.788927e+00 148 145 140
4.426611e+00 2.354200e+00 5.093001e+00 89 77 65
1.975333e+00 2.724374e+00 3.363568e+00 193 184 177
1.895818e+00 2.733608e+00 3.319442e+00 95 88 72
4.304969e+00 2.398500e+00 5.017918e+00 190 180 151
-7.162481e-01 2.746557e+00 2.519719e+00 176 164 145
-1.622056e+00 2.638029e+00 2.532468e+00 122 115 96
-3.252265e+00 2.397743e+00 2.779905e+00 99 88 74
3.135520e+00 2.583048e+00 4.212134e+00 90 83 79
3.135520e+00 2.583048e+00 4.212134e+00 90 83 79
1.924606e+00 2.752971e+00 3.358824e+00 113 107 93
-1.406686e+00 2.674245e+00 2.578642e+00 60 51 44
4.379833e+00 2.425004e+00 5.105705e+00 185 176 151
1.803409e+00 2.784324e+00 3.308935e+00 170 158 133
1.918205e+00 2.777753e+00 3.365640e+00 187 180 162
1.060608e+00 2.864087e+00 2.846983e+00 148 141 130
-5.286288e+00 2.158505e+00 3.028333e+00 123 109 100
4.353374e+00 2.451933e+00 5.096885e+00 176 167 157
-3.387662e+00 2.433304e+00 2.812835e+00 161 159 147
-2.194308e+00 2.633034e+00 2.673004e+00 126 119 108
-5.226199e+00 2.199616e+00 3.041805e+00 133 124 117
-3.116242e+00 2.509675e+00 2.810458e+00 78 71 66
-3.604356e-01 2.873331e+00 2.558730e+00 134 122 107
-2.193298e+00 2.650565e+00 2.689671e+00 187 180 172
2.349495e+00 2.779038e+00 3.707866e+00 169 165 156
-2.300227e+00 2.640474e+00 2.682974e+00 79 75 64
-5.702603e+00 2.165499e+00 3.113528e+00 129 122 128
6.143473e-02 2.917621e+00 2.561081e+00 96 80 64
4.196832e+00 2.528628e+00 5.002903e+00 167 156 138
8.600606e-01 2.930961e+00 2.815362e+00 150 142 129
4.245614e+00 2.532642e+00 5.043558e+00 179 170 155
9.293446e-01 2.927786e+00 2.880108e+00 154 144 135
2.976020e+00 2.716169e+00 4.179503e+00 200 197 195
4.188610e+00 2.559981e+00 5.012602e+00 176 168 148
4.257109e+00 2.564437e+00 5.040556e+00 159 149 137
2.365908e-01 2.967483e+00 2.600203e+00 152 139 118
-4.082906e+00 2.427754e+00 2.960678e+00 116 111 105
-1.476529e-01 2.934182e+00 2.634706e+00 51 35 20
3.548773e+00 2.654335e+00 4.629280e+00 172 165 146
2.847559e+00 2.762446e+00 4.120911e+00 187 178 166
-2.075948e+00 2.729285e+00 2.722543e+00 62 49 43
2.307021e+00 2.850330e+00 3.718147e+00 97 89 78
-4.939757e+00 2.347733e+00 3.042945e+00 131 127 124
2.897918e+00 2.770403e+00 4.148929e+00 64 54 53
-5.171665e-01 2.927040e+00 2.629345e+00 119 106 87
-4.970566e+00 2.352317e+00 3.052467e+00 189 185 176
-2.167917e+00 2.753679e+00 2.758103e+00 181 175 162
2.265672e+00 2.881835e+00 3.726716e+00 151 144 125
-1.986427e+00 2.792202e+00 2.751585e+00 175 169 146
-3.837164e+00 2.544113e+00 2.969367e+00 64 55 52
2.705234e+00 2.832714e+00 4.077657e+00 75 67 64
2.288959e+00 2.896480e+00 3.757183e+00 190 183 179
-3.890523e+00 2.550354e+00 2.987168e+00 151 144 129
-1.985440e+00 2.815358e+00 2.761025e+00 85 74 68
-1.782141e+00 2.844000e+00 2.736923e+00 67 57 47
-2.045044e+00 2.818351e+00 2.759088e+00 93 84 75
-2.047039e+00 2.816322e+00 2.764586e+00 93 84 75
-2.014933e+00 2.825846e+00 2.757558e+00 164 157 140
-2.014933e+00 2.825846e+00 2.757558e+00 164 157 140
3.410152e+00 2.768201e+00 4.588537e+00 150 142 129
-9.957908e-01 2.955646e+00 2.718350e+00 152 140 114
-4.504322e-01 3.013416e+00 2.679694e+00 176 171 164
-2.910140e+00 2.724463e+00 2.881957e+00 187 179 166
2.666912e+00 2.879993e+00 4.086346e+00 79 69 59
-2.328929e-01 3.034552e+00 2.738703e+00 170 161 142
-8.506418e-01 2.987585e+00 2.721798e+00 170 162 150
1.955338e+00 2.990875e+00 3.549801e+00 114 101 83
-1.086713e+00 2.968547e+00 2.720505e+00 76 69 64
-2.098966e+00 2.855172e+00 2.806122e+00 191 188 183
1.480526e+00 3.046173e+00 3.298994e+00 114 102 88
1.442379e-01 3.087848e+00 2.744911e+00 86 74 62
2.817508e+00 2.898674e+00 4.189915e+00 193 189 180
1.370728e+00 3.055283e+00 3.263019e+00 159 150 137
-8.152966e-01 3.013951e+00 2.736998e+00 176 164 144
4.000936e+00 2.752977e+00 4.972262e+00 156 148 128
1.314371e+00 3.072147e+00 3.234312e+00 71 62 51
2.579021e+00 2.939754e+00 4.071416e+00 180 171 164
-1.883019e+00 2.922879e+00 2.814337e+00 182 181 177
-4.881612e+00 2.540319e+00 3.114188e+00 162 150 128
-3.457936e-02 3.118546e+00 2.712526e+00 122 109 86
-1.921060e+00 2.922813e+00 2.827077e+00 115 108 106
-1.921060e+00 2.922813e+00 2.827077e+00 115 108 106
-9.118916e-01 3.043462e+00 2.772638e+00 148 135 122
-2.630803e+00 2.849422e+00 2.902227e+00 108 100 90
-2.630803e+00 2.849422e+00 2.902227e+00 108 100 90
2.591039e+00 2.975888e+00 4.082378e+00 179 171 156
7.068307e-01 3.135859e+00 2.983224e+00 186 184 167
-4.991358e+00 2.560829e+00 3.147516e+00 158 150 131
2.019127e+00 3.054986e+00 3.666814e+00 98 90 78
1.236733e+00 3.122561e+00 3.254915e+00 71 60 54
-1.962569e+00 2.959160e+00 2.845056e+00 128 128 126
1.433278e+00 3.118114e+00 3.345861e+00 68 58 56
3.637410e-01 3.164446e+00 2.837006e+00 83 74 60
-1.050854e+00 3.064414e+00 2.777762e+00 60 51 47
2.014464e+00 3.071101e+00 3.679102e+00 167 160 149
1.238290e+00 3.137859e+00 3.267411e+00 177 170 148
1.238290e+00 3.137859e+00 3.267411e+00 177 170 148
1.289419e+00 3.137628e+00 3.290243e+00 183 172 150
-3.937860e+00 2.743332e+00 3.092700e+00 67 61 60
-7.735038e-01 3.110410e+00 2.837435e+00 170 161 146
-9.284198e-01 3.102857e+00 2.818815e+00 100 92 89
-3.893822e+00 2.763466e+00 3.097815e+00 121 113 109
-3.893822e+00 2.763466e+00 3.097815e+00 121 113 109
1.752304e+00 3.130763e+00 3.575771e+00 186 182 174
-2.927973e+00 2.892503e+00 2.972391e+00 184 181 176
3.811378e+00 2.897512e+00 4.897243e+00 168 159 142
1.714924e+00 3.153812e+00 3.570638e+00 173 166 146
-1.647143e+00 3.064888e+00 2.873579e+00 179 175 163
-7.129254e-01 3.160783e+00 2.837994e+00 181 173 163
1.824696e+00 3.158701e+00 3.652010e+00 81 68 61
4.073623e+00 2.900937e+00 5.134030e+00 142 142 145
1.835061e+00 3.176814e+00 3.678185e+00 183 175 164
1.787027e+00 3.186887e+00 3.652033e+00 157 146 125
-7.864597e-01 3.193589e+00 2.882429e+00 95 88 80
-1.005646e+00 3.183077e+00 2.833295e+00 124 112 96
-4.801271e+00 2.751494e+00 3.201793e+00 119 109 103
-1.538154e+00 3.134399e+00 2.905365e+00 177 169 151
-1.538154e+00 3.134399e+00 2.905365e+00 177 169 151
3.153875e+00 3.057584e+00 4.567251e+00 98 83 84
-4.774063e+00 2.776130e+00 3.198483e+00 179 171 166
1.091037e+00 3.266078e+00 3.289309e+00 156 144 130
-1.572928e+00 3.158353e+00 2.929091e+00 192 188 177
-1.572634e+00 3.159085e+00 2.927797e+00 192 188 177
-1.510609e+00 3.181269e+00 2.933241e+00 173 163 141
1.752722e+00 3.246466e+00 3.695590e+00 204 199 193
3.975829e+00 3.014405e+00 5.121866e+00 213 214 218
1.928044e+00 3.251727e+00 3.759385e+00 168 161 151
-3.621999e+00 2.979998e+00 3.148818e+00 131 130 127
1.736228e+00 3.273075e+00 3.707129e+00 148 142 130
-1.638835e+00 3.203246e+00 2.964878e+00 181 174 164
-1.638835e+00 3.203246e+00 2.964878e+00 181 174 164
-3.254420e-01 3.315075e+00 2.954333e+00 152 144 127
-3.837794e-01 3.310077e+00 2.943568e+00 147 135 121
3.635073e+00 3.082645e+00 4.893981e+00 148 140 121
3.694147e+00 3.078649e+00 4.955535e+00 101 88 70
9.111491e-01 3.343448e+00 3.274218e+00 185 173 151
9.111491e-01 3.343448e+00 3.274218e+00 185 173 151
-3.752236e-01 3.328192e+00 2.956344e+00 75 66 52
3.670705e+00 3.086345e+00 4.931201e+00 179 172 154
-1.680315e+00 3.221114e+00 2.975459e+00 173 166 156
-1.683773e+00 3.223999e+00 2.981049e+00 173 166 156
-4.678343e+00 2.890859e+00 3.246555e+00 108 99 93
-3.557144e+00 3.030159e+00 3.160283e+00 171 158 133
-1.991543e-01 3.354699e+00 2.994065e+00 76 66 64
-4.645473e+00 2.915779e+00 3.244438e+00 192 190 177
-2.108915e+00 3.210034e+00 3.020434e+00 103 88 72
-3.421737e+00 3.065228e+00 3.163155e+00 112 105 99
-4.597895e+00 2.940581e+00 3.254619e+00 148 140 128
-4.400790e-01 3.361105e+00 3.003959e+00 161 152 142
2.840542e+00 3.218765e+00 4.476110e+00 197 194 180
2.271040e+00 3.285756e+00 4.087930e+00 160 154 138
4.454118e+00 3.072340e+00 5.370400e+00 169 170 172
-3.417955e+00 3.082330e+00 3.177451e+00 191 187 177
2.247502e+00 3.297685e+00 4.077999e+00 99 92 88
2.247502e+00 3.297685e+00 4.077999e+00 99 92 88
-2.367573e+00 3.212350e+00 3.077125e+00 89 80 83
5.518525e-01 3.418531e+00 3.155455e+00 28 21 13
3.501146e+00 3.179560e+00 4.847898e+00 170 159 137
-2.337422e+00 3.221687e+00 3.081116e+00 88 83 85
2.240758e+00 3.313106e+00 4.089835e+00 193 189 180
6.628387e-01 3.422568e+00 3.246828e+00 166 155 133
-1.752792e-01 3.410767e+00 3.037398e+00 52 44 38
-4.606798e+00 3.003728e+00 3.280226e+00 69 61 66
-4.606798e+00 3.003728e+00 3.280226e+00 69 61 66
2.216430e+00 3.335831e+00 4.082568e+00 115 105 97
6.175861e-01 3.439106e+00 3.236547e+00 100 87 70
-3.284069e+00 3.143707e+00 3.186288e+00 63 52 48
-3.290142e+00 3.147609e+00 3.196667e+00 63 52 48
-5.348572e-01 3.414730e+00 3.011346e+00 64 57 51
-3.728711e+00 3.111215e+00 3.207354e+00 199 196 189
-1.365458e+00 3.355308e+00 3.040553e+00 52 48 50
-1.365458e+00 3.355308e+00 3.040553e+00 52 48 50
-3.333840e+00 3.155560e+00 3.196269e+00 62 52 50
3.646158e+00 3.203296e+00 4.991499e+00 164 152 136
-2.201725e+00 3.290133e+00 3.108055e+00 128 121 111
-3.349160e+00 3.172799e+00 3.207863e+00 184 177 173
2.151755e+00 3.367341e+00 4.105019e+00 178 171 148
2.415721e+00 3.357386e+00 4.184690e+00 140 131 116
2.415721e+00 3.357386e+00 4.184690e+00 140 131 116
1.568294e+00 3.427973e+00 3.712423e+00 207 202 198
-1.222479e+00 3.403655e+00 3.065622e+00 155 152 139
2.137534e+00 3.390826e+00 4.117446e+00 121 114 109
1.441831e+00 3.457093e+00 3.653261e+00 190 186 175
2.749758e+00 3.338101e+00 4.477959e+00 143 136 125
2.147681e+00 3.409144e+00 4.103113e+00 198 195 187
-2.335597e+00 3.328827e+00 3.152527e+00 186 185 179
-2.098450e+00 3.354500e+00 3.133098e+00 180 173 144
-1.096385e+00 3.444648e+00 3.086698e+00 103 93 84
-1.194471e+00 3.437115e+00 3.074507e+00 183 179 176
-4.077215e+00 3.165579e+00 3.262781e+00 114 105 96
1.257360e+00 3.494589e+00 3.608118e+00 75 59 45
1.257360e+00 3.494589e+00 3.608118e+00 75 59 45
-2.104468e+00 3.371104e+00 3.137261e+00 79 71 62
1.118469e+00 3.511290e+00 3.569289e+00 77 68 61
-4.447480e+00 3.152464e+00 3.331325e+00 95 83 79
-4.895646e-02 3.536274e+00 3.146007e+00 128 123 117
2.652112e+00 3.401503e+00 4.461864e+00 98 88 82
1.956993e+00 3.467031e+00 4.046026e+00 79 72 66
1.915856e-01 3.551953e+00 3.172942e+00 68 51 42
-6.542776e-02 3.547877e+00 3.146191e+00 178 175 170
2.006968e+00 3.473216e+00 4.052350e+00 145 142 133
2.647459e+00 3.416113e+00 4.476665e+00 184 174 162
-8.753484e-01 3.512070e+00 3.123452e+00 177 166 147
1.089609e+00 3.544671e+00 3.586232e+00 182 174 151
-9.432853e-01 3.512724e+00 3.120205e+00 183 174 158
-1.938280e+00 3.434143e+00 3.161563e+00 169 162 152
-2.987462e+00 3.329668e+00 3.251542e+00 90 80 79
1.438367e+00 3.541589e+00 3.703339e+00 113 106 100
9.334920e-01 3.571997e+00 3.483480e+00 169 163 149
-4.375143e+00 3.227765e+00 3.351920e+00 146 138 126
-4.135546e+00 3.251324e+00 3.316300e+00 79 69 70
9.821802e-01 3.585838e+00 3.549564e+00 182 176 173
-2.026157e+00 3.472450e+00 3.212152e+00 189 184 178
-8.806954e-01 3.570263e+00 3.175527e+00 122 115 96
2.693558e+00 3.477674e+00 4.531050e+00 132 128 127
1.713722e+00 3.573181e+00 4.009076e+00 193 186 165
3.144455e+00 3.470077e+00 4.792554e+00 189 177 166
2.653447e+00 3.511810e+00 4.534075e+00 205 203 198
-4.337306e+00 3.317289e+00 3.392873e+00 199 196 184
-9.282413e-01 3.611800e+00 3.199968e+00 127 121 113
-2.977262e+00 3.453709e+00 3.308080e+00 184 181 174
-8.786497e-01 3.627753e+00 3.222670e+00 174 166 154
1.586097e+00 3.622897e+00 3.933791e+00 95 86 81
-1.116786e+00 3.618418e+00 3.192888e+00 131 125 113
-4.440348e+00 3.338114e+00 3.421648e+00 180 180 170
9.937100e-01 3.673396e+00 3.636196e+00 126 122 110
1.040714e+00 3.676018e+00 3.652775e+00 110 104 99
-4.161423e+00 3.386400e+00 3.398598e+00 172 163 148
1.523409e+00 3.666042e+00 3.934459e+00 166 156 144
-8.250366e-01 3.682754e+00 3.266849e+00 192 188 179
-1.569392e+00 3.647483e+00 3.279081e+00 94 81 73
2.296829e+00 3.628807e+00 4.410023e+00 67 60 51
2.296829e+00 3.628807e+00 4.410023e+00 67 60 51
2.331923e+00 3.629704e+00 4.428838e+00 113 106 95
-2.884449e+00 3.547453e+00 3.353869e+00 159 152 130
2.243338e+00 3.641471e+00 4.369899e+00 187 183 170
1.593208e+00 3.694854e+00 4.021159e+00 196 190 175
-8.578212e-01 3.715100e+00 3.281386e+00 183 180 174
-2.893164e+00 3.579668e+00 3.367707e+00 175 172 161
2.300477e+00 3.668005e+00 4.421530e+00 47 40 34
-1.686057e+00 3.684457e+00 3.319098e+00 104 99 94
5.263655e-01 3.777262e+00 3.535554e+00 96 86 81
-7.013622e-01 3.758772e+00 3.303333e+00 204 201 195
-1.472075e+00 3.713584e+00 3.325083e+00 83 72 70
-3.724324e+00 3.538796e+00 3.410917e+00 160 151 138
4.051895e-01 3.792834e+00 3.484331e+00 71 58 42
-1.718736e+00 3.704554e+00 3.328536e+00 133 131 127
2.346785e+00 3.690649e+00 4.494124e+00 197 192 177
-3.188669e-01 3.790189e+00 3.362001e+00 78 62 57
5.548182e-01 3.813238e+00 3.535096e+00 109 99 90
3.434421e-01 3.817249e+00 3.488399e+00 81 67 56
-1.251928e-01 3.813055e+00 3.381573e+00 156 144 135
2.843177e+00 3.689028e+00 4.732355e+00 79 71 66
2.843177e+00 3.689028e+00 4.732355e+00 79 71 66
-1.743715e+00 3.742704e+00 3.352933e+00 178 175 166
-4.032921e+00 3.566906e+00 3.482609e+00 134 130 124
5.345957e-01 3.829050e+00 3.591512e+00 186 182 170
1.378812e+00 3.805584e+00 3.952387e+00 118 109 100
-4.813667e-01 3.821304e+00 3.374807e+00 77 68 66
-1.444040e+00 3.770298e+00 3.360137e+00 71 58 52
-3.795550e+00 3.596574e+00 3.461656e+00 78 71 66
-4.584284e-01 3.827175e+00 3.390350e+00 193 190 183
-5.351718e-01 3.857899e+00 3.388949e+00 146 139 130
-2.437319e+00 3.756578e+00 3.456456e+00 121 112 110
-2.338631e-01 3.881470e+00 3.458876e+00 192 188 180
-3.580497e+00 3.677504e+00 3.464810e+00 162 150 131
5.541256e-01 3.895188e+00 3.633014e+00 166 158 139
2.284650e+00 3.803830e+00 4.503242e+00 205 196 187
2.919101e+00 3.760634e+00 4.853135e+00 77 66 63
-1.579675e+00 3.835932e+00 3.422772e+00 125 121 118
-6.136885e-02 3.910180e+00 3.488359e+00 179 176 168
-2.975794e+00 3.748055e+00 3.461155e+00 137 127 117
6.192774e-02 3.916583e+00 3.500061e+00 66 58 51
-3.650203e+00 3.703919e+00 3.489615e+00 61 50 55
-1.188131e+00 3.886362e+00 3.436402e+00 197 188 176
-1.237742e+00 3.902354e+00 3.445012e+00 104 95 91
-1.237742e+00 3.902354e+00 3.445012e+00 104 95 91
-3.305505e+00 3.770562e+00 3.475836e+00 176 168 156
9.078250e-01 3.946139e+00 3.847461e+00 34 28 16
9.748179e-02 3.972382e+00 3.552144e+00 173 168 163
2.806549e+00 3.855345e+00 4.846566e+00 95 84 81
2.806549e+00 3.855345e+00 4.846566e+00 95 84 81
-3.830205e+00 3.774835e+00 3.559404e+00 188 186 178
1.040499e-01 3.990060e+00 3.565497e+00 177 169 156
2.556421e+00 3.895803e+00 4.703077e+00 181 171 158
-2.315657e+00 3.900755e+00 3.514536e+00 179 172 154
1.576289e+00 3.972123e+00 4.207425e+00 71 59 45
-2.325465e+00 3.916533e+00 3.542862e+00 67 54 54
2.516268e+00 3.924387e+00 4.701446e+00 173 161 139
2.803507e+00 3.913525e+00 4.860612e+00 215 209 195
2.803507e+00 3.913525e+00 4.860612e+00 215 209 195
2.765241e+00 3.912399e+00 4.869469e+00 200 195 180
2.765241e+00 3.912399e+00 4.869469e+00 200 195 180
-9.151456e-01 4.017014e+00 3.546392e+00 171 165 140
-3.069464e+00 3.894762e+00 3.523538e+00 115 106 99
1.700590e-01 4.050242e+00 3.613516e+00 149 141 122
1.070834e-01 4.052833e+00 3.601554e+00 94 76 72
-1.212528e+00 4.016928e+00 3.531783e+00 194 190 180
-3.281799e+00 3.901941e+00 3.566139e+00 89 79 78
-1.138297e+00 4.034352e+00 3.548327e+00 190 185 165
1.694982e+00 4.032970e+00 4.360361e+00 108 101 94
-1.127439e+00 4.051791e+00 3.553535e+00 110 102 94
6.702663e-01 4.099563e+00 3.889479e+00 182 176 160
2.624991e+00 4.004855e+00 4.830778e+00 183 176 160
1.631986e+00 4.070469e+00 4.364153e+00 126 121 117
-1.997484e+00 4.063540e+00 3.608505e+00 82 73 63
2.608372e+00 4.045053e+00 4.860445e+00 109 99 94
1.898727e+00 4.108461e+00 4.494836e+00 155 151 149
5.271347e-01 4.165294e+00 3.899157e+00 73 63 54
-1.792003e+00 4.119099e+00 3.644645e+00 175 168 150
1.899738e+00 4.121885e+00 4.505968e+00 212 209 202
-3.531830e-01 4.172976e+00 3.702055e+00 116 108 106
-2.952053e+00 4.060844e+00 3.613872e+00 108 103 101
-3.361960e+00 4.054932e+00 3.662057e+00 164 158 142
2.847252e-01 4.200896e+00 3.828598e+00 129 116 108
-3.071551e+00 4.095229e+00 3.656424e+00 184 179 170
-1.867802e-02 4.233255e+00 3.768538e+00 69 60 45
-2.262369e+00 4.158194e+00 3.648578e+00 143 136 133
1.419392e+00 4.204126e+00 4.326290e+00 141 138 132
2.325280e+00 4.169087e+00 4.781184e+00 191 183 163
-3.330031e-02 4.257770e+00 3.799192e+00 186 181 162
-6.586480e-01 4.250030e+00 3.706460e+00 162 154 140
1.918256e-01 4.261570e+00 3.850299e+00 83 69 60
1.604209e+00 4.223470e+00 4.421637e+00 203 199 189
-3.342843e+00 4.156347e+00 3.711461e+00 220 225 228
-3.096005e+00 4.173535e+00 3.713151e+00 172 162 146
-2.901750e+00 4.183312e+00 3.696818e+00 86 76 75
2.001565e+00 4.228223e+00 4.627819e+00 183 178 167
3.262286e-01 4.293850e+00 3.934016e+00 194 185 182
1.114082e+00 4.275112e+00 4.276910e+00 202 197 179
1.114082e+00 4.275112e+00 4.276910e+00 202 197 179
1.843655e-01 4.295576e+00 3.892764e+00 86 82 82
1.205307e+00 4.303425e+00 4.341365e+00 68 58 54
1.076649e+00 4.315917e+00 4.294748e+00 68 59 53
-1.460183e+00 4.303745e+00 3.770040e+00 118 112 100
-3.088151e+00 4.235141e+00 3.744784e+00 111 101 89
-1.758179e+00 4.300630e+00 3.755719e+00 183 181 169
-1.450338e+00 4.318935e+00 3.773310e+00 203 199 184
-9.457920e-02 4.352133e+00 3.867398e+00 201 194 179
-1.624372e+00 4.318717e+00 3.755882e+00 199 196 191
-1.274604e+00 4.330661e+00 3.784629e+00 72 57 57
9.431261e-01 4.345947e+00 4.261667e+00 170 159 142
9.431261e-01 4.345947e+00 4.261667e+00 170 159 142
-1.620751e+00 4.331173e+00 3.772338e+00 136 128 126
1.130515e+00 4.345464e+00 4.346635e+00 203 199 192
1.039812e+00 4.356712e+00 4.320783e+00 170 164 152
1.039812e+00 4.356712e+00 4.320783e+00 170 164 152
1.106261e+00 4.356408e+00 4.339813e+00 121 116 110
1.155240e+00 4.357831e+00 4.352939e+00 116 109 102
1.724673e+00 4.338332e+00 4.541137e+00 160 154 133
4.212774e+00 4.254752e+00 5.582942e+00 198 197 194
-2.202441e-01 4.393362e+00 3.853268e+00 105 96 89
1.726566e+00 4.354775e+00 4.558717e+00 83 73 74
-2.566639e+00 4.345132e+00 3.763472e+00 169 163 141
-1.124256e+00 4.418915e+00 3.864411e+00 73 63 52
-1.124256e+00 4.418915e+00 3.864411e+00 73 63 52
-2.247045e+00 4.407249e+00 3.802747e+00 91 80 80
-2.629933e+00 4.395607e+00 3.804773e+00 71 62 51
1.752187e+00 4.437719e+00 4.669417e+00 196 186 153
1.981560e+00 4.438534e+00 4.792722e+00 120 117 128
-2.630374e+00 4.445942e+00 3.846579e+00 181 178 162
-8.296156e-01 4.498501e+00 3.921609e+00 127 116 113
6.792365e-01 4.497955e+00 4.258425e+00 196 189 168
-2.678771e+00 4.460223e+00 3.856985e+00 192 189 174
-5.978389e-01 4.511733e+00 3.941877e+00 79 68 68
1.644063e+00 4.484606e+00 4.644528e+00 94 87 79
-7.870537e-01 4.517564e+00 3.935663e+00 195 191 175
-8.898179e-01 4.526803e+00 3.935577e+00 190 184 170
1.415247e+00 4.519744e+00 4.546430e+00 175 170 150
-6.006172e-01 4.565596e+00 3.996588e+00 118 109 89
-5.954032e-01 4.583317e+00 4.011980e+00 162 151 133
1.263985e+00 4.564853e+00 4.509802e+00 110 99 82
1.569915e-01 4.587812e+00 4.118531e+00 129 117 99
-6.115855e-01 4.598252e+00 4.020233e+00 122 109 99
-7.182555e-01 4.600638e+00 4.019498e+00 192 187 175
1.831650e+00 4.560235e+00 4.774743e+00 229 229 231
-3.617169e-01 4.608193e+00 4.038790e+00 74 61 53
1.450037e+00 4.579719e+00 4.627898e+00 68 58 54
-1.865329e+00 4.584743e+00 3.898963e+00 169 162 146
-2.237023e+00 4.590769e+00 3.922054e+00 176 164 148
-3.366142e-01 4.629147e+00 4.062094e+00 174 166 148
-3.888478e-01 4.633866e+00 4.056639e+00 115 107 86
-3.888478e-01 4.633866e+00 4.056639e+00 115 107 86
-4.460283e-01 4.639337e+00 4.061447e+00 175 167 155
1.883885e-01 4.639610e+00 4.189080e+00 146 138 114
-6.225333e-01 4.639298e+00 4.035463e+00 216 212 200
1.721592e+00 4.608636e+00 4.769848e+00 226 228 227
-1.543405e+00 4.659482e+00 3.947841e+00 153 142 117
-1.958525e+00 4.659267e+00 3.968395e+00 63 53 44
9.328051e-01 4.673151e+00 4.446921e+00 155 141 121
-1.792696e+00 4.683895e+00 3.980273e+00 161 146 125
-1.528873e+00 4.697425e+00 3.980671e+00 158 146 127
9.740233e-01 4.700837e+00 4.499535e+00 170 164 156
4.360234e-02 4.716306e+00 4.201574e+00 95 84 83
-1.633512e+00 4.710937e+00 3.996934e+00 61 49 50
1.053789e+00 4.732136e+00 4.556508e+00 81 68 64
1.183239e+00 4.731384e+00 4.625847e+00 113 101 90
9.894690e-01 4.778552e+00 4.577334e+00 163 147 126
9.894690e-01 4.778552e+00 4.577334e+00 163 147 126
9.734601e-01 4.795708e+00 4.574225e+00 101 79 60
9.609277e-01 4.811396e+00 4.590278e+00 148 132 111
-1.736083e+00 4.830937e+00 4.079216e+00 137 123 110
-9.077197e-01 4.858008e+00 4.123275e+00 158 142 109
-1.289598e+00 4.859308e+00 4.116727e+00 78 67 66
3.309865e-01 4.876995e+00 4.381374e+00 154 138 114
5.751605e-01 4.877132e+00 4.473173e+00 145 134 109
-1.194993e+00 4.899634e+00 4.147698e+00 180 173 154
-1.118341e+00 4.905334e+00 4.148647e+00 172 163 141
-1.102244e+00 4.909850e+00 4.159077e+00 57 35 40
-1.057378e+00 4.921533e+00 4.176164e+00 196 194 182
1.934528e-01 4.935711e+00 4.379139e+00 60 41 34
8.112768e-01 4.945876e+00 4.630814e+00 111 101 120
-3.939505e-01 5.002281e+00 4.277923e+00 101 85 63
-5.415373e-02 5.006264e+00 4.348718e+00 138 120 99
-5.680439e-01 5.023369e+00 4.279797e+00 84 66 46
-6.771654e+00 -4.444354e+00 2.148250e+00 176 174 178
-4.615978e+00 -3.758375e+00 2.061453e+00 155 151 148
3.866950e+00 -2.061886e+00 3.154016e+00 165 165 160
4.546657e-01 -1.813499e+00 1.524592e+00 73 67 74
2.813448e+00 -1.726177e+00 2.346839e+00 176 175 170
6.079593e-01 -1.727264e+00 1.549834e+00 50 46 43
2.777337e+00 -1.655553e+00 2.322967e+00 117 114 109
2.777337e+00 -1.655553e+00 2.322967e+00 117 114 109
4.436778e+00 -2.094920e+00 3.680213e+00 173 172 168
4.400273e+00 -2.075967e+00 3.669650e+00 168 164 160
4.557907e+00 -2.086751e+00 3.751110e+00 87 86 84
-1.859874e+00 -2.837677e+00 2.239698e+00 133 130 126
2.552283e+00 -1.501210e+00 2.151867e+00 147 146 143
4.509557e+00 -2.037372e+00 3.735658e+00 75 75 68
4.540115e+00 -2.036100e+00 3.748837e+00 97 98 93
2.726475e+00 -1.456049e+00 2.275702e+00 149 149 148
2.704755e+00 -1.456832e+00 2.269929e+00 86 86 86
9.682032e-01 -1.537528e+00 1.739279e+00 158 158 158
4.440127e+00 -1.980657e+00 3.710126e+00 162 158 155
8.117862e-01 -1.498277e+00 1.658611e+00 117 116 111
2.699342e+00 -1.438825e+00 2.281248e+00 163 161 164
3.055256e+00 -1.454169e+00 2.454245e+00 84 84 80
3.022107e+00 -1.442430e+00 2.428676e+00 82 84 81
4.448759e+00 -1.928002e+00 3.714491e+00 177 178 180
3.033757e+00 -1.422978e+00 2.445218e+00 88 87 85
1.460124e+00 -1.314083e+00 1.713875e+00 156 151 145
1.443923e+00 -1.278395e+00 1.714815e+00 170 167 160
-2.465085e+00 -2.365600e+00 1.830000e+00 75 73 78
2.663488e-01 -1.331602e+00 1.448024e+00 218 218 218
2.571120e+00 -1.249606e+00 2.207408e+00 190 188 185
1.958512e+00 -1.136920e+00 1.906730e+00 98 99 93
3.396168e+00 -1.390953e+00 2.857884e+00 103 98 93
-4.500227e-01 -1.504551e+00 1.546061e+00 99 97 87
-4.500227e-01 -1.504551e+00 1.546061e+00 99 97 87
1.918632e+00 -1.114245e+00 1.896871e+00 194 194 195
1.884637e+00 -1.111600e+00 1.887171e+00 195 196 191
2.867777e+00 -1.163278e+00 2.341872e+00 116 116 116
1.842081e+00 -1.108319e+00 1.873733e+00 195 196 191
4.886523e-01 -1.192353e+00 1.493240e+00 167 163 150
-4.446756e-01 -1.472887e+00 1.542143e+00 184 184 179
1.862043e+00 -1.098436e+00 1.881175e+00 111 110 106
-4.605204e-01 -1.451946e+00 1.519383e+00 99 96 91
2.655070e-01 -1.183572e+00 1.447055e+00 149 143 134
1.807056e+00 -1.070935e+00 1.858246e+00 109 102 96
2.669088e+00 -1.050872e+00 2.236996e+00 126 127 123
2.669088e+00 -1.050872e+00 2.236996e+00 126 127 123
7.104961e-02 -1.161935e+00 1.432778e+00 66 65 60
1.762437e+00 -1.010120e+00 1.862301e+00 163 158 155
4.928309e-01 -1.085163e+00 1.496496e+00 173 173 162
1.536600e+00 -9.898870e-01 1.758639e+00 180 180 176
1.465600e+00 -9.653213e-01 1.716290e+00 177 178 172
1.592507e+00 -9.822785e-01 1.795561e+00 187 189 185
8.451265e-01 -1.016994e+00 1.582413e+00 115 114 97
-3.271655e-01 -1.253958e+00 1.496286e+00 124 123 119
7.653325e-01 -1.006524e+00 1.582984e+00 127 126 122
7.653325e-01 -1.006524e+00 1.582984e+00 127 126 122
9.590233e-01 -9.844898e-01 1.633065e+00 192 189 175
6.918779e-01 -9.631100e-01 1.512481e+00 132 132 122
4.429242e+00 -1.492033e+00 3.757010e+00 177 173 171
7.654102e-01 -9.616942e-01 1.550544e+00 195 194 192
1.442974e+00 -9.292777e-01 1.762867e+00 141 140 135
7.043643e-01 -9.723334e-01 1.566881e+00 196 197 192
6.469737e-01 -9.400340e-01 1.510917e+00 128 126 114
6.469737e-01 -9.400340e-01 1.510917e+00 128 126 114
1.434070e+00 -8.924200e-01 1.732831e+00 135 132 125
2.308894e+00 -8.792738e-01 2.073032e+00 143 144 139
3.142402e+00 -1.014016e+00 2.633639e+00 142 137 133
1.514347e+00 -8.693871e-01 1.785300e+00 140 141 136
1.484996e+00 -8.777853e-01 1.783393e+00 177 177 175
4.256627e+00 -1.380002e+00 3.658804e+00 166 165 164
3.261554e+00 -9.665423e-01 2.752633e+00 162 156 150
4.126448e+00 -1.245038e+00 3.552702e+00 159 156 152
3.270486e+00 -9.524696e-01 2.762031e+00 127 122 114
3.306057e+00 -9.470192e-01 2.783714e+00 133 129 120
2.894670e-01 -8.474191e-01 1.498266e+00 139 140 135
2.894670e-01 -8.474191e-01 1.498266e+00 139 140 135
3.083632e+00 -8.889889e-01 2.628850e+00 119 112 104
-3.463420e+00 -2.000576e+00 1.926822e+00 142 138 135
-1.099611e-01 -8.398317e-01 1.412222e+00 191 188 175
4.654281e+00 -1.342268e+00 4.028457e+00 111 107 97
-9.340569e-02 -7.655791e-01 1.336053e+00 180 177 161
1.358927e+00 -7.092879e-01 1.780299e+00 174 172 160
2.550778e+00 -6.893550e-01 2.218659e+00 131 130 126
