ply
format ascii 1.0
element face 0
property list uchar int vertex_indices
element vertex 943
property float x
property float y
property float z
property uchar diffuse_red
property uchar diffuse_green
property uchar diffuse_blue
end_header
-6.128346e+00 1.277593e+00 1.059421e+00 53 45 48
-6.128346e+00 1.277593e+00 1.059421e+00 53 45 48
2.390410e+00 2.109813e+00 3.976806e+00 171 169 164
1.326433e+00 2.507913e+00 2.827036e+00 151 136 112
1.291561e-01 2.572825e+00 2.136117e+00 168 156 134
1.291561e-01 2.572825e+00 2.136117e+00 168 156 134
4.252473e+00 1.297322e+00 6.251505e+00 190 179 164
-2.608013e+00 2.096389e+00 1.668106e+00 181 178 174
-6.204279e+00 1.381904e+00 1.125831e+00 201 206 206
4.238649e+00 1.339488e+00 6.275500e+00 88 74 62
4.238649e+00 1.339488e+00 6.275500e+00 88 74 62
1.719301e+00 2.493125e+00 3.258638e+00 163 152 133
-1.425865e+00 2.382741e+00 1.904934e+00 81 70 64
-3.500826e+00 1.963789e+00 1.608434e+00 163 157 143
-3.500826e+00 1.963789e+00 1.608434e+00 163 157 143
3.147589e+00 1.900124e+00 4.974394e+00 93 78 69
2.704076e+00 2.065980e+00 4.511111e+00 154 148 136
-3.377932e+00 2.035967e+00 1.600328e+00 72 62 61
8.908407e-02 2.650720e+00 2.291580e+00 185 173 157
2.189550e+00 2.302982e+00 3.906509e+00 68 58 57
2.200705e+00 2.315988e+00 3.882554e+00 68 58 57
2.223046e+00 2.273962e+00 3.991183e+00 125 111 102
-3.442921e+00 2.030276e+00 1.666379e+00 198 197 193
-4.461092e+00 1.827680e+00 1.548946e+00 143 140 131
-9.231502e-01 2.536798e+00 2.078729e+00 184 183 171
3.764007e-01 2.741514e+00 2.355450e+00 162 147 120
2.648463e+00 2.134893e+00 4.525314e+00 189 182 176
3.052515e+00 1.984413e+00 4.970013e+00 176 172 163
-5.659470e+00 1.679494e+00 1.319608e+00 78 69 68
-5.859523e+00 1.668525e+00 1.313337e+00 156 153 132
2.333836e+00 2.350816e+00 4.090010e+00 192 185 173
3.584229e-01 2.808573e+00 2.475628e+00 152 138 111
1.476262e+00 2.682242e+00 3.243660e+00 65 58 44
8.133321e-01 2.820997e+00 2.673934e+00 121 109 81
4.079553e+00 1.614180e+00 6.307613e+00 155 146 137
2.449147e+00 2.297598e+00 4.383258e+00 159 152 134
-4.104144e-01 2.753362e+00 2.304824e+00 100 85 65
-2.693984e-01 2.815847e+00 2.279473e+00 86 70 47
-5.832592e+00 1.804461e+00 1.403968e+00 83 69 55
-2.442005e-01 2.798536e+00 2.338236e+00 183 174 158
1.935976e+00 2.551030e+00 3.865556e+00 69 51 40
1.935976e+00 2.551030e+00 3.865556e+00 69 51 40
3.089507e-01 2.865501e+00 2.541226e+00 79 60 29
7.500093e-01 2.880829e+00 2.748158e+00 31 22 16
-1.192022e+00 2.718096e+00 2.206973e+00 54 42 32
3.971767e+00 1.806924e+00 6.254516e+00 164 155 145
2.881926e+00 2.213843e+00 5.058704e+00 114 106 97
8.701377e-01 2.881904e+00 2.938637e+00 57 42 37
-5.364895e+00 2.013971e+00 1.557823e+00 175 171 162
3.830581e+00 1.849611e+00 6.173350e+00 75 62 54
-1.384181e-03 2.913837e+00 2.500865e+00 96 80 54
1.282647e+00 2.821587e+00 3.309744e+00 170 160 150
2.763255e+00 2.285698e+00 4.957505e+00 70 60 51
2.765115e+00 2.289425e+00 4.951818e+00 70 60 51
-4.831228e-02 2.926861e+00 2.526209e+00 161 149 129
2.789526e+00 2.294842e+00 5.019019e+00 56 50 54
2.789857e+00 2.295227e+00 5.018174e+00 56 50 54
2.729996e+00 2.307075e+00 4.972452e+00 192 185 180
-4.119220e+00 2.294216e+00 1.836240e+00 76 66 57
-1.442205e+00 2.788918e+00 2.237126e+00 185 181 165
1.627996e+00 2.777761e+00 3.739693e+00 148 136 115
-1.885332e+00 2.716633e+00 2.236560e+00 132 124 105
3.722130e+00 2.004166e+00 6.120132e+00 74 63 49
3.632552e+00 2.061418e+00 6.034280e+00 86 69 59
3.313028e+00 2.171465e+00 5.718950e+00 186 178 168
2.599865e+00 2.435258e+00 4.933258e+00 184 176 163
8.556149e-01 2.982182e+00 3.130290e+00 160 146 113
-5.208684e+00 2.231306e+00 1.705760e+00 78 63 64
1.724735e+00 2.801460e+00 3.917853e+00 92 80 59
1.546232e+00 2.852820e+00 3.777600e+00 86 73 57
1.438967e+00 2.904941e+00 3.646840e+00 57 42 34
-3.210097e+00 2.606924e+00 2.085342e+00 130 129 128
-1.107676e+00 2.928401e+00 2.494412e+00 188 188 182
-1.723086e+00 2.858935e+00 2.386206e+00 67 55 41
2.231724e+00 2.679798e+00 4.531572e+00 179 173 159
-9.663176e-01 2.977590e+00 2.534191e+00 174 174 171
-9.663176e-01 2.977590e+00 2.534191e+00 174 174 171
3.043697e+00 2.326313e+00 5.581681e+00 186 178 167
-5.010917e+00 2.380107e+00 1.807638e+00 194 201 191
-1.832428e+00 2.940820e+00 2.297470e+00 192 189 182
1.386585e+00 2.946283e+00 3.794611e+00 65 47 30
1.386585e+00 2.946283e+00 3.794611e+00 65 47 30
-3.915374e+00 2.581285e+00 2.077847e+00 72 62 54
1.312996e+00 2.975360e+00 3.742873e+00 168 160 137
-8.764473e-01 3.040184e+00 2.647565e+00 59 51 40
-8.453098e-01 3.063448e+00 2.629528e+00 59 51 40
-3.970114e+00 2.624954e+00 2.113201e+00 172 165 144
-5.083944e+00 2.481853e+00 1.886926e+00 168 157 135
-4.844345e+00 2.527904e+00 1.936348e+00 141 131 120
2.270031e+00 2.725751e+00 4.792401e+00 60 50 48
-6.169060e-01 3.113289e+00 2.785640e+00 164 155 140
1.985373e+00 2.846090e+00 4.460696e+00 135 127 119
1.302923e+00 3.028827e+00 3.816541e+00 139 127 108
-5.007724e+00 2.523520e+00 1.937763e+00 169 163 151
-5.141618e+00 2.517289e+00 1.912777e+00 60 48 41
2.520984e+00 2.671288e+00 5.060667e+00 196 186 176
1.359233e+00 3.055757e+00 3.887684e+00 137 132 112
-5.187841e+00 2.542048e+00 1.954673e+00 167 163 154
-4.947420e+00 2.616654e+00 2.003781e+00 163 155 142
-1.401614e+00 3.171890e+00 2.598891e+00 64 57 46
2.279215e+00 2.786655e+00 4.999536e+00 196 193 186
3.360952e+00 2.475267e+00 6.208890e+00 190 186 182
-3.543195e+00 2.915666e+00 2.346333e+00 76 64 58
-3.625945e+00 2.906395e+00 2.355303e+00 187 185 182
2.015006e+00 2.936566e+00 4.790464e+00 71 62 53
-2.324423e+00 3.126463e+00 2.620583e+00 178 179 168
-2.119778e+00 3.166079e+00 2.660971e+00 131 120 96
-4.847999e+00 2.821755e+00 2.176402e+00 178 178 167
3.063680e+00 2.646682e+00 5.960482e+00 187 181 169
-1.369155e+00 3.261919e+00 2.852765e+00 154 148 134
-5.044099e+00 2.816526e+00 2.141239e+00 127 116 119
8.117319e-01 3.298546e+00 3.745994e+00 191 183 165
-4.347065e-01 3.375256e+00 3.083239e+00 169 165 156
1.900392e+00 3.019653e+00 4.820467e+00 74 64 55
3.052471e+00 2.691019e+00 5.980813e+00 96 81 70
2.376287e+00 2.892275e+00 5.321359e+00 194 191 179
-3.656220e+00 3.038651e+00 2.442288e+00 164 160 149
-4.393347e+00 2.955968e+00 2.276034e+00 91 77 74
5.665062e-01 3.352843e+00 3.607042e+00 184 176 165
-1.181896e+00 3.346142e+00 2.935990e+00 161 155 143
-3.265859e+00 3.100720e+00 2.560203e+00 75 61 52
2.916888e+00 2.761642e+00 5.862156e+00 110 103 96
2.355492e+00 2.932129e+00 5.305118e+00 52 43 38
2.963278e+00 2.744944e+00 5.928116e+00 193 186 179
7.223967e-01 3.378055e+00 3.734988e+00 121 113 94
-1.005591e-01 3.433604e+00 3.298075e+00 164 148 133
7.488636e-01 3.390937e+00 3.761263e+00 166 158 135
-1.179809e+00 3.396685e+00 3.004180e+00 191 188 183
1.753994e+00 3.138688e+00 4.798232e+00 212 209 200
3.135902e-02 3.459870e+00 3.396447e+00 160 152 132
2.983273e+00 2.796027e+00 6.062202e+00 109 97 88
-7.324744e-01 3.457937e+00 3.145219e+00 78 66 48
-2.391690e-01 3.488401e+00 3.311830e+00 109 100 83
3.019025e+00 2.772087e+00 6.181116e+00 136 128 128
1.323326e-01 3.524362e+00 3.425893e+00 52 44 32
1.327146e-01 3.525105e+00 3.419233e+00 52 44 32
-2.776932e+00 3.286282e+00 2.700242e+00 185 177 172
2.338125e+00 2.999662e+00 5.466264e+00 88 82 78
-4.270061e+00 3.124930e+00 2.417179e+00 90 80 78
-1.648243e+00 3.419095e+00 2.931942e+00 150 137 121
2.865473e+00 2.855921e+00 6.014419e+00 61 48 40
1.228186e+00 3.366083e+00 4.305511e+00 170 162 153
2.164491e+00 3.100819e+00 5.341535e+00 188 183 174
2.715697e+00 2.950875e+00 5.903253e+00 196 190 176
-4.159202e+00 3.216286e+00 2.523482e+00 95 78 69
-4.423360e+00 3.190135e+00 2.467078e+00 51 41 42
-8.317162e-01 3.534371e+00 3.262812e+00 104 97 82
-8.317162e-01 3.534371e+00 3.262812e+00 104 97 82
-1.911503e+00 3.460055e+00 2.989050e+00 185 178 169
1.512942e+00 3.326450e+00 4.736217e+00 77 61 49
1.512942e+00 3.326450e+00 4.736217e+00 77 61 49
1.952482e+00 3.204165e+00 5.235206e+00 178 174 165
-1.015077e+00 3.572657e+00 3.240086e+00 129 121 104
-4.411180e+00 3.260334e+00 2.546414e+00 94 75 65
-1.597983e+00 3.558366e+00 3.162186e+00 176 165 145
-1.603050e+00 3.554879e+00 3.169405e+00 176 165 145
-5.891906e-01 3.641734e+00 3.464375e+00 182 173 163
2.140436e+00 3.240011e+00 5.453944e+00 183 175 159
1.137639e+00 3.491053e+00 4.521939e+00 178 171 155
8.175442e-01 3.569201e+00 4.208080e+00 169 161 148
8.175442e-01 3.569201e+00 4.208080e+00 169 161 148
7.613135e-01 3.597737e+00 4.194619e+00 166 159 149
-5.854526e-01 3.664291e+00 3.504181e+00 52 38 34
2.510433e+00 3.168143e+00 5.890660e+00 185 181 170
-6.243082e-01 3.690960e+00 3.545294e+00 205 207 201
-4.092835e+00 3.432967e+00 2.738287e+00 195 195 187
-4.077075e+00 3.443297e+00 2.723178e+00 195 195 187
-1.695047e+00 3.650015e+00 3.263663e+00 184 184 178
-1.609254e+00 3.659682e+00 3.288882e+00 100 92 80
-3.934635e+00 3.493261e+00 2.775859e+00 188 185 179
-1.402627e+00 3.728656e+00 3.377144e+00 206 204 198
-1.336104e+00 3.729940e+00 3.425179e+00 193 186 174
9.259294e-01 3.649774e+00 4.533896e+00 161 155 140
2.252981e+00 3.355398e+00 5.726599e+00 91 81 73
2.246036e+00 3.344306e+00 5.742422e+00 91 81 73
9.384936e-01 3.640404e+00 4.609278e+00 173 165 155
2.227147e+00 3.385489e+00 5.761866e+00 172 159 141
-2.491979e+00 3.717481e+00 3.233224e+00 164 159 152
-3.581699e+00 3.655943e+00 2.939739e+00 80 65 58
-3.581699e+00 3.655943e+00 2.939739e+00 80 65 58
2.098740e+00 3.430591e+00 5.669384e+00 169 158 138
2.098740e+00 3.430591e+00 5.669384e+00 169 158 138
-2.277987e+00 3.754872e+00 3.271551e+00 69 53 46
-5.659005e-02 3.829710e+00 3.964829e+00 158 149 134
-3.580661e+00 3.764709e+00 3.063041e+00 182 179 168
-1.064189e+00 3.898961e+00 3.712912e+00 189 182 174
1.228568e+00 3.698275e+00 5.106822e+00 90 80 71
-1.142518e+00 3.913926e+00 3.708430e+00 201 198 190
-1.172443e+00 3.947390e+00 3.717178e+00 83 75 73
-3.288281e+00 3.856943e+00 3.158738e+00 73 64 62
-3.119947e+00 3.865179e+00 3.192156e+00 109 104 98
-3.119257e+00 3.867638e+00 3.187460e+00 109 104 98
-3.466238e+00 3.905594e+00 3.199117e+00 95 76 61
4.626932e-01 3.938511e+00 4.547712e+00 164 157 147
-3.114489e+00 3.940218e+00 3.272854e+00 74 56 53
-3.114489e+00 3.940218e+00 3.272854e+00 74 56 53
-2.341297e+00 4.007967e+00 3.508546e+00 152 148 137
-3.396323e+00 3.953674e+00 3.280780e+00 102 87 85
8.919451e-01 3.896878e+00 5.014636e+00 192 186 174
1.841177e-01 4.021872e+00 4.443456e+00 92 83 67
-1.890053e+00 4.042226e+00 3.714391e+00 182 178 166
1.580741e+00 3.806413e+00 5.569068e+00 101 89 77
8.404257e-01 3.957672e+00 5.065252e+00 202 193 185
-3.103581e+00 4.074152e+00 3.420369e+00 74 61 52
-1.393408e+00 4.153379e+00 3.962056e+00 102 88 69
-2.804200e+00 4.170795e+00 3.550372e+00 62 53 46
-2.804200e+00 4.170795e+00 3.550372e+00 62 53 46
-2.976076e+00 4.170838e+00 3.540335e+00 100 82 69
-2.969880e+00 4.169828e+00 3.535330e+00 100 82 69
-2.428454e+00 4.253074e+00 3.707602e+00 112 95 78
-1.246201e+00 4.293343e+00 4.160596e+00 202 202 190
1.142148e+00 4.084321e+00 5.530782e+00 148 137 120
-2.501110e+00 4.295256e+00 3.742844e+00 72 59 49
-1.458915e-01 4.293806e+00 4.666419e+00 95 78 61
-1.458915e-01 4.293806e+00 4.666419e+00 95 78 61
7.782887e-01 4.207561e+00 5.328706e+00 171 162 150
-1.724913e-01 4.345960e+00 4.731251e+00 176 168 157
-1.724913e-01 4.345960e+00 4.731251e+00 176 168 157
-2.594921e+00 4.396073e+00 3.840211e+00 120 110 100
8.263173e-01 4.234168e+00 5.415668e+00 105 91 65
-1.745288e+00 4.432656e+00 4.090153e+00 179 164 146
-2.040005e+00 4.441965e+00 4.032439e+00 80 66 64
4.502204e-01 4.349638e+00 5.139741e+00 79 61 48
-1.929975e+00 4.487579e+00 4.071423e+00 161 153 139
2.963285e-01 4.393594e+00 5.123713e+00 176 162 142
-3.955396e-01 4.487453e+00 4.728024e+00 192 185 175
-1.846447e+00 4.548028e+00 4.202745e+00 105 86 71
3.859781e-01 4.424382e+00 5.282923e+00 161 150 128
-5.741362e-01 4.533561e+00 4.685115e+00 126 111 105
-1.597549e+00 4.571893e+00 4.304638e+00 178 167 148
4.927542e-01 4.438817e+00 5.401334e+00 127 116 112
-1.750416e+00 4.624849e+00 4.336721e+00 85 67 49
-1.532950e+00 4.636300e+00 4.411426e+00 179 171 144
-1.531295e+00 4.637879e+00 4.407489e+00 179 171 144
-9.845269e-01 4.639677e+00 4.585653e+00 86 69 51
3.280649e+00 -1.691082e+00 2.198335e+00 52 42 47
3.280649e+00 -1.691082e+00 2.198335e+00 52 42 47
-4.232528e+00 -3.685087e+00 -5.034989e-01 158 157 152
1.111702e+00 -1.456558e+00 7.347283e-01 131 134 130
1.298194e+00 -1.369029e+00 8.980062e-01 150 146 143
1.075205e+00 -1.257217e+00 7.528900e-01 34 32 32
-6.279879e+00 -3.967121e+00 -1.005547e+00 147 146 144
-2.102030e+00 -3.093936e+00 5.440641e-01 141 144 144
-1.942852e+00 -2.949528e+00 5.674401e-01 161 163 162
3.305556e+00 -1.317605e+00 2.324787e+00 162 158 154
-2.055118e+00 -2.856752e+00 5.255720e-01 169 170 165
9.602655e-01 -9.904735e-01 6.983153e-01 44 44 47
9.602655e-01 -9.904735e-01 6.983153e-01 44 44 47
3.293662e+00 -1.131581e+00 2.329813e+00 175 176 172
4.836654e-01 -1.046554e+00 6.132747e-01 73 69 58
4.836654e-01 -1.046554e+00 6.132747e-01 73 69 58
5.212128e-01 -1.007872e+00 6.371373e-01 178 174 170
2.299598e+00 -9.166369e-01 1.634797e+00 84 79 72
-3.948055e+00 -2.632690e+00 -3.474862e-01 145 141 138
1.957397e+00 -7.727001e-01 1.339699e+00 125 122 115
-3.822835e+00 -2.469557e+00 -3.084398e-01 140 139 134
-3.426963e+00 -2.276520e+00 -2.492450e-01 50 45 49
2.090772e+00 -6.742687e-01 1.479666e+00 183 185 184
2.090772e+00 -6.742687e-01 1.479666e+00 183 185 184
4.366175e+00 -1.739718e+00 3.974959e+00 154 152 142
4.363028e+00 -1.742501e+00 3.976689e+00 154 152 142
-9.423433e-01 -1.868942e+00 8.048573e-01 107 105 100
-3.406179e+00 -2.162162e+00 -2.272660e-01 154 153 158
2.565522e+00 -6.907628e-01 1.815528e+00 106 106 94
2.565522e+00 -6.907628e-01 1.815528e+00 106 106 94
2.634712e+00 -7.272824e-01 1.901278e+00 186 185 180
2.853006e+00 -6.884294e-01 2.038892e+00 190 189 185
-1.022127e+00 -1.903246e+00 8.781438e-01 173 174 168
-1.315993e+00 -2.099697e+00 9.004952e-01 167 163 159
2.087201e+00 -6.340534e-01 1.592677e+00 186 185 183
-4.619853e+00 -2.400744e+00 -4.176051e-01 175 178 185
-2.538498e+00 -1.759633e+00 1.193272e-01 179 176 162
-2.103139e+00 -1.826637e+00 4.052619e-01 92 78 68
-5.186199e+00 -2.551202e+00 -5.279747e-01 99 91 91
-6.005693e+00 -2.815306e+00 -6.685571e-01 131 126 124
-6.053066e+00 -2.651150e+00 -6.220271e-01 160 161 163
-6.053066e+00 -2.651150e+00 -6.220271e-01 160 161 163
2.970476e+00 -3.913603e-01 2.229985e+00 61 60 57
2.281194e+00 -3.024137e-01 1.742314e+00 172 172 170
4.753259e-01 -4.071523e-01 8.049293e-01 189 184 178
3.484166e+00 -6.813245e-01 2.918156e+00 173 170 163
-1.898494e+00 -1.668921e+00 7.033238e-01 111 108 100
4.668870e+00 -1.547344e+00 4.627132e+00 163 163 155
1.892219e+00 -2.371292e-01 1.580402e+00 152 149 139
4.244820e+00 -1.134853e+00 3.976660e+00 167 161 141
4.175553e+00 -1.086301e+00 3.884874e+00 156 152 140
5.840310e-01 -4.308224e-01 1.038677e+00 177 173 159
3.065416e+00 -2.623194e-01 2.374079e+00 67 66 62
3.469569e+00 -5.248478e-01 2.919855e+00 174 169 164
4.117610e+00 -9.544389e-01 3.881607e+00 52 45 46
-2.607360e+00 -1.053313e+00 2.004301e-01 157 154 145
4.060417e+00 -8.369900e-01 3.879281e+00 77 71 60
-2.022014e+00 -9.073645e-01 4.167963e-01 152 149 131
-2.441713e+00 -9.289696e-01 2.306714e-01 179 178 172
4.167798e+00 -8.344358e-01 4.018083e+00 189 187 175
4.131907e+00 -8.183587e-01 3.998321e+00 89 84 74
4.131907e+00 -8.183587e-01 3.998321e+00 89 84 74
-4.466353e+00 -1.566387e+00 -1.243120e-01 92 82 75
-1.208622e+00 -8.179749e-01 8.208661e-01 71 66 63
2.652850e+00 4.802431e-02 2.188408e+00 185 182 177
-6.586443e+00 -2.186618e+00 -5.393500e-01 180 182 182
1.347976e+00 5.844462e-02 1.458941e+00 192 192 186
3.500293e+00 -2.380772e-01 3.105754e+00 123 118 114
5.101683e-01 -1.294275e-01 1.247921e+00 171 169 159
3.982158e+00 -6.262908e-01 3.874062e+00 172 171 162
3.982158e+00 -6.262908e-01 3.874062e+00 172 171 162
1.668496e+00 1.050641e-01 1.682632e+00 178 177 170
-5.569591e-01 -5.232364e-02 5.975745e-01 161 162 160
4.798793e-01 -1.743831e-01 1.345482e+00 164 164 153
-5.504327e+00 -1.660788e+00 -2.321020e-01 183 182 179
4.052709e+00 -5.687841e-01 4.003853e+00 186 185 180
1.038959e+00 1.954147e-01 1.401843e+00 198 198 194
4.293779e+00 -7.107359e-01 4.400598e+00 168 162 147
8.513958e-01 2.041841e-01 1.329653e+00 154 147 137
-4.201703e+00 -1.118795e+00 2.934197e-02 96 88 82
4.492203e+00 -8.006036e-01 4.656298e+00 179 165 146
4.715851e+00 -9.363988e-01 5.078422e+00 170 167 159
3.633445e+00 -1.182106e-01 3.481967e+00 136 132 123
3.633445e+00 -1.182106e-01 3.481967e+00 136 132 123
1.622202e+00 3.920944e-01 1.717924e+00 177 176 172
4.774055e+00 -9.491178e-01 5.145323e+00 52 48 35
4.023301e+00 -3.778956e-01 4.034062e+00 93 87 73
-4.630837e+00 -1.122725e+00 1.225097e-02 176 175 172
3.590311e+00 -1.065947e-01 3.478773e+00 159 154 151
-5.950969e+00 -1.519532e+00 -2.302006e-01 155 149 131
-3.396022e-01 5.516897e-01 5.032818e-01 79 70 61
-5.386920e-01 3.339418e-01 6.315149e-01 79 70 61
2.521808e+00 5.018872e-01 2.228701e+00 186 181 165
-3.110520e+00 -4.899749e-01 3.013104e-01 64 48 41
1.303879e+00 5.153484e-01 1.586991e+00 75 73 61
-6.523804e+00 -1.569597e+00 -2.841595e-01 153 146 127
2.994993e+00 4.613393e-01 2.643868e+00 72 62 58
2.994993e+00 4.613393e-01 2.643868e+00 72 62 58
-1.503873e+00 5.848731e-02 5.797734e-01 58 51 35
-1.503873e+00 5.848731e-02 5.797734e-01 58 51 35
3.857863e+00 -1.648568e-01 3.944454e+00 83 75 65
-6.393004e+00 -1.455252e+00 -2.408038e-01 113 103 97
3.238171e+00 3.127746e-01 3.071066e+00 105 98 82
3.238171e+00 3.127746e-01 3.071066e+00 105 98 82
2.759475e+00 5.817065e-01 2.491528e+00 68 60 49
4.199264e+00 -3.523725e-01 4.515457e+00 130 121 121
3.434531e+00 2.096467e-01 3.395904e+00 130 120 108
-2.355626e+00 -3.858704e-02 5.158301e-01 137 131 119
-3.076772e+00 -2.518272e-01 3.906877e-01 167 163 144
-6.292871e+00 -1.228955e+00 -1.409448e-01 52 50 55
-6.292871e+00 -1.228955e+00 -1.409448e-01 52 50 55
3.455224e+00 2.733111e-01 3.466121e+00 90 82 64
3.449525e+00 2.571856e-01 3.480439e+00 90 82 64
-3.086953e+00 -2.078889e-01 3.915715e-01 54 47 40
-3.128520e+00 -2.385651e-01 4.112525e-01 54 47 40
-2.078620e+00 1.455656e-01 5.541854e-01 96 82 73
-2.078620e+00 1.455656e-01 5.541854e-01 96 82 73
2.350282e+00 7.269775e-01 2.325680e+00 86 75 67
-3.046779e+00 -1.487082e-01 4.117908e-01 170 163 139
2.772468e+00 6.876471e-01 2.627892e+00 104 93 82
3.891661e-01 8.471534e-01 1.212386e+00 182 177 174
-5.129961e+00 -7.208675e-01 1.319510e-01 186 185 182
9.158164e-01 8.817838e-01 1.488080e+00 89 83 72
9.158164e-01 8.817838e-01 1.488080e+00 89 83 72
1.439698e+00 8.646173e-01 1.894042e+00 179 175 164
-5.673432e+00 -7.904369e-01 8.855922e-02 167 163 152
1.321003e+00 9.337878e-01 1.794737e+00 164 160 151
-2.735085e+00 1.728799e-01 5.484659e-01 117 106 88
3.259537e+00 5.566973e-01 3.398829e+00 106 97 84
-6.122615e+00 -8.422707e-01 2.841574e-02 71 64 58
3.996007e+00 7.215436e-02 4.447649e+00 186 179 161
-3.777436e+00 -1.399194e-01 4.211248e-01 167 163 139
-4.000703e+00 -2.390394e-01 4.475780e-01 167 165 150
4.404504e+00 -1.901500e-01 5.071518e+00 167 159 151
2.999879e+00 7.633224e-01 3.076808e+00 190 185 175
2.999879e+00 7.633224e-01 3.076808e+00 190 185 175
4.830427e-01 1.021997e+00 1.408472e+00 174 170 163
3.964851e+00 1.492480e-01 4.489279e+00 176 169 146
3.212555e+00 6.627995e-01 3.425486e+00 65 62 51
3.212555e+00 6.627995e-01 3.425486e+00 65 62 51
5.997842e-01 1.070072e+00 1.450596e+00 171 169 155
-2.699114e+00 3.229698e-01 6.051790e-01 61 48 40
4.000196e+00 1.538011e-01 4.543690e+00 161 152 134
-9.507174e-01 9.182731e-01 7.924482e-01 184 178 166
2.947880e+00 8.731472e-01 3.073150e+00 102 91 73
1.352707e+00 1.069244e+00 1.954296e+00 161 154 141
2.838945e+00 9.565246e-01 2.924262e+00 135 126 113
-4.564997e+00 -1.625929e-01 3.903234e-01 126 117 115
4.341077e+00 -2.480834e-02 5.129987e+00 161 157 136
3.275826e+00 7.207860e-01 3.589182e+00 83 74 62
4.380506e+00 -2.888321e-02 5.189815e+00 182 177 174
-3.966168e+00 2.011444e-02 5.693862e-01 187 182 158
2.979810e-01 1.249463e+00 1.301992e+00 119 120 115
1.868837e+00 1.216007e+00 2.215754e+00 107 103 98
-4.956273e-01 1.181951e+00 9.516556e-01 112 103 93
2.157671e+00 1.211090e+00 2.399028e+00 177 169 150
1.754174e+00 1.129011e+00 2.318193e+00 180 177 168
1.741265e+00 1.218147e+00 2.195202e+00 184 178 167
-6.047017e+00 -4.665669e-01 2.187821e-01 165 165 163
-2.452197e-01 1.342712e+00 1.019733e+00 88 76 66
1.050631e+00 1.271940e+00 1.841976e+00 122 113 102
4.538268e-01 1.297106e+00 1.483403e+00 173 170 165
-2.735719e+00 5.753101e-01 7.261506e-01 86 73 62
-2.735719e+00 5.753101e-01 7.261506e-01 86 73 62
1.973792e-02 1.371475e+00 1.183288e+00 164 154 145
-1.170574e-01 1.366916e+00 1.116404e+00 177 164 138
-2.043904e-01 1.374116e+00 1.056243e+00 176 169 152
-1.575297e-01 1.374917e+00 1.090351e+00 173 166 148
-3.430881e+00 3.855567e-01 6.502489e-01 161 158 144
8.283490e-01 1.270064e+00 1.818556e+00 192 187 183
5.687421e-01 1.353736e+00 1.568748e+00 130 120 106
5.687421e-01 1.353736e+00 1.568748e+00 130 120 106
5.687421e-01 1.353736e+00 1.568748e+00 130 120 106
-7.297395e-01 1.280867e+00 9.437395e-01 109 99 90
-7.297395e-01 1.280867e+00 9.437395e-01 109 99 90
1.647802e+00 1.378194e+00 2.132374e+00 193 190 184
-1.739539e-02 1.417262e+00 1.192206e+00 120 107 91
1.390495e+00 1.294811e+00 2.134301e+00 129 124 113
3.802947e+00 5.179833e-01 4.521316e+00 71 68 63
2.658359e+00 1.248424e+00 2.897028e+00 177 168 159
-6.268918e-02 1.438365e+00 1.214516e+00 168 157 136
3.488631e+00 8.188549e-01 4.033228e+00 152 146 126
3.322170e+00 8.824986e-01 3.929573e+00 72 60 53
-1.479805e+00 1.168453e+00 9.813041e-01 92 80 70
3.127280e+00 1.054230e+00 3.646299e+00 63 56 50
4.576072e+00 1.269594e-01 5.711394e+00 114 106 98
9.466980e-01 1.471877e+00 1.926883e+00 118 109 102
9.466980e-01 1.471877e+00 1.926883e+00 118 109 102
1.032849e+00 1.503911e+00 1.956144e+00 123 118 113
-2.625190e+00 8.736130e-01 8.837072e-01 173 164 154
2.842288e+00 1.236048e+00 3.325914e+00 134 122 106
-3.462516e+00 6.459471e-01 7.815491e-01 75 63 48
2.857342e+00 1.232843e+00 3.365118e+00 157 149 130
8.752208e-01 1.589551e+00 1.842975e+00 112 101 85
2.793188e+00 1.327374e+00 3.267915e+00 183 175 156
2.618220e+00 1.425695e+00 3.062054e+00 63 52 47
-2.342579e+00 1.099357e+00 1.003181e+00 89 83 87
-1.609979e+00 1.313289e+00 1.093051e+00 94 87 77
-1.609979e+00 1.313289e+00 1.093051e+00 94 87 77
-3.158984e+00 8.887226e-01 9.036531e-01 158 153 141
-5.517113e-01 1.653028e+00 1.208614e+00 114 101 85
-5.771758e+00 2.556338e-01 5.668744e-01 105 103 106
-3.303949e+00 9.273069e-01 9.293591e-01 153 154 154
-3.269415e+00 9.491102e-01 9.108084e-01 153 154 154
-3.386812e+00 9.145599e-01 9.042197e-01 109 98 90
2.754727e+00 1.439930e+00 3.405245e+00 129 118 100
9.469313e-01 1.765659e+00 2.008058e+00 99 83 69
9.469313e-01 1.765659e+00 2.008058e+00 99 83 69
-4.491256e+00 6.542015e-01 7.894778e-01 147 143 121
2.738191e+00 1.473671e+00 3.435026e+00 72 60 59
1.152329e+00 1.797218e+00 2.153571e+00 182 176 164
-6.014543e-01 1.751206e+00 1.271557e+00 89 73 50
-5.561602e+00 4.075831e-01 6.540125e-01 203 200 193
3.156449e+00 1.262969e+00 4.044930e+00 122 117 110
3.156449e+00 1.262969e+00 4.044930e+00 122 117 110
1.765819e+00 1.895510e+00 2.466221e+00 63 60 53
3.045811e+00 1.352508e+00 3.956838e+00 70 64 53
3.045811e+00 1.352508e+00 3.956838e+00 70 64 53
9.182771e-01 1.897774e+00 2.081867e+00 180 173 162
2.067106e-01 1.961818e+00 1.607326e+00 177 177 167
-3.866882e+00 9.747011e-01 9.618657e-01 90 80 80
6.245941e-01 1.983376e+00 1.842142e+00 152 149 142
2.587478e+00 1.654576e+00 3.338076e+00 174 163 134
-3.318754e+00 1.132029e+00 1.048560e+00 95 83 72
3.833649e+00 9.352956e-01 5.070873e+00 126 116 116
3.916004e-01 2.003915e+00 1.745791e+00 79 63 48
2.314881e+00 1.798214e+00 3.048658e+00 142 126 110
-5.140377e-01 1.899908e+00 1.436364e+00 160 149 129
-1.968902e+00 1.523582e+00 1.231899e+00 153 145 126
1.492080e+00 1.992224e+00 2.364436e+00 170 156 132
-5.463233e-01 1.911690e+00 1.436151e+00 94 83 66
-5.463233e-01 1.911690e+00 1.436151e+00 94 83 66
-4.038405e+00 1.010147e+00 9.990737e-01 136 123 114
1.537783e+00 2.011571e+00 2.421800e+00 102 88 73
-5.276193e-01 1.955176e+00 1.454183e+00 171 164 153
3.791851e-01 2.091302e+00 1.738511e+00 131 125 110
-3.835983e+00 1.118006e+00 1.056779e+00 186 179 171
-1.094785e+00 1.863097e+00 1.420850e+00 156 135 110
2.868208e+00 1.565586e+00 3.929158e+00 160 154 140
6.722541e-02 2.112627e+00 1.658521e+00 170 166 154
1.396868e+00 2.135194e+00 2.381379e+00 143 135 127
1.117779e+00 2.145623e+00 2.223252e+00 110 109 105
-6.581710e+00 5.806235e-01 6.581634e-01 107 100 92
-2.095707e+00 1.680280e+00 1.298893e+00 55 46 42
-4.915882e+00 9.593108e-01 9.744923e-01 181 178 174
-4.915882e+00 9.593108e-01 9.744923e-01 181 178 174
2.874803e+00 1.596363e+00 4.015163e+00 75 66 53
1.998222e+00 2.043007e+00 2.883168e+00 155 137 115
1.998222e+00 2.043007e+00 2.883168e+00 155 137 115
-3.882541e+00 1.225339e+00 1.131625e+00 55 48 42
-5.336940e+00 8.838245e-01 9.144461e-01 172 171 170
2.379378e+00 1.893702e+00 3.333307e+00 173 160 138
8.347076e-01 2.253269e+00 2.003656e+00 47 43 34
-4.724055e-01 2.134328e+00 1.597699e+00 51 41 32
-2.566934e-01 2.193191e+00 1.665609e+00 170 155 122
-6.598253e+00 7.281138e-01 7.251076e-01 162 158 141
-2.917661e+00 1.571253e+00 1.317451e+00 176 176 166
-6.456441e+00 7.731208e-01 7.584659e-01 59 51 57
2.299894e+00 1.948587e+00 3.408400e+00 155 142 126
2.687825e+00 1.767179e+00 3.906729e+00 171 163 157
-1.267161e+00 1.993175e+00 1.546971e+00 44 31 28
3.316967e+00 1.493325e+00 4.633606e+00 65 60 54
3.316967e+00 1.493325e+00 4.633606e+00 65 60 54
-1.232486e+00 2.010226e+00 1.578309e+00 81 70 51
-6.474100e+00 8.117852e-01 7.864960e-01 171 171 168
-1.161120e+00 2.040508e+00 1.602322e+00 80 73 72
-6.535274e+00 8.513347e-01 7.944207e-01 61 54 59
2.057997e+00 2.110365e+00 3.173809e+00 101 93 84
-1.133016e+00 2.070585e+00 1.620936e+00 181 185 186
-6.513810e+00 9.104836e-01 8.226065e-01 161 158 154
3.405375e+00 1.479512e+00 4.967008e+00 163 158 151
3.415465e+00 1.502144e+00 4.932638e+00 163 158 151
3.474985e+00 1.449177e+00 5.082533e+00 188 183 172
-1.312204e+00 2.099959e+00 1.653177e+00 76 66 56
3.493064e+00 1.449800e+00 5.126282e+00 180 175 170
-1.905563e-01 2.357760e+00 1.843282e+00 158 143 125
-2.000901e+00 1.967771e+00 1.574503e+00 179 175 164
4.212883e-01 2.444775e+00 2.070854e+00 181 172 155
-6.505560e+00 1.038622e+00 8.943713e-01 161 158 153
-1.249287e+00 2.207506e+00 1.701083e+00 85 76 71
-2.813624e+00 1.909142e+00 1.419664e+00 157 155 142
8.774688e-01 2.491886e+00 2.337431e+00 170 161 151
-6.117793e+00 1.160983e+00 9.993875e-01 64 54 54
-1.028825e+00 2.284534e+00 1.750745e+00 44 37 27
-3.907134e+00 1.621802e+00 1.367080e+00 72 63 58
-3.907134e+00 1.621802e+00 1.367080e+00 72 63 58
-2.526577e+00 1.994489e+00 1.492224e+00 181 177 168
-5.980560e+00 1.226243e+00 1.036083e+00 96 88 76
2.054519e+00 2.221850e+00 3.443719e+00 102 93 76
-1.032683e+00 2.283611e+00 1.819477e+00 104 95 89
-1.032683e+00 2.283611e+00 1.819477e+00 104 95 89
2.087961e+00 2.216620e+00 3.487550e+00 173 160 139
-9.093079e-01 2.318103e+00 1.836661e+00 55 50 47
1.464640e+00 2.432417e+00 2.833672e+00 135 123 109
2.374180e+00 2.097679e+00 3.901916e+00 77 66 55
1.453659e+00 2.432568e+00 2.900678e+00 75 63 58
2.498258e-02 2.528299e+00 2.027398e+00 69 52 45
1.233349e-01 2.563689e+00 2.095145e+00 154 142 116
-1.122666e+00 2.371134e+00 1.862448e+00 97 87 80
-1.122666e+00 2.371134e+00 1.862448e+00 97 87 80
-1.682655e+00 2.292506e+00 1.766160e+00 63 54 49
2.378074e+00 2.156118e+00 4.033135e+00 172 168 165
1.292351e+00 2.552360e+00 2.842598e+00 62 49 32
1.700259e+00 2.480250e+00 3.180545e+00 164 148 123
-6.038183e+00 1.431073e+00 1.155388e+00 167 162 138
2.690393e+00 2.054944e+00 4.410941e+00 150 145 140
1.236085e+00 2.582962e+00 2.829298e+00 133 120 103
2.721837e+00 2.060521e+00 4.438539e+00 66 56 43
-1.107770e+00 2.442709e+00 1.927770e+00 166 160 146
-8.599768e-01 2.483941e+00 2.028528e+00 95 77 65
-6.005061e+00 1.492946e+00 1.204587e+00 181 178 168
2.420094e-01 2.679168e+00 2.258764e+00 78 64 40
-2.389891e-01 2.635477e+00 2.131837e+00 186 175 157
-4.372261e+00 1.820510e+00 1.509216e+00 118 112 112
4.192254e+00 1.429401e+00 6.315386e+00 184 175 158
4.192254e+00 1.429401e+00 6.315386e+00 184 175 158
2.215943e+00 2.327044e+00 3.907982e+00 174 165 152
2.615653e+00 2.160301e+00 4.430559e+00 88 81 72
4.176506e+00 1.479745e+00 6.352643e+00 166 160 148
-9.191480e-01 2.575694e+00 2.093920e+00 77 65 56
4.113776e+00 1.526160e+00 6.276159e+00 144 130 117
4.028795e+00 1.576615e+00 6.152452e+00 88 78 73
4.028795e+00 1.576615e+00 6.152452e+00 88 78 73
2.578661e+00 2.196430e+00 4.439172e+00 158 153 133
2.567463e+00 2.186565e+00 4.456780e+00 158 153 133
2.578661e+00 2.196430e+00 4.439172e+00 158 153 133
4.281777e-01 2.766249e+00 2.416726e+00 141 124 104
-1.445249e-01 2.714971e+00 2.247910e+00 182 172 145
-2.321894e+00 2.381576e+00 1.777714e+00 73 63 53
-2.419683e+00 2.328704e+00 1.879784e+00 179 174 167
2.194230e+00 2.377633e+00 4.030257e+00 197 191 180
2.207250e+00 2.392614e+00 4.002272e+00 197 191 180
3.001520e+00 2.035735e+00 5.000282e+00 178 172 154
2.078605e+00 2.437112e+00 3.876199e+00 79 69 60
9.295700e-01 2.779716e+00 2.725887e+00 70 60 45
-1.557195e+00 2.512419e+00 2.022296e+00 62 56 44
1.787488e+00 2.565197e+00 3.544449e+00 90 82 77
4.948017e-01 2.795196e+00 2.528824e+00 149 136 120
1.005811e+00 2.786117e+00 2.784204e+00 117 106 88
-3.151819e+00 2.221621e+00 1.810475e+00 43 34 38
-4.331154e+00 2.033526e+00 1.665635e+00 111 110 106
-2.057902e+00 2.486921e+00 1.984996e+00 176 172 160
-2.057902e+00 2.486921e+00 1.984996e+00 176 172 160
6.964737e-02 2.825287e+00 2.432782e+00 99 86 70
6.964737e-02 2.825287e+00 2.432782e+00 99 86 70
6.692770e-02 2.851696e+00 2.468409e+00 160 142 115
-7.284226e-01 2.752007e+00 2.284948e+00 89 82 77
1.238936e+00 2.806973e+00 3.161123e+00 173 162 140
1.264413e+00 2.795067e+00 3.226876e+00 165 156 141
-7.829235e-02 2.899394e+00 2.480668e+00 146 131 103
7.237356e-01 2.918567e+00 2.831979e+00 168 159 145
8.707591e-01 2.895068e+00 2.958838e+00 66 56 46
-4.128335e+00 2.226592e+00 1.806866e+00 174 167 159
3.269436e+00 2.066075e+00 5.606196e+00 193 186 166
-1.201739e+00 2.753809e+00 2.304089e+00 164 157 150
-1.201739e+00 2.753809e+00 2.304089e+00 164 157 150
-2.154580e+00 2.616994e+00 2.111483e+00 185 178 170
-1.148751e+00 2.778228e+00 2.315033e+00 59 49 38
-5.811274e+00 1.999832e+00 1.522043e+00 86 80 84
-3.008736e+00 2.472322e+00 1.997317e+00 153 150 135
1.525037e+00 2.799058e+00 3.572070e+00 180 172 158
3.757488e+00 1.930424e+00 6.152968e+00 120 106 93
-2.153637e+00 2.713614e+00 2.046749e+00 100 93 78
-3.304099e+00 2.475870e+00 1.982731e+00 104 97 92
-9.170497e-01 2.874565e+00 2.390588e+00 127 116 95
-1.058427e+00 2.841737e+00 2.422455e+00 170 165 162
-4.364638e+00 2.308125e+00 1.834519e+00 137 133 129
5.561280e-02 2.969122e+00 2.712933e+00 166 163 141
3.205413e+00 2.173361e+00 5.612221e+00 58 45 31
1.426290e+00 2.863585e+00 3.545909e+00 163 155 136
-4.312066e-02 2.968337e+00 2.692944e+00 69 53 38
9.291401e-02 2.988105e+00 2.736622e+00 158 147 129
3.043198e+00 2.263883e+00 5.439092e+00 175 167 157
-1.782751e+00 2.781972e+00 2.285465e+00 128 118 106
-5.436465e+00 2.204953e+00 1.688924e+00 94 87 81
3.535400e+00 2.129101e+00 5.952346e+00 206 206 207
-3.883249e+00 2.466193e+00 1.979168e+00 54 44 42
3.603145e+00 2.087865e+00 6.097162e+00 176 163 144
-3.977527e+00 2.464495e+00 1.970662e+00 59 52 47
-5.237759e+00 2.272612e+00 1.745653e+00 191 187 176
7.589015e-01 3.042156e+00 3.121690e+00 86 73 57
2.094048e+00 2.681067e+00 4.415030e+00 108 99 93
-3.984229e-02 3.047406e+00 2.768034e+00 82 66 48
-1.147176e+00 2.935017e+00 2.465426e+00 39 29 28
3.041031e+00 2.313245e+00 5.535825e+00 96 87 83
7.171544e-01 3.047092e+00 3.118776e+00 130 122 108
-9.015888e-01 2.969982e+00 2.556270e+00 168 153 134
1.559498e-01 3.076207e+00 2.858252e+00 78 61 51
6.217067e-01 3.080886e+00 3.070377e+00 151 140 117
2.962187e-01 3.094636e+00 2.915402e+00 183 176 154
2.947120e+00 2.374344e+00 5.463205e+00 161 155 141
-4.269480e+00 2.500001e+00 1.961308e+00 61 59 60
-7.868096e-01 3.034366e+00 2.609943e+00 43 32 27
3.434469e+00 2.254640e+00 5.997560e+00 158 148 136
-8.306519e-01 3.040976e+00 2.655859e+00 176 162 136
7.435777e-01 3.103474e+00 3.249077e+00 87 74 63
4.878552e-01 3.153494e+00 3.061674e+00 97 83 57
9.658547e-01 3.094088e+00 3.423243e+00 123 116 101
-8.597083e-01 3.095425e+00 2.653207e+00 175 167 154
-2.799514e+00 2.810556e+00 2.300836e+00 172 165 155
1.288488e+00 3.017277e+00 3.783724e+00 55 42 36
-2.548094e+00 2.867874e+00 2.371018e+00 52 46 41
-2.746447e+00 2.863755e+00 2.362116e+00 182 179 173
-4.712276e+00 2.602984e+00 1.987084e+00 167 161 136
3.308013e+00 2.399555e+00 5.974144e+00 81 69 64
1.158377e+00 3.076520e+00 3.757723e+00 175 163 140
1.158377e+00 3.076520e+00 3.757723e+00 175 163 140
8.995065e-01 3.164459e+00 3.459293e+00 82 69 52
-5.090914e+00 2.563284e+00 1.957247e+00 175 169 157
1.216284e+00 3.071454e+00 3.813553e+00 172 165 147
2.771640e+00 2.582132e+00 5.432709e+00 82 75 73
-4.823852e+00 2.615516e+00 1.995996e+00 170 161 152
2.202380e+00 2.775853e+00 4.873791e+00 171 164 147
3.211912e+00 2.461263e+00 5.898702e+00 188 180 168
-1.784785e+00 3.067808e+00 2.561550e+00 126 122 116
1.566282e+00 3.010802e+00 4.211455e+00 177 170 152
1.094768e+00 3.127982e+00 3.775029e+00 183 174 162
-5.218126e+00 2.610569e+00 1.976192e+00 154 150 147
-2.778451e+00 2.990086e+00 2.438211e+00 98 93 88
-1.533100e+00 3.154780e+00 2.700886e+00 59 48 44
2.235369e+00 2.830107e+00 4.995549e+00 198 197 192
3.193340e+00 2.528662e+00 5.998605e+00 176 169 144
3.193340e+00 2.528662e+00 5.998605e+00 176 169 144
1.982747e+00 2.932482e+00 4.708337e+00 75 60 55
1.369539e+00 3.132570e+00 4.032621e+00 150 138 125
1.945593e+00 2.942972e+00 4.747043e+00 178 173 165
1.699952e+00 3.059614e+00 4.398347e+00 134 127 111
-2.342115e+00 3.095267e+00 2.564639e+00 79 71 63
1.360789e+00 3.145779e+00 4.118048e+00 161 153 141
-3.736102e-01 3.294362e+00 3.070544e+00 157 150 123
1.219876e+00 3.206212e+00 3.957696e+00 96 80 66
-2.583559e+00 3.082961e+00 2.553848e+00 187 188 189
-1.018302e+00 3.282362e+00 2.858569e+00 166 164 150
1.220899e+00 3.217215e+00 3.995229e+00 122 107 83
2.730314e+00 2.741056e+00 5.610766e+00 184 175 162
-2.733312e-01 3.355646e+00 3.163829e+00 51 39 28
-8.779487e-01 3.352088e+00 2.942630e+00 144 128 102
-2.198659e+00 3.198909e+00 2.712273e+00 168 167 156
-2.230806e+00 3.218508e+00 2.715520e+00 175 169 157
5.388189e-01 3.389523e+00 3.595231e+00 54 47 31
-9.949948e-01 3.391984e+00 3.049556e+00 60 47 39
-1.405359e+00 3.376967e+00 2.925361e+00 128 124 121
-4.493042e+00 3.021453e+00 2.331728e+00 94 84 75
6.208649e-01 3.423791e+00 3.711767e+00 112 104 88
5.104838e-01 3.435910e+00 3.628866e+00 178 170 156
-1.250745e+00 3.389953e+00 3.013033e+00 201 200 195
1.024617e+00 3.331294e+00 4.115267e+00 157 146 131
1.555460e+00 3.236636e+00 4.518583e+00 129 119 95
-4.182240e+00 3.091547e+00 2.405287e+00 170 164 140
-4.588514e+00 3.044036e+00 2.357792e+00 179 172 163
2.219994e+00 3.025754e+00 5.295288e+00 160 148 139
-4.651687e+00 3.053807e+00 2.351322e+00 170 165 149
-4.653495e+00 3.057549e+00 2.350023e+00 170 165 149
-1.118139e+00 3.406651e+00 3.130154e+00 56 43 33
-1.065832e+00 3.436520e+00 3.095966e+00 56 43 33
2.222403e+00 3.037083e+00 5.338533e+00 167 163 152
-9.057602e-01 3.463382e+00 3.150091e+00 170 159 139
1.197487e+00 3.359318e+00 4.283991e+00 82 75 68
9.516682e-01 3.386363e+00 4.137727e+00 186 180 166
1.497131e+00 3.296570e+00 4.667366e+00 78 68 59
-2.657484e+00 3.373320e+00 2.790812e+00 160 150 130
1.608548e+00 3.315875e+00 4.787631e+00 164 156 145
-4.060138e+00 3.263222e+00 2.559337e+00 84 76 67
-2.569079e+00 3.422860e+00 2.856693e+00 158 147 134
1.249325e+00 3.412178e+00 4.487144e+00 78 68 56
-2.926336e+00 3.390546e+00 2.817748e+00 57 48 44
2.690350e+00 3.031211e+00 5.957146e+00 195 188 167
-3.011653e+00 3.410474e+00 2.833323e+00 188 183 178
1.551212e+00 3.368638e+00 4.812194e+00 72 64 53
-1.739161e+00 3.543369e+00 3.128458e+00 182 178 169
-1.538262e+00 3.564419e+00 3.194449e+00 175 169 152
8.583402e-01 3.548287e+00 4.213572e+00 169 161 145
-4.220857e+00 3.331854e+00 2.640220e+00 204 207 190
2.527533e+00 3.125793e+00 5.826839e+00 172 164 153
7.013851e-01 3.592052e+00 4.076585e+00 163 155 145
-1.596394e+00 3.585158e+00 3.192328e+00 55 43 36
2.610816e+00 3.086106e+00 5.972450e+00 170 163 149
1.779137e+00 3.321750e+00 5.157780e+00 204 199 186
1.779137e+00 3.321750e+00 5.157780e+00 204 199 186
1.218723e+00 3.463750e+00 4.628148e+00 188 183 176
-5.593676e-01 3.647949e+00 3.524135e+00 169 161 148
-1.822426e+00 3.581807e+00 3.154079e+00 196 192 189
1.917760e+00 3.293170e+00 5.338814e+00 192 186 172
-2.654727e+00 3.524672e+00 2.993221e+00 147 144 127
1.285729e+00 3.468624e+00 4.732894e+00 198 193 186
-1.113281e+00 3.665330e+00 3.306844e+00 104 91 75
-4.165786e+00 3.399790e+00 2.684872e+00 175 171 162
-3.663747e+00 3.469938e+00 2.758291e+00 124 118 103
3.789737e-01 3.677305e+00 3.951724e+00 107 95 81
-1.487166e+00 3.645497e+00 3.298252e+00 95 82 75
-2.662487e+00 3.554589e+00 3.029955e+00 87 77 74
-2.662487e+00 3.554589e+00 3.029955e+00 87 77 74
-2.778202e+00 3.568976e+00 3.024072e+00 83 70 69
2.369998e+00 3.245262e+00 5.805761e+00 177 171 158
-1.036083e+00 3.723699e+00 3.402264e+00 142 126 103
2.008010e+00 3.353843e+00 5.460578e+00 153 143 139
1.498494e+00 3.494232e+00 4.959272e+00 138 125 101
9.491141e-01 3.615669e+00 4.564288e+00 76 66 58
1.730352e+00 3.449541e+00 5.290965e+00 206 205 192
-1.191509e+00 3.746358e+00 3.489331e+00 144 134 124
2.321285e-01 3.755557e+00 4.017417e+00 183 184 171
-2.833864e+00 3.670097e+00 3.086027e+00 126 119 113
6.507373e-01 3.716271e+00 4.367205e+00 152 146 124
4.814838e-01 3.754309e+00 4.200876e+00 82 67 46
2.126272e+00 3.397010e+00 5.659730e+00 95 78 72
-1.462458e-01 3.791307e+00 3.887065e+00 60 49 44
7.683869e-01 3.719997e+00 4.460701e+00 93 80 76
6.488822e-01 3.731856e+00 4.434427e+00 149 146 131
-2.313839e+00 3.743915e+00 3.251001e+00 160 154 137
2.073914e+00 3.446653e+00 5.629877e+00 108 94 84
7.447427e-01 3.749142e+00 4.520525e+00 151 145 131
-3.430354e+00 3.719034e+00 3.010516e+00 79 69 64
-2.048849e+00 3.821938e+00 3.402192e+00 47 36 36
-3.440406e+00 3.749126e+00 3.054240e+00 174 171 155
7.867204e-01 3.774686e+00 4.637639e+00 114 104 94
2.040357e+00 3.520167e+00 5.727580e+00 99 81 67
3.045170e-01 3.849770e+00 4.338567e+00 172 162 150
-3.733061e+00 3.770143e+00 3.026694e+00 178 178 162
-3.733061e+00 3.770143e+00 3.026694e+00 178 178 162
6.584457e-02 3.909308e+00 4.122999e+00 123 116 98
-1.233575e+00 3.920723e+00 3.654238e+00 97 85 80
1.770040e+00 3.626726e+00 5.496581e+00 103 91 83
-3.464537e+00 3.818331e+00 3.127803e+00 183 180 163
-6.807972e-01 3.948512e+00 3.885254e+00 178 174 162
1.739766e+00 3.648562e+00 5.514536e+00 180 175 152
-9.026652e-01 3.959072e+00 3.800531e+00 175 167 156
-7.654870e-01 3.955935e+00 3.877941e+00 50 40 38
-7.635136e-01 3.959015e+00 3.877610e+00 50 40 38
-7.530444e-01 3.967126e+00 3.859807e+00 50 40 38
-3.609453e+00 3.846905e+00 3.124212e+00 94 80 69
-3.609453e+00 3.846905e+00 3.124212e+00 94 80 69
1.102568e+00 3.786110e+00 5.068065e+00 112 107 104
-2.227345e+00 3.947836e+00 3.493467e+00 172 170 157
-3.006759e+00 3.925843e+00 3.272887e+00 103 92 89
-3.063099e+00 3.947082e+00 3.285646e+00 168 157 138
1.030671e+00 3.848823e+00 5.031685e+00 186 183 175
-3.361528e+00 3.929526e+00 3.243405e+00 191 189 177
-1.341286e-02 4.003398e+00 4.285033e+00 135 123 114
-2.115015e+00 3.996805e+00 3.594683e+00 183 180 171
-2.420518e+00 4.005948e+00 3.460958e+00 192 190 179
-1.887397e+00 4.026745e+00 3.671226e+00 57 44 42
1.854592e+00 3.718105e+00 5.824104e+00 137 133 132
-3.400493e+00 3.991434e+00 3.300671e+00 192 193 179
4.880500e-01 3.993756e+00 4.690731e+00 136 124 108
-3.446226e+00 3.998884e+00 3.283740e+00 118 114 117
1.818175e+00 3.744360e+00 5.808889e+00 145 135 139
1.472119e+00 3.831757e+00 5.461773e+00 87 74 58
1.472119e+00 3.831757e+00 5.461773e+00 87 74 58
-2.656629e+00 4.049617e+00 3.443377e+00 91 89 87
1.778789e+00 3.773223e+00 5.798551e+00 126 118 120
-1.891991e-01 4.084833e+00 4.282276e+00 78 64 55
-1.133762e+00 4.106604e+00 3.914278e+00 164 148 132
7.634196e-01 3.953361e+00 5.006195e+00 90 81 73
1.365054e+00 3.880927e+00 5.404028e+00 188 181 163
-2.654179e+00 4.075665e+00 3.480356e+00 185 192 181
-1.422552e+00 4.116719e+00 3.884039e+00 174 165 148
-1.427786e+00 4.109116e+00 3.902799e+00 174 165 148
-1.051932e+00 4.131991e+00 3.960524e+00 152 137 117
1.933782e-01 4.090804e+00 4.560253e+00 67 53 46
7.014623e-01 3.999668e+00 5.014098e+00 201 195 179
2.184580e-01 4.093473e+00 4.603569e+00 106 94 78
-3.186638e+00 4.093719e+00 3.436678e+00 174 170 158
9.055918e-01 3.988452e+00 5.126187e+00 188 184 173
-2.440206e+00 4.145324e+00 3.591181e+00 125 116 107
1.209842e+00 3.968674e+00 5.344883e+00 171 166 140
1.292338e+00 3.947172e+00 5.474132e+00 104 89 70
1.307320e+00 3.955043e+00 5.456130e+00 104 89 70
1.177640e+00 3.986409e+00 5.335690e+00 181 176 147
-2.491493e+00 4.165940e+00 3.615271e+00 185 180 160
-1.554551e+00 4.188227e+00 3.941130e+00 145 139 125
1.470179e+00 3.929572e+00 5.662530e+00 103 89 79
1.138302e+00 4.015743e+00 5.344573e+00 76 64 65
1.221396e-01 4.167506e+00 4.701248e+00 85 72 62
-2.965983e+00 4.200518e+00 3.567807e+00 195 190 171
1.002446e+00 4.091552e+00 5.312322e+00 78 65 58
9.924617e-01 4.085906e+00 5.325422e+00 78 65 58
-4.829711e-01 4.259744e+00 4.356542e+00 148 132 108
1.466105e-01 4.200848e+00 4.782397e+00 89 75 65
-2.123691e+00 4.283004e+00 3.825807e+00 109 96 85
-2.106251e+00 4.280721e+00 3.810153e+00 109 96 85
1.366396e-01 4.228438e+00 4.829406e+00 78 70 62
-7.892080e-01 4.305342e+00 4.353224e+00 80 67 58
8.615311e-01 4.163919e+00 5.278616e+00 194 188 165
-2.487105e+00 4.314259e+00 3.776490e+00 181 174 156
7.737230e-01 4.169063e+00 5.244864e+00 157 144 125
-2.355482e+00 4.340417e+00 3.845403e+00 175 170 158
-1.933471e+00 4.371160e+00 3.960105e+00 178 165 148
-2.374408e+00 4.365758e+00 3.871589e+00 176 173 150
-2.678801e+00 4.366115e+00 3.788343e+00 127 117 121
5.515464e-01 4.279732e+00 5.185342e+00 74 59 53
-2.180259e+00 4.414625e+00 3.959817e+00 80 62 43
-1.972378e+00 4.492796e+00 4.065050e+00 91 77 68
5.853862e-01 4.335296e+00 5.344917e+00 81 75 61
-3.630005e-01 4.460507e+00 4.711750e+00 108 94 88
-2.488532e+00 4.505899e+00 3.957618e+00 225 229 232
-1.808035e+00 4.523402e+00 4.151285e+00 203 195 180
-1.742562e+00 4.536213e+00 4.233245e+00 177 168 154
-1.162159e+00 4.560533e+00 4.426808e+00 117 103 81
2.104976e-01 4.456787e+00 5.168270e+00 173 166 145
-1.485313e+00 4.580413e+00 4.352443e+00 168 158 138
-2.345209e-02 4.514429e+00 5.031227e+00 183 172 158
-1.019564e+00 4.590084e+00 4.509486e+00 94 78 64
-1.543739e+00 4.610304e+00 4.391027e+00 100 82 70
-1.201491e-01 4.569139e+00 5.038322e+00 161 147 120
6.385649e-03 4.573674e+00 5.155638e+00 81 70 61
3.724908e+00 -1.942475e+00 2.701020e+00 182 181 179
4.211343e+00 -2.208656e+00 3.297695e+00 147 146 141
4.629601e+00 -2.530151e+00 3.927318e+00 80 76 73
2.071517e+00 -1.352960e+00 1.229816e+00 114 113 111
-3.442457e+00 -3.291740e+00 -1.858579e-01 141 134 118
-4.991923e+00 -3.635704e+00 -6.962711e-01 158 155 147
1.754414e+00 -1.315805e+00 1.181965e+00 57 56 52
1.261057e+00 -1.330125e+00 9.022117e-01 153 151 146
1.966836e+00 -1.208897e+00 1.223269e+00 131 128 121
-6.180353e+00 -3.716068e+00 -8.985251e-01 77 77 77
4.970703e+00 -2.422085e+00 4.557611e+00 160 162 159
-1.208012e+00 -2.364252e+00 6.607721e-01 53 53 55
5.367534e-01 -1.036437e+00 6.223570e-01 77 70 62
-3.385974e+00 -2.436032e+00 -2.473966e-01 41 36 32
4.412153e-01 -9.637174e-01 5.619996e-01 139 132 116
4.495975e-01 -1.028262e+00 6.188097e-01 166 164 158
-3.044020e+00 -2.364358e+00 -1.093172e-01 148 148 150
3.263385e+00 -1.040067e+00 2.357184e+00 103 103 101
3.263385e+00 -1.040067e+00 2.357184e+00 103 103 101
2.374735e+00 -8.103739e-01 1.600557e+00 148 146 132
-2.014452e+00 -2.588693e+00 6.325720e-01 117 116 110
-1.901940e+00 -2.554587e+00 6.823826e-01 122 122 114
7.471073e-01 -8.320890e-01 6.865812e-01 170 172 166
2.294772e+00 -7.989925e-01 1.595238e+00 110 107 103
2.349903e+00 -7.963298e-01 1.627647e+00 80 77 70
1.574264e+00 -7.048485e-01 1.100577e+00 97 93 83
-3.084386e-02 -1.187815e+00 5.976006e-01 176 173 159
-2.204209e-01 -1.343824e+00 6.486136e-01 141 135 114
2.213349e+00 -7.437086e-01 1.559312e+00 193 194 189
2.380845e+00 -7.631587e-01 1.687571e+00 121 121 113
2.380845e+00 -7.631587e-01 1.687571e+00 121 121 113
4.073641e-01 -8.250489e-01 5.922456e-01 122 122 115
-1.493781e+00 -2.260506e+00 9.311549e-01 105 102 95
3.505522e+00 -9.644573e-01 2.778308e+00 107 99 97
-9.521097e-01 -1.832458e+00 9.310678e-01 90 83 76
-4.730822e+00 -2.457963e+00 -4.289623e-01 165 165 172
3.431812e+00 -9.061665e-01 2.772529e+00 163 156 145
3.431812e+00 -9.061665e-01 2.772529e+00 163 156 145
-1.435790e+00 -2.051446e+00 9.567375e-01 140 133 122
-2.748496e+00 -1.838941e+00 6.871500e-02 156 155 153
3.453811e+00 -8.851470e-01 2.786728e+00 99 89 81
3.453811e+00 -8.851470e-01 2.786728e+00 99 89 81
6.695937e-01 -4.365513e-01 7.227699e-01 189 183 170
3.628423e+00 -8.690292e-01 2.985941e+00 184 181 172
2.484761e-01 -6.302449e-01 7.022448e-01 63 60 55
3.414815e+00 -7.588335e-01 2.788742e+00 168 162 146
2.261375e+00 -3.857291e-01 1.699512e+00 79 78 74
-4.703782e+00 -2.267494e+00 -3.681828e-01 155 157 157
3.505023e+00 -7.766214e-01 2.885583e+00 184 179 150
3.396978e+00 -7.294325e-01 2.788850e+00 91 87 77
3.396978e+00 -7.294325e-01 2.788850e+00 91 87 77
5.060638e-01 -4.502333e-01 7.883875e-01 105 98 82
3.810796e+00 -9.296193e-01 3.336241e+00 161 156 153
3.810796e+00 -9.296193e-01 3.336241e+00 161 156 153
-1.787668e+00 -1.731387e+00 7.788491e-01 184 183 172
3.877911e+00 -9.276949e-01 3.433876e+00 173 169 156
1.952336e+00 -3.020804e-01 1.607318e+00 188 188 174
2.379574e+00 -2.723330e-01 1.835776e+00 122 118 109
2.379574e+00 -2.723330e-01 1.835776e+00 122 118 109
2.622907e+00 -2.977815e-01 2.042088e+00 186 183 176
-6.650142e+00 -2.676903e+00 -7.206191e-01 188 201 205
5.082698e-01 -3.211041e-01 8.816818e-01 189 189 182
-6.167763e+00 -2.507130e+00 -5.752037e-01 142 146 149
-5.082049e+00 -2.107633e+00 -3.500953e-01 123 120 112
1.776704e+00 -1.786861e-01 1.546365e+00 178 177 172
6.910781e-01 -3.635576e-01 1.104331e+00 183 179 167
-4.329873e+00 -1.763294e+00 -1.858017e-01 172 168 148
4.425903e+00 -1.175864e+00 4.298687e+00 140 134 121
1.186971e+00 -1.425692e-01 1.327399e+00 195 194 190
-2.566154e+00 -1.096956e+00 2.080656e-01 123 113 98
4.159518e+00 -8.918131e-01 3.979996e+00 57 50 47
4.159518e+00 -8.918131e-01 3.979996e+00 57 50 47
4.042069e+00 -8.385770e-01 3.851496e+00 168 161 146
-3.974707e+00 -1.479538e+00 -7.269452e-02 155 150 146
-5.155507e+00 -1.851758e+00 -2.988227e-01 92 86 91
-2.151618e+00 -8.116144e-01 2.604514e-01 82 70 64
-2.313945e+00 -8.738220e-01 2.665943e-01 75 67 61
-2.558607e+00 -9.715749e-01 2.345277e-01 89 84 78
3.347345e+00 -2.732645e-01 2.929512e+00 173 168 160
1.488466e+00 7.289686e-02 1.451380e+00 100 101 91
-2.283195e+00 -7.989607e-01 2.647136e-01 178 179 174
1.659136e+00 9.057477e-02 1.575743e+00 100 93 83
7.112192e-01 -1.085358e-01 1.242078e+00 191 190 186
-1.143606e+00 -5.497487e-01 6.497143e-01 189 190 184
2.134567e-01 -8.818672e-03 8.886643e-01 102 100 92
-7.368391e-01 -3.195036e-01 6.736297e-01 188 187 185
-1.874688e+00 -7.092042e-01 4.512278e-01 60 56 45
-1.874688e+00 -7.092042e-01 4.512278e-01 60 56 45
-6.332178e+00 -2.081755e+00 -4.649923e-01 110 111 115
1.100088e+00 -8.967280e-03 1.458499e+00 193 193 186
3.666672e+00 -3.847482e-01 3.418696e+00 80 77 73
1.766465e+00 1.789704e-01 1.650305e+00 124 118 104
-4.977880e+00 -1.541372e+00 -1.794663e-01 173 167 154
3.789490e+00 -4.001037e-01 3.534022e+00 72 68 63
-2.169995e+00 -5.714763e-01 3.437128e-01 174 175 161
-2.323591e+00 -6.245205e-01 3.156362e-01 173 170 164
-3.332316e+00 -9.633120e-01 1.398679e-01 87 78 66
3.977159e+00 -5.497505e-01 3.907835e+00 194 191 184
-4.834150e+00 -1.403399e+00 -1.244648e-01 104 100 93
-4.871161e+00 -1.373028e+00 -1.106543e-01 182 179 172
4.002251e+00 -5.051889e-01 3.969300e+00 75 70 66
-5.213719e+00 -1.449780e+00 -1.486910e-01 76 71 64
4.271794e+00 -6.600139e-01 4.420553e+00 78 65 59
