ply
format ascii 1.0
element face 0
property list uchar int vertex_indices
element vertex 939
property float x
property float y
property float z
property uchar diffuse_red
property uchar diffuse_green
property uchar diffuse_blue
end_header
1.952354e+00 2.472025e+00 2.892489e+00 73 63 57
-2.549449e+00 2.313845e+00 2.657013e+00 136 132 120
2.588297e+00 2.392161e+00 3.386881e+00 171 170 158
-1.485123e+00 2.448542e+00 2.338309e+00 152 140 124
-1.629050e+00 2.436783e+00 2.373265e+00 91 79 64
-2.819828e+00 2.295611e+00 2.812018e+00 155 146 132
-2.819828e+00 2.295611e+00 2.812018e+00 155 146 132
-3.587564e-01 2.574369e+00 2.021917e+00 85 69 44
2.085973e+00 2.478673e+00 3.017459e+00 120 113 98
-6.879015e-01 2.555947e+00 2.127953e+00 186 178 162
3.106467e+00 2.349095e+00 3.804063e+00 162 155 145
-1.191628e+00 2.518130e+00 2.242322e+00 133 119 98
-2.844860e+00 2.316294e+00 2.832519e+00 163 156 141
-1.486536e+00 2.488483e+00 2.360888e+00 142 133 122
2.647701e+00 2.431221e+00 3.446012e+00 166 161 156
-1.208493e+00 2.526457e+00 2.255433e+00 77 64 43
-2.744602e+00 2.343084e+00 2.798000e+00 101 91 80
-1.121652e+00 2.541210e+00 2.229517e+00 139 129 104
1.567156e+00 2.575248e+00 2.659762e+00 151 138 128
1.518886e+00 2.592201e+00 2.657387e+00 111 99 88
-4.625187e+00 2.110420e+00 3.585231e+00 108 98 94
-1.078111e+00 2.576120e+00 2.226925e+00 88 80 65
4.357705e+00 2.214428e+00 4.838395e+00 89 82 72
3.120533e+00 2.411450e+00 3.840717e+00 121 112 103
-2.691548e+00 2.408934e+00 2.797941e+00 121 111 102
-3.065900e+00 2.360134e+00 2.926382e+00 146 142 127
4.273883e+00 2.246110e+00 4.767973e+00 140 126 115
1.991758e+00 2.588237e+00 2.958946e+00 170 166 141
1.005460e+00 2.693854e+00 2.343939e+00 100 87 69
4.351621e+00 2.264777e+00 4.858935e+00 161 154 144
2.978209e+00 2.472914e+00 3.772334e+00 151 143 131
1.995900e+00 2.613477e+00 2.989514e+00 122 116 109
-3.642672e+00 2.326408e+00 3.209209e+00 166 159 140
-3.642672e+00 2.326408e+00 3.209209e+00 166 159 140
-3.614927e+00 2.331983e+00 3.195506e+00 99 88 77
-4.693127e+00 2.187752e+00 3.635098e+00 82 72 71
-4.733253e+00 2.185901e+00 3.661847e+00 163 156 148
-2.622957e+00 2.471090e+00 2.800176e+00 191 183 174
2.972448e+00 2.490989e+00 3.790422e+00 106 98 86
-2.749076e+00 2.459878e+00 2.850866e+00 147 141 133
3.029965e+00 2.485673e+00 3.819989e+00 57 42 35
-3.645078e+00 2.347386e+00 3.220564e+00 108 100 86
2.377275e+00 2.586084e+00 3.299629e+00 170 162 150
-4.732748e+00 2.205475e+00 3.666927e+00 91 88 83
-4.691530e-01 2.728398e+00 2.161400e+00 127 116 100
-1.242747e+00 2.668050e+00 2.362317e+00 109 101 82
3.046202e+00 2.523240e+00 3.851300e+00 186 181 177
-1.363851e+00 2.666082e+00 2.390273e+00 159 152 126
2.816942e+00 2.569630e+00 3.700942e+00 150 139 134
-1.257672e+00 2.695876e+00 2.381467e+00 131 121 112
-5.647954e+00 2.137691e+00 4.026137e+00 109 98 80
-1.782971e+00 2.653818e+00 2.557048e+00 191 181 160
1.835663e+00 2.716322e+00 2.949291e+00 117 99 86
1.322712e+00 2.767143e+00 2.632152e+00 99 86 70
-3.608849e+00 2.438845e+00 3.223207e+00 171 165 152
1.807832e+00 2.727389e+00 2.939739e+00 107 92 74
1.807832e+00 2.727389e+00 2.939739e+00 107 92 74
-1.789477e+00 2.669854e+00 2.612977e+00 119 106 88
1.712006e+00 2.746205e+00 2.891756e+00 158 150 136
2.458146e+00 2.661647e+00 3.408385e+00 196 192 189
-2.876442e+00 2.560425e+00 2.928023e+00 179 177 169
-4.735989e+00 2.328615e+00 3.683517e+00 157 152 148
-2.650780e+00 2.608997e+00 2.857441e+00 174 171 166
-3.490046e+00 2.507678e+00 3.195513e+00 139 131 128
-9.307691e-01 2.800513e+00 2.353107e+00 170 161 144
-1.810659e+00 2.719406e+00 2.597940e+00 181 177 174
-4.446453e+00 2.393562e+00 3.569885e+00 166 159 154
4.008879e+00 2.484314e+00 4.605999e+00 161 148 132
1.686556e+00 2.793848e+00 2.911176e+00 181 177 162
3.082734e-01 2.877498e+00 2.221135e+00 99 86 70
-5.430393e+00 2.281372e+00 3.952644e+00 184 178 166
2.226771e+00 2.763487e+00 3.278330e+00 190 180 171
-1.725112e+00 2.760818e+00 2.594816e+00 150 144 131
-3.531861e+00 2.562983e+00 3.236997e+00 102 90 79
2.778858e+00 2.704005e+00 3.734309e+00 164 158 142
3.991871e+00 2.548660e+00 4.621302e+00 163 155 144
2.218030e+00 2.795328e+00 3.292136e+00 190 180 170
1.665360e+00 2.854212e+00 2.931357e+00 134 125 108
-3.401768e+00 2.601331e+00 3.182945e+00 100 91 83
-1.724820e+00 2.802864e+00 2.607314e+00 110 103 85
-1.007970e-01 2.942854e+00 2.256400e+00 175 172 155
1.585085e+00 2.887526e+00 2.911165e+00 77 70 60
-1.636924e+00 2.853037e+00 2.611367e+00 164 151 134
2.139246e+00 2.861611e+00 3.278206e+00 71 62 56
2.079167e+00 2.875219e+00 3.236710e+00 191 182 174
-4.626387e-02 2.991108e+00 2.273211e+00 174 162 151
-2.398258e+00 2.801493e+00 2.833377e+00 155 151 140
-1.337232e+00 2.912671e+00 2.492015e+00 101 89 66
-2.520489e+00 2.803978e+00 2.883583e+00 110 106 106
-1.318516e+00 2.929423e+00 2.515504e+00 110 95 80
-4.411532e+00 2.579566e+00 3.604715e+00 117 108 91
-3.305989e+00 2.722471e+00 3.173293e+00 136 129 120
-2.322664e+00 2.846365e+00 2.846030e+00 75 65 56
-4.004443e+00 2.646643e+00 3.427564e+00 150 142 131
2.858376e-01 3.033482e+00 2.352825e+00 165 158 141
6.430360e-01 3.031839e+00 2.451915e+00 148 140 125
-2.310511e+00 2.861310e+00 2.853020e+00 148 138 128
-1.486277e+00 2.945061e+00 2.612060e+00 181 173 165
2.208237e+00 2.922270e+00 3.354212e+00 65 59 52
2.617399e+00 2.874544e+00 3.671094e+00 106 96 86
2.151304e+00 2.937475e+00 3.339057e+00 97 90 80
-4.296992e+00 2.648846e+00 3.592302e+00 195 187 174
-7.219319e-01 3.024378e+00 2.432491e+00 116 109 93
2.091010e+00 2.967878e+00 3.303307e+00 157 151 139
2.588620e+00 2.913313e+00 3.681695e+00 168 158 148
1.974848e+00 2.982328e+00 3.250442e+00 181 174 157
7.176014e-01 3.082459e+00 2.556047e+00 88 74 70
-4.002485e+00 2.724768e+00 3.492535e+00 146 139 122
-4.002485e+00 2.724768e+00 3.492535e+00 146 139 122
2.267949e+00 2.967853e+00 3.382340e+00 180 174 162
-2.110009e+00 2.959761e+00 2.825243e+00 163 152 128
3.196819e+00 2.862647e+00 4.158338e+00 140 128 118
-2.430406e+00 2.931905e+00 2.926356e+00 183 179 171
-1.258592e+00 3.044632e+00 2.588426e+00 165 157 134
-5.177377e-01 3.096139e+00 2.423666e+00 128 113 90
-1.537232e+00 3.023463e+00 2.651662e+00 173 170 161
-2.359216e+00 2.945657e+00 2.908921e+00 87 80 75
-4.196193e+00 2.743894e+00 3.589175e+00 166 161 147
1.410652e+00 3.084893e+00 2.897346e+00 118 108 99
1.289934e+00 3.097082e+00 2.851985e+00 176 167 151
-2.471481e+00 2.948089e+00 2.936429e+00 160 156 152
2.459995e+00 2.978364e+00 3.664307e+00 163 151 132
-1.340989e-01 3.138587e+00 2.411000e+00 157 143 125
1.857668e+00 3.064075e+00 3.168484e+00 170 161 154
-2.289173e+00 2.987082e+00 2.904539e+00 129 125 116
1.917519e+00 3.064734e+00 3.241612e+00 119 112 102
1.265465e+00 3.123890e+00 2.871793e+00 186 176 154
-2.305376e+00 2.993914e+00 2.915583e+00 185 182 177
3.861589e+00 2.829144e+00 4.635219e+00 101 88 80
1.956622e+00 3.072482e+00 3.274732e+00 67 62 62
1.158294e+00 3.148302e+00 2.833114e+00 68 55 48
-5.983627e-01 3.152350e+00 2.477398e+00 103 88 70
1.892581e+00 3.097950e+00 3.263917e+00 189 183 170
-2.876481e+00 2.966440e+00 3.121616e+00 189 183 171
1.170072e+00 3.173026e+00 2.856834e+00 69 69 58
1.198096e+00 3.176196e+00 2.851829e+00 56 48 36
1.198096e+00 3.176196e+00 2.851829e+00 56 48 36
3.730937e+00 2.896322e+00 4.544543e+00 157 146 132
1.238893e-01 3.217435e+00 2.449326e+00 148 136 120
1.204824e+00 3.186161e+00 2.889264e+00 176 167 158
-1.051160e+00 3.165471e+00 2.607270e+00 58 46 27
1.049367e+00 3.196671e+00 2.811287e+00 69 55 33
-4.007283e+00 2.878541e+00 3.549295e+00 107 93 87
-3.017895e+00 2.990709e+00 3.186486e+00 61 53 52
-2.997114e+00 2.995418e+00 3.189212e+00 161 154 144
2.448831e+00 3.081923e+00 3.716414e+00 158 151 133
-1.108013e+00 3.177798e+00 2.634320e+00 40 27 18
-1.111406e+00 3.177540e+00 2.652403e+00 40 27 18
-2.305360e+00 3.081258e+00 2.942053e+00 114 113 111
-2.808715e+00 3.031653e+00 3.119696e+00 113 101 91
2.428896e+00 3.093195e+00 3.710319e+00 175 165 150
-1.089372e+00 3.194940e+00 2.653954e+00 151 138 119
-1.156589e+00 3.192670e+00 2.658334e+00 158 149 133
-1.156589e+00 3.192670e+00 2.658334e+00 158 149 133
-3.024314e+00 3.021664e+00 3.206386e+00 93 84 77
-1.131479e+00 3.195774e+00 2.651038e+00 77 69 55
-4.090873e+00 2.913515e+00 3.606410e+00 86 76 70
-3.104325e+00 3.031066e+00 3.234035e+00 69 60 55
1.743042e+00 3.205909e+00 3.222686e+00 187 179 166
1.351235e+00 3.242906e+00 2.946003e+00 180 173 154
1.208243e+00 3.246051e+00 2.898882e+00 188 183 164
-3.057363e+00 3.051910e+00 3.234726e+00 136 128 119
-3.102962e+00 3.049052e+00 3.250954e+00 156 150 142
-3.070268e+00 3.059230e+00 3.230424e+00 91 86 80
-3.118478e+00 3.054693e+00 3.244423e+00 72 69 66
-3.118478e+00 3.054693e+00 3.244423e+00 72 69 66
-3.038226e+00 3.065536e+00 3.232258e+00 84 80 78
-3.261218e+00 3.045405e+00 3.265171e+00 92 89 87
-1.980661e+00 3.177202e+00 2.876046e+00 128 125 118
2.223578e-01 3.303715e+00 2.571525e+00 170 163 144
-9.942402e-01 3.266134e+00 2.679313e+00 90 76 70
-1.171434e+00 3.263029e+00 2.676830e+00 119 111 102
1.697421e+00 3.254561e+00 3.220321e+00 165 156 147
9.310914e-01 3.308386e+00 2.809162e+00 63 49 30
-2.931603e+00 3.116501e+00 3.211921e+00 189 183 171
3.706661e+00 3.033579e+00 4.588425e+00 116 107 101
1.550935e+00 3.283848e+00 3.161227e+00 166 155 137
-9.851027e-01 3.315394e+00 2.698709e+00 176 169 153
-1.202714e+00 3.307598e+00 2.691979e+00 114 106 93
1.542426e+00 3.309314e+00 3.183851e+00 166 159 146
1.465970e+00 3.325662e+00 3.153884e+00 102 92 90
-1.886870e+00 3.271779e+00 2.915621e+00 152 148 148
-8.583825e-01 3.346199e+00 2.667221e+00 127 115 94
-1.594595e+00 3.297266e+00 2.821105e+00 83 72 55
-4.776106e+00 2.982781e+00 3.863775e+00 120 113 96
-9.228046e-01 3.350972e+00 2.677087e+00 152 143 123
-1.766747e+00 3.297268e+00 2.891172e+00 55 49 44
2.869775e+00 3.206718e+00 4.059468e+00 196 188 179
-2.803972e+00 3.225433e+00 3.218057e+00 91 89 83
-7.201963e-01 3.406563e+00 2.687358e+00 190 186 173
5.927056e-01 3.428612e+00 2.809737e+00 197 194 177
2.161296e+00 3.322878e+00 3.654506e+00 208 202 185
9.563871e-01 3.422405e+00 2.917156e+00 142 130 114
7.378644e-01 3.429263e+00 2.877947e+00 191 179 163
6.326442e-01 3.442166e+00 2.834750e+00 61 51 29
5.676753e-01 3.444178e+00 2.805390e+00 144 133 108
-7.264854e-01 3.433860e+00 2.705922e+00 187 179 165
2.047678e+00 3.361412e+00 3.541294e+00 65 57 54
6.403138e-01 3.455843e+00 2.831439e+00 141 130 113
2.118672e+00 3.358860e+00 3.595638e+00 175 166 155
-1.873808e+00 3.368908e+00 2.951526e+00 64 56 54
-1.869878e+00 3.367341e+00 2.951090e+00 64 56 54
1.509054e+00 3.415984e+00 3.255578e+00 199 194 185
-1.498241e+00 3.399609e+00 2.874334e+00 179 170 156
4.896496e-01 3.469545e+00 2.782690e+00 169 162 134
2.072070e+00 3.372231e+00 3.583534e+00 76 72 61
5.537488e-01 3.470511e+00 2.820512e+00 167 158 147
-4.031525e-01 3.465869e+00 2.685873e+00 133 120 111
2.052409e+00 3.380071e+00 3.606852e+00 181 176 170
6.579748e-01 3.474949e+00 2.850588e+00 172 164 143
-1.577016e+00 3.409007e+00 2.902425e+00 127 120 102
2.159898e+00 3.374656e+00 3.641743e+00 101 96 90
-3.732977e-01 3.474883e+00 2.693710e+00 121 110 104
1.347645e+00 3.446661e+00 3.170560e+00 157 153 143
2.092299e+00 3.383519e+00 3.645410e+00 191 185 179
-4.832630e+00 3.115233e+00 3.943326e+00 131 123 123
-5.006840e-01 3.488667e+00 2.725043e+00 175 165 150
1.940074e+00 3.421381e+00 3.574315e+00 184 177 170
6.309191e-01 3.505876e+00 2.885270e+00 83 74 69
-3.726401e+00 3.261895e+00 3.581155e+00 169 166 157
1.539576e+00 3.468914e+00 3.291246e+00 155 150 147
2.712304e+00 3.352660e+00 4.051971e+00 174 168 152
2.022556e+00 3.430182e+00 3.562473e+00 83 75 62
1.953328e+00 3.435042e+00 3.545795e+00 144 137 131
-3.440283e+00 3.297919e+00 3.496324e+00 174 167 149
-3.695249e+00 3.271880e+00 3.580074e+00 170 166 154
-2.505252e+00 3.384675e+00 3.188547e+00 188 181 170
-3.640105e+00 3.281318e+00 3.562770e+00 114 109 100
-3.094627e-01 3.530713e+00 2.727859e+00 78 68 63
2.082908e+00 3.434938e+00 3.666757e+00 105 100 94
-2.518728e+00 3.399214e+00 3.202209e+00 106 101 97
-6.042506e-01 3.534489e+00 2.772484e+00 178 175 167
1.996065e+00 3.461966e+00 3.576146e+00 66 55 44
3.736142e-01 3.555620e+00 2.807959e+00 66 53 43
-2.648116e+00 3.407279e+00 3.227977e+00 203 200 195
-4.607009e+00 3.216254e+00 3.870619e+00 110 105 109
2.987792e-01 3.564258e+00 2.799122e+00 151 135 106
-2.298369e+00 3.450625e+00 3.152602e+00 71 61 51
-1.592849e+00 3.505317e+00 2.959803e+00 178 176 174
4.984301e-01 3.585306e+00 2.872398e+00 197 191 176
-1.516266e+00 3.528067e+00 2.964862e+00 193 187 184
1.229245e+00 3.557901e+00 3.209807e+00 172 163 154
-3.349563e+00 3.380816e+00 3.510719e+00 77 68 64
1.182708e+00 3.565085e+00 3.198372e+00 176 170 148
-3.333519e+00 3.396608e+00 3.507911e+00 189 185 172
-3.278800e-01 3.618301e+00 2.780184e+00 165 153 132
-3.278800e-01 3.618301e+00 2.780184e+00 165 153 132
1.032189e+00 3.600463e+00 3.154820e+00 87 76 62
-2.324451e+00 3.501089e+00 3.175023e+00 185 177 171
-3.638475e+00 3.407489e+00 3.607389e+00 69 64 64
-2.413162e+00 3.519050e+00 3.227096e+00 181 176 156
-2.424059e+00 3.535223e+00 3.239185e+00 100 96 95
4.337533e-01 3.658730e+00 2.875971e+00 166 158 137
-2.321427e+00 3.541666e+00 3.185761e+00 174 168 147
-3.443268e+00 3.454373e+00 3.581834e+00 183 180 172
-3.570961e+00 3.441061e+00 3.605679e+00 107 103 100
-1.264892e+00 3.634271e+00 2.965933e+00 170 162 145
5.585213e-02 3.685717e+00 2.822817e+00 135 128 110
9.499404e-01 3.679949e+00 3.163840e+00 97 87 77
9.021858e-02 3.704034e+00 2.849474e+00 167 159 140
4.192780e-02 3.704992e+00 2.839838e+00 107 98 83
7.703429e-02 3.711124e+00 2.791501e+00 159 151 130
-3.159743e-01 3.701595e+00 2.845861e+00 189 186 181
-2.354337e+00 3.595165e+00 3.251881e+00 186 181 171
-1.136015e+00 3.682390e+00 2.955584e+00 100 91 74
8.240940e-01 3.705318e+00 3.120454e+00 70 62 60
1.076913e+00 3.696013e+00 3.215177e+00 186 179 163
1.904389e-02 3.723747e+00 2.850600e+00 147 137 127
1.011576e+00 3.703776e+00 3.181975e+00 128 121 112
-2.445498e-02 3.735263e+00 2.856629e+00 169 157 144
1.145522e+00 3.708900e+00 3.247927e+00 176 169 161
-2.249365e+00 3.636431e+00 3.243602e+00 107 102 91
1.871650e+00 3.660217e+00 3.651003e+00 210 206 197
-1.038172e+00 3.718155e+00 2.970539e+00 181 171 159
1.515613e+00 3.712720e+00 3.475934e+00 77 67 50
-1.209142e+00 3.730562e+00 3.013542e+00 205 203 191
1.685388e+00 3.714134e+00 3.572278e+00 115 105 98
-2.181574e+00 3.687848e+00 3.245309e+00 130 125 120
1.479307e+00 3.731205e+00 3.473395e+00 158 150 140
-9.840718e-01 3.757070e+00 2.983694e+00 104 95 78
1.654687e+00 3.721428e+00 3.566397e+00 124 116 104
1.654687e+00 3.721428e+00 3.566397e+00 124 116 104
1.491841e+00 3.749162e+00 3.496734e+00 169 158 145
1.435995e+00 3.751263e+00 3.464954e+00 161 148 138
2.930248e+00 3.626668e+00 4.274032e+00 191 183 163
-3.037603e+00 3.655879e+00 3.492144e+00 120 113 102
1.413086e+00 3.768727e+00 3.466163e+00 160 150 140
6.784425e-01 3.814029e+00 3.134733e+00 141 128 111
-3.926119e+00 3.594212e+00 3.732388e+00 128 122 108
1.425891e+00 3.785345e+00 3.486408e+00 177 171 158
-8.188097e-01 3.825878e+00 2.980886e+00 173 163 150
2.148870e+00 3.747874e+00 3.892887e+00 134 125 117
6.262169e-01 3.844459e+00 3.147906e+00 180 172 161
1.541551e+00 3.799107e+00 3.569749e+00 126 117 108
-3.325816e+00 3.688123e+00 3.607840e+00 187 186 182
5.393547e-01 3.860348e+00 3.117268e+00 71 59 44
-3.132371e+00 3.724776e+00 3.577732e+00 153 149 147
-2.924884e+00 3.752317e+00 3.527283e+00 109 101 89
-7.177704e-01 3.878582e+00 3.025584e+00 91 81 70
1.430455e+00 3.845953e+00 3.539125e+00 112 101 100
-6.769390e-01 3.883429e+00 3.015242e+00 129 116 101
2.186739e+00 3.799988e+00 3.945988e+00 107 100 90
1.405924e+00 3.863093e+00 3.535704e+00 116 110 109
-1.761741e+00 3.854249e+00 3.229141e+00 177 170 152
-7.324190e-01 3.900376e+00 3.047944e+00 122 112 102
3.993495e-01 3.919284e+00 3.136355e+00 142 129 108
2.267225e+00 3.812617e+00 4.010788e+00 188 184 176
-5.917603e-01 3.919493e+00 3.053171e+00 145 133 119
2.249551e+00 3.819231e+00 4.009448e+00 130 124 118
2.194198e+00 3.827585e+00 3.988641e+00 141 133 121
3.933187e-01 3.932257e+00 3.150931e+00 103 91 74
5.601278e-01 3.936984e+00 3.192760e+00 175 169 157
-2.716405e+00 3.831212e+00 3.465677e+00 81 72 67
-1.599914e+00 3.911295e+00 3.230347e+00 176 168 156
-4.116825e+00 3.732171e+00 3.890106e+00 119 116 110
2.141989e+00 3.860419e+00 3.971909e+00 105 97 89
-6.138853e-01 3.954186e+00 3.077989e+00 161 150 128
1.218897e+00 3.936415e+00 3.452475e+00 157 145 133
3.401077e-01 3.972210e+00 3.154244e+00 141 131 112
4.751404e-01 3.982077e+00 3.139889e+00 201 195 189
2.395375e-01 3.984947e+00 3.136336e+00 81 72 65
2.116797e+00 3.891733e+00 3.981530e+00 150 144 143
-3.353611e-01 4.001310e+00 3.103225e+00 95 83 82
-1.668660e+00 3.959527e+00 3.277996e+00 102 85 70
-5.755430e-01 4.007995e+00 3.111751e+00 136 133 128
-3.309167e-01 4.014311e+00 3.117968e+00 188 181 173
2.673110e+00 3.879557e+00 4.244896e+00 187 175 166
2.616978e-01 4.032871e+00 3.195677e+00 92 87 81
-4.174270e-01 4.043183e+00 3.156678e+00 99 94 85
-2.929361e+00 3.925427e+00 3.605039e+00 168 164 159
1.060409e+00 4.023654e+00 3.462317e+00 67 57 44
-7.363095e-02 4.053395e+00 3.114094e+00 60 51 44
-1.366201e+00 4.032361e+00 3.254497e+00 195 190 174
1.017593e+00 4.042362e+00 3.468810e+00 165 157 137
1.113812e+00 4.041652e+00 3.501731e+00 116 106 94
-1.353131e+00 4.082449e+00 3.286608e+00 149 140 136
1.029154e+00 4.094798e+00 3.518175e+00 126 117 107
-3.522458e+00 3.964618e+00 3.765297e+00 84 75 65
-1.473342e-01 4.123437e+00 3.175235e+00 165 157 138
2.563598e+00 3.988909e+00 4.245505e+00 165 152 143
-8.710447e-02 4.130287e+00 3.175167e+00 110 101 93
4.218670e-03 4.132715e+00 3.177137e+00 167 153 140
1.614061e+00 4.080023e+00 3.793725e+00 66 55 51
-1.196504e+00 4.121362e+00 3.276570e+00 159 149 136
-2.456589e+00 4.075961e+00 3.549135e+00 123 115 108
-1.152416e+00 4.138988e+00 3.286868e+00 132 122 108
1.900802e+00 4.082425e+00 3.937113e+00 209 204 197
-1.193272e+00 4.146262e+00 3.289552e+00 101 91 88
1.568430e+00 4.120133e+00 3.781908e+00 99 86 71
2.483358e+00 4.049960e+00 4.247550e+00 115 104 94
-1.142456e+00 4.181796e+00 3.319419e+00 183 174 158
1.435649e+00 4.160590e+00 3.747000e+00 114 103 89
-1.137499e+00 4.195151e+00 3.325388e+00 140 129 111
-2.247897e+00 4.152137e+00 3.539579e+00 195 190 181
4.852081e-01 4.227821e+00 3.399368e+00 55 46 38
-1.247493e+00 4.217254e+00 3.352205e+00 102 93 83
-2.223605e+00 4.176757e+00 3.516854e+00 212 203 194
-2.294732e+00 4.180026e+00 3.559654e+00 125 121 112
2.403764e+00 4.121380e+00 4.236852e+00 151 135 119
4.494137e-01 4.238848e+00 3.399653e+00 67 58 49
-2.003449e+00 4.205629e+00 3.518772e+00 150 142 123
1.591119e+00 4.200727e+00 3.863194e+00 181 175 161
-3.355292e+00 4.140466e+00 3.803567e+00 90 80 79
5.621666e-01 4.257775e+00 3.457016e+00 122 116 104
-2.123926e+00 4.219363e+00 3.549779e+00 157 147 138
2.496014e+00 4.140755e+00 4.307511e+00 124 117 101
2.496014e+00 4.140755e+00 4.307511e+00 124 117 101
-1.888654e+00 4.246170e+00 3.526940e+00 166 160 146
-2.061389e+00 4.236006e+00 3.544502e+00 82 73 63
4.658087e-01 4.280512e+00 3.451007e+00 159 150 139
5.168045e-01 4.282385e+00 3.470290e+00 146 134 117
4.919765e-01 4.282779e+00 3.464133e+00 168 158 137
-2.139407e+00 4.237840e+00 3.536453e+00 167 162 149
-1.036373e+00 4.288287e+00 3.373149e+00 131 122 116
-1.945559e+00 4.268805e+00 3.549077e+00 80 68 69
-1.211267e+00 4.296034e+00 3.381599e+00 178 173 160
-2.030393e+00 4.268109e+00 3.556686e+00 117 106 93
-1.935206e+00 4.279252e+00 3.560921e+00 187 180 171
-7.893674e-01 4.316301e+00 3.365362e+00 118 114 103
-3.650125e+00 4.184656e+00 3.927329e+00 173 171 163
-3.650125e+00 4.184656e+00 3.927329e+00 173 171 163
5.042776e-01 4.317624e+00 3.501022e+00 169 161 142
-2.063609e+00 4.286074e+00 3.568589e+00 117 105 95
-2.099654e+00 4.286409e+00 3.589880e+00 156 146 132
-7.770032e-01 4.327524e+00 3.367798e+00 195 190 171
-2.025300e+00 4.307977e+00 3.584196e+00 143 130 112
-3.282002e+00 4.237066e+00 3.821284e+00 128 120 101
-6.403667e-01 4.350997e+00 3.383025e+00 103 93 83
1.347138e+00 4.311636e+00 3.832265e+00 144 135 130
2.279151e+00 4.251127e+00 4.251442e+00 81 68 58
-3.185212e+00 4.272805e+00 3.810980e+00 79 72 76
2.124582e+00 4.301878e+00 4.177048e+00 157 150 139
-7.341857e-01 4.399049e+00 3.419717e+00 177 170 166
2.103961e+00 4.332547e+00 4.201257e+00 174 167 157
-3.165885e-01 4.440442e+00 3.415715e+00 98 84 71
9.924594e-01 4.441212e+00 3.774989e+00 103 96 90
-3.154578e+00 4.402003e+00 3.882448e+00 63 53 52
-1.835320e-01 4.503537e+00 3.511942e+00 179 169 159
9.964960e-01 4.496129e+00 3.836555e+00 144 135 127
-5.057189e-02 4.520527e+00 3.505115e+00 69 55 46
-3.041968e+00 4.451479e+00 3.883349e+00 107 101 93
2.160270e+00 4.432840e+00 4.293396e+00 138 134 143
8.561659e-01 4.515993e+00 3.795357e+00 91 82 64
1.037369e+00 4.511471e+00 3.858786e+00 116 112 107
2.172269e+00 4.437911e+00 4.306970e+00 210 215 220
1.049729e+00 4.517725e+00 3.874299e+00 180 177 162
-2.731102e+00 4.479315e+00 3.789750e+00 87 76 83
-2.731102e+00 4.479315e+00 3.789750e+00 87 76 83
9.820754e-01 4.529391e+00 3.858901e+00 175 170 160
-1.204921e-01 4.560847e+00 3.554905e+00 134 126 113
-2.958269e+00 4.482599e+00 3.870879e+00 58 43 37
1.083531e+00 4.524122e+00 3.866029e+00 202 195 183
-2.545079e+00 4.514834e+00 3.757086e+00 189 182 172
9.217814e-01 4.554351e+00 3.863155e+00 98 89 82
9.217814e-01 4.554351e+00 3.863155e+00 98 89 82
1.827955e+00 4.503042e+00 4.132805e+00 58 46 33
-2.576121e+00 4.526252e+00 3.777783e+00 192 189 184
9.002564e-01 4.564870e+00 3.864968e+00 97 86 82
1.687531e+00 4.524787e+00 4.097734e+00 87 77 68
2.040940e+00 4.513906e+00 4.289023e+00 211 210 215
-1.351700e+00 4.605235e+00 3.666477e+00 158 148 137
-1.406827e+00 4.611060e+00 3.669740e+00 115 106 99
7.176355e-01 4.616757e+00 3.805775e+00 118 110 101
6.808096e-01 4.617472e+00 3.788193e+00 168 158 146
-1.158374e+00 4.638257e+00 3.649169e+00 180 178 162
5.854551e-01 4.662533e+00 3.800939e+00 135 127 116
-9.223857e-01 4.684036e+00 3.654806e+00 202 193 183
5.584915e-01 4.671662e+00 3.799087e+00 115 106 98
-7.063974e-01 4.691289e+00 3.654412e+00 182 179 163
-7.468677e-01 4.704310e+00 3.655586e+00 88 77 75
3.577152e-01 4.700665e+00 3.762985e+00 186 176 149
-3.987864e+00 4.581662e+00 4.100800e+00 165 166 170
1.348982e+00 4.678585e+00 3.987187e+00 72 67 60
-7.418500e-01 4.734099e+00 3.679803e+00 95 81 71
-2.334858e+00 4.701868e+00 3.833836e+00 171 159 143
-2.565147e+00 4.716311e+00 3.894671e+00 97 83 74
-7.871585e-01 4.776696e+00 3.715853e+00 120 112 98
-1.957624e+00 4.763321e+00 3.776924e+00 89 78 75
-2.176785e+00 4.765462e+00 3.843266e+00 101 96 87
1.630642e+00 4.730117e+00 4.223191e+00 129 125 132
-2.540683e+00 4.766203e+00 3.920560e+00 180 175 161
-4.800422e-01 4.809371e+00 3.701887e+00 138 128 117
-6.406721e-01 4.815000e+00 3.735918e+00 99 89 77
2.773890e-01 4.817970e+00 3.843206e+00 119 109 103
-1.715830e+00 4.833021e+00 3.780853e+00 161 145 125
1.281623e+00 4.805250e+00 4.126038e+00 138 122 99
1.281623e+00 4.805250e+00 4.126038e+00 138 122 99
9.936460e-02 4.850919e+00 3.798819e+00 176 169 159
-2.615708e-01 4.861377e+00 3.757076e+00 163 157 141
-2.495972e+00 4.834276e+00 3.952586e+00 220 221 225
-1.733155e+00 4.855696e+00 3.806363e+00 163 151 133
8.334711e-01 4.867264e+00 3.974214e+00 100 87 79
-1.728968e+00 4.917385e+00 3.867454e+00 153 140 125
-1.662999e+00 4.932282e+00 3.856392e+00 131 116 98
8.621739e-01 4.920022e+00 4.036469e+00 168 155 135
-1.707963e+00 4.969314e+00 3.909768e+00 152 142 131
-1.707963e+00 4.969314e+00 3.909768e+00 152 142 131
5.997762e-01 4.961584e+00 4.012614e+00 89 76 73
-1.778628e+00 4.998312e+00 3.937312e+00 173 166 147
8.240839e-01 4.996290e+00 4.085178e+00 69 56 45
-1.710234e+00 5.028039e+00 3.927572e+00 165 152 140
-1.346929e+00 5.048710e+00 3.914731e+00 89 80 72
-1.713623e+00 5.052145e+00 3.954606e+00 190 184 174
-1.195587e+00 5.100938e+00 3.938565e+00 161 144 131
-1.596068e+00 5.093614e+00 3.962228e+00 130 117 104
6.587505e-01 5.082300e+00 4.103182e+00 95 79 62
-1.359852e+00 5.131955e+00 3.960309e+00 160 148 129
3.598958e-01 5.116457e+00 4.026642e+00 66 57 52
3.598958e-01 5.116457e+00 4.026642e+00 66 57 52
9.472922e-02 5.130532e+00 3.967995e+00 166 160 134
-1.016885e+00 5.147074e+00 3.928139e+00 73 62 47
-1.003316e+00 5.156678e+00 3.933458e+00 163 153 135
-6.399932e-01 5.221229e+00 3.971703e+00 135 115 90
2.793800e+00 -1.796055e+00 3.193751e+00 91 90 85
3.672320e+00 -1.831649e+00 4.017644e+00 97 93 93
2.006755e+00 -1.418797e+00 2.402571e+00 107 105 106
7.252313e-02 -1.524026e+00 2.100262e+00 117 112 109
2.003870e-01 -1.551610e+00 2.269557e+00 99 98 94
5.762817e-02 -1.473972e+00 2.089397e+00 159 156 151
3.621716e+00 -1.714685e+00 3.952145e+00 146 142 130
8.112051e-01 -1.318265e+00 1.965561e+00 84 82 78
-2.531790e-02 -1.265500e+00 1.708034e+00 126 124 125
2.013043e+00 -1.260887e+00 2.384925e+00 75 72 67
-3.867529e+00 -2.330047e+00 3.595051e+00 78 74 71
2.746170e-01 -1.306325e+00 2.193194e+00 184 183 181
1.752403e+00 -1.134942e+00 2.259354e+00 148 148 148
-1.754835e-01 -1.060133e+00 1.613045e+00 188 189 180
1.455431e+00 -1.081950e+00 2.169156e+00 174 174 174
1.439827e+00 -1.070368e+00 2.157694e+00 140 140 140
-3.998021e-01 -9.359487e-01 1.463847e+00 112 108 101
2.739833e+00 -1.181812e+00 3.047594e+00 161 162 157
9.614571e-01 -9.877779e-01 2.034700e+00 185 186 181
1.359770e+00 -9.698301e-01 2.144525e+00 127 126 121
9.383280e-02 -1.010318e+00 1.873168e+00 165 162 159
4.835755e-01 -9.732999e-01 1.905048e+00 121 118 99
-3.860354e+00 -2.034798e+00 3.471966e+00 127 128 132
6.184216e-01 -9.656509e-01 1.926865e+00 118 117 107
-4.529651e-01 -7.047220e-01 1.144340e+00 160 157 148
-5.068796e+00 -2.134974e+00 3.817757e+00 103 101 101
9.213437e-01 -8.627209e-01 2.000006e+00 177 177 166
1.889783e+00 -8.289794e-01 2.262070e+00 126 125 120
6.817711e-02 -8.910755e-01 1.898110e+00 163 160 145
3.489063e+00 -1.161202e+00 3.783420e+00 159 154 150
3.677066e+00 -1.092258e+00 3.917478e+00 128 128 122
3.711139e+00 -1.084079e+00 3.933245e+00 149 148 143
3.618243e+00 -1.070291e+00 3.875207e+00 163 164 159
1.995138e+00 -7.072618e-01 2.288295e+00 106 101 95
1.995138e+00 -7.072618e-01 2.288295e+00 106 101 95
4.005843e-01 -7.792405e-01 1.983627e+00 145 142 135
3.663284e+00 -1.077556e+00 3.908327e+00 155 155 145
-3.702217e+00 -1.708778e+00 3.348477e+00 129 124 119
4.210227e-01 -7.023796e-01 1.863455e+00 183 180 175
6.757762e-01 -6.310099e-01 1.856601e+00 125 120 106
3.261567e-01 -7.131962e-01 1.987572e+00 139 135 124
1.876237e+00 -6.119711e-01 2.221077e+00 187 187 179
6.504019e-01 -6.565691e-01 1.968985e+00 116 111 108
3.169376e+00 -8.430335e-01 3.324033e+00 158 157 153
7.041200e-01 -5.897113e-01 1.933195e+00 170 168 156
1.282897e+00 -5.660659e-01 2.059513e+00 170 170 166
1.502047e+00 -5.542903e-01 2.126028e+00 127 122 116
-2.497616e+00 -1.287171e+00 2.932917e+00 159 158 154
3.905924e+00 -9.538857e-01 4.143781e+00 133 132 128
3.619871e+00 -8.389880e-01 3.762250e+00 181 179 171
3.477608e+00 -7.924774e-01 3.642854e+00 114 108 97
3.619371e+00 -7.933905e-01 3.746086e+00 155 153 142
3.067883e+00 -6.611928e-01 3.226698e+00 113 108 104
2.137039e+00 -4.284244e-01 2.283983e+00 147 144 139
3.014532e+00 -6.252858e-01 3.164172e+00 145 138 120
5.215068e-01 -5.307788e-01 2.093899e+00 129 124 118
5.270565e-01 -5.227223e-01 2.119220e+00 182 177 171
-4.137076e-02 -6.241192e-01 2.231813e+00 116 115 110
3.847608e-01 -5.256564e-01 2.109882e+00 114 110 101
-3.884488e-02 -6.136027e-01 2.244613e+00 175 174 169
2.473610e+00 -4.549796e-01 2.607700e+00 125 119 103
3.739981e-01 -5.148471e-01 2.114349e+00 181 178 166
3.739981e-01 -5.148471e-01 2.114349e+00 181 178 166
2.491634e+00 -4.340190e-01 2.627262e+00 93 87 73
1.316509e+00 -3.646835e-01 2.070192e+00 177 174 165
-7.195042e-02 -5.419450e-01 2.151787e+00 128 127 123
-8.147247e-01 -5.234938e-01 1.963993e+00 186 185 180
1.017301e+00 -3.123897e-01 2.030708e+00 191 191 181
-2.687857e+00 -7.926953e-01 2.601707e+00 134 131 126
1.813287e-01 -3.358198e-01 2.076514e+00 108 103 98
1.895761e+00 -1.953974e-01 2.208688e+00 119 115 106
-2.202734e+00 -6.455244e-01 2.315742e+00 88 84 77
2.198768e+00 -1.878402e-01 2.313871e+00 124 123 120
2.198768e+00 -1.878402e-01 2.313871e+00 124 123 120
2.282275e+00 -1.908989e-01 2.351205e+00 136 136 128
4.271344e+00 -6.379021e-01 4.441358e+00 122 116 104
6.091420e-01 -1.943176e-01 1.988315e+00 126 119 105
-1.078816e+00 -3.729167e-01 2.104211e+00 182 182 174
3.839388e-01 -1.928419e-01 1.998774e+00 191 191 179
-4.037394e+00 -9.760044e-01 3.163070e+00 136 131 112
2.639469e+00 -2.127800e-01 2.762845e+00 162 159 150
1.288462e+00 -9.078238e-02 2.045833e+00 148 145 135
1.706640e+00 -8.911746e-02 2.179943e+00 135 132 127
2.593256e+00 -1.674861e-01 2.724628e+00 156 153 148
5.011006e-02 -2.238627e-01 2.163336e+00 187 184 176
1.324812e+00 -4.419761e-02 2.050140e+00 115 113 102
2.632009e+00 -1.406385e-01 2.734729e+00 162 157 151
9.662984e-01 -8.786876e-02 2.077341e+00 139 136 123
1.306873e+00 -7.760023e-04 2.069057e+00 119 119 109
1.306873e+00 -7.760023e-04 2.069057e+00 119 119 109
2.518779e+00 -3.588053e-02 2.612498e+00 165 159 147
3.325697e+00 -2.205359e-01 3.458782e+00 159 154 150
1.307531e+00 3.533897e-02 2.070595e+00 136 135 132
4.289812e+00 -4.074740e-01 4.450849e+00 148 145 136
3.483511e+00 -2.149950e-01 3.602877e+00 125 124 117
4.236297e+00 -3.834024e-01 4.399022e+00 194 190 179
1.604105e+00 1.311396e-01 2.088962e+00 172 168 160
1.383774e-01 1.609959e-02 2.013187e+00 198 197 193
-1.958634e+00 -1.516749e-01 2.009674e+00 112 107 97
9.334578e-02 2.544666e-02 2.033164e+00 127 126 122
1.975302e+00 1.781444e-01 2.170380e+00 178 174 164
5.387714e-01 1.194786e-01 1.952205e+00 184 182 184
-3.109062e+00 -4.204868e-01 2.662812e+00 97 89 84
2.177766e+00 2.205835e-01 2.192138e+00 112 107 101
1.412717e+00 2.309143e-01 2.000238e+00 166 164 157
1.826402e+00 2.441240e-01 2.108804e+00 172 166 154
3.249446e+00 -3.416071e-03 3.332535e+00 124 118 106
1.426749e+00 2.368352e-01 2.038018e+00 199 196 190
1.384343e+00 2.464390e-01 2.005823e+00 185 184 179
1.511822e+00 2.537294e-01 2.019100e+00 131 124 111
7.267138e-01 2.262064e-01 1.965760e+00 165 162 156
-9.449203e-01 1.239022e-01 1.833769e+00 191 187 176
-1.232887e+00 1.166813e-01 1.791398e+00 184 179 170
-1.413332e+00 9.276614e-02 1.814752e+00 184 176 169
1.039777e+00 2.375593e-01 2.029493e+00 129 126 119
-9.191935e-01 1.286459e-01 1.841693e+00 99 94 85
-9.191935e-01 1.286459e-01 1.841693e+00 99 94 85
1.738247e+00 3.208850e-01 2.099748e+00 115 106 96
-1.027603e+00 1.777840e-01 1.802742e+00 92 84 79
4.421554e+00 -1.716194e-01 4.543036e+00 135 133 120
7.549569e-01 2.965311e-01 1.957502e+00 179 176 169
7.521210e-01 2.939734e-01 1.969206e+00 179 176 169
-1.026290e+00 1.934200e-01 1.805621e+00 179 174 165
-3.843274e-01 1.853355e-01 1.991519e+00 198 194 188
-2.442074e+00 -5.623439e-02 2.288467e+00 162 155 148
2.470745e+00 2.742079e-01 2.582879e+00 162 155 145
1.765662e+00 3.708673e-01 2.116134e+00 114 105 90
-3.886467e+00 -3.771878e-01 2.994986e+00 147 137 120
3.256060e+00 1.197120e-01 3.384741e+00 95 88 78
1.886416e+00 3.893635e-01 2.135537e+00 173 167 151
2.475657e+00 3.370519e-01 2.623091e+00 137 131 117
-2.528037e+00 6.739646e-02 2.298134e+00 158 154 151
-2.528037e+00 6.739646e-02 2.298134e+00 158 154 151
-4.760440e-02 3.778945e-01 1.955820e+00 141 138 132
-1.237891e+00 3.428148e-01 1.805664e+00 153 145 132
-2.494250e+00 9.976832e-02 2.271768e+00 112 108 104
-4.021495e+00 -2.456930e-01 3.040598e+00 169 165 156
-5.837352e-01 4.059306e-01 1.883626e+00 116 110 98
-3.071678e+00 4.651561e-03 2.586258e+00 151 135 122
2.168650e+00 5.402116e-01 2.242815e+00 99 95 83
2.106236e+00 5.569135e-01 2.179272e+00 93 88 82
-6.057362e-01 4.255661e-01 1.886389e+00 117 113 101
2.137582e+00 5.719468e-01 2.219836e+00 167 163 151
4.154405e+00 1.382056e-01 4.291351e+00 138 133 124
2.131431e+00 5.833298e-01 2.225112e+00 101 96 84
1.791251e+00 6.013076e-01 2.093869e+00 155 144 122
9.022509e-01 5.663810e-01 1.971049e+00 133 128 125
-4.916540e+00 -3.517349e-01 3.467294e+00 165 160 152
3.751108e+00 2.345685e-01 3.893868e+00 151 142 135
5.382258e-01 5.810395e-01 1.937652e+00 180 179 174
-3.901956e+00 -7.883863e-02 2.967828e+00 173 167 160
1.733878e+00 6.404050e-01 2.082166e+00 135 128 118
2.129561e+00 6.380087e-01 2.217053e+00 89 82 63
6.976394e-01 5.936025e-01 1.997297e+00 114 110 101
-2.161210e+00 3.603542e-01 2.119549e+00 149 144 138
6.540357e-01 6.364060e-01 1.951217e+00 177 173 164
3.212514e+00 4.373637e-01 3.346917e+00 134 124 113
5.612322e-02 6.091466e-01 1.958116e+00 107 104 95
-3.188800e-01 6.022136e-01 1.880757e+00 137 136 131
-3.553643e+00 8.287863e-02 2.791398e+00 101 85 71
2.401113e-01 6.332091e-01 1.945316e+00 181 180 175
4.770274e-01 6.689276e-01 1.932623e+00 68 65 60
3.292492e+00 4.562554e-01 3.427898e+00 163 156 139
-1.226922e-01 6.280903e-01 1.908739e+00 161 154 137
-4.291470e-01 6.388454e-01 1.825368e+00 76 73 68
3.616894e+00 4.006543e-01 3.759950e+00 144 137 122
5.991457e-01 6.862056e-01 1.965377e+00 130 127 113
-5.251784e+00 -2.386833e-01 3.623850e+00 137 132 126
1.094252e+00 7.053451e-01 2.046192e+00 125 122 115
1.094252e+00 7.053451e-01 2.046192e+00 125 122 115
1.083939e+00 7.276324e-01 2.024677e+00 182 178 168
8.430728e-01 7.469418e-01 1.995163e+00 170 169 164
4.001730e-01 7.398564e-01 1.931619e+00 120 117 108
1.978790e+00 8.074616e-01 2.164762e+00 91 84 75
8.559225e-01 7.850482e-01 1.965794e+00 166 165 161
3.570613e+00 4.842339e-01 3.733346e+00 93 84 69
2.882509e+00 6.372446e-01 2.996994e+00 92 85 75
1.609444e+00 8.284190e-01 2.030477e+00 127 123 107
3.614010e+00 4.848948e-01 3.775026e+00 172 164 157
3.598739e+00 4.941020e-01 3.749267e+00 101 94 84
-2.803108e-01 7.364654e-01 1.893149e+00 106 105 102
2.017444e+00 8.544907e-01 2.185763e+00 149 140 131
3.635581e+00 5.213571e-01 3.802410e+00 161 153 140
1.135150e+00 8.507194e-01 2.000655e+00 175 171 161
-8.882195e-01 7.772519e-01 1.772956e+00 157 151 134
2.793644e+00 7.156660e-01 2.965280e+00 162 155 137
1.358038e+00 8.972852e-01 1.981431e+00 119 112 107
3.686897e-01 8.405541e-01 1.913967e+00 114 111 104
3.588677e+00 5.567163e-01 3.764599e+00 117 107 93
1.460067e+00 8.986185e-01 2.003182e+00 89 81 79
1.460067e+00 8.986185e-01 2.003182e+00 89 81 79
-3.753462e-01 8.130900e-01 1.847190e+00 118 109 102
-1.313404e+00 7.763274e-01 1.718143e+00 114 100 79
3.156719e+00 6.757795e-01 3.253771e+00 175 168 150
-1.398540e+00 7.614758e-01 1.759982e+00 127 118 110
1.851443e+00 9.071316e-01 2.116405e+00 122 114 103
1.754916e+00 9.090040e-01 2.091713e+00 172 164 153
3.726192e-01 8.594374e-01 1.899386e+00 181 178 169
-1.061570e-01 8.428266e-01 1.852175e+00 128 123 117
6.253236e-01 8.760174e-01 1.945665e+00 150 146 134
1.954622e+00 9.218443e-01 2.145863e+00 119 113 100
7.454010e-01 8.750087e-01 1.993562e+00 136 132 120
-7.937213e-02 8.891716e-01 1.765419e+00 169 165 156
-2.955795e+00 4.633128e-01 2.509031e+00 110 100 90
2.428802e+00 8.521331e-01 2.570175e+00 154 144 132
7.476846e-01 8.908061e-01 1.995198e+00 158 152 141
1.073964e+00 9.173378e-01 2.034155e+00 137 134 122
-9.606903e-01 8.410277e-01 1.771081e+00 105 94 82
-1.272544e+00 8.245412e-01 1.756673e+00 139 127 106
8.645264e-01 9.151057e-01 2.007818e+00 179 174 167
1.322213e-01 8.955796e-01 1.934999e+00 178 169 154
5.626644e-02 9.116836e-01 1.847498e+00 123 117 118
5.566739e-01 9.133609e-01 1.997348e+00 151 146 133
3.196859e+00 7.151348e-01 3.379826e+00 185 178 173
8.670709e-01 9.312994e-01 2.003487e+00 103 100 93
5.609477e-01 9.197232e-01 2.008779e+00 170 163 156
5.121690e-01 9.346655e-01 1.959408e+00 110 103 95
8.670859e-01 9.402875e-01 2.015196e+00 177 174 167
8.557556e-02 9.600880e-01 1.850902e+00 162 156 143
2.212443e+00 9.532430e-01 2.422846e+00 143 131 118
2.174230e+00 9.623300e-01 2.380592e+00 135 123 107
7.471221e-02 9.498952e-01 1.916423e+00 115 109 97
7.527932e-01 9.814857e-01 1.980481e+00 106 102 93
7.787492e-01 1.019664e+00 1.945761e+00 116 111 105
5.853348e-01 1.010622e+00 1.963742e+00 118 111 103
3.389002e-01 1.014455e+00 1.890607e+00 116 108 90
7.134592e-01 1.029633e+00 2.030977e+00 153 145 134
2.330611e-01 1.037058e+00 1.903317e+00 105 97 81
1.651194e+00 1.086704e+00 2.073245e+00 136 132 128
-4.430856e-02 1.042440e+00 1.845607e+00 115 107 94
-9.185029e-02 1.018553e+00 1.920483e+00 94 88 75
3.053784e-01 1.050101e+00 1.922088e+00 151 144 130
3.042295e+00 8.792953e-01 3.244083e+00 127 119 108
3.707785e-01 1.059827e+00 1.928227e+00 126 121 113
-1.601877e+00 9.540190e-01 1.788215e+00 134 123 106
-5.102462e-01 1.062059e+00 1.780572e+00 162 161 156
-3.439869e+00 5.906161e-01 2.732867e+00 164 155 138
2.523960e+00 1.021711e+00 2.702671e+00 96 85 75
1.659414e+00 1.140587e+00 2.068483e+00 183 177 172
2.172860e+00 1.078081e+00 2.455984e+00 108 99 90
3.019490e+00 9.361585e-01 3.234712e+00 142 138 129
-1.067794e+00 1.073639e+00 1.760029e+00 142 128 114
-1.167630e+00 1.065988e+00 1.766667e+00 97 92 86
3.519504e-01 1.146609e+00 1.933103e+00 145 141 131
3.519504e-01 1.146609e+00 1.933103e+00 145 141 131
5.489936e-02 1.132453e+00 1.908290e+00 187 183 174
-1.254420e+00 1.084065e+00 1.757117e+00 132 127 124
-2.718726e+00 8.329981e-01 2.401833e+00 157 148 133
2.696196e+00 1.068236e+00 2.968130e+00 110 101 88
2.693647e+00 1.085615e+00 2.956570e+00 160 154 134
2.034059e+00 1.256043e+00 2.295626e+00 131 125 107
-1.022572e+00 1.186064e+00 1.814125e+00 148 139 127
-3.510851e-01 1.276772e+00 1.705026e+00 182 169 153
-3.923300e-01 1.260153e+00 1.794263e+00 120 108 94
7.149888e-02 1.282804e+00 1.910563e+00 141 138 133
7.535877e-02 1.285324e+00 1.892329e+00 141 138 133
2.013018e+00 1.299531e+00 2.293315e+00 133 123 104
3.304285e-01 1.313881e+00 1.932678e+00 139 135 133
-2.336576e+00 1.052013e+00 2.238674e+00 122 116 104
-3.237623e+00 9.377561e-01 2.677277e+00 151 142 125
2.838381e+00 1.218694e+00 3.152153e+00 166 156 144
-2.639284e+00 1.076415e+00 2.383746e+00 85 71 59
-2.354715e+00 1.145684e+00 2.271095e+00 92 87 79
4.505345e-01 1.435863e+00 1.913465e+00 174 163 134
-3.334078e+00 9.678464e-01 2.712123e+00 79 69 68
2.952328e+00 1.239433e+00 3.257129e+00 117 105 92
6.055924e-01 1.462531e+00 1.893307e+00 143 128 118
4.619115e-01 1.448623e+00 1.928548e+00 164 149 119
-2.478509e+00 1.144201e+00 2.332747e+00 139 128 113
4.776461e-01 1.455714e+00 1.943734e+00 175 160 131
-2.636790e+00 1.121627e+00 2.397180e+00 144 134 112
4.210156e-02 1.457611e+00 1.858572e+00 146 137 123
2.927031e+00 1.270477e+00 3.262536e+00 182 174 162
1.936599e+00 1.453729e+00 2.307210e+00 133 121 111
2.511992e+00 1.344301e+00 2.899716e+00 109 102 96
-1.979034e+00 1.253471e+00 2.136103e+00 168 160 149
5.010945e-01 1.479008e+00 1.934688e+00 182 169 147
3.294364e+00 1.225532e+00 3.539668e+00 118 112 100
1.888900e+00 1.481773e+00 2.279065e+00 110 102 91
-2.420251e-01 1.500288e+00 1.810895e+00 162 152 141
-7.212828e-02 1.539223e+00 1.739988e+00 93 87 77
-3.018239e+00 1.123916e+00 2.596203e+00 107 102 96
-2.651177e-01 1.518208e+00 1.807059e+00 153 141 127
2.388222e+00 1.434347e+00 2.761861e+00 79 68 49
1.267783e+00 1.564056e+00 2.018687e+00 106 99 81
1.260071e+00 1.547509e+00 2.103063e+00 167 155 143
-1.832870e+00 1.347165e+00 2.111603e+00 139 135 123
-1.861750e+00 1.358713e+00 2.115361e+00 141 136 130
-3.633065e+00 1.047262e+00 2.862356e+00 103 90 71
3.266857e+00 1.337498e+00 3.612724e+00 130 123 107
-2.256633e-02 1.617488e+00 1.785093e+00 164 164 163
-5.648081e-01 1.605131e+00 1.690279e+00 131 122 113
-1.575125e+00 1.492495e+00 1.931238e+00 143 135 116
2.185029e-01 1.691039e+00 1.899993e+00 142 136 123
-3.030529e-01 1.678247e+00 1.811329e+00 126 113 97
-1.484613e+00 1.559522e+00 1.968647e+00 146 138 117
-3.971612e+00 1.154440e+00 3.066414e+00 168 158 137
-3.907619e+00 1.173179e+00 3.034884e+00 139 131 127
-2.149978e+00 1.492585e+00 2.248344e+00 145 135 122
-1.350874e+00 1.627040e+00 1.910565e+00 127 119 100
-2.029861e+00 1.549964e+00 2.179681e+00 115 100 80
-2.029861e+00 1.549964e+00 2.179681e+00 115 100 80
6.650456e-01 1.839169e+00 1.797685e+00 87 85 88
-1.323752e+00 1.694924e+00 1.910416e+00 166 154 137
3.296215e-01 1.826634e+00 1.868103e+00 134 135 126
-1.449058e+00 1.694480e+00 1.983464e+00 158 150 139
7.361899e-01 1.873555e+00 1.921999e+00 172 162 151
6.754052e-01 1.879238e+00 1.894700e+00 79 75 73
1.734365e+00 1.829196e+00 2.344374e+00 137 125 108
-1.991216e-01 1.857666e+00 1.821471e+00 166 165 161
-2.200481e+00 1.623043e+00 2.331115e+00 138 133 127
-2.855581e+00 1.522286e+00 2.612203e+00 184 169 146
2.105229e+00 1.801472e+00 2.651171e+00 68 61 55
-4.409687e+00 1.267721e+00 3.300453e+00 170 163 155
6.616186e-01 1.935923e+00 1.921760e+00 119 112 102
5.557656e-01 1.946097e+00 1.873670e+00 120 115 108
2.170728e+00 1.845564e+00 2.734610e+00 152 142 130
2.185942e+00 1.850773e+00 2.752432e+00 110 99 93
2.570641e+00 1.813175e+00 3.075431e+00 144 135 125
5.486799e-01 1.994462e+00 1.874791e+00 177 173 162
2.134156e+00 1.883134e+00 2.723073e+00 119 110 101
-2.628468e+00 1.663468e+00 2.525425e+00 99 90 79
-4.352907e+00 1.398440e+00 3.306330e+00 175 164 143
2.082645e+00 1.921596e+00 2.648127e+00 128 123 112
2.650371e+00 1.840400e+00 3.157558e+00 186 179 169
-1.870103e+00 1.826577e+00 2.207851e+00 67 56 39
6.935950e-01 2.042955e+00 1.925284e+00 195 192 182
-3.477847e+00 1.601410e+00 2.916376e+00 114 109 106
2.503311e+00 1.897473e+00 3.047598e+00 171 162 148
-2.643004e+00 1.742037e+00 2.549429e+00 97 90 83
-2.808502e+00 1.736941e+00 2.634760e+00 174 171 166
1.956992e+00 2.006291e+00 2.594882e+00 81 64 46
-3.330265e+00 1.664375e+00 2.847639e+00 170 163 153
2.932508e+00 1.858741e+00 3.460870e+00 147 140 124
2.362946e+00 1.964714e+00 2.953584e+00 63 53 43
-2.683543e+00 1.830035e+00 2.607297e+00 191 184 178
-3.510380e+00 1.701283e+00 2.945851e+00 121 112 95
2.457403e+00 1.995296e+00 3.078870e+00 183 172 166
-2.765501e+00 1.825624e+00 2.620451e+00 146 136 128
-3.414263e+00 1.732918e+00 2.915050e+00 148 140 131
2.456682e+00 2.007929e+00 3.089948e+00 147 140 134
-6.504006e-01 2.143510e+00 1.798719e+00 150 137 118
8.271863e-01 2.197943e+00 1.934860e+00 96 89 83
2.959017e+00 1.943814e+00 3.513054e+00 172 163 153
1.325534e+00 2.166374e+00 2.233996e+00 94 85 80
2.858521e+00 1.965677e+00 3.428819e+00 168 161 146
2.352167e+00 2.053043e+00 2.966697e+00 182 174 161
2.910483e+00 1.975616e+00 3.478745e+00 170 161 146
2.400702e+00 2.085923e+00 3.031131e+00 174 167 155
-2.683059e+00 1.924944e+00 2.609625e+00 162 153 136
-6.266898e+00 1.363242e+00 4.148210e+00 174 172 172
2.372315e+00 2.102316e+00 3.008294e+00 184 177 158
-3.669521e-01 2.233822e+00 1.858809e+00 112 107 101
1.904448e+00 2.173550e+00 2.651693e+00 158 154 149
2.480318e+00 2.107963e+00 3.132329e+00 130 126 123
1.892814e+00 2.199104e+00 2.667999e+00 148 141 135
2.520017e-01 2.306065e+00 1.905594e+00 115 105 90
2.830308e+00 2.087006e+00 3.451755e+00 97 88 81
1.537850e+00 2.289597e+00 2.400992e+00 149 136 124
2.215460e+00 2.215458e+00 2.958617e+00 131 121 109
2.221497e+00 2.223321e+00 2.969852e+00 108 95 87
-1.410010e-01 2.371732e+00 1.841983e+00 79 80 74
-2.406648e+00 2.108543e+00 2.555795e+00 153 143 131
1.092303e+00 2.367555e+00 2.191677e+00 55 38 28
-2.356889e+00 2.130411e+00 2.556919e+00 150 141 126
-2.358713e+00 2.143944e+00 2.563551e+00 109 103 96
2.144894e+00 2.289396e+00 2.950384e+00 81 69 62
-3.969790e+00 1.929072e+00 3.235709e+00 187 183 174
-3.986565e+00 1.927051e+00 3.239158e+00 136 132 125
1.743197e+00 2.346598e+00 2.652914e+00 141 133 119
2.718272e+00 2.222129e+00 3.442664e+00 141 131 113
-9.323206e-01 2.354201e+00 2.102437e+00 168 159 150
2.134093e+00 2.317530e+00 2.972864e+00 193 189 186
1.813705e+00 2.370599e+00 2.694091e+00 111 103 92
2.097381e+00 2.336905e+00 2.934343e+00 80 73 59
-3.979966e+00 1.974870e+00 3.245554e+00 131 126 122
2.212134e+00 2.341311e+00 3.028835e+00 104 94 88
2.194281e+00 2.345686e+00 3.009538e+00 147 135 121
2.119989e+00 2.356458e+00 2.971359e+00 166 159 143
2.094150e+00 2.369600e+00 2.962551e+00 130 123 115
2.062085e+00 2.379865e+00 2.935885e+00 113 104 100
2.123093e+00 2.400735e+00 2.987025e+00 118 108 96
2.123093e+00 2.400735e+00 2.987025e+00 118 108 96
1.477903e+00 2.476404e+00 2.525548e+00 86 70 53
1.118561e+00 2.503793e+00 2.355410e+00 158 147 141
-1.442991e+00 2.404203e+00 2.291887e+00 110 100 79
4.337587e+00 2.083850e+00 4.773242e+00 150 138 125
2.576122e+00 2.356124e+00 3.348345e+00 140 133 125
2.587964e+00 2.379211e+00 3.375881e+00 83 74 70
-1.409640e+00 2.445603e+00 2.300636e+00 154 146 131
-1.495525e+00 2.436982e+00 2.332816e+00 89 77 63
-2.116416e+00 2.362680e+00 2.535198e+00 105 97 86
7.162654e-01 2.578779e+00 2.135387e+00 78 71 57
-2.299436e+00 2.361347e+00 2.607300e+00 84 78 73
2.570540e+00 2.415798e+00 3.378687e+00 171 163 153
-3.778680e+00 2.173520e+00 3.212530e+00 116 110 106
-4.054108e+00 2.133973e+00 3.326662e+00 193 191 191
-2.218108e+00 2.386907e+00 2.604430e+00 119 110 100
8.069075e-01 2.633256e+00 2.250456e+00 155 140 124
2.066624e+00 2.549526e+00 3.037902e+00 150 147 142
-4.574591e+00 2.138234e+00 3.577362e+00 166 160 159
-2.122352e+00 2.475803e+00 2.597444e+00 165 159 145
2.510452e+00 2.501171e+00 3.380826e+00 160 153 147
1.888007e+00 2.588228e+00 2.890995e+00 106 98 84
-2.041289e+00 2.490978e+00 2.582412e+00 93 84 74
2.965065e+00 2.447932e+00 3.732721e+00 143 134 119
1.472289e+00 2.629814e+00 2.655026e+00 159 153 139
-1.972710e+00 2.511792e+00 2.553484e+00 101 88 68
2.924148e+00 2.467894e+00 3.701065e+00 89 78 71
5.254434e-01 2.709466e+00 2.145722e+00 141 124 107
-4.581597e-01 2.698889e+00 2.136914e+00 106 95 78
-4.784234e-02 2.759198e+00 2.083975e+00 146 134 117
4.159348e+00 2.355122e+00 4.733383e+00 136 119 103
6.456401e-03 2.779839e+00 2.076595e+00 140 126 107
4.172267e+00 2.366355e+00 4.723926e+00 149 136 121
2.406147e+00 2.624809e+00 3.333153e+00 153 144 132
2.388757e+00 2.632209e+00 3.322513e+00 144 138 118
3.045394e-01 2.797335e+00 2.115762e+00 52 43 27
3.045394e-01 2.797335e+00 2.115762e+00 52 43 27
1.368267e+00 2.755378e+00 2.647609e+00 161 149 138
1.368267e+00 2.755378e+00 2.647609e+00 161 149 138
-1.756968e+00 2.653362e+00 2.534426e+00 101 89 77
1.785812e+00 2.719317e+00 2.934489e+00 183 168 146
2.881406e+00 2.586668e+00 3.773435e+00 82 71 67
2.870194e+00 2.602115e+00 3.775999e+00 167 160 149
1.040955e+00 2.802769e+00 2.487828e+00 98 81 54
-1.646789e+00 2.710747e+00 2.533541e+00 132 124 109
2.858850e+00 2.636446e+00 3.773741e+00 116 110 98
-2.494393e+00 2.638762e+00 2.789239e+00 175 173 170
-1.679550e+00 2.738328e+00 2.568672e+00 125 120 102
1.573036e+00 2.814153e+00 2.848373e+00 92 82 70
3.959643e+00 2.514345e+00 4.567326e+00 105 94 83
-1.660450e+00 2.759326e+00 2.566525e+00 97 86 77
1.644268e+00 2.831084e+00 2.907962e+00 173 166 151
1.647502e+00 2.842209e+00 2.916261e+00 126 118 100
1.647502e+00 2.842209e+00 2.916261e+00 126 118 100
4.089683e-01 2.914660e+00 2.319820e+00 152 142 130
8.329790e-01 2.918236e+00 2.443021e+00 124 113 100
1.379752e-01 2.948369e+00 2.243107e+00 158 150 139
-3.428921e+00 2.639493e+00 3.216417e+00 114 108 93
1.508600e+00 2.910361e+00 2.872772e+00 142 129 121
2.097152e+00 2.857104e+00 3.238187e+00 153 146 138
7.210873e-02 2.980782e+00 2.228216e+00 136 127 118
2.028957e+00 2.896539e+00 3.209277e+00 119 110 104
2.123602e+00 2.896209e+00 3.288637e+00 165 160 154
2.662333e+00 2.851220e+00 3.692340e+00 158 151 133
2.624437e+00 2.858339e+00 3.666370e+00 130 120 110
7.447600e-01 3.027287e+00 2.538412e+00 143 129 109
-1.633284e+00 2.923077e+00 2.651048e+00 136 128 113
-4.969992e-01 3.013591e+00 2.370164e+00 114 101 80
1.450382e+00 2.989792e+00 2.897483e+00 175 167 145
1.465888e+00 2.990293e+00 2.899907e+00 136 127 110
-4.107463e-01 3.036001e+00 2.379707e+00 141 132 107
-2.275290e+00 2.889880e+00 2.848493e+00 101 91 90
-2.349558e+00 2.885986e+00 2.887005e+00 166 158 152
2.595325e+00 2.900567e+00 3.674664e+00 138 125 117
-2.076427e-01 3.070027e+00 2.361843e+00 53 36 28
-2.352091e+00 2.930903e+00 2.900475e+00 151 145 126
-1.596507e+00 3.027431e+00 2.669302e+00 120 111 105
-2.047602e-01 3.139652e+00 2.439211e+00 155 138 127
2.419698e+00 3.013301e+00 3.615569e+00 128 120 115
2.590708e+00 2.998236e+00 3.729087e+00 120 107 90
1.261273e+00 3.136034e+00 2.896732e+00 118 110 91
4.750531e-01 3.173525e+00 2.551082e+00 128 120 105
2.390557e+00 3.043385e+00 3.613442e+00 133 124 119
4.870736e-01 3.188086e+00 2.576314e+00 127 120 109
