ply
format ascii 1.0
element face 0
property list uchar int vertex_indices
element vertex 939
property float x
property float y
property float z
property uchar diffuse_red
property uchar diffuse_green
property uchar diffuse_blue
end_header
3.509509e-01 1.311285e+00 2.042459e+00 185 181 178
3.213867e+00 1.266664e+00 3.600834e+00 104 94 84
2.352669e+00 1.360404e+00 2.826714e+00 166 157 142
1.448758e+00 1.390126e+00 2.300330e+00 71 61 52
1.448758e+00 1.390126e+00 2.300330e+00 71 61 52
3.263067e-01 1.337440e+00 2.043885e+00 118 109 99
3.198484e+00 1.276135e+00 3.607139e+00 175 167 156
3.534023e+00 1.252198e+00 3.899656e+00 103 95 83
7.276982e-01 1.376907e+00 2.165248e+00 162 144 120
8.156347e-03 1.353515e+00 1.905182e+00 67 53 41
2.544958e+00 1.377689e+00 2.973922e+00 68 56 40
2.457992e-01 1.378835e+00 1.926181e+00 116 114 106
-2.822315e+00 9.862298e-01 2.094452e+00 168 164 154
2.612658e+00 1.372586e+00 3.097311e+00 181 175 162
2.133720e+00 1.423866e+00 2.697400e+00 90 81 73
7.093856e-01 1.410423e+00 2.175935e+00 162 153 141
4.090958e+00 1.256736e+00 4.436747e+00 133 128 122
-3.533430e+00 9.243595e-01 2.254086e+00 119 104 84
3.501640e+00 1.332255e+00 3.894188e+00 113 100 94
-3.423866e+00 9.566947e-01 2.235384e+00 153 141 120
9.416513e-01 1.477273e+00 2.132812e+00 66 61 57
2.527975e+00 1.452031e+00 3.025207e+00 97 84 66
-4.529725e+00 8.245492e-01 2.456199e+00 157 155 143
2.966068e+00 1.426156e+00 3.440120e+00 141 132 124
2.117498e+00 1.517253e+00 2.700437e+00 77 70 60
-4.394142e+00 8.729986e-01 2.428885e+00 90 77 70
-1.687729e+00 1.303230e+00 1.877295e+00 162 160 149
-3.550539e+00 1.022418e+00 2.270906e+00 173 157 142
-6.232323e-01 1.451772e+00 1.800913e+00 179 171 153
4.374073e-01 1.533586e+00 2.073955e+00 118 110 103
3.613724e+00 1.435029e+00 4.000861e+00 114 105 92
1.377200e+00 1.587044e+00 2.323027e+00 134 129 126
-2.967303e+00 1.161960e+00 2.166672e+00 111 107 99
1.988866e+00 1.592403e+00 2.591408e+00 86 73 54
1.988866e+00 1.592403e+00 2.591408e+00 86 73 54
-3.203874e-02 1.541568e+00 1.911920e+00 174 162 146
-3.504000e+00 1.081393e+00 2.273866e+00 107 102 93
4.370214e-01 1.562210e+00 2.070305e+00 177 169 164
5.559039e-01 1.580934e+00 2.105528e+00 129 121 108
1.983033e+00 1.612684e+00 2.604734e+00 147 130 110
1.983033e+00 1.612684e+00 2.604734e+00 147 130 110
4.022880e+00 1.434599e+00 4.383852e+00 99 92 85
4.022880e+00 1.434599e+00 4.383852e+00 99 92 85
2.551742e+00 1.576693e+00 3.117573e+00 144 134 121
-1.092852e+00 1.486710e+00 1.802376e+00 170 161 144
2.901416e+00 1.566846e+00 3.435494e+00 181 172 164
-8.036828e-02 1.612686e+00 1.901286e+00 126 114 92
-2.721866e+00 1.295988e+00 2.155273e+00 174 164 155
3.410838e+00 1.554842e+00 3.886848e+00 173 165 154
-8.590868e-02 1.630043e+00 1.912517e+00 66 58 53
-1.081213e+00 1.545124e+00 1.821862e+00 165 154 132
-3.379563e+00 1.215748e+00 2.273384e+00 108 99 86
-3.379563e+00 1.215748e+00 2.273384e+00 108 99 86
3.394472e+00 1.567667e+00 3.873834e+00 122 113 101
3.394472e+00 1.567667e+00 3.873834e+00 122 113 101
1.057038e+00 1.701837e+00 2.187339e+00 166 148 123
-9.717587e-02 1.642455e+00 1.925328e+00 178 174 163
2.857514e+00 1.622238e+00 3.420877e+00 131 122 121
2.892815e+00 1.627725e+00 3.448242e+00 191 187 174
-1.093007e-01 1.676289e+00 1.900682e+00 79 74 65
-3.551928e-01 1.678146e+00 1.747108e+00 145 136 121
9.879302e-01 1.734070e+00 2.193239e+00 159 156 148
2.294975e+00 1.717568e+00 2.934951e+00 136 124 102
-1.308019e+00 1.575984e+00 1.897580e+00 72 57 38
-2.528127e+00 1.404269e+00 2.122980e+00 154 138 123
-2.559617e+00 1.410472e+00 2.140076e+00 101 86 73
-3.470834e+00 1.280985e+00 2.303328e+00 163 158 153
4.396476e+00 1.550613e+00 4.759470e+00 180 174 169
5.856630e-01 1.755085e+00 2.073208e+00 187 185 175
-2.645746e+00 1.404410e+00 2.160123e+00 128 114 97
2.252684e+00 1.767617e+00 2.928444e+00 161 157 149
-4.158568e-01 1.733682e+00 1.834767e+00 100 90 81
2.194316e+00 1.781607e+00 2.846012e+00 110 97 88
-1.071822e-01 1.761060e+00 1.908124e+00 108 108 105
1.701570e+00 1.818929e+00 2.466439e+00 103 91 79
1.322234e+00 1.821157e+00 2.292067e+00 108 105 100
2.740659e+00 1.742932e+00 3.351790e+00 178 171 162
-1.242736e-01 1.764140e+00 1.908463e+00 179 178 176
-4.139821e-01 1.750881e+00 1.847247e+00 169 159 147
2.014552e+00 1.808975e+00 2.765308e+00 91 79 81
-4.842109e-01 1.749138e+00 1.837847e+00 157 153 141
-2.069116e-01 1.804808e+00 1.872405e+00 131 124 105
1.848233e+00 1.850584e+00 2.700184e+00 105 96 88
-5.658802e+00 1.110930e+00 2.690394e+00 164 161 157
1.288446e+00 1.869624e+00 2.319239e+00 194 191 185
2.796542e+00 1.812106e+00 3.427253e+00 167 160 152
-2.530873e+00 1.571068e+00 2.175037e+00 176 169 163
2.840529e+00 1.837014e+00 3.459254e+00 126 119 103
-1.594081e+00 1.708120e+00 1.993695e+00 128 118 93
2.721141e+00 1.860042e+00 3.369432e+00 173 165 152
2.651872e+00 1.864868e+00 3.333541e+00 181 172 163
2.148010e+00 1.912859e+00 2.905927e+00 132 119 103
-3.320185e+00 1.506737e+00 2.315686e+00 103 98 91
-3.320185e+00 1.506737e+00 2.315686e+00 103 98 91
3.146897e+00 1.842195e+00 3.726471e+00 177 169 159
-2.386729e+00 1.632953e+00 2.163107e+00 153 146 139
3.130392e+00 1.864102e+00 3.712903e+00 118 109 102
2.550799e+00 1.926582e+00 3.247984e+00 133 125 105
-3.237518e+00 1.573492e+00 2.317493e+00 163 156 147
-4.041106e+00 1.470875e+00 2.459429e+00 159 148 129
-2.425917e+00 1.687971e+00 2.190873e+00 154 145 140
-8.260601e-01 1.893487e+00 1.886501e+00 89 76 59
-3.239880e+00 1.602499e+00 2.316975e+00 123 119 107
-3.971615e+00 1.515336e+00 2.451100e+00 171 165 150
3.171217e+00 1.917412e+00 3.776331e+00 160 153 134
-1.249676e+00 1.867718e+00 1.948014e+00 118 106 90
-3.201184e+00 1.618394e+00 2.312534e+00 150 142 132
2.667674e+00 1.962693e+00 3.388425e+00 137 128 120
2.040858e+00 2.002000e+00 2.863127e+00 131 117 90
-2.472187e+00 1.715877e+00 2.192284e+00 83 76 72
-1.667105e+00 1.819086e+00 2.068096e+00 175 170 162
-3.073234e+00 1.649931e+00 2.287702e+00 165 156 141
-3.045282e+00 1.665737e+00 2.290478e+00 91 82 78
2.669581e+00 1.992548e+00 3.395043e+00 186 177 172
1.828115e+00 2.046638e+00 2.695937e+00 179 171 159
-2.581301e+00 1.734174e+00 2.185674e+00 119 111 101
-2.502805e+00 1.754351e+00 2.183201e+00 177 171 155
8.458080e-01 2.071016e+00 2.149145e+00 85 75 73
-3.054580e+00 1.689476e+00 2.293381e+00 166 160 149
1.794878e+00 2.063832e+00 2.674759e+00 123 114 108
-2.620628e+00 1.747360e+00 2.195436e+00 132 120 107
-2.420468e+00 1.774795e+00 2.203404e+00 187 183 171
-2.192793e+00 1.805695e+00 2.148712e+00 176 175 173
-2.377864e+00 1.782244e+00 2.199415e+00 179 174 170
-7.095987e-01 1.987842e+00 1.874554e+00 153 140 119
-5.059155e+00 1.458283e+00 2.646695e+00 154 151 144
-3.364918e+00 1.675542e+00 2.354702e+00 170 169 167
-2.143777e+00 1.832567e+00 2.135855e+00 174 170 167
-7.466913e-01 1.999159e+00 1.909619e+00 147 130 110
3.101678e+00 2.002800e+00 3.770730e+00 117 107 96
2.233959e+00 2.065391e+00 3.028560e+00 89 82 71
1.851126e+00 2.087100e+00 2.732639e+00 158 149 132
1.851126e+00 2.087100e+00 2.732639e+00 158 149 132
-1.365939e-01 2.054911e+00 1.932471e+00 74 63 57
-3.107180e+00 1.717426e+00 2.316187e+00 123 114 105
-3.107180e+00 1.717426e+00 2.316187e+00 123 114 105
-3.216821e+00 1.707567e+00 2.334231e+00 195 195 187
-3.082769e+00 1.728293e+00 2.313505e+00 183 176 161
2.613399e+00 2.048213e+00 3.348536e+00 123 113 111
-9.978738e-01 1.992191e+00 1.984208e+00 166 162 135
3.081885e+00 2.034498e+00 3.747718e+00 110 100 90
1.573119e+00 2.122466e+00 2.627988e+00 158 144 123
1.555365e+00 2.124552e+00 2.623091e+00 104 90 73
1.555365e+00 2.124552e+00 2.623091e+00 104 90 73
-1.614735e-02 2.104431e+00 1.974103e+00 128 121 105
-1.395384e+00 1.970299e+00 2.072342e+00 138 128 118
-1.395384e+00 1.970299e+00 2.072342e+00 138 128 118
3.585365e+00 2.026960e+00 4.192262e+00 173 166 154
-1.193024e+00 2.033270e+00 1.987386e+00 121 110 92
-6.780579e-02 2.142430e+00 1.987073e+00 114 106 98
3.575381e+00 2.082955e+00 4.215279e+00 183 174 166
-2.968262e+00 1.864324e+00 2.333782e+00 151 142 133
-2.189689e+00 1.975644e+00 2.201674e+00 150 145 126
6.243301e-01 2.231572e+00 2.070661e+00 81 62 52
6.243301e-01 2.231572e+00 2.070661e+00 81 62 52
-6.296083e+00 1.528617e+00 2.814424e+00 93 86 77
3.589259e+00 2.122925e+00 4.249629e+00 201 197 189
6.444234e-01 2.251884e+00 2.080950e+00 125 117 96
2.457849e+00 2.200700e+00 3.330415e+00 173 164 139
-9.002652e-01 2.151894e+00 2.016109e+00 78 65 50
3.612274e+00 2.140838e+00 4.268010e+00 193 186 180
-2.100911e+00 2.027793e+00 2.210535e+00 104 93 84
-2.257926e+00 2.010152e+00 2.214447e+00 94 87 77
-4.158122e+00 1.799085e+00 2.531886e+00 119 115 118
-2.953925e+00 1.941333e+00 2.343606e+00 175 171 158
-4.824000e+00 1.732281e+00 2.647991e+00 98 94 84
2.432774e+00 2.236613e+00 3.305459e+00 107 98 90
-1.993474e+00 2.083131e+00 2.207111e+00 135 126 108
-1.993474e+00 2.083131e+00 2.207111e+00 135 126 108
2.323145e+00 2.284034e+00 3.266386e+00 66 62 61
-1.137225e+00 2.197173e+00 2.097892e+00 165 158 137
1.972428e+00 2.309851e+00 2.958021e+00 81 71 62
2.339399e+00 2.289438e+00 3.260190e+00 189 185 186
1.267999e+00 2.332317e+00 2.526712e+00 149 134 117
2.833323e+00 2.297840e+00 3.668408e+00 185 175 162
-1.959555e+00 2.157345e+00 2.240228e+00 99 87 73
1.851626e+00 2.354176e+00 2.904189e+00 75 70 59
1.851626e+00 2.354176e+00 2.904189e+00 75 70 59
2.388266e+00 2.331664e+00 3.336632e+00 191 184 173
-1.981880e+00 2.160925e+00 2.238341e+00 164 154 142
1.074250e+00 2.402714e+00 2.376856e+00 72 56 38
1.713008e+00 2.391891e+00 2.836028e+00 180 173 158
1.698220e+00 2.402551e+00 2.848075e+00 104 96 81
-2.581104e-01 2.370997e+00 2.030287e+00 130 118 95
2.223897e+00 2.386965e+00 3.227034e+00 133 125 112
-1.133741e+00 2.296829e+00 2.138296e+00 153 143 123
2.798479e+00 2.368442e+00 3.685971e+00 179 174 156
-2.085670e+00 2.225703e+00 2.270087e+00 75 66 59
-1.874971e+00 2.256654e+00 2.257084e+00 185 180 176
1.690564e+00 2.445181e+00 2.852415e+00 162 154 141
2.737943e+00 2.401147e+00 3.629940e+00 108 102 94
2.120678e+00 2.433162e+00 3.161077e+00 73 63 57
-2.342077e+00 2.218997e+00 2.276472e+00 136 132 120
2.766318e+00 2.405834e+00 3.657316e+00 171 170 158
-1.264734e+00 2.333389e+00 2.185915e+00 152 140 124
-1.409317e+00 2.323578e+00 2.192306e+00 91 79 64
-2.620280e+00 2.212454e+00 2.357427e+00 155 146 132
-2.620280e+00 2.212454e+00 2.357427e+00 155 146 132
-1.441591e-01 2.442917e+00 2.098424e+00 85 69 44
2.253967e+00 2.452393e+00 3.282327e+00 120 113 98
-4.717041e-01 2.429484e+00 2.137530e+00 186 178 162
3.305146e+00 2.409304e+00 4.081853e+00 162 155 145
-9.719313e-01 2.397393e+00 2.153427e+00 133 119 98
-2.646867e+00 2.235087e+00 2.370211e+00 163 156 141
-1.268641e+00 2.374837e+00 2.205862e+00 142 133 122
2.825607e+00 2.451611e+00 3.715501e+00 166 161 156
-9.895492e-01 2.406507e+00 2.162110e+00 77 64 43
-2.544655e+00 2.259424e+00 2.359485e+00 101 91 80
-9.029347e-01 2.419828e+00 2.154181e+00 139 129 104
1.733950e+00 2.511303e+00 2.917394e+00 151 138 128
1.685166e+00 2.527141e+00 2.909230e+00 111 99 88
-4.520282e+00 2.092234e+00 2.673303e+00 108 98 94
-8.610277e-01 2.454649e+00 2.159682e+00 88 80 65
4.686654e+00 2.403085e+00 5.166705e+00 89 82 72
3.317592e+00 2.476492e+00 4.115430e+00 121 112 103
-2.494163e+00 2.325648e+00 2.371586e+00 121 111 102
-2.869884e+00 2.294812e+00 2.393017e+00 146 142 127
4.588737e+00 2.426425e+00 5.091496e+00 140 126 115
2.155110e+00 2.555831e+00 3.223181e+00 170 166 141
1.178548e+00 2.597008e+00 2.578787e+00 100 87 69
4.678576e+00 2.458095e+00 5.182448e+00 161 154 144
3.166134e+00 2.529467e+00 4.036912e+00 151 143 131
2.158160e+00 2.583763e+00 3.248743e+00 122 116 109
-3.480857e+00 2.277234e+00 2.544523e+00 166 159 140
-3.480857e+00 2.277234e+00 2.544523e+00 166 159 140
-3.452181e+00 2.281627e+00 2.538630e+00 99 88 77
-4.596701e+00 2.177615e+00 2.702770e+00 82 72 71
-4.640139e+00 2.178245e+00 2.717414e+00 163 156 148
-2.426994e+00 2.388463e+00 2.386861e+00 191 183 174
3.161074e+00 2.549737e+00 4.039524e+00 106 98 86
-2.554659e+00 2.381802e+00 2.404701e+00 147 141 133
3.219850e+00 2.547992e+00 4.084624e+00 57 42 35
-3.485201e+00 2.299389e+00 2.554954e+00 108 100 86
2.543360e+00 2.589749e+00 3.557463e+00 170 162 150
-4.640326e+00 2.199078e+00 2.721929e+00 91 88 83
-2.640496e-01 2.604643e+00 2.203063e+00 127 116 100
-1.033244e+00 2.555115e+00 2.250208e+00 109 101 82
3.235544e+00 2.589494e+00 4.113707e+00 186 181 177
-1.154335e+00 2.554893e+00 2.254221e+00 159 152 126
2.997269e+00 2.618342e+00 3.939161e+00 150 139 134
-1.049730e+00 2.584279e+00 2.264375e+00 131 121 112
-5.644045e+00 2.173714e+00 2.837565e+00 109 98 80
-1.577663e+00 2.554075e+00 2.325816e+00 191 181 160
1.993757e+00 2.680523e+00 3.194211e+00 117 99 86
1.484249e+00 2.696793e+00 2.862793e+00 99 86 70
-3.451170e+00 2.393154e+00 2.565531e+00 171 165 152
1.965612e+00 2.690336e+00 3.182322e+00 107 92 74
1.965612e+00 2.690336e+00 3.182322e+00 107 92 74
-1.580793e+00 2.570243e+00 2.342982e+00 119 106 88
1.869323e+00 2.703352e+00 3.130333e+00 158 150 136
2.622494e+00 2.676947e+00 3.660607e+00 196 192 189
-2.692770e+00 2.489710e+00 2.451862e+00 179 177 169
-4.650906e+00 2.328750e+00 2.738704e+00 157 152 148
-2.461311e+00 2.532863e+00 2.431366e+00 174 171 166
-3.329537e+00 2.460570e+00 2.564935e+00 139 131 128
-7.291481e-01 2.687682e+00 2.294596e+00 170 161 144
-1.609107e+00 2.623015e+00 2.356591e+00 181 177 174
-4.341368e+00 2.382869e+00 2.700695e+00 166 159 154
4.280881e+00 2.650890e+00 4.906173e+00 161 148 132
1.841994e+00 2.752215e+00 3.143051e+00 181 177 162
4.908498e-01 2.762997e+00 2.374672e+00 99 86 70
-5.408956e+00 2.315149e+00 2.822658e+00 184 178 166
2.383997e+00 2.763514e+00 3.520440e+00 190 180 171
-1.525204e+00 2.664282e+00 2.369024e+00 150 144 131
-3.376579e+00 2.520725e+00 2.593493e+00 102 90 79
2.950645e+00 2.756178e+00 3.977038e+00 164 158 142
4.260464e+00 2.719178e+00 4.915679e+00 163 155 144
2.373920e+00 2.796582e+00 3.530985e+00 190 180 170
1.818353e+00 2.813946e+00 3.157663e+00 134 125 108
-3.242161e+00 2.554599e+00 2.572905e+00 100 91 83
-1.526791e+00 2.707528e+00 2.380135e+00 110 103 85
8.658338e-02 2.827297e+00 2.342771e+00 175 172 155
1.737181e+00 2.844119e+00 3.130352e+00 77 70 60
-1.441157e+00 2.758136e+00 2.398865e+00 164 151 134
2.291903e+00 2.860439e+00 3.508847e+00 71 62 56
2.230918e+00 2.869270e+00 3.466381e+00 191 182 174
1.380096e-01 2.877075e+00 2.365502e+00 174 162 151
-2.211606e+00 2.724963e+00 2.457620e+00 155 151 140
-1.140277e+00 2.809471e+00 2.347741e+00 101 89 66
-2.337321e+00 2.731887e+00 2.479066e+00 110 106 106
-1.123363e+00 2.827903e+00 2.370934e+00 110 95 80
-4.312747e+00 2.578657e+00 2.739087e+00 117 108 91
-3.147366e+00 2.677176e+00 2.583513e+00 136 129 120
-2.137144e+00 2.770916e+00 2.481395e+00 75 65 56
-3.881051e+00 2.627659e+00 2.669456e+00 150 142 131
4.597601e-01 2.927959e+00 2.482727e+00 165 158 141
8.079647e-01 2.937642e+00 2.618137e+00 148 140 125
-2.125583e+00 2.786516e+00 2.489379e+00 148 138 128
-1.294519e+00 2.850566e+00 2.425458e+00 181 173 165
2.359357e+00 2.929860e+00 3.581968e+00 65 59 52
2.778177e+00 2.919707e+00 3.902703e+00 106 96 86
2.301179e+00 2.942457e+00 3.561593e+00 97 90 80
-4.191708e+00 2.647911e+00 2.749431e+00 195 187 174
-5.335630e-01 2.918056e+00 2.396720e+00 116 109 93
2.239326e+00 2.968676e+00 3.523975e+00 157 151 139
2.747334e+00 2.959231e+00 3.907450e+00 168 158 148
2.121706e+00 2.975849e+00 3.464882e+00 181 174 157
8.770976e-01 2.997095e+00 2.716047e+00 88 74 70
-3.881150e+00 2.713752e+00 2.722279e+00 146 139 122
-3.881150e+00 2.713752e+00 2.722279e+00 146 139 122
2.418426e+00 2.980071e+00 3.613999e+00 180 174 162
-1.926450e+00 2.883053e+00 2.501520e+00 163 152 128
3.384692e+00 2.969919e+00 4.396308e+00 140 128 118
-2.252291e+00 2.864294e+00 2.531987e+00 183 179 171
-1.070712e+00 2.948915e+00 2.443210e+00 165 157 134
-3.342020e-01 2.990126e+00 2.421211e+00 128 113 90
-1.349124e+00 2.932609e+00 2.450924e+00 173 170 161
-2.179776e+00 2.876551e+00 2.529012e+00 87 80 75
-4.088563e+00 2.744601e+00 2.766773e+00 166 161 147
1.557015e+00 3.037885e+00 3.095911e+00 118 108 99
1.437277e+00 3.044185e+00 3.041501e+00 176 167 151
-2.294803e+00 2.881867e+00 2.533613e+00 160 156 152
2.615933e+00 3.020565e+00 3.862986e+00 163 151 132
4.210326e-02 3.033804e+00 2.469479e+00 157 143 125
2.001970e+00 3.048936e+00 3.380703e+00 170 161 154
-2.110611e+00 2.917753e+00 2.537980e+00 129 125 116
2.061389e+00 3.057013e+00 3.450032e+00 119 112 102
1.411705e+00 3.072202e+00 3.054857e+00 186 176 154
-2.127617e+00 2.925616e+00 2.544590e+00 185 182 177
4.109724e+00 3.009222e+00 4.903605e+00 101 88 80
2.100425e+00 3.068647e+00 3.482361e+00 67 62 62
1.305170e+00 3.091680e+00 3.008048e+00 68 55 48
-4.173761e-01 3.050083e+00 2.454360e+00 103 88 70
2.035074e+00 3.091828e+00 3.464995e+00 189 183 170
-2.713452e+00 2.918243e+00 2.618547e+00 189 183 171
1.315621e+00 3.118611e+00 3.029616e+00 69 69 58
1.338861e+00 3.124978e+00 3.049658e+00 56 48 36
1.338861e+00 3.124978e+00 3.049658e+00 56 48 36
3.963117e+00 3.064569e+00 4.805581e+00 157 146 132
2.922096e-01 3.117687e+00 2.540020e+00 148 136 120
1.349266e+00 3.135088e+00 3.061026e+00 176 167 158
-8.697817e-01 3.071907e+00 2.492856e+00 58 46 27
1.195960e+00 3.136601e+00 2.975276e+00 69 55 33
-3.893917e+00 2.877893e+00 2.770145e+00 107 93 87
-2.857062e+00 2.948087e+00 2.637684e+00 61 53 52
-2.839952e+00 2.954454e+00 2.653941e+00 161 154 144
2.600511e+00 3.129692e+00 3.909013e+00 158 151 133
-9.275707e-01 3.086282e+00 2.506792e+00 40 27 18
-9.310943e-01 3.085628e+00 2.517063e+00 40 27 18
-2.131714e+00 3.016440e+00 2.567700e+00 114 113 111
-2.646331e+00 2.984137e+00 2.628929e+00 113 101 91
2.579931e+00 3.140280e+00 3.900545e+00 175 165 150
-9.104881e-01 3.104964e+00 2.526453e+00 151 138 119
-9.770522e-01 3.103064e+00 2.519280e+00 158 149 133
-9.770522e-01 3.103064e+00 2.519280e+00 158 149 133
-2.869662e+00 2.983001e+00 2.664119e+00 93 84 77
-9.519815e-01 3.105647e+00 2.517147e+00 77 69 55
-3.980420e+00 2.911280e+00 2.796452e+00 86 76 70
-2.952720e+00 2.995958e+00 2.672736e+00 69 60 55
1.881793e+00 3.193904e+00 3.410663e+00 187 179 166
1.492476e+00 3.199759e+00 3.127892e+00 180 173 154
1.346467e+00 3.199403e+00 3.087185e+00 188 183 164
-2.905511e+00 3.016663e+00 2.682085e+00 136 128 119
-2.952671e+00 3.015617e+00 2.687473e+00 156 150 142
-2.919069e+00 3.024089e+00 2.676451e+00 91 86 80
-2.965561e+00 3.021295e+00 2.669426e+00 72 69 66
-2.968789e+00 3.021216e+00 2.679470e+00 72 69 66
-2.886071e+00 3.030260e+00 2.683163e+00 84 80 78
-3.116720e+00 3.015514e+00 2.672020e+00 92 89 87
-1.806031e+00 3.106614e+00 2.567775e+00 128 125 118
3.824591e-01 3.214307e+00 2.657519e+00 170 163 144
-8.201631e-01 3.176719e+00 2.562222e+00 90 76 70
-9.945733e-01 3.175485e+00 2.532681e+00 119 111 102
1.834556e+00 3.241813e+00 3.402712e+00 165 156 147
1.075724e+00 3.246862e+00 2.956677e+00 63 49 30
-2.778016e+00 3.079609e+00 2.685133e+00 189 183 171
3.934756e+00 3.211918e+00 4.837140e+00 116 107 101
1.687599e+00 3.263046e+00 3.333602e+00 166 155 137
-8.125919e-01 3.229798e+00 2.580795e+00 176 169 153
-1.027460e+00 3.221718e+00 2.540468e+00 114 106 93
1.678054e+00 3.290476e+00 3.351248e+00 166 159 146
1.601182e+00 3.302664e+00 3.317075e+00 102 92 90
-1.716587e+00 3.205002e+00 2.616852e+00 152 148 148
-6.869125e-01 3.258619e+00 2.574130e+00 127 115 94
-1.421802e+00 3.222136e+00 2.585765e+00 83 72 55
-4.722598e+00 3.032701e+00 2.880966e+00 120 113 96
-7.511004e-01 3.264151e+00 2.572342e+00 152 143 123
-1.601514e+00 3.231753e+00 2.616525e+00 55 49 44
3.031389e+00 3.303323e+00 4.265092e+00 196 188 179
-2.651945e+00 3.190132e+00 2.713271e+00 91 89 83
-5.529281e-01 3.321220e+00 2.612547e+00 190 186 173
2.300208e+00 3.361458e+00 3.818403e+00 208 202 185
1.095413e+00 3.370894e+00 3.049724e+00 142 130 114
8.867477e-01 3.371487e+00 2.966048e+00 191 179 163
7.133324e-01 3.377580e+00 2.895151e+00 144 133 108
-5.605956e-01 3.350186e+00 2.627118e+00 187 179 165
2.182313e+00 3.387179e+00 3.717132e+00 65 57 54
7.834823e-01 3.392728e+00 2.934006e+00 141 130 113
2.254190e+00 3.391468e+00 3.772014e+00 175 166 155
-1.707992e+00 3.306504e+00 2.649319e+00 64 56 54
-1.709525e+00 3.309384e+00 2.650728e+00 64 56 54
1.640714e+00 3.403722e+00 3.406410e+00 199 194 185
-1.337122e+00 3.332132e+00 2.651726e+00 179 170 156
6.355290e-01 3.400644e+00 2.871868e+00 169 162 134
2.206531e+00 3.402604e+00 3.755592e+00 76 72 61
6.979662e-01 3.404995e+00 2.907468e+00 167 158 147
-2.173317e-01 3.382192e+00 2.605300e+00 133 120 111
2.188362e+00 3.412333e+00 3.762908e+00 181 176 170
7.999352e-01 3.413785e+00 2.952494e+00 172 164 143
-1.410827e+00 3.341593e+00 2.656879e+00 127 120 102
2.295583e+00 3.412953e+00 3.815730e+00 101 96 90
-2.128082e-01 3.391718e+00 2.670780e+00 121 110 104
1.479617e+00 3.423984e+00 3.313926e+00 157 153 143
2.228296e+00 3.420434e+00 3.802179e+00 191 185 179
-4.788578e+00 3.181679e+00 2.932633e+00 131 123 123
-3.399820e-01 3.407539e+00 2.677787e+00 175 165 150
2.073374e+00 3.448302e+00 3.722175e+00 184 177 170
-3.616023e+00 3.273457e+00 2.850256e+00 169 166 157
1.669578e+00 3.461251e+00 3.439735e+00 155 150 147
2.863634e+00 3.447204e+00 4.233935e+00 174 168 152
2.154976e+00 3.458464e+00 3.731199e+00 83 75 62
2.084842e+00 3.459873e+00 3.707516e+00 144 137 131
-3.317322e+00 3.297721e+00 2.832092e+00 174 167 149
-3.583737e+00 3.282985e+00 2.855023e+00 170 166 154
-2.353265e+00 3.347247e+00 2.741219e+00 188 181 170
-3.526233e+00 3.290150e+00 2.850904e+00 114 109 100
-1.525246e-01 3.451043e+00 2.708773e+00 78 68 63
2.217167e+00 3.474643e+00 3.819116e+00 105 100 94
-2.367756e+00 3.363428e+00 2.750099e+00 106 101 97
-4.451149e-01 3.457246e+00 2.701509e+00 178 175 167
2.127206e+00 3.491298e+00 3.739003e+00 66 55 44
5.179875e-01 3.488118e+00 2.876123e+00 66 53 43
-2.500571e+00 3.375660e+00 2.749607e+00 203 200 195
-4.550023e+00 3.275303e+00 2.917746e+00 110 105 109
4.441390e-01 3.495298e+00 2.857946e+00 151 135 106
-2.144977e+00 3.409517e+00 2.746491e+00 71 61 51
-1.431674e+00 3.444106e+00 2.702174e+00 178 176 174
6.378288e-01 3.524394e+00 2.945967e+00 197 191 176
-1.356322e+00 3.467159e+00 2.719010e+00 193 187 184
1.363978e+00 3.537395e+00 3.305566e+00 172 163 154
-3.227307e+00 3.382908e+00 2.860859e+00 77 68 64
1.313194e+00 3.542990e+00 3.305796e+00 176 170 148
-3.210865e+00 3.398848e+00 2.860836e+00 189 185 172
-1.469226e-01 3.543897e+00 2.690758e+00 165 153 132
-1.747613e-01 3.543646e+00 2.749369e+00 165 153 132
1.162342e+00 3.572196e+00 3.251593e+00 87 76 62
-2.188204e+00 3.469651e+00 2.771926e+00 185 177 171
-3.530768e+00 3.425463e+00 2.887812e+00 69 64 64
-2.265733e+00 3.487116e+00 2.788702e+00 181 176 156
-2.277781e+00 3.504851e+00 2.796952e+00 100 96 95
5.729260e-01 3.598624e+00 2.940967e+00 166 158 137
-2.186390e+00 3.512460e+00 2.781681e+00 174 168 147
-3.329192e+00 3.467246e+00 2.902737e+00 183 180 172
-3.461592e+00 3.458624e+00 2.898576e+00 107 103 100
-1.109313e+00 3.574201e+00 2.759916e+00 170 162 145
2.007717e-01 3.617781e+00 2.841431e+00 135 128 110
1.077543e+00 3.652010e+00 3.252741e+00 97 87 77
2.333653e-01 3.638773e+00 2.868739e+00 167 159 140
1.860113e-01 3.638568e+00 2.853524e+00 107 98 83
2.164940e-01 3.640527e+00 2.828316e+00 159 151 130
-1.674867e-01 3.633308e+00 2.805841e+00 189 186 181
-2.209895e+00 3.566533e+00 2.819517e+00 186 181 171
-9.852552e-01 3.624046e+00 2.777283e+00 100 91 74
9.527124e-01 3.671875e+00 3.199109e+00 70 62 60
1.202600e+00 3.675193e+00 3.312909e+00 186 179 163
1.626317e-01 3.658272e+00 2.859024e+00 147 137 127
1.128020e+00 3.688992e+00 3.293407e+00 128 121 112
1.192499e-01 3.670112e+00 2.857529e+00 169 157 144
1.270193e+00 3.692559e+00 3.349314e+00 176 169 161
-2.104992e+00 3.606898e+00 2.830332e+00 107 102 91
1.996894e+00 3.697415e+00 3.778108e+00 210 206 197
-8.867084e-01 3.659305e+00 2.799127e+00 181 171 159
1.637963e+00 3.725233e+00 3.584815e+00 77 67 50
-1.058382e+00 3.675948e+00 2.808039e+00 205 203 191
1.807240e+00 3.739742e+00 3.692510e+00 115 105 98
-2.038115e+00 3.659134e+00 2.842526e+00 130 125 120
1.600803e+00 3.742950e+00 3.578956e+00 158 150 140
-8.345678e-01 3.699914e+00 2.818299e+00 104 95 78
1.776147e+00 3.745799e+00 3.683483e+00 124 116 104
1.776147e+00 3.745799e+00 3.683483e+00 124 116 104
1.612427e+00 3.763687e+00 3.601201e+00 169 158 145
1.556700e+00 3.761573e+00 3.566958e+00 161 148 138
3.089052e+00 3.763311e+00 4.450942e+00 191 183 163
-2.915595e+00 3.661177e+00 2.899535e+00 120 113 102
1.533074e+00 3.778945e+00 3.565629e+00 160 150 140
8.052648e-01 3.781292e+00 3.189842e+00 141 128 111
-3.840942e+00 3.641394e+00 2.932601e+00 128 122 108
1.545100e+00 3.798077e+00 3.584916e+00 177 171 158
-6.724300e-01 3.769693e+00 2.840968e+00 173 163 150
2.275292e+00 3.818837e+00 4.022680e+00 134 125 117
7.525171e-01 3.812613e+00 3.193018e+00 180 172 161
1.659828e+00 3.822780e+00 3.671344e+00 126 117 108
-3.216848e+00 3.711314e+00 2.942819e+00 187 186 182
6.666827e-01 3.824930e+00 3.155220e+00 71 59 44
-3.018296e+00 3.742032e+00 2.953370e+00 153 149 147
-2.804766e+00 3.761765e+00 2.948293e+00 109 101 89
-5.752752e-01 3.827060e+00 2.893426e+00 91 81 70
1.548281e+00 3.864939e+00 3.628993e+00 112 101 100
-5.345913e-01 3.831194e+00 2.890967e+00 129 116 101
2.313047e+00 3.879210e+00 4.071939e+00 107 100 90
1.523281e+00 3.881579e+00 3.622860e+00 116 110 109
-1.621048e+00 3.824126e+00 2.897884e+00 177 170 152
-5.910992e-01 3.851158e+00 2.909614e+00 122 112 102
5.261213e-01 3.884790e+00 3.150639e+00 142 129 108
2.395447e+00 3.901609e+00 4.136711e+00 188 184 176
-4.524256e-01 3.871202e+00 2.935255e+00 145 133 119
2.377167e+00 3.907629e+00 4.133120e+00 130 124 118
2.318388e+00 3.912750e+00 4.112636e+00 141 133 121
5.194594e-01 3.899197e+00 3.161864e+00 103 91 74
6.839157e-01 3.909922e+00 3.219970e+00 175 169 157
-2.611565e+00 3.842481e+00 2.953553e+00 81 72 67
-1.460835e+00 3.881339e+00 2.924781e+00 176 168 156
-4.049098e+00 3.807453e+00 3.021591e+00 119 116 110
2.266181e+00 3.942614e+00 4.086841e+00 105 97 89
-4.760298e-01 3.908722e+00 2.952229e+00 161 150 128
1.333931e+00 3.944974e+00 3.528966e+00 157 145 133
4.790205e-01 3.937887e+00 3.121763e+00 141 131 112
5.947808e-01 3.950256e+00 3.174346e+00 201 195 189
3.665174e-01 3.950050e+00 3.126529e+00 81 72 65
2.240053e+00 3.975115e+00 4.090319e+00 150 144 143
-2.021858e-01 3.959743e+00 3.014748e+00 95 83 82
-1.532751e+00 3.935663e+00 2.952859e+00 102 85 70
-4.404644e-01 3.966700e+00 2.985563e+00 136 133 128
-1.985321e-01 3.974311e+00 3.027509e+00 188 181 173
2.816452e+00 4.012972e+00 4.386573e+00 187 175 166
4.001737e-01 3.990747e+00 3.134552e+00 92 87 81
-2.800211e-01 4.002263e+00 3.032794e+00 99 94 85
-2.817702e+00 3.949487e+00 3.009323e+00 168 164 159
1.175050e+00 4.031680e+00 3.512824e+00 67 57 44
5.554594e-02 4.015507e+00 3.061553e+00 60 51 44
-1.231676e+00 4.006160e+00 2.981089e+00 195 190 174
1.131772e+00 4.050557e+00 3.512143e+00 165 157 137
1.227508e+00 4.054969e+00 3.552710e+00 116 106 94
-1.221111e+00 4.060460e+00 3.009241e+00 149 140 136
1.141572e+00 4.109298e+00 3.554049e+00 126 117 107
-3.433745e+00 4.022768e+00 3.028983e+00 84 75 65
-2.079188e-02 4.092134e+00 3.100716e+00 165 157 138
2.701307e+00 4.122644e+00 4.370032e+00 165 152 143
3.875121e-02 4.099570e+00 3.109374e+00 110 101 93
1.292627e-01 4.102925e+00 3.124027e+00 167 153 140
1.726610e+00 4.135255e+00 3.863474e+00 66 55 51
-1.065583e+00 4.098753e+00 3.025085e+00 159 149 136
-2.339075e+00 4.091578e+00 3.043638e+00 123 115 108
-1.022480e+00 4.117549e+00 3.040379e+00 132 122 108
2.016991e+00 4.161360e+00 4.021542e+00 209 204 197
-1.063416e+00 4.125588e+00 3.035950e+00 101 91 88
1.676546e+00 4.175173e+00 3.855020e+00 99 86 71
2.617324e+00 4.183157e+00 4.359589e+00 115 104 94
-1.014738e+00 4.164524e+00 3.068343e+00 183 174 158
1.541385e+00 4.209875e+00 3.810353e+00 114 103 89
-1.010320e+00 4.178842e+00 3.073828e+00 140 129 111
-2.129830e+00 4.166261e+00 3.070286e+00 195 190 181
5.991222e-01 4.225827e+00 3.376909e+00 55 46 38
-1.121380e+00 4.204824e+00 3.078253e+00 102 93 83
-2.117549e+00 4.196781e+00 3.076507e+00 212 203 194
-2.178639e+00 4.198196e+00 3.078171e+00 125 121 112
2.534220e+00 4.253589e+00 4.338188e+00 151 135 119
5.632716e-01 4.236721e+00 3.371978e+00 67 58 49
-1.884141e+00 4.215966e+00 3.093542e+00 150 142 123
1.696509e+00 4.267818e+00 3.928872e+00 181 175 161
-3.267285e+00 4.207173e+00 3.086837e+00 90 80 79
6.725393e-01 4.264172e+00 3.429236e+00 122 116 104
-2.006946e+00 4.235169e+00 3.098471e+00 157 147 138
2.630616e+00 4.285978e+00 4.408738e+00 124 117 101
2.630616e+00 4.285978e+00 4.408738e+00 124 117 101
-1.770090e+00 4.257118e+00 3.118822e+00 166 160 146
-1.944185e+00 4.251018e+00 3.104336e+00 82 73 63
5.777260e-01 4.284671e+00 3.416201e+00 159 150 139
6.280023e-01 4.289126e+00 3.439554e+00 146 134 117
6.034541e-01 4.288594e+00 3.430777e+00 168 158 137
-2.033276e+00 4.260323e+00 3.104561e+00 167 162 149
-9.133715e-01 4.278999e+00 3.127579e+00 131 122 116
-1.828680e+00 4.283670e+00 3.127115e+00 80 68 69
-1.088040e+00 4.289024e+00 3.106594e+00 178 173 160
-1.914156e+00 4.285152e+00 3.118782e+00 117 106 93
-1.818970e+00 4.295396e+00 3.138525e+00 187 180 171
-6.626674e-01 4.303737e+00 3.150715e+00 118 114 103
-3.576289e+00 4.276343e+00 3.128446e+00 173 171 163
-3.576289e+00 4.276343e+00 3.128446e+00 173 171 163
6.122260e-01 4.329835e+00 3.459762e+00 169 161 142
-1.948596e+00 4.305698e+00 3.122666e+00 117 105 95
-1.985674e+00 4.308438e+00 3.134295e+00 156 146 132
-6.559150e-01 4.318338e+00 3.162465e+00 195 190 171
-1.911071e+00 4.329231e+00 3.141572e+00 143 130 112
-3.194690e+00 4.309355e+00 3.111159e+00 128 120 101
-5.210425e-01 4.343849e+00 3.195563e+00 103 93 83
1.453558e+00 4.371948e+00 3.855093e+00 144 135 130
2.404619e+00 4.386278e+00 4.330163e+00 81 68 58
-3.095990e+00 4.343185e+00 3.119997e+00 79 72 76
2.244665e+00 4.425214e+00 4.245953e+00 157 150 139
-6.164440e-01 4.397207e+00 3.210558e+00 177 170 166
2.223336e+00 4.459168e+00 4.262437e+00 174 167 157
-2.018243e-01 4.440413e+00 3.269104e+00 98 84 71
1.085495e+00 4.502680e+00 3.773653e+00 103 96 90
-3.069867e+00 4.486514e+00 3.179026e+00 63 53 52
-5.718706e-02 4.502237e+00 3.326822e+00 179 169 159
1.098503e+00 4.555999e+00 3.805924e+00 144 135 127
5.895270e-02 4.533570e+00 3.380566e+00 69 55 46
-2.955803e+00 4.535497e+00 3.199284e+00 107 101 93
2.281994e+00 4.578221e+00 4.342358e+00 138 134 143
9.579833e-01 4.569528e+00 3.751726e+00 91 82 64
1.139197e+00 4.575356e+00 3.829527e+00 116 112 107
2.294428e+00 4.585644e+00 4.355248e+00 210 215 220
1.151353e+00 4.583756e+00 3.844003e+00 180 177 162
-2.636073e+00 4.546976e+00 3.178680e+00 87 76 83
-2.636073e+00 4.546976e+00 3.178680e+00 87 76 83
1.083380e+00 4.592776e+00 3.821595e+00 175 170 160
5.724404e-03 4.564421e+00 3.363864e+00 134 126 113
-2.870484e+00 4.564960e+00 3.203219e+00 58 43 37
1.176866e+00 4.599565e+00 3.857136e+00 202 195 183
-2.446657e+00 4.576483e+00 3.184067e+00 189 182 172
1.022481e+00 4.617945e+00 3.816070e+00 98 89 82
1.022481e+00 4.617945e+00 3.816070e+00 98 89 82
1.932513e+00 4.623587e+00 4.175491e+00 58 46 33
-2.479165e+00 4.591346e+00 3.195167e+00 192 189 184
1.000811e+00 4.628674e+00 3.814037e+00 97 86 82
1.796110e+00 4.634794e+00 4.114494e+00 87 77 68
2.158786e+00 4.658528e+00 4.320248e+00 211 210 215
-1.244637e+00 4.639355e+00 3.312584e+00 158 148 137
-1.299960e+00 4.646529e+00 3.305927e+00 115 106 99
8.180743e-01 4.673610e+00 3.737662e+00 118 110 101
7.814831e-01 4.671919e+00 3.717802e+00 168 158 146
-1.051194e+00 4.670841e+00 3.327711e+00 180 178 162
6.853202e-01 4.718808e+00 3.713542e+00 135 127 116
-8.163885e-01 4.718068e+00 3.367857e+00 202 193 183
6.582972e-01 4.727771e+00 3.707819e+00 115 106 98
-5.885872e-01 4.715040e+00 3.377544e+00 182 179 163
-6.415260e-01 4.738847e+00 3.394920e+00 88 77 75
4.578665e-01 4.751581e+00 3.648264e+00 186 176 149
1.442763e+00 4.777691e+00 3.990344e+00 72 67 60
-6.376517e-01 4.772589e+00 3.414622e+00 95 81 71
-2.239875e+00 4.777493e+00 3.276411e+00 171 159 143
-2.475218e+00 4.805590e+00 3.283151e+00 97 83 74
-6.844995e-01 4.821262e+00 3.435744e+00 120 112 98
-1.858108e+00 4.828857e+00 3.292468e+00 89 78 75
-2.081498e+00 4.842349e+00 3.309111e+00 101 96 87
1.738263e+00 4.864919e+00 4.201654e+00 129 125 132
-2.451952e+00 4.861057e+00 3.305850e+00 180 175 161
-3.777019e-01 4.854389e+00 3.469131e+00 138 128 117
-5.392180e-01 4.863477e+00 3.473142e+00 99 89 77
3.751103e-01 4.882564e+00 3.698430e+00 119 109 103
-1.616027e+00 4.898818e+00 3.333529e+00 161 145 125
1.383136e+00 4.921984e+00 4.071482e+00 138 122 99
1.383136e+00 4.921984e+00 4.071482e+00 138 122 99
1.980099e-01 4.911213e+00 3.633811e+00 176 169 159
-1.615549e-01 4.915539e+00 3.545342e+00 163 157 141
-2.398386e+00 4.935825e+00 3.338519e+00 220 221 225
-1.634613e+00 4.925804e+00 3.350549e+00 163 151 133
9.316059e-01 4.959495e+00 3.881469e+00 100 87 79
-1.618828e+00 4.992569e+00 3.389783e+00 153 140 125
-1.566637e+00 5.011455e+00 3.399403e+00 131 116 98
9.599174e-01 5.023183e+00 3.934060e+00 168 155 135
-1.597902e+00 5.050648e+00 3.422528e+00 152 142 131
-1.597902e+00 5.050648e+00 3.422528e+00 152 142 131
7.065429e-01 5.046360e+00 3.839778e+00 89 76 73
-1.669918e+00 5.085816e+00 3.432053e+00 173 166 147
9.212733e-01 5.109412e+00 3.964609e+00 69 56 45
-1.616917e+00 5.122812e+00 3.443097e+00 165 152 140
-1.230790e+00 5.125631e+00 3.469424e+00 89 80 72
-1.621428e+00 5.151535e+00 3.463368e+00 190 184 174
-1.077882e+00 5.179243e+00 3.504427e+00 161 144 131
-1.503614e+00 5.195023e+00 3.486513e+00 130 117 104
7.548047e-01 5.200214e+00 3.951001e+00 95 79 62
-1.266561e+00 5.232397e+00 3.522029e+00 160 148 129
4.554272e-01 5.223267e+00 3.842870e+00 66 57 52
4.554272e-01 5.223267e+00 3.842870e+00 66 57 52
1.904909e-01 5.228715e+00 3.754779e+00 166 160 134
-9.217280e-01 5.241513e+00 3.550301e+00 73 62 47
-9.082515e-01 5.252363e+00 3.556063e+00 163 153 135
-5.451470e-01 5.324310e+00 3.639911e+00 135 115 90
3.249238e+00 -2.029851e+00 3.548727e+00 91 90 85
4.218447e+00 -2.030401e+00 4.392255e+00 97 93 93
2.379354e+00 -1.680692e+00 2.801160e+00 107 105 106
4.032715e-01 -1.790341e+00 2.194166e+00 117 112 109
4.763546e+00 -2.065477e+00 4.860732e+00 157 156 152
5.674885e-01 -1.755527e+00 2.274202e+00 99 98 94
4.771129e+00 -2.058415e+00 4.874755e+00 133 132 131
3.911193e-01 -1.729767e+00 2.173137e+00 159 156 151
4.149224e+00 -1.897504e+00 4.320294e+00 146 142 130
1.123885e+00 -1.619596e+00 2.282394e+00 84 82 78
1.934578e-01 -1.681457e+00 2.083759e+00 126 124 125
2.378485e+00 -1.498567e+00 2.773423e+00 75 72 67
-3.485335e+00 -2.447438e+00 2.472272e+00 78 74 71
6.342318e-01 -1.494818e+00 2.227517e+00 184 183 181
2.102030e+00 -1.362645e+00 2.619558e+00 148 148 148
1.901035e-02 -1.478726e+00 2.009671e+00 188 189 180
1.794905e+00 -1.306131e+00 2.490998e+00 174 174 174
1.778586e+00 -1.293873e+00 2.478290e+00 140 140 140
-2.891224e-01 -1.441460e+00 1.988828e+00 112 108 101
3.143351e+00 -1.339752e+00 3.386589e+00 161 162 157
-2.223919e+00 -2.253254e+00 2.893863e+00 155 153 148
1.287676e+00 -1.209615e+00 2.295341e+00 185 186 181
1.695354e+00 -1.177178e+00 2.440899e+00 127 126 121
3.930025e-01 -1.270697e+00 2.056688e+00 165 162 159
7.990877e-01 -1.210381e+00 2.120455e+00 121 118 99
3.009778e+00 -1.287837e+00 3.353047e+00 151 151 151
-3.509687e+00 -2.165892e+00 2.424381e+00 127 128 132
9.308403e-01 -1.206575e+00 2.172147e+00 118 117 107
-4.893716e-01 -1.369106e+00 1.975431e+00 160 157 148
-1.550415e+00 -1.821421e+00 2.616787e+00 125 124 120
-4.864330e+00 -2.337020e+00 2.554355e+00 103 101 101
1.245622e+00 -1.070741e+00 2.249964e+00 177 177 166
2.223901e+00 -1.018203e+00 2.624105e+00 126 125 120
3.867526e-01 -1.109420e+00 2.021852e+00 163 160 145
3.947900e+00 -1.274202e+00 4.122894e+00 159 154 150
-8.342633e-01 -1.277245e+00 2.064851e+00 160 159 155
4.148243e+00 -1.196574e+00 4.276081e+00 128 128 122
4.185271e+00 -1.187988e+00 4.296873e+00 149 148 143
4.081256e+00 -1.171834e+00 4.225224e+00 163 164 159
2.330686e+00 -8.867555e-01 2.664308e+00 106 101 95
2.330686e+00 -8.867555e-01 2.664308e+00 106 101 95
7.227356e-01 -9.732008e-01 2.134348e+00 145 142 135
4.131581e+00 -1.180106e+00 4.264581e+00 155 155 145
-3.392182e+00 -1.859092e+00 2.425333e+00 129 124 119
7.476861e-01 -8.936382e-01 2.027464e+00 183 180 175
9.964937e-01 -8.236800e-01 2.075956e+00 125 120 106
6.466724e-01 -9.008038e-01 2.122848e+00 139 135 124
2.204400e+00 -7.859143e-01 2.584828e+00 187 187 179
9.719665e-01 -8.397441e-01 2.159054e+00 116 111 108
3.572932e+00 -9.552737e-01 3.685051e+00 158 157 153
1.026890e+00 -7.671301e-01 2.131359e+00 170 168 156
1.603546e+00 -7.385219e-01 2.340682e+00 170 170 166
1.828593e+00 -7.289987e-01 2.430637e+00 127 122 116
-2.413918e+00 -1.642498e+00 2.704152e+00 159 158 154
4.390068e+00 -1.033619e+00 4.508678e+00 133 132 128
4.061181e+00 -9.288610e-01 4.133509e+00 181 179 171
3.901437e+00 -8.818158e-01 4.003215e+00 114 108 97
4.056502e+00 -8.800320e-01 4.118989e+00 155 153 142
3.449922e+00 -7.617755e-01 3.581753e+00 113 108 104
2.460078e+00 -5.873920e-01 2.681039e+00 147 144 139
3.390512e+00 -7.269226e-01 3.520693e+00 145 138 120
8.502094e-01 -6.776163e-01 2.204661e+00 129 124 118
8.551233e-01 -6.670150e-01 2.226056e+00 182 177 171
3.047943e-01 -7.491654e-01 2.188537e+00 116 115 110
7.154117e-01 -6.684546e-01 2.189735e+00 114 110 101
3.085217e-01 -7.350677e-01 2.195653e+00 175 174 169
2.810719e+00 -5.857937e-01 2.984557e+00 125 119 103
7.053034e-01 -6.553882e-01 2.189074e+00 181 178 166
7.053034e-01 -6.553882e-01 2.189074e+00 181 178 166
2.828465e+00 -5.605783e-01 3.000329e+00 93 87 73
1.628951e+00 -5.213388e-01 2.350779e+00 177 174 165
2.640054e-01 -6.794791e-01 2.139021e+00 128 127 123
-5.356976e-01 -7.421509e-01 1.975807e+00 186 185 180
1.329753e+00 -4.633829e-01 2.259031e+00 191 191 181
-2.465167e+00 -1.017846e+00 2.190387e+00 134 131 126
5.025585e-01 -4.769602e-01 2.140132e+00 108 103 98
2.203484e+00 -3.367445e-01 2.564630e+00 119 115 106
-2.201551e+00 -1.067949e+00 2.393449e+00 88 84 77
2.510267e+00 -3.252857e-01 2.706236e+00 124 123 120
2.510267e+00 -3.252857e-01 2.706236e+00 124 123 120
2.595700e+00 -3.267866e-01 2.751648e+00 136 136 128
4.774259e+00 -6.780941e-01 4.838173e+00 122 116 104
9.178724e-01 -3.424836e-01 2.157184e+00 126 119 105
6.902602e-01 -3.443261e-01 2.135797e+00 191 191 179
-3.794955e+00 -1.137211e+00 2.296366e+00 136 131 112
2.967181e+00 -3.130573e-01 3.128405e+00 162 159 150
1.603863e+00 -2.193895e-01 2.288168e+00 148 145 135
2.014972e+00 -2.182881e-01 2.492608e+00 135 132 127
2.916266e+00 -2.676432e-01 3.089463e+00 156 153 148
3.493643e-01 -3.728295e-01 2.229109e+00 187 184 176
1.623456e+00 -1.836016e-01 2.332660e+00 115 113 102
2.952640e+00 -2.394186e-01 3.120538e+00 162 157 151
1.269142e+00 -2.230685e-01 2.287115e+00 139 136 123
1.604176e+00 -1.353230e-01 2.342062e+00 119 119 109
1.604176e+00 -1.353230e-01 2.342062e+00 119 119 109
2.830283e+00 -1.386029e-01 2.989825e+00 165 159 147
3.690110e+00 -2.731083e-01 3.811057e+00 159 154 150
1.602424e+00 -9.848491e-02 2.345670e+00 136 135 132
4.773334e+00 -4.247269e-01 4.844969e+00 148 145 136
3.859121e+00 -2.597478e-01 3.961689e+00 125 124 117
4.709683e+00 -4.002747e-01 4.787506e+00 194 190 179
1.892607e+00 -1.393030e-03 2.418141e+00 172 168 160
4.261220e-01 -1.398504e-01 2.137286e+00 198 197 193
-1.834645e+00 -4.640843e-01 2.023358e+00 112 107 97
2.263110e+00 5.137161e-02 2.548896e+00 178 174 164
8.265635e-01 -3.801146e-02 2.144060e+00 184 182 184
-2.838771e+00 -5.794089e-01 2.087759e+00 97 89 84
2.464607e+00 9.374585e-02 2.606963e+00 112 107 101
1.696516e+00 9.557871e-02 2.315940e+00 166 164 157
2.109443e+00 1.157045e-01 2.474948e+00 172 166 154
3.591808e+00 -5.259738e-02 3.696053e+00 124 118 106
1.720163e+00 1.147262e-01 2.328032e+00 199 196 190
1.668243e+00 1.133782e-01 2.312945e+00 185 184 179
1.794665e+00 1.209194e-01 2.346925e+00 131 124 111
1.022338e+00 9.299535e-02 2.158487e+00 165 162 156
-5.824331e-01 7.845769e-03 1.689308e+00 191 187 176
-8.254696e-01 2.622687e-02 1.539872e+00 184 179 170
-1.052964e+00 -3.798547e-02 1.608930e+00 184 176 169
1.340287e+00 1.215059e-01 2.237838e+00 129 126 119
-5.702586e-01 2.642556e-03 1.723048e+00 99 94 85
-5.702586e-01 2.642556e-03 1.723048e+00 99 94 85
2.017426e+00 1.960198e-01 2.450645e+00 115 106 96
-6.329100e-01 8.567476e-02 1.596719e+00 92 84 79
4.903767e+00 -1.647169e-01 4.950369e+00 135 133 120
1.037837e+00 1.581171e-01 2.176623e+00 179 176 169
1.037837e+00 1.581171e-01 2.176623e+00 179 176 169
-6.354421e-01 9.899528e-02 1.605497e+00 179 174 165
-1.397568e-01 -7.716101e-03 2.118199e+00 198 194 188
-2.174338e+00 -2.304439e-01 1.936804e+00 162 155 148
2.754528e+00 1.911329e-01 2.957025e+00 162 155 145
2.042420e+00 2.492721e-01 2.467950e+00 114 105 90
-3.646893e+00 -5.197653e-01 2.216401e+00 147 137 120
3.589925e+00 8.243684e-02 3.737003e+00 95 88 78
2.162370e+00 2.690000e-01 2.505446e+00 173 167 151
2.762717e+00 2.540452e-01 2.988081e+00 137 131 117
-2.272406e+00 -1.079747e-01 1.944849e+00 158 154 151
-2.272406e+00 -1.079747e-01 1.944849e+00 158 154 151
2.110310e-01 2.102781e-01 2.107005e+00 141 138 132
-8.628739e-01 2.353260e-01 1.601500e+00 153 145 132
-2.236299e+00 -7.471415e-02 1.927679e+00 112 108 104
-3.802209e+00 -3.876605e-01 2.247758e+00 169 165 156
-3.125125e-01 2.374222e-01 1.941512e+00 116 110 98
-2.804256e+00 -1.408723e-01 2.045075e+00 151 135 122
2.437956e+00 4.319415e-01 2.641481e+00 99 95 83
2.373790e+00 4.435399e-01 2.582255e+00 93 88 82
-3.351020e-01 2.575217e-01 1.940725e+00 117 113 101
2.404756e+00 4.627599e-01 2.618528e+00 167 163 151
4.570970e+00 1.574500e-01 4.671393e+00 138 133 124
2.398024e+00 4.751806e-01 2.621096e+00 101 96 84
2.055729e+00 4.841666e-01 2.458239e+00 155 144 122
1.171777e+00 4.358295e-01 2.217103e+00 133 128 125
-4.765560e+00 -4.865549e-01 2.437166e+00 165 160 152
4.114695e+00 2.364460e-01 4.252489e+00 151 142 135
8.039229e-01 4.416108e-01 2.147633e+00 180 179 174
-3.678222e+00 -2.167523e-01 2.216074e+00 173 167 160
1.996201e+00 5.232075e-01 2.440140e+00 135 128 118
2.393144e+00 5.308562e-01 2.614724e+00 89 82 63
9.642699e-01 4.659768e-01 2.204415e+00 114 110 101
-1.871922e+00 2.064142e-01 1.828732e+00 149 144 138
9.178738e-01 4.990319e-01 2.175946e+00 177 173 164
3.521076e+00 4.123847e-01 3.699747e+00 134 124 113
3.108613e-01 4.530528e-01 2.120078e+00 107 104 95
-5.842246e-02 4.382038e-01 1.993351e+00 137 136 131
-3.309523e+00 -5.327262e-02 2.133594e+00 101 85 71
5.005197e-01 4.852980e-01 2.122426e+00 181 180 175
7.404285e-01 5.285605e-01 2.135933e+00 68 65 60
3.604417e+00 4.378344e-01 3.780729e+00 163 156 139
1.340614e-01 4.676850e-01 2.050434e+00 161 154 137
-1.555835e-01 4.807895e-01 1.906730e+00 76 73 68
3.956110e+00 4.027736e-01 4.114975e+00 144 137 122
8.588076e-01 5.518877e-01 2.180356e+00 130 127 113
-5.117210e+00 -3.534644e-01 2.492026e+00 137 132 126
1.334730e+00 5.637511e-01 2.356764e+00 125 122 115
1.334730e+00 5.637511e-01 2.356764e+00 125 122 115
1.365901e+00 6.215376e-01 2.253664e+00 182 178 168
1.101936e+00 6.181117e-01 2.238328e+00 170 169 164
6.580852e-01 5.968106e-01 2.132594e+00 120 117 108
2.232285e+00 7.004656e-01 2.549510e+00 91 84 75
1.114753e+00 6.560691e-01 2.214002e+00 166 165 161
3.900162e+00 4.890875e-01 4.083319e+00 93 84 69
3.157617e+00 6.032504e-01 3.343376e+00 92 85 75
1.862570e+00 7.107873e-01 2.381602e+00 127 123 107
3.946995e+00 4.925384e-01 4.126571e+00 172 164 157
3.929769e+00 5.002338e-01 4.102602e+00 101 94 84
-2.226084e-02 5.785928e-01 2.007701e+00 106 105 102
2.268627e+00 7.503844e-01 2.572715e+00 149 140 131
3.967794e+00 5.327350e-01 4.153458e+00 161 153 140
1.404669e+00 7.452074e-01 2.248935e+00 175 171 161
-5.683234e-01 6.466538e-01 1.711199e+00 157 151 134
3.064501e+00 6.715675e-01 3.324552e+00 162 155 137
1.609685e+00 7.763407e-01 2.302188e+00 119 112 107
6.236218e-01 6.978778e-01 2.114708e+00 114 111 104
3.914618e+00 5.673578e-01 4.112539e+00 117 107 93
1.710713e+00 7.796853e-01 2.336317e+00 89 81 79
1.710713e+00 7.796853e-01 2.336317e+00 89 81 79
-1.079882e-01 6.603900e-01 1.936692e+00 118 109 102
-9.717393e-01 6.473731e-01 1.572330e+00 114 100 79
3.445009e+00 6.463540e-01 3.645118e+00 175 168 150
-1.060934e+00 6.313851e-01 1.599100e+00 127 118 110
2.100037e+00 7.986708e-01 2.489679e+00 122 114 103
2.003749e+00 7.986164e-01 2.453568e+00 172 164 153
6.217762e-01 7.126883e-01 2.120075e+00 181 178 169
1.537844e-01 6.906047e-01 1.991728e+00 128 123 117
8.614526e-01 7.267346e-01 2.208233e+00 150 146 134
2.202308e+00 8.159679e-01 2.531012e+00 119 113 100
9.853446e-01 7.378868e-01 2.255113e+00 136 132 120
1.363508e-01 6.965385e-01 2.013591e+00 169 165 156
-2.689196e+00 3.303816e-01 2.013885e+00 110 100 90
2.683898e+00 7.801769e-01 2.943786e+00 154 144 132
9.872837e-01 7.533604e-01 2.256076e+00 158 152 141
1.344676e+00 8.147403e-01 2.259165e+00 137 134 122
-6.388233e-01 7.119167e-01 1.694872e+00 105 94 82
-9.369915e-01 6.967751e-01 1.617329e+00 139 127 106
1.096694e+00 7.726994e-01 2.299226e+00 179 174 167
3.824966e-01 7.491401e-01 2.106103e+00 178 169 154
3.129228e-01 7.622629e-01 2.013556e+00 123 117 118
8.061483e-01 7.800671e-01 2.211374e+00 151 146 133
3.485999e+00 7.037857e-01 3.724866e+00 185 178 173
1.141050e+00 8.266753e-01 2.204148e+00 103 100 93
8.219989e-01 7.986417e-01 2.201331e+00 170 163 156
7.621716e-01 7.987648e-01 2.173487e+00 110 103 95
1.141230e+00 8.355015e-01 2.218517e+00 177 174 167
3.412002e-01 8.126972e-01 2.024577e+00 162 156 143
2.458986e+00 8.707913e-01 2.793199e+00 143 131 118
2.420174e+00 8.767316e-01 2.753023e+00 135 123 107
3.253437e-01 8.035158e-01 2.080067e+00 115 109 97
1.014777e+00 8.644546e-01 2.197030e+00 106 102 93
1.026356e+00 8.893979e-01 2.196521e+00 116 111 105
8.310418e-01 8.761973e-01 2.190999e+00 118 111 103
5.871474e-01 8.739296e-01 2.106802e+00 116 108 90
9.752823e-01 9.182235e-01 2.231452e+00 153 145 134
4.819099e-01 8.946822e-01 2.089681e+00 105 97 81
1.890750e+00 9.761190e-01 2.427545e+00 136 132 128
1.775314e-01 8.705995e-01 2.064291e+00 115 107 94
1.561443e-01 8.702561e-01 2.062631e+00 94 88 75
5.531718e-01 9.104116e-01 2.115027e+00 151 144 130
3.313461e+00 8.626141e-01 3.588654e+00 127 119 108
6.171371e-01 9.211101e-01 2.130856e+00 126 121 113
-1.291524e+00 8.102486e-01 1.630860e+00 134 123 106
-2.295022e-01 9.198730e-01 1.831219e+00 162 161 156
-3.200961e+00 4.682686e-01 2.125178e+00 164 155 138
2.770680e+00 9.640152e-01 3.067993e+00 96 85 75
1.896873e+00 1.030947e+00 2.424116e+00 183 177 172
2.412681e+00 1.001143e+00 2.812143e+00 108 99 90
3.286219e+00 9.204383e-01 3.577295e+00 142 138 129
-7.534325e-01 9.418186e-01 1.679472e+00 142 128 114
-8.518538e-01 9.335456e-01 1.668549e+00 97 92 86
5.950340e-01 1.008829e+00 2.133908e+00 145 141 131
5.950340e-01 1.008829e+00 2.133908e+00 145 141 131
3.009315e-01 9.886454e-01 2.070877e+00 187 183 174
-9.394887e-01 9.490330e-01 1.649972e+00 132 127 124
-2.451513e+00 7.046108e-01 1.977419e+00 157 148 133
2.945730e+00 1.039339e+00 3.277672e+00 110 101 88
2.940473e+00 1.050457e+00 3.298994e+00 160 154 134
2.263689e+00 1.167099e+00 2.668234e+00 131 125 107
-7.239813e-01 1.051974e+00 1.751970e+00 148 139 127
-9.883759e-02 1.118748e+00 1.839037e+00 182 169 153
-1.238908e-01 1.118350e+00 1.873219e+00 120 108 94
3.149273e-01 1.142846e+00 2.071896e+00 141 138 133
3.149273e-01 1.142846e+00 2.071896e+00 141 138 133
2.240112e+00 1.210424e+00 2.664756e+00 133 123 104
5.692524e-01 1.178526e+00 2.129528e+00 139 135 133
-2.065161e+00 9.198217e-01 1.915215e+00 122 116 104
-2.997536e+00 8.231563e-01 2.125630e+00 151 142 125
3.083713e+00 1.199940e+00 3.487073e+00 166 156 144
-2.378616e+00 9.506765e-01 1.987318e+00 85 71 59
-2.086716e+00 1.016891e+00 1.941791e+00 92 87 79
6.862352e-01 1.303050e+00 2.128250e+00 174 163 134
-3.102870e+00 8.535522e-01 2.143754e+00 79 69 68
3.200094e+00 1.229005e+00 3.596748e+00 117 105 92
8.389674e-01 1.330339e+00 2.134749e+00 143 128 118
6.961168e-01 1.316601e+00 2.143796e+00 164 149 119
-2.213773e+00 1.018451e+00 1.971957e+00 139 128 113
7.107275e-01 1.324688e+00 2.159457e+00 175 160 131
-2.381055e+00 9.958360e-01 2.005097e+00 144 134 112
2.877439e-01 1.319508e+00 2.013740e+00 146 137 123
3.170342e+00 1.264333e+00 3.588698e+00 182 174 162
2.155966e+00 1.366762e+00 2.665342e+00 133 121 111
2.744725e+00 1.314499e+00 3.188840e+00 109 102 96
