ply
format ascii 1.0
element face 0
property list uchar int vertex_indices
element vertex 942
property float x
property float y
property float z
property uchar diffuse_red
property uchar diffuse_green
property uchar diffuse_blue
end_header
1.115056e+00 3.083350e+00 2.703386e+00 184 171 148
3.637317e-01 3.124640e+00 2.423523e+00 169 166 158
-4.843647e+00 3.524166e+00 2.973512e+00 170 163 153
1.687409e+00 3.226948e+00 3.014087e+00 107 93 81
2.660629e-01 3.204089e+00 2.397257e+00 80 68 53
-1.588546e+00 3.360132e+00 2.394327e+00 59 50 35
2.930960e+00 3.326945e+00 3.723877e+00 156 151 138
-2.131055e+00 3.451999e+00 2.539344e+00 147 141 124
3.052497e+00 3.349766e+00 3.784250e+00 80 67 52
3.051186e+00 3.353699e+00 3.796757e+00 80 67 52
-5.143180e-01 3.397345e+00 2.434885e+00 51 43 30
-3.738037e+00 3.688398e+00 2.820222e+00 130 125 119
-3.219638e+00 3.670616e+00 2.757455e+00 149 140 125
1.588774e+00 3.415234e+00 3.017692e+00 194 189 186
-2.070392e+00 3.660798e+00 2.604433e+00 182 176 162
-3.355749e+00 3.788335e+00 2.794977e+00 173 165 163
-1.952603e+00 3.702243e+00 2.603020e+00 187 182 176
-1.952603e+00 3.702243e+00 2.603020e+00 187 182 176
-3.060156e+00 3.835195e+00 2.765910e+00 166 159 144
-3.060156e+00 3.835195e+00 2.765910e+00 166 159 144
3.343592e+00 3.597291e+00 3.923158e+00 182 175 159
3.343592e+00 3.597291e+00 3.923158e+00 182 175 159
-1.288789e+00 3.698328e+00 2.526101e+00 134 128 116
-3.024596e+00 3.896671e+00 2.758595e+00 103 96 87
-4.248919e+00 4.025774e+00 2.900276e+00 165 157 148
-9.646516e-01 3.705503e+00 2.518013e+00 140 127 110
3.350178e+00 3.674737e+00 3.939091e+00 113 95 75
4.133320e-02 3.640102e+00 2.503189e+00 57 44 36
-3.076499e+00 3.970291e+00 2.779209e+00 183 181 176
-9.396550e-01 3.795424e+00 2.540972e+00 178 173 167
-9.396550e-01 3.795424e+00 2.540972e+00 178 173 167
-4.111053e+00 4.202129e+00 2.898508e+00 162 154 148
-4.179386e+00 4.282334e+00 2.894114e+00 109 98 92
-2.209233e-01 3.904299e+00 2.590798e+00 146 129 112
3.300853e+00 3.941553e+00 3.941670e+00 119 110 100
2.977515e+00 3.932673e+00 3.769514e+00 78 72 67
-3.953461e+00 4.333981e+00 2.873885e+00 168 165 158
-1.969643e-01 3.973870e+00 2.587290e+00 76 66 54
-3.506085e+00 4.341579e+00 2.788422e+00 69 60 54
-3.415614e+00 4.339423e+00 2.788010e+00 176 161 141
5.507806e-02 4.048777e+00 2.646162e+00 175 172 167
-2.596322e+00 4.327513e+00 2.736312e+00 134 128 113
1.331919e+00 4.067792e+00 3.037333e+00 54 42 30
-1.042828e+00 4.188151e+00 2.642756e+00 78 66 49
-2.343979e+00 4.352802e+00 2.753656e+00 190 190 185
1.197035e-01 4.128802e+00 2.621942e+00 163 157 142
2.935434e+00 4.220999e+00 3.750205e+00 127 117 102
2.769751e+00 4.230980e+00 3.713861e+00 172 164 157
1.792112e+00 4.212582e+00 3.281606e+00 77 64 51
-2.157662e+00 4.441854e+00 2.732838e+00 196 198 197
-2.180715e+00 4.506229e+00 2.729237e+00 144 136 126
1.677629e+00 4.299341e+00 3.263687e+00 81 69 58
-5.232156e-01 4.373002e+00 2.658954e+00 180 175 162
2.374407e+00 4.371007e+00 3.518241e+00 88 78 70
3.465560e-01 4.406369e+00 2.812188e+00 127 123 111
-3.201751e+00 4.784964e+00 2.825370e+00 122 113 97
6.957925e-01 4.415914e+00 2.878742e+00 101 86 76
2.292398e+00 4.471707e+00 3.492812e+00 194 186 167
2.172829e+00 4.517132e+00 3.453574e+00 162 152 138
3.796966e-01 4.496037e+00 2.783522e+00 195 190 186
2.028955e-02 4.542120e+00 2.765131e+00 181 178 173
1.233227e+00 4.575903e+00 3.168377e+00 116 106 96
-1.273503e+00 4.814587e+00 2.761103e+00 72 65 47
1.881436e+00 4.660081e+00 3.354592e+00 157 150 135
8.958690e-01 4.685947e+00 3.044497e+00 60 47 38
1.818149e+00 4.688121e+00 3.322014e+00 83 78 72
3.471597e-01 4.811923e+00 2.876729e+00 71 57 44
-2.051756e+00 5.150914e+00 2.793423e+00 82 66 58
1.443087e+00 5.018085e+00 3.259534e+00 174 164 147
-1.219174e+00 5.314257e+00 2.833885e+00 115 99 83
-1.186174e+00 5.449140e+00 2.837471e+00 106 91 84
-6.495541e+00 -2.791599e+00 4.676266e+00 166 165 163
-2.908465e+00 -2.430873e+00 4.215680e+00 151 151 152
-5.912491e+00 -2.493068e+00 4.542815e+00 142 139 134
3.865651e+00 -1.883927e+00 5.188389e+00 111 110 108
-6.449309e+00 -2.466460e+00 4.520526e+00 149 154 157
-4.704478e-01 -1.678491e+00 3.000400e+00 35 30 24
1.440298e-01 -1.636983e+00 3.206596e+00 42 41 40
1.440298e-01 -1.636983e+00 3.206596e+00 42 41 40
1.828467e+00 -1.493776e+00 3.506616e+00 52 48 49
1.828467e+00 -1.493776e+00 3.506616e+00 52 48 49
-4.017138e+00 -1.888496e+00 3.713515e+00 147 146 144
-4.017138e+00 -1.888496e+00 3.713515e+00 147 146 144
8.331894e-01 -1.338688e+00 3.045957e+00 143 144 138
-1.013052e-01 -1.393487e+00 2.972133e+00 162 163 149
-8.122924e-01 -1.365882e+00 2.923357e+00 182 180 177
-5.673628e-01 -1.333706e+00 2.892023e+00 177 175 176
-1.259427e+00 -1.415085e+00 3.077336e+00 183 182 180
-5.003273e+00 -1.749978e+00 3.868827e+00 17 15 20
-5.468971e-02 -1.212285e+00 2.720828e+00 183 182 177
-1.886709e-01 -1.253828e+00 2.889691e+00 188 188 186
-6.206697e+00 -1.810395e+00 4.165407e+00 133 128 124
-4.831483e+00 -1.633925e+00 3.748617e+00 160 159 164
1.027278e+00 -1.049803e+00 3.016092e+00 110 109 105
-2.306956e+00 -1.439698e+00 3.778039e+00 48 43 38
-3.637703e+00 -1.464851e+00 3.727803e+00 133 128 109
4.274553e+00 -1.229860e+00 5.308266e+00 163 159 157
-6.887995e+00 -1.640867e+00 4.224405e+00 148 156 158
-4.093074e-01 -9.760954e-01 2.578089e+00 148 144 127
4.285194e+00 -1.119300e+00 5.274550e+00 166 165 163
4.101896e-01 -9.141989e-01 2.848470e+00 111 109 96
-1.203851e+00 -1.036063e+00 2.963671e+00 66 62 59
-2.913898e+00 -1.292709e+00 3.780599e+00 183 182 178
7.772693e-01 -8.994260e-01 3.038343e+00 84 81 72
-6.532673e-03 -8.897753e-01 2.878996e+00 116 113 106
4.320230e-01 -8.208721e-01 2.941761e+00 82 72 65
1.913762e+00 -7.774541e-01 3.241997e+00 172 171 167
5.837794e-01 -7.682226e-01 2.861301e+00 91 87 73
5.817231e-01 -7.693448e-01 2.865727e+00 91 87 73
-6.148198e+00 -1.244423e+00 3.978756e+00 159 158 153
1.474309e+00 -7.107890e-01 3.099063e+00 185 181 177
-4.014786e+00 -1.024899e+00 3.448734e+00 167 162 153
-7.050824e+00 -1.257929e+00 4.153108e+00 153 167 171
-7.287933e+00 -1.278068e+00 4.233598e+00 140 142 146
5.198378e-01 -6.560027e-01 2.865200e+00 109 103 92
5.066353e-02 -6.820479e-01 2.862914e+00 156 154 146
3.605180e+00 -7.452679e-01 4.513549e+00 177 172 161
-3.013841e+00 -8.896167e-01 3.289914e+00 166 159 149
-3.967126e+00 -9.360664e-01 3.397324e+00 174 168 153
-6.190728e+00 -1.045182e+00 3.894098e+00 173 173 171
-8.112310e-01 -6.958088e-01 2.987419e+00 173 172 168
-7.280247e+00 -1.148321e+00 4.213869e+00 150 150 141
-5.117152e+00 -9.383791e-01 3.610230e+00 107 98 88
-5.117152e+00 -9.383791e-01 3.610230e+00 107 98 88
-6.439571e+00 -1.034135e+00 3.950674e+00 181 182 187
4.030395e+00 -6.834613e-01 4.867832e+00 54 44 43
4.030395e+00 -6.834613e-01 4.867832e+00 54 44 43
8.270093e-01 -5.120254e-01 2.898521e+00 184 183 178
2.475465e-01 -5.096527e-01 2.725655e+00 189 189 189
-4.114183e+00 -7.597162e-01 3.325006e+00 150 154 158
2.110737e+00 -4.733792e-01 3.206126e+00 187 186 181
2.536828e+00 -4.652370e-01 3.564835e+00 48 44 44
2.536828e+00 -4.652370e-01 3.564835e+00 48 44 44
1.088113e+00 -4.304071e-01 2.820222e+00 192 193 188
1.175838e+00 -3.918411e-01 2.916094e+00 110 106 95
-6.339202e+00 -7.898921e-01 3.848096e+00 177 178 180
2.168601e+00 -3.790572e-01 3.194628e+00 176 174 162
-2.374491e+00 -5.598885e-01 3.037652e+00 163 165 164
1.516361e+00 -3.639589e-01 2.993387e+00 184 183 179
1.223260e+00 -3.550791e-01 2.951400e+00 176 173 164
4.351784e-01 -3.547065e-01 2.760425e+00 182 179 174
1.098635e-01 -2.818605e-01 2.785374e+00 195 195 193
-6.538596e+00 -5.858017e-01 3.859848e+00 129 125 122
2.895177e+00 -2.128195e-01 3.709390e+00 151 150 148
-5.719993e+00 -4.830951e-01 3.614603e+00 56 49 46
-6.988565e+00 -5.590269e-01 3.963616e+00 86 73 54
3.897265e+00 -2.314090e-01 4.630323e+00 179 174 165
-1.597311e+00 -9.219082e-02 2.085995e+00 167 159 142
1.923643e-01 -7.563267e-02 2.629535e+00 171 169 170
-3.987722e+00 -2.249347e-01 3.104860e+00 161 150 131
-3.987722e+00 -2.249347e-01 3.104860e+00 161 150 131
-3.215112e+00 -1.691547e-01 2.895091e+00 172 166 165
3.737114e-01 -2.882500e-02 2.652131e+00 45 40 35
2.089233e+00 1.133669e-02 3.029269e+00 171 164 150
6.435020e-01 6.663304e-02 2.717486e+00 182 181 177
2.839390e+00 1.105526e-01 3.603892e+00 180 170 146
-6.858250e+00 -1.153812e-01 3.804151e+00 36 31 36
-6.858250e+00 -1.153812e-01 3.804151e+00 36 31 36
4.373322e+00 5.498823e-02 4.940122e+00 180 179 176
1.976249e-01 1.720987e-01 2.606782e+00 180 177 171
-5.730032e+00 -1.452168e-02 3.546086e+00 59 50 40
4.230693e-01 2.257732e-01 2.653151e+00 176 175 172
-3.192667e+00 2.232597e-01 2.777039e+00 166 165 162
3.847708e+00 2.460952e-01 4.454109e+00 183 177 163
1.036587e+00 3.278269e-01 2.678392e+00 132 123 115
-1.766368e-01 3.554025e-01 2.426477e+00 180 175 167
7.089025e-01 3.761869e-01 2.637955e+00 182 177 171
-6.589746e+00 1.869777e-01 3.685352e+00 80 69 63
-2.189074e+00 3.566690e-01 2.427891e+00 174 168 159
-2.310059e+00 3.774997e-01 2.456902e+00 76 71 67
-4.676359e+00 2.993201e-01 3.118025e+00 63 57 48
-4.907904e+00 2.796969e-01 3.301332e+00 78 71 62
4.242327e+00 3.585935e-01 4.730159e+00 61 51 42
2.644164e+00 4.406274e-01 3.426162e+00 108 99 84
2.644164e+00 4.406274e-01 3.426162e+00 108 99 84
4.069411e+00 4.418123e-01 4.572404e+00 163 157 141
-4.510748e+00 4.023060e-01 3.198508e+00 180 171 150
7.919619e-01 5.392732e-01 2.579268e+00 164 160 158
1.422419e+00 5.642428e-01 2.654179e+00 172 168 156
-1.490699e+00 5.842213e-01 2.117050e+00 181 172 160
-6.391428e+00 4.535127e-01 3.596643e+00 157 155 148
4.398520e+00 5.452912e-01 4.823797e+00 50 46 41
4.206694e+00 5.587171e-01 4.706507e+00 184 179 175
4.206694e+00 5.587171e-01 4.706507e+00 184 179 175
-6.372797e+00 5.212985e-01 3.572626e+00 49 43 42
-6.372797e+00 5.212985e-01 3.572626e+00 49 43 42
-2.125351e+00 6.227829e-01 2.326472e+00 49 42 34
-4.800299e+00 5.393685e-01 3.237178e+00 131 113 101
-5.463687e+00 5.522049e-01 3.340580e+00 183 182 177
-5.463687e+00 5.522049e-01 3.340580e+00 183 182 177
2.055045e-01 6.620915e-01 2.414840e+00 170 166 157
2.179096e+00 6.473362e-01 3.058296e+00 167 158 142
-4.243830e+00 5.997520e-01 3.002662e+00 188 185 176
-1.541248e+00 6.874134e-01 2.046322e+00 116 108 95
2.827354e+00 6.847614e-01 3.463151e+00 189 185 175
-2.532405e+00 6.903695e-01 2.481183e+00 156 147 137
2.191490e+00 7.392332e-01 3.048768e+00 143 132 114
2.188316e+00 7.360010e-01 3.077765e+00 143 132 114
-2.580877e+00 7.486905e-01 2.476746e+00 65 57 47
3.081430e+00 7.601078e-01 3.726127e+00 176 169 151
-2.666746e+00 7.675520e-01 2.508067e+00 165 154 132
1.570550e-01 8.318814e-01 2.460799e+00 179 176 169
-6.718907e+00 7.524669e-01 3.614835e+00 113 106 100
-6.591081e+00 7.752874e-01 3.588036e+00 167 160 142
-4.170969e+00 8.061397e-01 2.983353e+00 177 174 169
-2.069669e+00 9.067225e-01 2.324468e+00 69 60 53
-5.044303e+00 9.211653e-01 3.200980e+00 168 165 156
-3.274072e+00 9.630268e-01 2.663879e+00 161 155 143
2.965319e+00 9.744354e-01 3.628154e+00 175 168 149
-2.004922e+00 1.052417e+00 2.258165e+00 58 49 42
2.941126e+00 1.055777e+00 3.595789e+00 71 61 51
2.889439e+00 1.072895e+00 3.559929e+00 176 169 153
2.889439e+00 1.072895e+00 3.559929e+00 176 169 153
-3.959259e+00 1.138920e+00 2.845259e+00 56 46 31
-3.962303e+00 1.143013e+00 2.848529e+00 56 46 31
-5.944523e+00 1.141680e+00 3.378767e+00 194 196 195
3.640615e+00 1.117192e+00 4.022046e+00 188 181 171
-3.010627e+00 1.177142e+00 2.545332e+00 187 182 178
1.977417e+00 1.156926e+00 2.879179e+00 176 167 149
-4.363355e+00 1.179648e+00 2.945440e+00 171 167 158
-5.976742e+00 1.219042e+00 3.387461e+00 125 121 109
-6.101903e+00 1.222321e+00 3.408220e+00 193 203 205
-6.101903e+00 1.222321e+00 3.408220e+00 193 203 205
1.800870e+00 1.205180e+00 2.711908e+00 151 142 129
1.953288e+00 1.208544e+00 2.855321e+00 87 70 63
-3.783534e+00 1.283093e+00 2.761027e+00 150 138 116
-4.684282e+00 1.341963e+00 3.034615e+00 53 39 25
3.220520e+00 1.348979e+00 3.769507e+00 169 163 155
1.687744e+00 1.361895e+00 2.644212e+00 159 146 120
-4.910188e+00 1.464821e+00 3.105666e+00 181 177 166
-6.177026e+00 1.508235e+00 3.385590e+00 118 113 109
3.318260e+00 1.410495e+00 3.893901e+00 190 185 180
-2.170623e+00 1.457945e+00 2.336423e+00 146 134 111
2.230514e+00 1.431836e+00 3.058852e+00 193 190 184
2.310448e+00 1.463588e+00 3.116461e+00 201 192 186
-2.945048e+00 1.540870e+00 2.567649e+00 178 169 160
3.705540e+00 1.496117e+00 4.176021e+00 185 178 166
-1.107612e+00 1.549728e+00 2.022344e+00 112 98 72
3.802733e+00 1.564555e+00 4.233979e+00 116 108 103
-1.256420e+00 1.613188e+00 2.073277e+00 158 150 128
3.203210e+00 1.593227e+00 3.737437e+00 201 201 201
2.850452e+00 1.613752e+00 3.463270e+00 182 176 161
1.754009e+00 1.639981e+00 2.751142e+00 50 41 34
1.573613e+00 1.636234e+00 2.612730e+00 54 48 36
-2.624033e+00 1.710976e+00 2.465070e+00 179 171 158
-5.493396e+00 1.785973e+00 3.204151e+00 168 169 164
4.308452e+00 1.653968e+00 4.626997e+00 91 81 79
-2.240170e+00 1.721734e+00 2.343538e+00 180 176 173
6.955696e-01 1.683869e+00 2.229784e+00 179 175 166
-6.735685e+00 1.914147e+00 3.434981e+00 59 51 52
3.145264e+00 1.732745e+00 3.702015e+00 62 51 45
-1.347598e+00 1.788507e+00 2.134404e+00 72 62 52
-1.085670e+00 1.800870e+00 2.105451e+00 158 146 128
-5.510556e+00 1.968227e+00 3.197258e+00 185 182 175
-5.510556e+00 1.968227e+00 3.197258e+00 185 182 175
-3.089140e+00 1.887148e+00 2.575853e+00 168 163 152
-2.648171e-01 1.835886e+00 2.028860e+00 173 160 137
1.888038e+00 1.842972e+00 2.882883e+00 71 61 46
1.428725e+00 1.844629e+00 2.587412e+00 168 155 143
1.204039e+00 1.861079e+00 2.393185e+00 92 80 71
-3.116614e-01 1.872533e+00 2.005681e+00 107 95 76
-1.134726e+00 1.925902e+00 2.141017e+00 163 156 148
2.362076e+00 1.901764e+00 3.179719e+00 183 176 161
1.419109e+00 1.892212e+00 2.552539e+00 73 56 49
-3.384892e+00 2.015188e+00 2.672604e+00 192 191 187
-5.197189e+00 2.091863e+00 3.122454e+00 55 45 46
-5.115174e+00 2.136760e+00 3.111725e+00 191 190 187
-4.147022e+00 2.101576e+00 2.870626e+00 56 48 36
2.917529e+00 1.971884e+00 3.580597e+00 86 75 66
2.917492e+00 1.971659e+00 3.580713e+00 86 75 66
1.179346e+00 1.982185e+00 2.426374e+00 91 75 61
-1.609809e+00 2.056601e+00 2.261845e+00 172 166 153
1.750810e+00 2.011520e+00 2.806412e+00 180 170 159
1.750810e+00 2.011520e+00 2.806412e+00 180 170 159
-1.888260e+00 2.074098e+00 2.286668e+00 170 164 150
4.021467e+00 2.068356e+00 4.388001e+00 191 190 185
-5.003806e+00 2.284313e+00 3.065628e+00 98 89 81
1.043722e+00 2.071031e+00 2.382046e+00 90 76 67
-1.802465e+00 2.143725e+00 2.268627e+00 169 162 143
-6.452433e+00 2.355472e+00 3.334751e+00 174 171 164
-6.452433e+00 2.355472e+00 3.334751e+00 174 171 164
1.648961e+00 2.103096e+00 2.749702e+00 182 182 178
1.645439e+00 2.105677e+00 2.766598e+00 182 182 178
2.256886e+00 2.126127e+00 3.156572e+00 72 60 44
2.255910e+00 2.127501e+00 3.163841e+00 72 60 44
-2.255230e+00 2.215353e+00 2.420825e+00 180 179 174
-3.825319e-01 2.142755e+00 2.050113e+00 94 78 61
-3.825319e-01 2.142755e+00 2.050113e+00 94 78 61
3.928201e+00 2.179841e+00 4.328834e+00 68 56 42
1.564316e+00 2.198095e+00 2.719410e+00 142 131 124
-1.160153e+00 2.237567e+00 2.177786e+00 181 172 157
4.184433e+00 2.244217e+00 4.449697e+00 191 186 180
-1.395527e+00 2.272164e+00 2.252615e+00 135 125 99
2.392541e+00 2.226351e+00 3.180392e+00 185 177 166
-3.181260e+00 2.395478e+00 2.621384e+00 126 123 116
-3.977569e+00 2.443956e+00 2.828887e+00 192 189 182
-2.830956e+00 2.448962e+00 2.558991e+00 59 49 39
-3.914529e+00 2.497853e+00 2.807820e+00 89 78 73
-3.914529e+00 2.497853e+00 2.807820e+00 89 78 73
-7.355425e-02 2.314864e+00 2.048234e+00 115 94 73
-1.900899e+00 2.426454e+00 2.385334e+00 170 166 157
2.528669e+00 2.357971e+00 3.363151e+00 169 162 152
-1.603887e-01 2.343316e+00 2.101387e+00 163 152 136
2.043101e+00 2.373982e+00 3.044350e+00 190 182 171
-3.487841e-01 2.392448e+00 2.144602e+00 161 145 123
5.582666e-01 2.373365e+00 2.208718e+00 151 135 119
-2.571515e+00 2.521067e+00 2.410512e+00 185 176 167
4.528225e+00 2.430678e+00 4.651985e+00 85 72 61
-1.133915e+00 2.460743e+00 2.237607e+00 164 158 136
-3.048634e-01 2.430872e+00 2.146942e+00 77 60 41
-3.048634e-01 2.430872e+00 2.146942e+00 77 60 41
2.128444e+00 2.434522e+00 3.057772e+00 93 86 67
2.592034e+00 2.471311e+00 3.415624e+00 180 175 168
-1.144103e+00 2.511188e+00 2.239447e+00 69 55 40
2.174076e+00 2.472225e+00 3.106997e+00 188 183 164
8.289214e-02 2.460930e+00 2.133617e+00 148 135 118
5.084394e-01 2.472014e+00 2.241192e+00 115 104 85
4.388772e-01 2.476995e+00 2.218247e+00 81 65 50
2.545761e+00 2.517499e+00 3.388402e+00 192 188 185
1.211427e+00 2.491905e+00 2.583637e+00 173 172 164
-1.762039e+00 2.592724e+00 2.371880e+00 62 48 38
-1.898096e+00 2.605893e+00 2.330345e+00 194 194 194
1.341767e+00 2.504678e+00 2.653139e+00 78 67 58
-3.572185e+00 2.757065e+00 2.740869e+00 55 48 41
-8.955314e-01 2.602508e+00 2.237843e+00 159 151 123
-5.100301e-02 2.558130e+00 2.171502e+00 162 149 121
-4.679287e+00 2.914524e+00 2.998710e+00 87 77 76
4.385652e+00 2.653125e+00 4.504995e+00 98 86 72
2.971521e+00 2.679769e+00 3.677969e+00 198 194 191
-1.646179e+00 2.759665e+00 2.389218e+00 57 51 45
-5.562032e+00 3.021053e+00 3.106339e+00 71 59 58
-5.562032e+00 3.021053e+00 3.106339e+00 71 59 58
-5.824535e+00 3.082560e+00 3.165993e+00 166 162 154
-5.824535e+00 3.082560e+00 3.165993e+00 166 162 154
1.924620e+00 2.699338e+00 2.968102e+00 181 175 163
-1.531953e+00 2.810703e+00 2.392767e+00 172 166 157
-3.100578e+00 2.916747e+00 2.645294e+00 67 53 40
-6.454513e-01 2.771704e+00 2.256845e+00 166 151 132
-1.364167e+00 2.832332e+00 2.355241e+00 82 69 58
1.544520e+00 2.753721e+00 2.827704e+00 47 37 28
7.475719e-01 2.748972e+00 2.429496e+00 178 169 152
3.507449e+00 2.814634e+00 4.042132e+00 75 61 38
2.794039e+00 2.789235e+00 3.558894e+00 74 59 45
7.388930e-01 2.818855e+00 2.414068e+00 76 67 59
4.223748e+00 2.917972e+00 4.458148e+00 187 180 174
4.142743e+00 2.944837e+00 4.396367e+00 84 72 56
2.718443e+00 2.911602e+00 3.519223e+00 73 57 44
3.438855e+00 2.963433e+00 4.013884e+00 184 177 167
4.118007e+00 2.996532e+00 4.387472e+00 181 168 159
3.192110e+00 2.960802e+00 3.807003e+00 73 61 49
-1.991369e+00 3.113542e+00 2.494641e+00 61 52 44
-5.279901e+00 3.379545e+00 3.053835e+00 182 175 169
3.975557e+00 3.032178e+00 4.280151e+00 67 55 43
-9.611173e-02 3.029412e+00 2.334656e+00 66 52 33
1.463509e+00 3.078224e+00 2.803123e+00 170 165 145
-1.245560e+00 3.193803e+00 2.363704e+00 170 162 147
2.598653e+00 3.165479e+00 3.510898e+00 211 207 204
2.596463e+00 3.169923e+00 3.526612e+00 211 207 204
2.477985e+00 3.162822e+00 3.417169e+00 117 111 98
4.135068e+00 3.231062e+00 4.390372e+00 213 215 219
-1.387264e+00 3.316438e+00 2.457821e+00 92 79 63
4.001710e+00 3.287086e+00 4.311334e+00 89 83 79
3.656389e+00 3.262457e+00 4.078195e+00 174 165 148
-3.855044e+00 3.547293e+00 2.846594e+00 63 55 53
3.000892e+00 3.290570e+00 3.742785e+00 68 54 41
1.942639e-01 3.245283e+00 2.377317e+00 113 97 74
-2.888802e+00 3.500388e+00 2.636277e+00 176 170 156
-4.643700e+00 3.660646e+00 2.942940e+00 180 177 168
3.077139e+00 3.307208e+00 3.797360e+00 198 195 186
8.144701e-01 3.263154e+00 2.609387e+00 52 41 31
2.711715e-01 3.255670e+00 2.384375e+00 161 148 134
2.473799e+00 3.344055e+00 3.417882e+00 129 123 107
2.473799e+00 3.344055e+00 3.417882e+00 129 123 107
6.972664e-01 3.323257e+00 2.598288e+00 153 146 128
5.546555e-01 3.331809e+00 2.546960e+00 161 151 134
-4.514938e+00 3.763156e+00 2.924295e+00 175 170 166
2.298427e+00 3.383567e+00 3.356504e+00 67 52 38
8.746487e-01 3.370372e+00 2.647869e+00 41 31 19
-3.470520e+00 3.727516e+00 2.813153e+00 197 195 181
8.701988e-01 3.430310e+00 2.652944e+00 165 154 131
3.650366e+00 3.516826e+00 4.111176e+00 92 79 62
-4.270881e+00 3.878663e+00 2.887938e+00 163 156 138
-4.291883e+00 3.881505e+00 2.892959e+00 163 156 138
3.395702e+00 3.568457e+00 3.953077e+00 79 74 63
2.113393e+00 3.552983e+00 3.320116e+00 196 192 191
-2.812193e-02 3.551970e+00 2.498815e+00 169 163 151
5.702568e-01 3.545098e+00 2.587492e+00 120 112 100
-1.101755e-01 3.607772e+00 2.506986e+00 180 175 170
9.443714e-01 3.583030e+00 2.748942e+00 156 150 134
-1.105449e+00 3.744045e+00 2.591349e+00 158 154 142
1.656781e+00 3.685579e+00 3.088083e+00 123 113 103
-4.443699e+00 4.134620e+00 2.924099e+00 115 109 111
3.420845e+00 3.734025e+00 3.981802e+00 90 76 65
1.769386e+00 3.710253e+00 3.175301e+00 87 77 56
3.254560e+00 3.746476e+00 3.911079e+00 93 75 61
3.256576e+00 3.741407e+00 3.892134e+00 93 75 61
-3.969875e+00 4.121173e+00 2.849579e+00 169 167 159
-3.971314e+00 4.123554e+00 2.847734e+00 169 167 159
-3.061858e+00 4.064379e+00 2.767793e+00 197 201 200
-4.027626e+00 4.206324e+00 2.890349e+00 99 86 74
3.009140e+00 3.854326e+00 3.759515e+00 196 188 184
2.382032e+00 3.861576e+00 3.501117e+00 92 83 76
5.010909e-01 3.864547e+00 2.696445e+00 181 176 162
3.495234e-01 3.857789e+00 2.611354e+00 73 61 45
3.495234e-01 3.857789e+00 2.611354e+00 73 61 45
7.425241e-01 3.902616e+00 2.786673e+00 156 149 139
2.451373e+00 3.954124e+00 3.517744e+00 139 130 121
-1.170683e+00 4.089832e+00 2.598789e+00 68 57 50
2.751407e+00 4.049367e+00 3.647672e+00 180 175 161
2.765950e+00 4.099900e+00 3.657360e+00 110 94 78
4.141232e-01 4.074796e+00 2.698057e+00 96 89 73
-2.433470e+00 4.376396e+00 2.742524e+00 188 188 186
-2.146771e+00 4.386619e+00 2.734816e+00 88 78 72
-3.439906e+00 4.567993e+00 2.837715e+00 81 64 52
-3.275628e+00 4.574641e+00 2.804350e+00 78 64 52
-9.607456e-01 4.346590e+00 2.673203e+00 161 157 154
1.794081e+00 4.281255e+00 3.302381e+00 204 203 197
-3.325726e+00 4.728643e+00 2.824081e+00 93 81 75
-1.743323e+00 4.564880e+00 2.744567e+00 111 94 81
-1.399314e+00 4.575268e+00 2.723843e+00 155 144 126
1.476945e+00 4.422361e+00 3.191968e+00 191 187 176
2.198315e+00 4.456530e+00 3.441053e+00 96 86 73
-4.413351e-01 4.518899e+00 2.708067e+00 118 110 99
-1.679882e+00 4.683131e+00 2.761060e+00 195 195 195
2.392617e+00 4.489510e+00 3.546046e+00 173 164 149
4.915227e-01 4.497116e+00 2.860799e+00 181 172 164
3.688814e-01 4.562553e+00 2.826583e+00 87 77 65
-1.625766e+00 4.767486e+00 2.767244e+00 199 200 191
-2.891543e+00 4.907433e+00 2.795964e+00 137 127 125
1.528052e+00 4.716720e+00 3.222677e+00 182 174 163
1.801337e+00 4.755284e+00 3.346519e+00 177 171 152
1.801513e+00 4.750570e+00 3.337672e+00 177 171 152
7.289195e-01 4.812731e+00 3.034590e+00 165 152 136
-9.210798e-02 4.862007e+00 2.838512e+00 162 158 146
3.956429e-01 4.848122e+00 2.922351e+00 171 164 152
-1.652730e+00 5.070417e+00 2.740864e+00 74 63 61
1.593401e+00 4.981177e+00 3.321206e+00 98 80 69
1.233681e+00 4.972761e+00 3.164111e+00 73 61 59
-3.940090e-01 5.050036e+00 2.833546e+00 155 150 144
1.642656e+00 5.001245e+00 3.339365e+00 201 196 189
-1.194803e+00 5.196475e+00 2.785009e+00 101 87 74
1.354608e+00 5.153580e+00 3.229500e+00 88 78 77
7.768122e-01 5.168044e+00 3.053878e+00 102 93 87
-2.113430e-01 5.375678e+00 2.865959e+00 94 78 61
4.433740e-01 -1.954824e+00 3.309158e+00 58 54 51
-5.637084e-01 -1.903079e+00 3.193046e+00 114 114 113
1.889519e+00 -1.751977e+00 3.666592e+00 145 144 140
1.889519e+00 -1.751977e+00 3.666592e+00 145 144 140
-2.716863e+00 -2.267335e+00 4.209190e+00 127 124 118
-3.121899e+00 -2.281442e+00 4.279859e+00 151 154 154
-7.453801e+00 -2.598454e+00 4.737398e+00 83 79 76
-3.069732e+00 -2.211652e+00 4.255344e+00 90 92 90
-6.003865e-01 -1.718559e+00 3.091732e+00 145 146 140
3.319413e-01 -1.656901e+00 3.231105e+00 43 42 39
3.319413e-01 -1.656901e+00 3.231105e+00 43 42 39
-5.931718e-02 -1.665182e+00 3.145803e+00 44 40 37
-3.257842e+00 -2.222692e+00 4.275824e+00 152 154 153
2.149706e+00 -1.634435e+00 3.739218e+00 95 93 94
-7.383850e+00 -2.505975e+00 4.684456e+00 135 136 131
1.872151e+00 -1.532417e+00 3.566251e+00 166 161 156
1.348266e+00 -1.368601e+00 3.299702e+00 176 176 174
1.127021e+00 -1.348672e+00 3.212574e+00 164 161 154
5.810682e-02 -1.247009e+00 2.767621e+00 186 185 181
3.379410e+00 -1.392887e+00 4.566239e+00 135 135 136
-1.605055e+00 -1.437724e+00 3.213197e+00 169 170 165
2.568731e+00 -1.116596e+00 3.814586e+00 175 173 161
1.892105e+00 -1.073478e+00 3.339405e+00 91 88 71
-2.667712e+00 -1.476482e+00 3.903052e+00 173 172 169
-2.667712e+00 -1.476482e+00 3.903052e+00 173 172 169
1.845978e+00 -1.041192e+00 3.295675e+00 92 85 75
-2.732132e+00 -1.457977e+00 3.901144e+00 77 72 69
-4.148451e+00 -1.440701e+00 3.690084e+00 29 25 26
2.457273e+00 -9.866468e-01 3.727961e+00 153 146 136
4.388315e+00 -1.114505e+00 5.327992e+00 168 167 163
3.457848e+00 -9.989371e-01 4.487426e+00 164 160 157
1.103659e+00 -8.859642e-01 3.023106e+00 178 177 173
2.764077e+00 -9.150587e-01 3.848864e+00 122 119 114
4.393426e-01 -8.549727e-01 2.825005e+00 184 180 175
6.637744e-01 -8.314241e-01 2.895465e+00 71 68 50
7.453339e-01 -8.262575e-01 2.939340e+00 106 99 91
5.627481e-01 -8.140387e-01 2.846776e+00 169 162 152
1.830429e+00 -8.093844e-01 3.213225e+00 171 172 169
-4.103021e+00 -1.161903e+00 3.527673e+00 159 155 143
3.801354e-01 -7.810707e-01 2.818628e+00 99 96 91
3.529325e+00 -8.887482e-01 4.499914e+00 42 37 40
3.529325e+00 -8.887482e-01 4.499914e+00 42 37 40
-2.628971e+00 -1.152206e+00 3.830593e+00 45 36 33
2.171329e+00 -7.667020e-01 3.343155e+00 79 71 56
2.171329e+00 -7.667020e-01 3.343155e+00 79 71 56
-4.386783e+00 -1.104896e+00 3.511775e+00 152 148 144
2.664011e-01 -7.556794e-01 2.789387e+00 107 98 80
-2.724534e+00 -1.109764e+00 3.794716e+00 101 102 97
5.996085e-01 -7.385142e-01 2.943124e+00 178 175 170
1.924251e-01 -7.474398e-01 2.891724e+00 170 168 154
-3.317081e-01 -7.441838e-01 2.787922e+00 127 120 110
-4.848825e-02 -7.564356e-01 2.948558e+00 175 174 169
3.668932e+00 -7.959286e-01 4.582975e+00 57 52 51
-2.673888e+00 -9.854697e-01 3.643484e+00 117 117 119
-3.877301e+00 -8.820087e-01 3.355311e+00 89 72 65
2.717547e+00 -6.054616e-01 3.700411e+00 102 99 90
2.722017e+00 -5.929440e-01 3.647413e+00 102 99 90
2.505758e+00 -5.904020e-01 3.578989e+00 176 173 166
-2.659886e+00 -8.355412e-01 3.439231e+00 161 159 148
-2.659886e+00 -8.355412e-01 3.439231e+00 161 159 148
-3.333970e+00 -7.503495e-01 3.148201e+00 63 56 46
-3.445717e+00 -7.433708e-01 3.144063e+00 150 150 148
3.616263e+00 -6.245474e-01 4.472242e+00 176 175 159
-2.930971e+00 -7.270800e-01 3.139144e+00 136 133 128
4.603439e+00 -6.800370e-01 5.349632e+00 111 106 102
4.603439e+00 -6.800370e-01 5.349632e+00 111 106 102
-3.530485e+00 -6.615183e-01 3.136882e+00 122 109 99
-7.345271e+00 -9.284138e-01 4.128412e+00 168 169 173
1.246891e+00 -4.303288e-01 2.968883e+00 101 96 88
4.010843e-01 -4.352953e-01 2.810045e+00 122 117 106
-6.891411e-01 -3.955916e-01 2.343758e+00 112 110 103
5.830070e-01 -4.082431e-01 2.789756e+00 124 118 108
-4.916637e-01 -4.066016e-01 2.725039e+00 100 89 77
3.510502e+00 -4.347727e-01 4.322843e+00 169 165 164
-6.408750e+00 -7.494306e-01 3.881302e+00 104 97 91
9.925138e-01 -3.349818e-01 2.788799e+00 185 186 180
3.443466e+00 -3.896429e-01 4.293140e+00 162 160 156
-3.931481e+00 -5.354705e-01 3.196960e+00 133 127 113
3.489199e+00 -3.843205e-01 4.296075e+00 49 45 44
3.489199e+00 -3.843205e-01 4.296075e+00 49 45 44
4.682474e+00 -4.521938e-01 5.333872e+00 130 122 111
4.558325e+00 -3.834410e-01 5.219629e+00 179 175 173
3.280497e+00 -2.747446e-01 4.075269e+00 53 47 32
2.449484e+00 -1.904200e-01 3.392121e+00 161 157 148
2.958953e+00 -1.849211e-01 3.750542e+00 73 69 60
7.321677e-01 -1.229712e-01 2.626482e+00 175 176 168
3.354637e+00 -1.602740e-01 4.121317e+00 55 54 51
1.678286e+00 -6.729151e-02 2.869456e+00 126 123 112
3.872558e+00 -1.557927e-01 4.558455e+00 99 91 80
-1.995339e+00 -1.496044e-01 2.580821e+00 165 161 153
3.473573e+00 -1.102971e-01 4.206784e+00 92 88 79
1.908483e+00 -3.173908e-02 3.003927e+00 189 179 170
-2.598553e+00 -1.275829e-01 2.738675e+00 148 141 133
-1.056642e+00 1.013683e-02 2.217657e+00 103 93 86
2.780291e+00 2.450366e-02 3.573005e+00 86 78 60
2.407757e-01 6.180529e-02 2.611388e+00 188 183 180
-6.922609e+00 -1.780241e-01 3.853538e+00 171 171 173
-5.590142e+00 -1.139075e-01 3.508024e+00 71 64 61
2.338043e+00 1.060347e-01 3.260747e+00 163 156 140
-6.738142e+00 -1.386689e-01 3.766127e+00 42 37 40
-3.480875e+00 1.556363e-02 2.911820e+00 172 166 154
-1.787129e-01 1.601224e-01 2.541638e+00 93 90 84
-6.733301e+00 -7.012587e-02 3.776998e+00 180 179 185
1.508274e+00 2.100692e-01 2.796930e+00 172 163 142
-6.876292e+00 -5.130668e-02 3.810408e+00 184 184 190
-7.039620e+00 -4.285747e-02 3.842728e+00 176 179 191
-4.235688e+00 7.913241e-02 3.092950e+00 115 112 104
-7.214177e+00 -4.663824e-02 3.894721e+00 179 183 186
-1.642726e+00 2.405785e-01 2.050606e+00 186 178 166
-6.010787e+00 2.495124e-02 3.600569e+00 98 85 71
-5.432836e+00 1.392574e-01 3.420610e+00 169 169 168
-6.768524e-01 3.665578e-01 2.250647e+00 190 186 184
-2.293806e+00 3.341991e-01 2.484619e+00 173 170 165
2.799730e-01 4.001087e-01 2.495709e+00 116 112 108
3.397968e-01 4.045096e-01 2.492852e+00 63 60 55
-7.084090e+00 2.261680e-01 3.829349e+00 86 73 67
2.893282e-01 4.464590e-01 2.536334e+00 173 169 160
1.570559e+00 4.816261e-01 2.721614e+00 179 172 163
1.563231e+00 4.776367e-01 2.749495e+00 179 172 163
-3.212289e+00 4.379831e-01 2.718564e+00 179 175 163
-1.395498e+00 5.225253e-01 2.075035e+00 116 100 82
-1.740261e+00 5.197716e-01 2.187121e+00 64 49 43
3.545119e+00 5.010800e-01 4.032722e+00 73 61 52
2.711117e+00 5.294761e-01 3.463235e+00 92 84 68
1.722825e+00 5.546345e-01 2.787137e+00 182 176 161
-5.708189e-01 5.689076e-01 2.259765e+00 149 145 133
1.844860e+00 5.715784e-01 2.779188e+00 171 165 153
1.627922e+00 5.744256e-01 2.757424e+00 191 183 169
3.138382e+00 5.802813e-01 3.787357e+00 161 154 136
-2.074870e+00 5.981468e-01 2.335727e+00 170 163 153
-2.021646e+00 6.335810e-01 2.319266e+00 95 91 81
-2.021646e+00 6.335810e-01 2.319266e+00 95 91 81
-2.380525e+00 6.321291e-01 2.415848e+00 184 178 164
-5.166705e+00 5.844469e-01 3.261751e+00 101 91 78
-3.587359e-01 6.824639e-01 2.363679e+00 119 116 110
2.223895e+00 6.771200e-01 3.040672e+00 51 41 32
3.096427e+00 6.666118e-01 3.715231e+00 94 86 73
2.502085e+00 6.976823e-01 3.230087e+00 160 148 133
7.391015e-01 7.347991e-01 2.534651e+00 172 168 162
-2.115418e+00 7.299429e-01 2.317963e+00 59 45 33
-2.273056e+00 7.231225e-01 2.400982e+00 69 60 53
-2.305269e+00 7.400902e-01 2.375310e+00 190 184 169
-4.489564e+00 7.411292e-01 3.118623e+00 89 73 59
-4.489564e+00 7.411292e-01 3.118623e+00 89 73 59
-3.213226e+00 7.820531e-01 2.675822e+00 178 172 157
-3.436436e+00 7.818431e-01 2.743710e+00 175 169 158
-5.047716e+00 8.273206e-01 3.186195e+00 190 188 184
2.553665e+00 8.670753e-01 3.284748e+00 109 98 95
-3.137131e+00 8.679395e-01 2.650859e+00 160 155 134
-5.954437e+00 9.141620e-01 3.408643e+00 96 88 86
4.076934e+00 9.301409e-01 4.552572e+00 189 186 181
-3.330903e+00 9.855976e-01 2.641661e+00 63 45 30
3.106403e+00 9.985326e-01 3.704753e+00 73 63 59
-5.069319e+00 1.032334e+00 3.163715e+00 179 177 177
-1.621341e+00 1.055749e+00 2.152922e+00 166 159 149
-3.908111e+00 1.092283e+00 2.835964e+00 55 42 30
-3.908111e+00 1.092283e+00 2.835964e+00 55 42 30
1.887453e+00 1.095721e+00 2.795884e+00 150 141 126
2.092023e+00 1.132657e+00 2.938570e+00 109 92 78
1.854891e+00 1.169209e+00 2.734761e+00 50 39 35
-3.985699e+00 1.195653e+00 2.855498e+00 179 172 154
4.826743e-01 1.200329e+00 2.384350e+00 169 155 137
-4.123215e+00 1.229179e+00 2.890717e+00 172 166 153
-2.961198e+00 1.242825e+00 2.591819e+00 172 167 161
2.837585e+00 1.231498e+00 3.529217e+00 184 179 175
1.824089e+00 1.252585e+00 2.742425e+00 78 71 63
-3.595944e+00 1.291120e+00 2.727084e+00 167 163 150
3.924124e+00 1.282534e+00 4.343562e+00 69 60 44
1.732818e+00 1.300462e+00 2.659596e+00 177 164 147
4.527001e+00 1.302746e+00 4.834955e+00 90 79 71
2.307025e+00 1.326171e+00 3.088117e+00 171 163 143
-2.132781e+00 1.362151e+00 2.309706e+00 135 127 110
-2.132781e+00 1.362151e+00 2.309706e+00 135 127 110
-1.548909e+00 1.366395e+00 2.136263e+00 142 134 115
2.200738e-01 1.381241e+00 2.293894e+00 187 180 172
-3.594364e+00 1.441228e+00 2.682500e+00 177 176 171
-6.989151e+00 1.481620e+00 3.538088e+00 113 105 99
-6.989151e+00 1.481620e+00 3.538088e+00 113 105 99
-7.366741e-01 1.423586e+00 2.072948e+00 180 172 158
-7.366741e-01 1.423586e+00 2.072948e+00 180 172 158
3.252936e+00 1.408829e+00 3.827174e+00 91 80 73
1.089248e+00 1.427154e+00 2.351875e+00 180 176 173
-4.745629e+00 1.521465e+00 3.035235e+00 167 165 158
-1.486592e+00 1.520387e+00 2.137555e+00 51 36 30
-3.614998e+00 1.577925e+00 2.738268e+00 168 161 154
-3.614998e+00 1.577925e+00 2.738268e+00 168 161 154
2.649116e+00 1.508259e+00 3.392385e+00 192 188 181
-6.999447e+00 1.659908e+00 3.512665e+00 178 177 172
-1.202987e+00 1.555485e+00 2.088361e+00 166 161 133
4.374808e+00 1.524022e+00 4.698854e+00 171 162 148
4.374808e+00 1.524022e+00 4.698854e+00 171 162 148
-1.534374e+00 1.570885e+00 2.164820e+00 62 49 33
2.155736e+00 1.556732e+00 3.001942e+00 161 150 128
4.456771e+00 1.564154e+00 4.751173e+00 184 176 173
1.084379e+00 1.596708e+00 2.350384e+00 101 98 93
3.776857e+00 1.604539e+00 4.241312e+00 203 203 200
2.092108e+00 1.606317e+00 2.984770e+00 164 160 156
4.405598e+00 1.623822e+00 4.709409e+00 193 190 181
-1.049413e+00 1.680357e+00 2.041600e+00 166 152 128
-6.782586e+00 1.850405e+00 3.454205e+00 176 173 157
2.161708e+00 1.690536e+00 3.021710e+00 203 196 188
-1.221842e+00 1.716536e+00 2.061712e+00 139 132 104
-6.629111e+00 1.918493e+00 3.415545e+00 183 187 190
3.095250e+00 1.740018e+00 3.670886e+00 67 57 50
-5.448044e+00 1.921651e+00 3.183638e+00 127 124 119
-5.448044e+00 1.921651e+00 3.183638e+00 127 124 119
3.054511e+00 1.768780e+00 3.653008e+00 165 159 145
-4.260622e+00 1.893706e+00 2.887344e+00 83 68 49
-6.750180e+00 1.976600e+00 3.430995e+00 170 171 172
3.137609e+00 1.778718e+00 3.705583e+00 188 182 170
2.395039e+00 1.785835e+00 3.216553e+00 53 43 41
2.993637e+00 1.813262e+00 3.617058e+00 167 160 140
1.994858e+00 1.815445e+00 2.917113e+00 147 133 107
-1.016233e+00 1.853581e+00 2.089506e+00 101 89 73
-1.973408e-01 1.840959e+00 2.016074e+00 101 86 71
2.176337e+00 1.836641e+00 2.993951e+00 180 173 163
-2.304297e+00 1.923683e+00 2.386908e+00 85 76 67
3.572410e+00 1.857311e+00 3.989145e+00 202 195 187
1.284731e+00 1.863295e+00 2.504989e+00 97 85 74
1.284731e+00 1.863295e+00 2.504989e+00 97 85 74
-8.217271e-01 1.884358e+00 2.042491e+00 165 154 123
-1.906006e+00 1.934500e+00 2.312599e+00 194 189 183
-1.906006e+00 1.934500e+00 2.312599e+00 194 189 183
3.534959e+00 1.887244e+00 3.967769e+00 61 48 40
-2.351587e+00 1.957104e+00 2.411234e+00 159 157 158
2.139061e+00 1.881792e+00 3.004056e+00 173 164 149
1.417244e+00 1.891992e+00 2.557150e+00 77 60 52
-5.009209e+00 2.097863e+00 3.065103e+00 135 130 126
1.164266e+00 1.930966e+00 2.423044e+00 149 135 109
-4.157030e+00 2.154680e+00 2.861973e+00 154 154 146
4.034666e+00 2.008697e+00 4.382422e+00 84 73 68
2.289095e+00 2.003026e+00 3.129373e+00 53 42 28
-3.130953e+00 2.124457e+00 2.604559e+00 80 68 59
-1.361815e+00 2.060861e+00 2.174590e+00 166 154 130
-1.038119e+00 2.085477e+00 2.128561e+00 95 79 65
1.167155e+00 2.073838e+00 2.492430e+00 149 136 120
1.177221e+00 2.070091e+00 2.460502e+00 149 136 120
-3.040918e+00 2.204661e+00 2.504202e+00 73 61 62
-3.149141e+00 2.219746e+00 2.527017e+00 113 101 94
-3.149141e+00 2.219746e+00 2.527017e+00 113 101 94
-4.734954e+00 2.290729e+00 2.986741e+00 181 180 174
-1.027843e+00 2.131126e+00 2.120786e+00 167 150 119
-1.777155e+00 2.183513e+00 2.288750e+00 168 163 160
-6.388640e+00 2.404487e+00 3.310865e+00 53 45 48
-6.388640e+00 2.404487e+00 3.310865e+00 53 45 48
2.217216e+00 2.156060e+00 3.145254e+00 171 169 164
8.770197e-01 2.157912e+00 2.351975e+00 151 136 112
-4.291090e-01 2.185167e+00 2.090473e+00 168 156 134
-4.291090e-01 2.185167e+00 2.090473e+00 168 156 134
4.683165e+00 2.207139e+00 4.789249e+00 190 179 164
-3.031030e+00 2.349456e+00 2.584701e+00 181 178 174
-6.423226e+00 2.539611e+00 3.313925e+00 201 206 206
4.683058e+00 2.256064e+00 4.785168e+00 88 74 62
4.683058e+00 2.256064e+00 4.785168e+00 88 74 62
1.382492e+00 2.263063e+00 2.583938e+00 163 152 133
-1.891699e+00 2.357721e+00 2.354833e+00 81 70 64
-3.839745e+00 2.468722e+00 2.793100e+00 163 157 143
-3.839745e+00 2.468722e+00 2.793100e+00 163 157 143
3.249208e+00 2.306004e+00 3.773390e+00 93 78 69
2.692669e+00 2.313581e+00 3.460496e+00 154 148 136
-3.746333e+00 2.486226e+00 2.743334e+00 72 62 61
-4.019930e-01 2.338045e+00 2.167827e+00 185 173 157
2.026265e+00 2.323168e+00 3.036030e+00 68 58 57
2.028736e+00 2.318660e+00 3.010178e+00 68 58 57
2.086363e+00 2.335282e+00 3.099392e+00 125 111 102
-3.762976e+00 2.532898e+00 2.784989e+00 198 197 193
-4.708001e+00 2.604674e+00 3.017020e+00 143 140 131
-1.376268e+00 2.423845e+00 2.288038e+00 184 183 171
-1.182147e-01 2.358396e+00 2.098007e+00 162 147 120
2.653910e+00 2.390216e+00 3.450482e+00 189 182 176
3.169032e+00 2.394052e+00 3.741242e+00 176 172 163
-5.854884e+00 2.712148e+00 3.178578e+00 78 69 68
-6.032397e+00 2.757065e+00 3.218623e+00 156 153 132
2.227206e+00 2.416377e+00 3.105240e+00 192 185 173
-8.461849e-02 2.477165e+00 2.148285e+00 152 138 111
1.176296e+00 2.467663e+00 2.518868e+00 65 58 44
3.902018e-01 2.462258e+00 2.184530e+00 121 109 81
4.572268e+00 2.528492e+00 4.685724e+00 155 146 137
2.436073e+00 2.495781e+00 3.307044e+00 159 152 134
-8.273310e-01 2.562176e+00 2.219588e+00 100 85 65
-7.163277e-01 2.559951e+00 2.153706e+00 86 70 47
-5.966219e+00 2.899791e+00 3.201316e+00 83 69 55
-6.658049e-01 2.567295e+00 2.183330e+00 183 174 158
1.805374e+00 2.563264e+00 2.923289e+00 69 51 40
1.805374e+00 2.563264e+00 2.923289e+00 69 51 40
-9.960777e-02 2.568623e+00 2.172489e+00 79 60 29
3.664297e-01 2.564351e+00 2.215950e+00 31 22 16
-1.541543e+00 2.701515e+00 2.314175e+00 54 42 32
4.468698e+00 2.678142e+00 4.560437e+00 164 155 145
3.068333e+00 2.664882e+00 3.719851e+00 114 106 97
5.430633e-01 2.630747e+00 2.322651e+00 57 42 37
-5.485831e+00 3.006537e+00 3.101185e+00 175 171 162
4.313724e+00 2.707756e+00 4.511026e+00 75 62 54
-3.837418e-01 2.671589e+00 2.181742e+00 96 80 54
1.040439e+00 2.662659e+00 2.527093e+00 170 160 150
2.929346e+00 2.696607e+00 3.622555e+00 70 60 51
2.929311e+00 2.699549e+00 3.640825e+00 70 60 51
-4.146148e-01 2.707875e+00 2.201867e+00 161 149 129
2.976736e+00 2.732061e+00 3.678952e+00 56 50 54
2.976527e+00 2.728017e+00 3.651804e+00 56 50 54
2.907087e+00 2.729516e+00 3.625722e+00 192 185 180
-4.273143e+00 3.011912e+00 2.892813e+00 76 66 57
-1.753724e+00 2.843910e+00 2.363386e+00 185 181 165
1.502816e+00 2.756817e+00 2.775172e+00 148 136 115
-2.145894e+00 2.912790e+00 2.492060e+00 132 124 105
4.207310e+00 2.827921e+00 4.407695e+00 74 63 49
4.098321e+00 2.851425e+00 4.334040e+00 86 69 59
3.699699e+00 2.859192e+00 4.122279e+00 186 178 168
2.786791e+00 2.846740e+00 3.579324e+00 184 176 163
6.090966e-01 2.811193e+00 2.402284e+00 160 146 113
-5.280021e+00 3.204466e+00 3.053254e+00 78 63 64
1.656829e+00 2.840829e+00 2.863978e+00 92 80 59
1.450380e+00 2.856715e+00 2.776316e+00 86 73 57
1.310646e+00 2.858341e+00 2.679875e+00 57 42 34
-3.366407e+00 3.123093e+00 2.712962e+00 130 129 128
-1.355115e+00 2.990506e+00 2.396630e+00 188 188 182
-1.938385e+00 3.053205e+00 2.484148e+00 67 55 41
2.326844e+00 2.926911e+00 3.246739e+00 179 173 159
-1.212983e+00 3.008190e+00 2.367617e+00 174 174 171
-1.212983e+00 3.008190e+00 2.367617e+00 174 174 171
3.418190e+00 2.980358e+00 3.996234e+00 186 178 167
-5.059507e+00 3.314695e+00 3.002952e+00 194 201 191
-2.058717e+00 3.099709e+00 2.394298e+00 192 189 182
1.322675e+00 2.981511e+00 2.769301e+00 65 47 30
1.322675e+00 2.981511e+00 2.769301e+00 65 47 30
-3.986715e+00 3.297673e+00 2.863258e+00 72 62 54
1.240539e+00 2.997296e+00 2.732900e+00 168 160 137
-1.087676e+00 3.090441e+00 2.393545e+00 59 51 40
-1.059476e+00 3.087934e+00 2.351023e+00 59 51 40
-4.017325e+00 3.364872e+00 2.872240e+00 172 165 144
-5.086735e+00 3.453864e+00 3.015471e+00 168 157 135
-4.855627e+00 3.446731e+00 2.977343e+00 141 131 120
2.462130e+00 3.087666e+00 3.392267e+00 60 50 48
-8.038312e-01 3.145289e+00 2.396098e+00 164 155 140
2.094316e+00 3.085581e+00 3.157029e+00 135 127 119
1.263181e+00 3.079376e+00 2.755924e+00 139 127 108
-4.997884e+00 3.490231e+00 3.012425e+00 169 163 151
-5.125055e+00 3.510560e+00 3.024820e+00 60 48 41
2.782032e+00 3.116683e+00 3.554618e+00 196 186 176
1.341584e+00 3.121350e+00 2.777938e+00 137 132 112
-5.147546e+00 3.562302e+00 3.051810e+00 167 163 154
-4.914630e+00 3.578436e+00 2.994928e+00 163 155 142
-1.553179e+00 3.311262e+00 2.386976e+00 64 57 46
2.553451e+00 3.239420e+00 3.496627e+00 196 193 186
3.953037e+00 3.337171e+00 4.282026e+00 190 186 182
-3.538826e+00 3.587068e+00 2.788847e+00 76 64 58
-3.608021e+00 3.607805e+00 2.816314e+00 187 185 182
2.252217e+00 3.316728e+00 3.325118e+00 71 62 53
-2.357643e+00 3.547258e+00 2.618552e+00 178 179 168
-2.160980e+00 3.540999e+00 2.583282e+00 131 120 96
-4.756446e+00 3.795511e+00 2.990053e+00 178 178 167
3.604931e+00 3.419967e+00 4.075950e+00 187 181 169
-1.426464e+00 3.503941e+00 2.511057e+00 154 148 134
-4.934135e+00 3.827616e+00 2.999133e+00 127 116 119
8.228697e-01 3.385892e+00 2.660124e+00 191 183 165
-5.138986e-01 3.449422e+00 2.418671e+00 169 165 156
2.167627e+00 3.429487e+00 3.323930e+00 74 64 55
3.606176e+00 3.467871e+00 4.067601e+00 96 81 70
2.768263e+00 3.462480e+00 3.640874e+00 194 191 179
-3.593808e+00 3.762500e+00 2.809894e+00 164 160 149
-4.306360e+00 3.821721e+00 2.886601e+00 91 77 74
5.582339e-01 3.424421e+00 2.588889e+00 184 176 165
-1.225439e+00 3.558226e+00 2.483834e+00 161 155 143
-3.203836e+00 3.760673e+00 2.778676e+00 75 61 52
3.445199e+00 3.497050e+00 3.974337e+00 110 103 96
2.746772e+00 3.490351e+00 3.612044e+00 52 43 38
3.510442e+00 3.506128e+00 4.019552e+00 193 186 179
7.470947e-01 3.465693e+00 2.625340e+00 121 113 94
-1.357382e-01 3.510559e+00 2.463541e+00 164 148 133
7.812203e-01 3.481852e+00 2.630660e+00 166 158 135
-1.194439e+00 3.632308e+00 2.501746e+00 191 188 183
2.038025e+00 3.549953e+00 3.274155e+00 212 209 200
1.881041e-02 3.544921e+00 2.489479e+00 160 152 132
3.583350e+00 3.610477e+00 4.079384e+00 109 97 88
-7.455156e-01 3.626421e+00 2.474221e+00 78 66 48
-2.482894e-01 3.598335e+00 2.470912e+00 109 100 83
3.657547e+00 3.644057e+00 4.152248e+00 136 128 128
1.188126e-01 3.583877e+00 2.462340e+00 52 44 32
1.167440e-01 3.580684e+00 2.457133e+00 52 44 32
-2.712517e+00 3.837734e+00 2.675595e+00 185 177 172
2.797810e+00 3.630897e+00 3.692982e+00 88 82 78
-4.134595e+00 3.989029e+00 2.865983e+00 90 80 78
-1.629986e+00 3.742535e+00 2.534929e+00 150 137 121
3.463902e+00 3.663029e+00 4.028923e+00 61 48 40
1.405720e+00 3.612995e+00 2.918819e+00 170 162 153
2.603626e+00 3.691557e+00 3.582876e+00 188 183 174
3.295050e+00 3.719383e+00 3.936004e+00 196 190 176
-3.990573e+00 4.081040e+00 2.865039e+00 95 78 69
-4.245300e+00 4.107968e+00 2.893793e+00 51 41 42
-7.830523e-01 3.773576e+00 2.532915e+00 104 97 82
-7.830523e-01 3.773576e+00 2.532915e+00 104 97 82
-1.835919e+00 3.877088e+00 2.604546e+00 185 178 169
1.815753e+00 3.728282e+00 3.177268e+00 77 61 49
1.815753e+00 3.728282e+00 3.177268e+00 77 61 49
2.383783e+00 3.773915e+00 3.497391e+00 178 174 165
-9.494919e-01 3.842386e+00 2.533279e+00 129 121 104
-4.200034e+00 4.199142e+00 2.906966e+00 94 75 65
-1.490357e+00 3.954934e+00 2.605751e+00 176 165 145
-1.491925e+00 3.956548e+00 2.613756e+00 176 165 145
-4.876857e-01 3.893547e+00 2.563345e+00 182 173 163
2.635568e+00 3.864090e+00 3.587722e+00 183 175 159
1.416248e+00 3.846686e+00 3.016553e+00 178 171 155
1.022236e+00 3.831907e+00 2.823983e+00 169 161 148
1.022236e+00 3.831907e+00 2.823983e+00 169 161 148
9.697560e-01 3.862415e+00 2.810565e+00 166 159 149
-4.678682e-01 3.930426e+00 2.577395e+00 52 38 34
3.124766e+00 3.936412e+00 3.851361e+00 185 181 170
-4.793330e-01 3.978849e+00 2.580504e+00 205 207 201
-3.835653e+00 4.339361e+00 2.877001e+00 195 195 187
-3.829678e+00 4.336211e+00 2.861561e+00 195 195 187
-1.530491e+00 4.103956e+00 2.644304e+00 184 184 178
-1.445779e+00 4.101305e+00 2.639022e+00 100 92 80
-3.682125e+00 4.361498e+00 2.842081e+00 188 185 179
-1.226539e+00 4.141213e+00 2.619390e+00 206 204 198
-1.150218e+00 4.148437e+00 2.638280e+00 193 186 174
1.241966e+00 4.036720e+00 2.993740e+00 161 155 140
2.847835e+00 4.066063e+00 3.691985e+00 91 81 73
2.846842e+00 4.066740e+00 3.705972e+00 91 81 73
1.283066e+00 4.063883e+00 3.039118e+00 173 165 155
2.840683e+00 4.113876e+00 3.700228e+00 172 159 141
-2.234116e+00 4.363206e+00 2.745909e+00 164 159 152
-3.300720e+00 4.470363e+00 2.792552e+00 80 65 58
-3.300720e+00 4.470363e+00 2.792552e+00 80 65 58
2.694896e+00 4.135265e+00 3.638195e+00 169 158 138
2.694896e+00 4.135265e+00 3.638195e+00 169 158 138
-2.030194e+00 4.351782e+00 2.708669e+00 69 53 46
1.888182e-01 4.142155e+00 2.672144e+00 158 149 134
-3.246133e+00 4.617185e+00 2.816479e+00 182 179 168
-7.922557e-01 4.351241e+00 2.686605e+00 189 182 174
1.731834e+00 4.285955e+00 3.283468e+00 90 80 71
-8.615091e-01 4.382277e+00 2.691107e+00 201 198 190
-8.822133e-01 4.421618e+00 2.684560e+00 83 75 73
-2.948154e+00 4.655139e+00 2.772311e+00 73 64 62
-2.788926e+00 4.632372e+00 2.760469e+00 109 104 98
-2.792796e+00 4.633291e+00 2.762362e+00 109 104 98
-3.085479e+00 4.763487e+00 2.808487e+00 95 76 61
8.645648e-01 4.390822e+00 2.924384e+00 164 157 147
-2.748691e+00 4.730202e+00 2.772811e+00 74 56 53
-2.748691e+00 4.730202e+00 2.772811e+00 74 56 53
-1.979327e+00 4.686641e+00 2.743133e+00 152 148 137
-2.977142e+00 4.821789e+00 2.810036e+00 102 87 85
1.415109e+00 4.483548e+00 3.179036e+00 192 186 174
5.864959e-01 4.477870e+00 2.863689e+00 92 83 67
-1.504817e+00 4.692859e+00 2.774844e+00 182 178 166
2.226541e+00 4.514533e+00 3.466832e+00 101 89 77
1.393300e+00 4.571060e+00 3.190498e+00 202 193 185
-2.674508e+00 4.906404e+00 2.796823e+00 74 61 52
-9.692084e-01 4.767886e+00 2.782406e+00 102 88 69
-2.357297e+00 4.963864e+00 2.772635e+00 62 53 46
-2.357297e+00 4.963864e+00 2.772635e+00 62 53 46
-2.510732e+00 5.006125e+00 2.797539e+00 100 82 69
-2.507836e+00 5.001917e+00 2.795577e+00 100 82 69
-1.963839e+00 5.003015e+00 2.759687e+00 112 95 78
-7.560981e-01 4.938213e+00 2.811330e+00 202 202 190
1.845378e+00 4.829455e+00 3.375804e+00 148 137 120
-2.011178e+00 5.074178e+00 2.774538e+00 72 59 49
4.001844e-01 4.895048e+00 2.932198e+00 95 78 61
4.001844e-01 4.895048e+00 2.932198e+00 95 78 61
1.457105e+00 4.918901e+00 3.243600e+00 171 162 150
4.050636e-01 4.976468e+00 2.952784e+00 176 168 157
4.050636e-01 4.976468e+00 2.952784e+00 176 168 157
-2.049509e+00 5.228745e+00 2.802972e+00 120 110 100
1.534449e+00 4.971797e+00 3.278147e+00 105 91 65
-1.209356e+00 5.148246e+00 2.784266e+00 179 164 146
-1.488463e+00 5.208022e+00 2.798575e+00 80 66 64
1.108692e+00 5.019596e+00 3.100968e+00 79 61 48
-1.373146e+00 5.231105e+00 2.772884e+00 161 153 139
9.691503e-01 5.088453e+00 3.098090e+00 176 162 142
2.185046e-01 5.146074e+00 2.916467e+00 192 185 175
-1.247294e+00 5.324129e+00 2.816488e+00 105 86 71
1.110559e+00 5.170781e+00 3.171143e+00 161 150 128
4.890510e-02 5.208965e+00 2.897541e+00 126 111 105
-9.885176e-01 5.324939e+00 2.821536e+00 178 167 148
1.250606e+00 5.214526e+00 3.221807e+00 127 116 112
-1.107176e+00 5.426208e+00 2.845399e+00 85 67 49
-8.870881e-01 5.412044e+00 2.845509e+00 179 171 144
-8.875816e-01 5.411844e+00 2.842410e+00 179 171 144
-3.408421e-01 5.353485e+00 2.852794e+00 86 69 51
2.070138e+00 -1.943937e+00 3.866524e+00 52 42 47
2.070138e+00 -1.943937e+00 3.866524e+00 52 42 47
-5.607321e+00 -2.678464e+00 4.502767e+00 158 157 152
-4.005302e-01 -1.915563e+00 3.202013e+00 131 134 130
-1.548819e-01 -1.805076e+00 3.194941e+00 150 146 143
-4.121130e-01 -1.742343e+00 3.112743e+00 34 32 32
-7.640336e+00 -2.596358e+00 4.764463e+00 147 146 144
-3.235449e+00 -2.236453e+00 4.325780e+00 141 144 144
-3.082738e+00 -2.162863e+00 4.235880e+00 161 163 162
2.166090e+00 -1.595902e+00 3.738996e+00 162 158 154
-3.195361e+00 -2.087751e+00 4.192289e+00 169 170 165
-5.218115e-01 -1.537846e+00 2.966302e+00 44 44 47
-5.218115e-01 -1.537846e+00 2.966302e+00 44 44 47
2.170524e+00 -1.446624e+00 3.640960e+00 175 176 172
-9.798907e-01 -1.487251e+00 3.037080e+00 73 69 58
-9.798907e-01 -1.487251e+00 3.037080e+00 73 69 58
-9.326626e-01 -1.454358e+00 3.019630e+00 178 174 170
1.037920e+00 -1.360947e+00 3.254378e+00 84 79 72
-5.239121e+00 -1.888309e+00 3.993801e+00 145 141 138
6.351123e-01 -1.306761e+00 3.038398e+00 125 122 115
