ply
format ascii 1.0
element face 0
property list uchar int vertex_indices
element vertex 951
property float x
property float y
property float z
property uchar diffuse_red
property uchar diffuse_green
property uchar diffuse_blue
end_header
5.365487e-01 2.154508e+00 2.667310e+00 162 153 141
5.409111e-01 2.156706e+00 2.665341e+00 66 61 57
5.396440e-01 2.152083e+00 2.673627e+00 97 84 66
5.329030e-01 2.145582e+00 2.683167e+00 141 132 124
5.427826e-01 2.155488e+00 2.668801e+00 77 70 60
5.377115e-01 2.156134e+00 2.665685e+00 118 110 103
5.432039e-01 2.157500e+00 2.665539e+00 134 129 126
5.442704e-01 2.156959e+00 2.667058e+00 86 73 54
5.442704e-01 2.156959e+00 2.667058e+00 86 73 54
5.394855e-01 2.157168e+00 2.664696e+00 177 169 164
5.399737e-01 2.157250e+00 2.664836e+00 129 121 108
5.440455e-01 2.156894e+00 2.667287e+00 147 130 110
5.440455e-01 2.156894e+00 2.667287e+00 147 130 110
5.386835e-01 2.151775e+00 2.674925e+00 144 134 121
5.340206e-01 2.147276e+00 2.681852e+00 181 172 164
5.437867e-01 2.158737e+00 2.664121e+00 166 148 123
5.342106e-01 2.147785e+00 2.681484e+00 131 122 121
5.343507e-01 2.147809e+00 2.681585e+00 191 187 174
5.395705e-01 2.158565e+00 2.662945e+00 79 74 65
5.413426e-01 2.159842e+00 2.661186e+00 145 136 121
5.433016e-01 2.158674e+00 2.664284e+00 159 156 148
5.415242e-01 2.154859e+00 2.671103e+00 136 124 102
5.423452e-01 2.158930e+00 2.663618e+00 187 185 175
5.415638e-01 2.155134e+00 2.670960e+00 161 157 149
5.429525e-01 2.156209e+00 2.669424e+00 110 97 88
5.401784e-01 2.159085e+00 2.662727e+00 108 108 105
5.452206e-01 2.158716e+00 2.665450e+00 103 91 79
5.450629e-01 2.159293e+00 2.664237e+00 108 105 100
5.368065e-01 2.150528e+00 2.678277e+00 178 171 162
5.400892e-01 2.159081e+00 2.662732e+00 179 178 176
5.393420e-01 2.159204e+00 2.662235e+00 169 159 147
5.427135e-01 2.156526e+00 2.668882e+00 91 79 81
5.407342e-01 2.159635e+00 2.662165e+00 131 124 105
5.425426e-01 2.156892e+00 2.668380e+00 105 96 88
5.447104e-01 2.159273e+00 2.664479e+00 194 191 185
5.361339e-01 2.150157e+00 2.679479e+00 167 160 152
5.365990e-01 2.150450e+00 2.679334e+00 126 119 103
5.375917e-01 2.151583e+00 2.677587e+00 173 165 152
5.378105e-01 2.151936e+00 2.676975e+00 181 172 163
5.424775e-01 2.156401e+00 2.669870e+00 132 119 103
5.318296e-01 2.146004e+00 2.686745e+00 177 169 159
5.330377e-01 2.147057e+00 2.685317e+00 118 109 102
5.392491e-01 2.153402e+00 2.675045e+00 133 125 105
5.322441e-01 2.146579e+00 2.686660e+00 160 153 134
5.375034e-01 2.152051e+00 2.677580e+00 137 128 120
5.427398e-01 2.157049e+00 2.669297e+00 131 117 90
5.374961e-01 2.152157e+00 2.677650e+00 186 177 172
5.442611e-01 2.158501e+00 2.667116e+00 179 171 159
5.454218e-01 2.160869e+00 2.662756e+00 85 75 73
5.444696e-01 2.158730e+00 2.666829e+00 123 114 108
5.391418e-01 2.160251e+00 2.661829e+00 153 140 119
5.381966e-01 2.159954e+00 2.662254e+00 147 130 110
5.322279e-01 2.147215e+00 2.686338e+00 117 107 96
5.420443e-01 2.156400e+00 2.670939e+00 89 82 71
5.441366e-01 2.158494e+00 2.667381e+00 158 149 132
5.435803e-01 2.158192e+00 2.667873e+00 158 149 132
5.422615e-01 2.160855e+00 2.661860e+00 74 63 57
5.388741e-01 2.153419e+00 2.676020e+00 123 113 111
5.335528e-01 2.148356e+00 2.684783e+00 110 100 90
5.435470e-01 2.158774e+00 2.666838e+00 158 144 123
5.434762e-01 2.158773e+00 2.666831e+00 104 90 73
5.434762e-01 2.158773e+00 2.666831e+00 104 90 73
5.423999e-01 2.160844e+00 2.662170e+00 128 121 105
5.423060e-01 2.160985e+00 2.662161e+00 114 106 98
5.462570e-01 2.161975e+00 2.661715e+00 81 62 52
5.464217e-01 2.162044e+00 2.661598e+00 81 62 52
5.464042e-01 2.162061e+00 2.661698e+00 125 117 96
5.395603e-01 2.154780e+00 2.674776e+00 173 164 139
5.355457e-01 2.159587e+00 2.663413e+00 78 65 50
5.395834e-01 2.154981e+00 2.674661e+00 107 98 90
5.402206e-01 2.155779e+00 2.673565e+00 66 62 61
5.428840e-01 2.158163e+00 2.669381e+00 81 71 62
5.400729e-01 2.155677e+00 2.673779e+00 189 185 186
5.443898e-01 2.160306e+00 2.665334e+00 149 134 117
5.357542e-01 2.151732e+00 2.681202e+00 185 175 162
5.430696e-01 2.158627e+00 2.668766e+00 75 70 59
5.430696e-01 2.158627e+00 2.668766e+00 75 70 59
5.399034e-01 2.155595e+00 2.674313e+00 191 184 173
5.459486e-01 2.161559e+00 2.663548e+00 72 56 38
5.433182e-01 2.159126e+00 2.668030e+00 180 173 158
5.429828e-01 2.159004e+00 2.668280e+00 104 96 81
5.425081e-01 2.161908e+00 2.661827e+00 130 118 95
5.404456e-01 2.156478e+00 2.673003e+00 133 125 112
5.358596e-01 2.152171e+00 2.681035e+00 179 174 156
5.432464e-01 2.159276e+00 2.668089e+00 162 154 141
5.369745e-01 2.153176e+00 2.679494e+00 108 102 94
5.412851e-01 2.157326e+00 2.671773e+00 73 63 57
5.366240e-01 2.152898e+00 2.680062e+00 171 170 158
5.423547e-01 2.161865e+00 2.662364e+00 85 69 44
5.402104e-01 2.156488e+00 2.673510e+00 120 113 98
5.386911e-01 2.160881e+00 2.663528e+00 186 178 162
5.313426e-01 2.147776e+00 2.690064e+00 162 155 145
5.334100e-01 2.159658e+00 2.664725e+00 133 119 98
5.303173e-01 2.159009e+00 2.665346e+00 142 133 122
5.365040e-01 2.152834e+00 2.680680e+00 166 161 156
5.330557e-01 2.159590e+00 2.664866e+00 77 64 43
5.343499e-01 2.159948e+00 2.664505e+00 139 129 104
5.430137e-01 2.159257e+00 2.668584e+00 151 138 128
5.427775e-01 2.159268e+00 2.668616e+00 111 99 88
5.351390e-01 2.160268e+00 2.664291e+00 88 80 65
5.315242e-01 2.148172e+00 2.690127e+00 121 112 103
5.416934e-01 2.157858e+00 2.671770e+00 170 166 141
5.449633e-01 2.161390e+00 2.664961e+00 100 87 69
5.322690e-01 2.149435e+00 2.688133e+00 151 143 131
5.414060e-01 2.157779e+00 2.672114e+00 122 116 109
5.324150e-01 2.149629e+00 2.687983e+00 106 98 86
5.317991e-01 2.149034e+00 2.689170e+00 57 42 35
5.387108e-01 2.155412e+00 2.676878e+00 170 162 150
5.414651e-01 2.162078e+00 2.662837e+00 127 116 100
5.315458e-01 2.159614e+00 2.665791e+00 109 101 82
5.317057e-01 2.149113e+00 2.689518e+00 186 181 177
5.348061e-01 2.151951e+00 2.684151e+00 150 139 134
5.334908e-01 2.160384e+00 2.664874e+00 131 121 112
5.416692e-01 2.158548e+00 2.671257e+00 117 99 86
5.433238e-01 2.160364e+00 2.667610e+00 99 86 70
5.417025e-01 2.158650e+00 2.671112e+00 107 92 74
5.417025e-01 2.158650e+00 2.671112e+00 107 92 74
5.265439e-01 2.159008e+00 2.666555e+00 119 106 88
5.418588e-01 2.158956e+00 2.670550e+00 158 150 136
5.381035e-01 2.155177e+00 2.678166e+00 196 192 189
5.352104e-01 2.160767e+00 2.665129e+00 170 161 144
5.417674e-01 2.159106e+00 2.670599e+00 181 177 162
5.445494e-01 2.162619e+00 2.663289e+00 99 86 70
5.396522e-01 2.156911e+00 2.675363e+00 190 180 171
5.341930e-01 2.152306e+00 2.684825e+00 164 158 142
5.396375e-01 2.157036e+00 2.675388e+00 190 180 170
5.418437e-01 2.159370e+00 2.670533e+00 134 125 108
5.427810e-01 2.162643e+00 2.663375e+00 175 172 155
5.418210e-01 2.159598e+00 2.670247e+00 77 70 60
5.398550e-01 2.157545e+00 2.674853e+00 71 62 56
5.402526e-01 2.157912e+00 2.674151e+00 191 182 174
5.432244e-01 2.162861e+00 2.663311e+00 174 162 151
5.313312e-01 2.160574e+00 2.666040e+00 101 89 66
5.307769e-01 2.160428e+00 2.666431e+00 110 95 80
5.438585e-01 2.162778e+00 2.663941e+00 165 158 141
5.441888e-01 2.162436e+00 2.664838e+00 148 140 125
5.397906e-01 2.157594e+00 2.675416e+00 65 59 52
5.365207e-01 2.154788e+00 2.681392e+00 106 96 86
5.395995e-01 2.157663e+00 2.675324e+00 97 90 80
5.372376e-01 2.161823e+00 2.665037e+00 116 109 93
5.401080e-01 2.158141e+00 2.674532e+00 157 151 139
5.363589e-01 2.154932e+00 2.681458e+00 168 158 148
5.400461e-01 2.158378e+00 2.674002e+00 181 174 157
5.434379e-01 2.162172e+00 2.665753e+00 88 74 70
5.405821e-01 2.158044e+00 2.675009e+00 180 174 162
5.299353e-01 2.149319e+00 2.693983e+00 140 128 118
5.304736e-01 2.160643e+00 2.667039e+00 165 157 134
5.394579e-01 2.162472e+00 2.664468e+00 128 113 90
5.316662e-01 2.161373e+00 2.665586e+00 173 170 161
5.427556e-01 2.160904e+00 2.668975e+00 118 108 99
5.426864e-01 2.161091e+00 2.668559e+00 176 167 151
5.374171e-01 2.156050e+00 2.679633e+00 163 151 132
5.418837e-01 2.162889e+00 2.664164e+00 157 143 125
5.416382e-01 2.159621e+00 2.671994e+00 170 161 154
5.407041e-01 2.159080e+00 2.673207e+00 119 112 102
5.423993e-01 2.161084e+00 2.668754e+00 186 176 154
5.405473e-01 2.158963e+00 2.673578e+00 67 62 62
5.424996e-01 2.161356e+00 2.668274e+00 68 55 48
5.386140e-01 2.162476e+00 2.664825e+00 103 88 70
5.403524e-01 2.159071e+00 2.673488e+00 189 183 170
5.424315e-01 2.161384e+00 2.668420e+00 69 69 58
5.419218e-01 2.161150e+00 2.668937e+00 56 48 36
5.419218e-01 2.161150e+00 2.668937e+00 56 48 36
5.273323e-01 2.145950e+00 2.703425e+00 157 146 132
5.433665e-01 2.163284e+00 2.664062e+00 148 136 120
5.422826e-01 2.161310e+00 2.668712e+00 176 167 158
5.329623e-01 2.161461e+00 2.666647e+00 58 46 27
5.425619e-01 2.161681e+00 2.667870e+00 69 55 33
5.369972e-01 2.156257e+00 2.680253e+00 158 151 133
5.321498e-01 2.161357e+00 2.666931e+00 40 27 18
5.321498e-01 2.161357e+00 2.666931e+00 40 27 18
5.371704e-01 2.156447e+00 2.679940e+00 175 165 150
5.318729e-01 2.161304e+00 2.667190e+00 151 138 119
5.313493e-01 2.161257e+00 2.667230e+00 158 149 133
5.313493e-01 2.161257e+00 2.667230e+00 158 149 133
5.317929e-01 2.161355e+00 2.667080e+00 77 69 55
5.410370e-01 2.160000e+00 2.672277e+00 187 179 166
5.431831e-01 2.161640e+00 2.668607e+00 180 173 154
5.420494e-01 2.161400e+00 2.668987e+00 188 183 164
5.426189e-01 2.163126e+00 2.665042e+00 170 163 144
5.333032e-01 2.161813e+00 2.666861e+00 90 76 70
5.322762e-01 2.161797e+00 2.666801e+00 119 111 102
5.412373e-01 2.160321e+00 2.671953e+00 165 156 147
5.430096e-01 2.162343e+00 2.667225e+00 63 49 30
5.284910e-01 2.147620e+00 2.701926e+00 116 107 101
5.413400e-01 2.160692e+00 2.671226e+00 166 155 137
5.332402e-01 2.161949e+00 2.667020e+00 176 169 153
5.326061e-01 2.162096e+00 2.666592e+00 114 106 93
5.411048e-01 2.160688e+00 2.671452e+00 166 159 146
5.411200e-01 2.160866e+00 2.671115e+00 102 92 90
5.353646e-01 2.162467e+00 2.666267e+00 127 115 94
5.254478e-01 2.160815e+00 2.668949e+00 83 72 55
5.350044e-01 2.162477e+00 2.666272e+00 152 143 123
5.346172e-01 2.154607e+00 2.686234e+00 196 188 179
5.365297e-01 2.162792e+00 2.666146e+00 190 186 173
5.418123e-01 2.162699e+00 2.667115e+00 197 194 177
5.386358e-01 2.158588e+00 2.677191e+00 208 202 185
5.425711e-01 2.162469e+00 2.667874e+00 142 130 114
5.422979e-01 2.162682e+00 2.667315e+00 191 179 163
5.417166e-01 2.162653e+00 2.667357e+00 61 51 29
5.423943e-01 2.162986e+00 2.666628e+00 144 133 108
5.364451e-01 2.162863e+00 2.666226e+00 187 179 165
5.395091e-01 2.159333e+00 2.675667e+00 65 57 54
5.422536e-01 2.162874e+00 2.667008e+00 141 130 113
5.390349e-01 2.158984e+00 2.676552e+00 175 166 155
5.406392e-01 2.160895e+00 2.671926e+00 199 194 185
5.255265e-01 2.161089e+00 2.669508e+00 179 170 156
5.423306e-01 2.163138e+00 2.666431e+00 169 162 134
5.389108e-01 2.159063e+00 2.676444e+00 76 72 61
5.420722e-01 2.162967e+00 2.666863e+00 167 158 147
5.390962e-01 2.163281e+00 2.665685e+00 133 120 111
5.394160e-01 2.159353e+00 2.675871e+00 181 176 170
5.422419e-01 2.162901e+00 2.667113e+00 172 164 143
5.243950e-01 2.160969e+00 2.669824e+00 127 120 102
5.386587e-01 2.158798e+00 2.677218e+00 101 96 90
5.391761e-01 2.163291e+00 2.665746e+00 121 110 104
5.412595e-01 2.161486e+00 2.670676e+00 157 153 143
5.388272e-01 2.159028e+00 2.676710e+00 191 185 179
5.379195e-01 2.163137e+00 2.666162e+00 175 165 150
5.394825e-01 2.159716e+00 2.675287e+00 184 177 170
5.416489e-01 2.162820e+00 2.667520e+00 83 74 69
5.409491e-01 2.161144e+00 2.671875e+00 155 150 147
5.352218e-01 2.155948e+00 2.684669e+00 174 168 152
5.397238e-01 2.159716e+00 2.675444e+00 83 75 62
5.393128e-01 2.159677e+00 2.675499e+00 144 137 131
5.395519e-01 2.163482e+00 2.665804e+00 78 68 63
5.392242e-01 2.159413e+00 2.676352e+00 105 100 94
5.369415e-01 2.163145e+00 2.666518e+00 178 175 167
5.395199e-01 2.159787e+00 2.675572e+00 66 55 44
5.421600e-01 2.163473e+00 2.666295e+00 66 53 43
5.419695e-01 2.163531e+00 2.666196e+00 151 135 106
5.242021e-01 2.161353e+00 2.670082e+00 178 176 174
5.418563e-01 2.163299e+00 2.667003e+00 197 191 176
5.250112e-01 2.161498e+00 2.670025e+00 193 187 184
5.415434e-01 2.162112e+00 2.670132e+00 172 163 154
5.414440e-01 2.162161e+00 2.670040e+00 176 170 148
5.395547e-01 2.163765e+00 2.665889e+00 165 153 132
5.395547e-01 2.163765e+00 2.665889e+00 165 153 132
5.412792e-01 2.162424e+00 2.669604e+00 87 76 62
5.425376e-01 2.163808e+00 2.666378e+00 166 158 137
5.291019e-01 2.162465e+00 2.669007e+00 170 162 145
5.416823e-01 2.164089e+00 2.665785e+00 135 128 110
5.409455e-01 2.162667e+00 2.669675e+00 97 87 77
5.415623e-01 2.164062e+00 2.666017e+00 167 159 140
5.415091e-01 2.164109e+00 2.665896e+00 107 98 83
5.414692e-01 2.164082e+00 2.665981e+00 159 151 130
5.392569e-01 2.163912e+00 2.666269e+00 189 186 181
5.314012e-01 2.162993e+00 2.668272e+00 100 91 74
5.411478e-01 2.162984e+00 2.669037e+00 70 62 60
5.412070e-01 2.162632e+00 2.670003e+00 186 179 163
5.414123e-01 2.164162e+00 2.665920e+00 147 137 127
5.406897e-01 2.162596e+00 2.670164e+00 128 121 112
5.412104e-01 2.164190e+00 2.665941e+00 169 157 144
5.413324e-01 2.162621e+00 2.670205e+00 176 169 161
5.402945e-01 2.161013e+00 2.674537e+00 210 206 197
5.321145e-01 2.163139e+00 2.668290e+00 181 171 159
5.407251e-01 2.161886e+00 2.672450e+00 77 67 50
5.298767e-01 2.162920e+00 2.668984e+00 205 203 191
5.397001e-01 2.161253e+00 2.674255e+00 115 105 98
5.405769e-01 2.161946e+00 2.672454e+00 158 150 140
5.327728e-01 2.163353e+00 2.668172e+00 104 95 78
5.395858e-01 2.161283e+00 2.674226e+00 124 116 104
5.398419e-01 2.161378e+00 2.673993e+00 124 116 104
5.403173e-01 2.161892e+00 2.672791e+00 169 158 145
5.403598e-01 2.161999e+00 2.672479e+00 161 148 138
5.372450e-01 2.157622e+00 2.684500e+00 191 183 163
5.404353e-01 2.162114e+00 2.672345e+00 160 150 140
5.411958e-01 2.163521e+00 2.668615e+00 141 128 111
5.403096e-01 2.162105e+00 2.672556e+00 177 171 158
5.351806e-01 2.163929e+00 2.667419e+00 173 163 150
5.379580e-01 2.159930e+00 2.678691e+00 134 125 117
5.409564e-01 2.163606e+00 2.668664e+00 180 172 161
5.398668e-01 2.161821e+00 2.673564e+00 126 117 108
5.411602e-01 2.163827e+00 2.668193e+00 71 59 44
5.353728e-01 2.164006e+00 2.667761e+00 91 81 70
5.396809e-01 2.162082e+00 2.673273e+00 112 101 100
5.360016e-01 2.164117e+00 2.667509e+00 129 116 101
5.379457e-01 2.160059e+00 2.679047e+00 107 100 90
5.397528e-01 2.162201e+00 2.673119e+00 116 110 109
5.198408e-01 2.162242e+00 2.672526e+00 177 170 152
5.350595e-01 2.164023e+00 2.667953e+00 122 112 102
5.405642e-01 2.164007e+00 2.668246e+00 142 129 108
5.375302e-01 2.159801e+00 2.680033e+00 188 184 176
5.360788e-01 2.164135e+00 2.667836e+00 145 133 119
5.374119e-01 2.159811e+00 2.680067e+00 130 124 118
5.375694e-01 2.160007e+00 2.679569e+00 141 133 121
5.403788e-01 2.164000e+00 2.668392e+00 103 91 74
5.408318e-01 2.163933e+00 2.668674e+00 175 169 157
5.226372e-01 2.162750e+00 2.671878e+00 176 168 156
5.376290e-01 2.160247e+00 2.679254e+00 105 97 89
5.358616e-01 2.164227e+00 2.667964e+00 161 150 128
5.407961e-01 2.163059e+00 2.671407e+00 157 145 133
5.405634e-01 2.164241e+00 2.668119e+00 141 131 112
5.407519e-01 2.164164e+00 2.668431e+00 201 195 189
5.404643e-01 2.164377e+00 2.667848e+00 81 72 65
5.376011e-01 2.160402e+00 2.679202e+00 150 144 143
5.376833e-01 2.164444e+00 2.667825e+00 95 83 82
5.213417e-01 2.162835e+00 2.672409e+00 102 85 70
5.361154e-01 2.164411e+00 2.668036e+00 136 133 128
5.375610e-01 2.164449e+00 2.667952e+00 188 181 173
5.385201e-01 2.159734e+00 2.681694e+00 187 175 166
5.401717e-01 2.164408e+00 2.668232e+00 92 87 81
5.363589e-01 2.164348e+00 2.668526e+00 99 94 85
5.404514e-01 2.163437e+00 2.671204e+00 67 57 44
5.399599e-01 2.164838e+00 2.667223e+00 60 51 44
5.266294e-01 2.163647e+00 2.670908e+00 195 190 174
5.401786e-01 2.163470e+00 2.671297e+00 165 157 137
5.403409e-01 2.163389e+00 2.671572e+00 116 106 94
5.267531e-01 2.163852e+00 2.671009e+00 149 140 136
5.399667e-01 2.163561e+00 2.671637e+00 126 117 107
5.391485e-01 2.164940e+00 2.667678e+00 165 157 138
5.387644e-01 2.160460e+00 2.680922e+00 165 152 143
5.396450e-01 2.165007e+00 2.667541e+00 110 101 93
5.402757e-01 2.165057e+00 2.667402e+00 167 153 140
5.393140e-01 2.162495e+00 2.675009e+00 66 55 51
5.292425e-01 2.164240e+00 2.670256e+00 159 149 136
5.295263e-01 2.164295e+00 2.670300e+00 132 122 108
5.392645e-01 2.162063e+00 2.676587e+00 209 204 197
5.293423e-01 2.164351e+00 2.670261e+00 101 91 88
5.395831e-01 2.162791e+00 2.674578e+00 99 86 71
5.385682e-01 2.160760e+00 2.680770e+00 115 104 94
5.293956e-01 2.164418e+00 2.670516e+00 183 174 158
5.393730e-01 2.163049e+00 2.674207e+00 114 103 89
5.294701e-01 2.164476e+00 2.670517e+00 140 129 111
5.400703e-01 2.164708e+00 2.669529e+00 55 46 38
5.282952e-01 2.164511e+00 2.670834e+00 102 93 83
5.389811e-01 2.161323e+00 2.679941e+00 151 135 119
5.399403e-01 2.164753e+00 2.669515e+00 67 58 49
5.389247e-01 2.162830e+00 2.675520e+00 181 175 161
5.401059e-01 2.164724e+00 2.669862e+00 122 116 104
5.387961e-01 2.161179e+00 2.680793e+00 124 117 101
5.387961e-01 2.161179e+00 2.680793e+00 124 117 101
5.395424e-01 2.164763e+00 2.669985e+00 159 150 139
5.395167e-01 2.164700e+00 2.670215e+00 146 134 117
5.394825e-01 2.164723e+00 2.670144e+00 168 158 137
5.306237e-01 2.164895e+00 2.670408e+00 131 122 116
5.294621e-01 2.164975e+00 2.670443e+00 178 173 160
5.329512e-01 2.165059e+00 2.669953e+00 118 114 103
5.395790e-01 2.164852e+00 2.670186e+00 169 161 142
5.334798e-01 2.165209e+00 2.669665e+00 195 190 171
5.344020e-01 2.165284e+00 2.669622e+00 103 93 83
5.392036e-01 2.163639e+00 2.674254e+00 144 135 130
5.391274e-01 2.162065e+00 2.679295e+00 81 68 58
5.398641e-01 2.162728e+00 2.677660e+00 157 150 139
5.336146e-01 2.165429e+00 2.669888e+00 177 170 166
5.395008e-01 2.162752e+00 2.678014e+00 174 167 157
5.374206e-01 2.165765e+00 2.668901e+00 98 84 71
5.391454e-01 2.164560e+00 2.672912e+00 103 96 90
5.378511e-01 2.165868e+00 2.669230e+00 179 169 159
5.385744e-01 2.164567e+00 2.673551e+00 144 135 127
5.383711e-01 2.165891e+00 2.669347e+00 69 55 46
5.397169e-01 2.163110e+00 2.678323e+00 138 134 143
5.385656e-01 2.164811e+00 2.672953e+00 91 82 64
5.387077e-01 2.164601e+00 2.673651e+00 116 112 107
5.396052e-01 2.163077e+00 2.678531e+00 210 215 220
5.385425e-01 2.164566e+00 2.673876e+00 180 177 162
5.384395e-01 2.164667e+00 2.673676e+00 175 170 160
5.384002e-01 2.166082e+00 2.669163e+00 134 126 113
5.393959e-01 2.164785e+00 2.673271e+00 202 195 183
5.381567e-01 2.164762e+00 2.673706e+00 98 89 82
5.381567e-01 2.164762e+00 2.673706e+00 98 89 82
5.401817e-01 2.163972e+00 2.676047e+00 58 46 33
5.381089e-01 2.164815e+00 2.673672e+00 97 86 82
5.402413e-01 2.164223e+00 2.675357e+00 87 77 68
5.396710e-01 2.163558e+00 2.677865e+00 211 210 215
5.243851e-01 2.165642e+00 2.673687e+00 158 148 137
5.241355e-01 2.165721e+00 2.673607e+00 115 106 99
5.387886e-01 2.165374e+00 2.672338e+00 118 110 101
5.389089e-01 2.165447e+00 2.672072e+00 168 158 146
5.279349e-01 2.165993e+00 2.672398e+00 180 178 162
5.385059e-01 2.165625e+00 2.672100e+00 135 127 116
5.307206e-01 2.166247e+00 2.671679e+00 202 193 183
5.384807e-01 2.165683e+00 2.672024e+00 115 106 98
5.328644e-01 2.166290e+00 2.671146e+00 182 179 163
5.325309e-01 2.166361e+00 2.671218e+00 88 77 75
5.381668e-01 2.165955e+00 2.671495e+00 186 176 149
5.403810e-01 2.165226e+00 2.673769e+00 72 67 60
5.324334e-01 2.166450e+00 2.671370e+00 95 81 71
5.118522e-01 2.166376e+00 2.676327e+00 171 159 143
5.318399e-01 2.166581e+00 2.671686e+00 120 112 98
5.210342e-01 2.166925e+00 2.673328e+00 89 78 75
5.151494e-01 2.166726e+00 2.675549e+00 101 96 87
5.401377e-01 2.164981e+00 2.675610e+00 129 125 132
5.354338e-01 2.166846e+00 2.670446e+00 138 128 117
5.332235e-01 2.166734e+00 2.671405e+00 99 89 77
5.375754e-01 2.166334e+00 2.671887e+00 119 109 103
5.246155e-01 2.167228e+00 2.672498e+00 161 145 125
5.399375e-01 2.165604e+00 2.674238e+00 138 122 99
5.399375e-01 2.165604e+00 2.674238e+00 138 122 99
5.379389e-01 2.166714e+00 2.670916e+00 176 169 159
5.365160e-01 2.166933e+00 2.670609e+00 163 157 141
5.239839e-01 2.167285e+00 2.672854e+00 163 151 133
5.402258e-01 2.166373e+00 2.672044e+00 100 87 79
5.239427e-01 2.167491e+00 2.673111e+00 153 140 125
5.244885e-01 2.167561e+00 2.673050e+00 131 116 98
5.399545e-01 2.166462e+00 2.672527e+00 168 155 135
5.238947e-01 2.167676e+00 2.673368e+00 152 142 131
5.238947e-01 2.167676e+00 2.673368e+00 152 142 131
5.406124e-01 2.166971e+00 2.670946e+00 89 76 73
5.228253e-01 2.167823e+00 2.673760e+00 173 166 147
5.397856e-01 2.166725e+00 2.672671e+00 69 56 45
5.239642e-01 2.168002e+00 2.673399e+00 165 152 140
5.287334e-01 2.167943e+00 2.672077e+00 89 80 72
5.233509e-01 2.168061e+00 2.673816e+00 190 184 174
5.302557e-01 2.168102e+00 2.671820e+00 161 144 131
5.253083e-01 2.168234e+00 2.673246e+00 130 117 104
5.393989e-01 2.167121e+00 2.672479e+00 95 79 62
5.282721e-01 2.168321e+00 2.672481e+00 160 148 129
5.393339e-01 2.167535e+00 2.671342e+00 66 57 52
5.393339e-01 2.167535e+00 2.671342e+00 66 57 52
5.389690e-01 2.167801e+00 2.670610e+00 166 160 134
5.323629e-01 2.168323e+00 2.671202e+00 73 62 47
5.325246e-01 2.168359e+00 2.671167e+00 163 153 135
5.353617e-01 2.168457e+00 2.670723e+00 135 115 90
5.346825e-01 2.143706e+00 2.673934e+00 178 174 164
5.308737e-01 2.142792e+00 2.673723e+00 199 196 190
5.343875e-01 2.144919e+00 2.672987e+00 115 106 96
5.386306e-01 2.147930e+00 2.672224e+00 99 95 83
5.395314e-01 2.148919e+00 2.671116e+00 93 88 82
5.404558e-01 2.149672e+00 2.670588e+00 167 163 151
5.389953e-01 2.148515e+00 2.671763e+00 101 96 84
5.385659e-01 2.149244e+00 2.670390e+00 155 144 122
5.396893e-01 2.149296e+00 2.671225e+00 89 82 63
5.278495e-01 2.144752e+00 2.672455e+00 114 110 101
5.289141e-01 2.146193e+00 2.671407e+00 130 127 113
5.336396e-01 2.148034e+00 2.670865e+00 125 122 115
5.336396e-01 2.148034e+00 2.670865e+00 125 122 115
5.414126e-01 2.151708e+00 2.669270e+00 91 84 75
5.398518e-01 2.151536e+00 2.668791e+00 127 123 107
5.409772e-01 2.151423e+00 2.669841e+00 149 140 131
5.364386e-01 2.150428e+00 2.669260e+00 175 171 161
5.392750e-01 2.151997e+00 2.668212e+00 119 112 107
5.396855e-01 2.152039e+00 2.668350e+00 89 81 79
5.396855e-01 2.152039e+00 2.668350e+00 89 81 79
5.416430e-01 2.152541e+00 2.668597e+00 122 114 103
5.406750e-01 2.152058e+00 2.668918e+00 172 164 153
5.299569e-01 2.148268e+00 2.669885e+00 181 178 169
5.416942e-01 2.152362e+00 2.669011e+00 119 113 100
5.327026e-01 2.149075e+00 2.670056e+00 136 132 120
5.273774e-01 2.148062e+00 2.669095e+00 169 165 156
5.369264e-01 2.147039e+00 2.675847e+00 154 144 132
5.329239e-01 2.149278e+00 2.669954e+00 158 152 141
5.362955e-01 2.150753e+00 2.669221e+00 137 134 122
5.345526e-01 2.150126e+00 2.669466e+00 179 174 167
5.347782e-01 2.150332e+00 2.669337e+00 103 100 93
5.302775e-01 2.148219e+00 2.670811e+00 170 163 156
5.346994e-01 2.150311e+00 2.669426e+00 177 174 167
5.281646e-01 2.148396e+00 2.669663e+00 162 156 143
5.387942e-01 2.149591e+00 2.672975e+00 143 131 118
5.394366e-01 2.150227e+00 2.672192e+00 135 123 107
5.347341e-01 2.150786e+00 2.668918e+00 106 102 93
5.316677e-01 2.150053e+00 2.668956e+00 116 108 90
5.332504e-01 2.150136e+00 2.669830e+00 153 145 134
5.414882e-01 2.153495e+00 2.668032e+00 136 132 128
5.273867e-01 2.148651e+00 2.669619e+00 115 107 94
5.366409e-01 2.147243e+00 2.677028e+00 96 85 75
5.421078e-01 2.154086e+00 2.667636e+00 183 177 172
5.387489e-01 2.150161e+00 2.672997e+00 108 99 90
5.275523e-01 2.151609e+00 2.665284e+00 142 128 114
5.283642e-01 2.152246e+00 2.664585e+00 97 92 86
5.423008e-01 2.153753e+00 2.669331e+00 131 125 107
5.276191e-01 2.151977e+00 2.665679e+00 148 139 127
5.319651e-01 2.151950e+00 2.668056e+00 141 138 133
5.424711e-01 2.154066e+00 2.669140e+00 133 123 104
5.362471e-01 2.154041e+00 2.667208e+00 174 163 134
5.400425e-01 2.155993e+00 2.665442e+00 143 128 118
5.427241e-01 2.154914e+00 2.668783e+00 133 121 111
5.360528e-01 2.148263e+00 2.678163e+00 109 102 96
5.365315e-01 2.154239e+00 2.667293e+00 182 169 147
5.430069e-01 2.155296e+00 2.668356e+00 110 102 91
5.416386e-01 2.158348e+00 2.662342e+00 93 87 77
5.378351e-01 2.150303e+00 2.675717e+00 79 68 49
5.429983e-01 2.156777e+00 2.665910e+00 106 99 81
5.422796e-01 2.156315e+00 2.666482e+00 167 155 143
5.393333e-01 2.157045e+00 2.664839e+00 142 136 123
5.304611e-01 2.155781e+00 2.663588e+00 146 138 117
5.447207e-01 2.159552e+00 2.662894e+00 87 85 88
5.416961e-01 2.158473e+00 2.663869e+00 134 135 126
5.433892e-01 2.158816e+00 2.664122e+00 172 162 151
5.435567e-01 2.159020e+00 2.663808e+00 79 75 73
5.432438e-01 2.156838e+00 2.667969e+00 137 125 108
5.403233e-01 2.158771e+00 2.663067e+00 166 165 161
5.408439e-01 2.154462e+00 2.671853e+00 68 61 55
5.434840e-01 2.159159e+00 2.663892e+00 119 112 102
5.437061e-01 2.159469e+00 2.663399e+00 120 115 108
5.402893e-01 2.154109e+00 2.672797e+00 152 142 130
5.401251e-01 2.153986e+00 2.673045e+00 110 99 93
5.369213e-01 2.150708e+00 2.678490e+00 144 135 125
5.439840e-01 2.159751e+00 2.663244e+00 177 173 162
5.405074e-01 2.154467e+00 2.672457e+00 119 110 101
5.419108e-01 2.155602e+00 2.670923e+00 128 123 112
5.361835e-01 2.150085e+00 2.679856e+00 186 179 169
5.251497e-01 2.155454e+00 2.665114e+00 67 56 39
5.443165e-01 2.159826e+00 2.663535e+00 195 192 182
5.377623e-01 2.151813e+00 2.677339e+00 171 162 148
5.424128e-01 2.156448e+00 2.669981e+00 81 64 46
5.321070e-01 2.146373e+00 2.686547e+00 147 140 124
5.390198e-01 2.153267e+00 2.675325e+00 63 53 43
5.374873e-01 2.152150e+00 2.677514e+00 183 172 166
5.373189e-01 2.152093e+00 2.677706e+00 147 140 134
5.420136e-01 2.161023e+00 2.661175e+00 150 137 118
5.459488e-01 2.160856e+00 2.662951e+00 96 89 83
5.313803e-01 2.146212e+00 2.687743e+00 172 163 153
5.440152e-01 2.159003e+00 2.666130e+00 94 85 80
5.329292e-01 2.147756e+00 2.685209e+00 168 161 146
5.396830e-01 2.154052e+00 2.674752e+00 182 174 161
5.323308e-01 2.147213e+00 2.686328e+00 170 161 146
5.391647e-01 2.153729e+00 2.675618e+00 174 167 155
5.395502e-01 2.154103e+00 2.675089e+00 184 177 158
5.423132e-01 2.160969e+00 2.661902e+00 112 107 101
5.424060e-01 2.157082e+00 2.670001e+00 158 154 149
5.379639e-01 2.152851e+00 2.677379e+00 130 126 123
5.422458e-01 2.157093e+00 2.670137e+00 148 141 135
5.444083e-01 2.161196e+00 2.662452e+00 115 105 90
5.337767e-01 2.149012e+00 2.684307e+00 97 88 81
5.437051e-01 2.158839e+00 2.667399e+00 149 136 124
5.399846e-01 2.155145e+00 2.673967e+00 131 121 109
5.398913e-01 2.155104e+00 2.674107e+00 108 95 87
5.444452e-01 2.161916e+00 2.661403e+00 79 80 74
5.451054e-01 2.160479e+00 2.664694e+00 55 38 28
5.401604e-01 2.155668e+00 2.673540e+00 81 69 62
5.424784e-01 2.157970e+00 2.669471e+00 141 133 119
5.359592e-01 2.151414e+00 2.681391e+00 141 131 113
5.368981e-01 2.159979e+00 2.663485e+00 168 159 150
5.398307e-01 2.155598e+00 2.673855e+00 193 189 186
5.426876e-01 2.158032e+00 2.669636e+00 111 103 92
5.405125e-01 2.156141e+00 2.673026e+00 80 73 59
5.398629e-01 2.155534e+00 2.674293e+00 104 94 88
5.401406e-01 2.155751e+00 2.673927e+00 147 135 121
5.401801e-01 2.155970e+00 2.673505e+00 166 159 143
5.402109e-01 2.156088e+00 2.673360e+00 130 123 115
5.405545e-01 2.156387e+00 2.672875e+00 113 104 100
5.404075e-01 2.156250e+00 2.673376e+00 118 108 96
5.404075e-01 2.156250e+00 2.673376e+00 118 108 96
5.436041e-01 2.159416e+00 2.667542e+00 86 70 53
5.438774e-01 2.160197e+00 2.665970e+00 158 147 141
5.370154e-01 2.153019e+00 2.679485e+00 140 133 125
5.367449e-01 2.152919e+00 2.679903e+00 83 74 70
5.308171e-01 2.159017e+00 2.664989e+00 89 77 63
5.452142e-01 2.161607e+00 2.663639e+00 78 71 57
5.369540e-01 2.153243e+00 2.679635e+00 171 163 153
5.440319e-01 2.161086e+00 2.664891e+00 155 140 124
5.398126e-01 2.156546e+00 2.673893e+00 150 147 142
5.372157e-01 2.153900e+00 2.679129e+00 160 153 147
5.419349e-01 2.158178e+00 2.671037e+00 106 98 84
5.331056e-01 2.149884e+00 2.686982e+00 143 134 119
5.427935e-01 2.159466e+00 2.668465e+00 159 153 139
5.338368e-01 2.150568e+00 2.685839e+00 89 78 71
5.453232e-01 2.162239e+00 2.663158e+00 141 124 107
5.409984e-01 2.161815e+00 2.663080e+00 106 95 78
5.446352e-01 2.162808e+00 2.662060e+00 146 134 117
5.446600e-01 2.162808e+00 2.662203e+00 140 126 107
5.388341e-01 2.155565e+00 2.676998e+00 153 144 132
5.389720e-01 2.155710e+00 2.676762e+00 144 138 118
5.454195e-01 2.162777e+00 2.662549e+00 52 43 27
5.454195e-01 2.162777e+00 2.662549e+00 52 43 27
5.433255e-01 2.160261e+00 2.667772e+00 161 149 138
5.433255e-01 2.160261e+00 2.667772e+00 161 149 138
5.414451e-01 2.158532e+00 2.671236e+00 183 168 146
5.335043e-01 2.151044e+00 2.686200e+00 82 71 67
5.331771e-01 2.150946e+00 2.686524e+00 167 160 149
5.439560e-01 2.161174e+00 2.666064e+00 98 81 54
5.329520e-01 2.151024e+00 2.686729e+00 116 110 98
5.421136e-01 2.159529e+00 2.669805e+00 92 82 70
5.418273e-01 2.159325e+00 2.670413e+00 173 166 151
5.418363e-01 2.159359e+00 2.670439e+00 126 118 100
5.418363e-01 2.159359e+00 2.670439e+00 126 118 100
5.438400e-01 2.162299e+00 2.664169e+00 152 142 130
5.443797e-01 2.161961e+00 2.665160e+00 124 113 100
5.444119e-01 2.162954e+00 2.662988e+00 158 150 139
5.420998e-01 2.159925e+00 2.669694e+00 142 129 121
5.401928e-01 2.157783e+00 2.674273e+00 153 146 138
5.443678e-01 2.163109e+00 2.662863e+00 136 127 118
5.405283e-01 2.158219e+00 2.673648e+00 119 110 104
5.398757e-01 2.157709e+00 2.674811e+00 165 160 154
5.362405e-01 2.154426e+00 2.681970e+00 158 151 133
5.365031e-01 2.154693e+00 2.681425e+00 130 120 110
5.433411e-01 2.161945e+00 2.665840e+00 143 129 109
5.396526e-01 2.162270e+00 2.664279e+00 114 101 80
5.420132e-01 2.160224e+00 2.669653e+00 175 167 145
5.421129e-01 2.160246e+00 2.669631e+00 136 127 110
5.400367e-01 2.162344e+00 2.664343e+00 141 132 107
5.364741e-01 2.154925e+00 2.681348e+00 138 125 117
5.417592e-01 2.162757e+00 2.663918e+00 53 36 28
5.410271e-01 2.162691e+00 2.664518e+00 155 138 127
5.372538e-01 2.156200e+00 2.679560e+00 128 120 115
5.364352e-01 2.155324e+00 2.681574e+00 120 107 90
5.420055e-01 2.160959e+00 2.669101e+00 118 110 91
5.429567e-01 2.162561e+00 2.665430e+00 128 120 105
5.373554e-01 2.156435e+00 2.679326e+00 133 124 119
5.427511e-01 2.162507e+00 2.665650e+00 127 120 109
5.318365e-01 2.161189e+00 2.666937e+00 151 139 115
5.368851e-01 2.156083e+00 2.680506e+00 163 154 140
5.422823e-01 2.161357e+00 2.668638e+00 150 143 130
5.319297e-01 2.161339e+00 2.666997e+00 152 145 126
5.425499e-01 2.161734e+00 2.668029e+00 127 112 102
5.366721e-01 2.156248e+00 2.680661e+00 126 118 105
5.422859e-01 2.161658e+00 2.668604e+00 179 167 147
5.412652e-01 2.160657e+00 2.671223e+00 127 116 100
5.350902e-01 2.162468e+00 2.666284e+00 129 122 105
5.337545e-01 2.162274e+00 2.667014e+00 182 176 163
5.396633e-01 2.159265e+00 2.675534e+00 99 91 77
5.418153e-01 2.162731e+00 2.667064e+00 69 64 47
5.422531e-01 2.162710e+00 2.667352e+00 122 111 97
5.422531e-01 2.162710e+00 2.667352e+00 122 111 97
5.422927e-01 2.162886e+00 2.667034e+00 79 67 58
5.245926e-01 2.160911e+00 2.669818e+00 131 122 106
5.393456e-01 2.159346e+00 2.675861e+00 109 101 99
5.374226e-01 2.163100e+00 2.666197e+00 86 77 60
5.311512e-01 2.151156e+00 2.696393e+00 167 158 152
5.376879e-01 2.163151e+00 2.666169e+00 86 71 51
5.423015e-01 2.163022e+00 2.667246e+00 83 75 64
5.422520e-01 2.163454e+00 2.666232e+00 131 118 104
5.366538e-01 2.163157e+00 2.666483e+00 145 141 130
5.378129e-01 2.163299e+00 2.666327e+00 140 127 112
5.394750e-01 2.163779e+00 2.665908e+00 113 99 85
5.414154e-01 2.162622e+00 2.669323e+00 147 139 124
5.412485e-01 2.162478e+00 2.669782e+00 107 96 78
5.412429e-01 2.162736e+00 2.669162e+00 106 101 95
5.412174e-01 2.162629e+00 2.669501e+00 158 147 134
5.416597e-01 2.164014e+00 2.665845e+00 146 138 128
5.404697e-01 2.163903e+00 2.666061e+00 155 144 128
5.413448e-01 2.162453e+00 2.670065e+00 82 72 61
5.305483e-01 2.162738e+00 2.668525e+00 165 154 137
5.417939e-01 2.164113e+00 2.665762e+00 88 82 68
5.390665e-01 2.163861e+00 2.666276e+00 185 182 177
5.412128e-01 2.162979e+00 2.668946e+00 158 149 140
5.408126e-01 2.164072e+00 2.666082e+00 151 143 128
5.409633e-01 2.162685e+00 2.669885e+00 160 153 135
5.328196e-01 2.163323e+00 2.668220e+00 149 140 125
5.297948e-01 2.163001e+00 2.669086e+00 199 195 186
5.403906e-01 2.161940e+00 2.672838e+00 128 117 100
5.321856e-01 2.163485e+00 2.668618e+00 129 122 116
5.207172e-01 2.162159e+00 2.672082e+00 125 109 93
5.380664e-01 2.160168e+00 2.678437e+00 167 163 154
5.366450e-01 2.164181e+00 2.667631e+00 116 107 86
5.379249e-01 2.164408e+00 2.667575e+00 110 93 77
5.361056e-01 2.164291e+00 2.667943e+00 141 130 116
5.363548e-01 2.164268e+00 2.668035e+00 156 141 122
5.402935e-01 2.164415e+00 2.668194e+00 162 158 149
5.367976e-01 2.164473e+00 2.668179e+00 167 162 151
5.362778e-01 2.164338e+00 2.668526e+00 167 162 151
5.401463e-01 2.163372e+00 2.671570e+00 157 148 131
5.403071e-01 2.163571e+00 2.671124e+00 167 154 142
5.399383e-01 2.164817e+00 2.667616e+00 132 128 120
5.396461e-01 2.164843e+00 2.667669e+00 144 140 131
5.402289e-01 2.163636e+00 2.671211e+00 63 55 42
5.398219e-01 2.163857e+00 2.671210e+00 122 116 104
5.397049e-01 2.163947e+00 2.671126e+00 166 159 143
5.395516e-01 2.162797e+00 2.674733e+00 98 85 69
5.314438e-01 2.164573e+00 2.669864e+00 150 136 124
5.399664e-01 2.164568e+00 2.670124e+00 160 153 143
5.396401e-01 2.163514e+00 2.673581e+00 119 113 102
5.388210e-01 2.163163e+00 2.674981e+00 124 111 97
5.388210e-01 2.163163e+00 2.674981e+00 124 111 97
5.334322e-01 2.165132e+00 2.669591e+00 178 171 155
5.334182e-01 2.165031e+00 2.669902e+00 168 160 147
5.349531e-01 2.165221e+00 2.669385e+00 132 122 113
5.392428e-01 2.165007e+00 2.670047e+00 150 140 126
5.345249e-01 2.165308e+00 2.669660e+00 133 122 113
5.344893e-01 2.165471e+00 2.669775e+00 109 100 83
5.393823e-01 2.164353e+00 2.672807e+00 86 73 55
5.397565e-01 2.162814e+00 2.677917e+00 155 148 131
5.386212e-01 2.164354e+00 2.673451e+00 91 83 80
5.390962e-01 2.165597e+00 2.669544e+00 162 153 140
5.380577e-01 2.165785e+00 2.669125e+00 164 154 140
5.378970e-01 2.165852e+00 2.669053e+00 132 121 115
5.217449e-01 2.165052e+00 2.674105e+00 88 81 62
5.380057e-01 2.166009e+00 2.669514e+00 191 183 176
5.404556e-01 2.164405e+00 2.674785e+00 97 89 73
5.232259e-01 2.165683e+00 2.673658e+00 134 130 121
5.406066e-01 2.164959e+00 2.673805e+00 132 122 113
5.405367e-01 2.165424e+00 2.673867e+00 159 147 130
5.376059e-01 2.166365e+00 2.671568e+00 88 74 65
5.399944e-01 2.165485e+00 2.674069e+00 113 96 80
5.327245e-01 2.166722e+00 2.671561e+00 120 109 105
5.329044e-01 2.166768e+00 2.671523e+00 116 109 100
5.377848e-01 2.166854e+00 2.670613e+00 153 146 138
5.371567e-01 2.166875e+00 2.670798e+00 193 187 163
5.129134e-01 2.167166e+00 2.676505e+00 158 146 135
5.379618e-01 2.166777e+00 2.670988e+00 133 124 103
5.368537e-01 2.166954e+00 2.670796e+00 150 144 122
5.367163e-01 2.167176e+00 2.670162e+00 159 152 147
5.399085e-01 2.166140e+00 2.673407e+00 144 131 115
5.241070e-01 2.167637e+00 2.673155e+00 151 140 133
5.187736e-01 2.167678e+00 2.674936e+00 173 166 147
5.239871e-01 2.168051e+00 2.673473e+00 102 90 90
5.394789e-01 2.167041e+00 2.671961e+00 144 138 130
5.328759e-01 2.168042e+00 2.670765e+00 120 103 77
5.298977e-01 2.168151e+00 2.671737e+00 111 107 91
5.394986e-01 2.167280e+00 2.672052e+00 131 116 102
5.334425e-01 2.170411e+00 2.667629e+00 157 156 154
5.331654e-01 2.169864e+00 2.667712e+00 162 162 162
5.068500e-01 2.183416e+00 2.687026e+00 156 155 151
5.068500e-01 2.183416e+00 2.687026e+00 156 155 151
5.350448e-01 2.170199e+00 2.669737e+00 158 160 159
5.079448e-01 2.184079e+00 2.688946e+00 73 70 63
5.075723e-01 2.183455e+00 2.687573e+00 85 87 88
4.988628e-01 2.187727e+00 2.695357e+00 59 64 69
5.041956e-01 2.184841e+00 2.689186e+00 70 67 65
5.048802e-01 2.184877e+00 2.689488e+00 57 58 60
4.987960e-01 2.187589e+00 2.695249e+00 53 61 67
4.980461e-01 2.187940e+00 2.695209e+00 61 70 75
4.986589e-01 2.187729e+00 2.695330e+00 172 172 172
4.986589e-01 2.187729e+00 2.695330e+00 172 172 172
4.986589e-01 2.187729e+00 2.695330e+00 172 172 172
4.974344e-01 2.189312e+00 2.696675e+00 254 255 249
5.081026e-01 2.183802e+00 2.688386e+00 143 139 136
5.065363e-01 2.184770e+00 2.689394e+00 78 75 66
4.987210e-01 2.187627e+00 2.695135e+00 161 165 164
4.985017e-01 2.187829e+00 2.695381e+00 52 60 73
4.985682e-01 2.187854e+00 2.695419e+00 185 187 186
4.986905e-01 2.187927e+00 2.695651e+00 160 158 157
4.986905e-01 2.187927e+00 2.695651e+00 160 158 157
4.986905e-01 2.187927e+00 2.695651e+00 160 158 157
4.991313e-01 2.188064e+00 2.696024e+00 168 159 143
4.974764e-01 2.189452e+00 2.696596e+00 188 213 243
4.983992e-01 2.187940e+00 2.695609e+00 61 69 80
4.979020e-01 2.188202e+00 2.695560e+00 154 148 132
4.979349e-01 2.188222e+00 2.695615e+00 58 68 75
4.986776e-01 2.188127e+00 2.696030e+00 59 60 66
4.990850e-01 2.187992e+00 2.696040e+00 61 64 69
4.984974e-01 2.188252e+00 2.696011e+00 150 143 129
4.997299e-01 2.188015e+00 2.696118e+00 116 105 99
4.997299e-01 2.188015e+00 2.696118e+00 116 105 99
4.988761e-01 2.188397e+00 2.696097e+00 171 162 153
5.327610e-01 2.169060e+00 2.667165e+00 93 85 83
5.039183e-01 2.185085e+00 2.689553e+00 135 135 135
5.039183e-01 2.185085e+00 2.689553e+00 135 135 135
5.047966e-01 2.184900e+00 2.689067e+00 123 117 103
5.063574e-01 2.184433e+00 2.689058e+00 140 136 128
4.987304e-01 2.187697e+00 2.695158e+00 71 78 87
4.979642e-01 2.188019e+00 2.695253e+00 151 147 138
4.979292e-01 2.188084e+00 2.695343e+00 150 149 145
4.979948e-01 2.188255e+00 2.695638e+00 137 130 119
4.983325e-01 2.188216e+00 2.695973e+00 58 62 69
4.992031e-01 2.188132e+00 2.696150e+00 160 154 142
4.990269e-01 2.188196e+00 2.696145e+00 153 144 135
4.997324e-01 2.188030e+00 2.696206e+00 154 146 136
4.996099e-01 2.188096e+00 2.696192e+00 157 150 141
4.979913e-01 2.188860e+00 2.695810e+00 137 147 162
4.980938e-01 2.188855e+00 2.695944e+00 140 148 167
4.970673e-01 2.189530e+00 2.696615e+00 147 171 212
5.059333e-01 2.184156e+00 2.688133e+00 93 89 85
5.076493e-01 2.183845e+00 2.688131e+00 123 116 109
5.070034e-01 2.184158e+00 2.688593e+00 105 101 101
5.070034e-01 2.184158e+00 2.688593e+00 105 101 101
5.045363e-01 2.185395e+00 2.690101e+00 144 143 138
5.072235e-01 2.184538e+00 2.689180e+00 149 146 142
5.029063e-01 2.186087e+00 2.690925e+00 130 120 108
5.046485e-01 2.185617e+00 2.690398e+00 97 90 84
4.980494e-01 2.187904e+00 2.695115e+00 155 159 158
4.979307e-01 2.187967e+00 2.695227e+00 60 65 67
4.992330e-01 2.187920e+00 2.695943e+00 65 71 74
4.984264e-01 2.188190e+00 2.696031e+00 71 69 75
4.984775e-01 2.188611e+00 2.696076e+00 157 151 153
4.984775e-01 2.188611e+00 2.696076e+00 157 151 153
4.986858e-01 2.188556e+00 2.696128e+00 153 147 147
4.994801e-01 2.188328e+00 2.696205e+00 106 100 102
4.991398e-01 2.188471e+00 2.696212e+00 159 156 149
4.991575e-01 2.188658e+00 2.696383e+00 104 103 108
4.978784e-01 2.189382e+00 2.697039e+00 127 146 175
5.344452e-01 2.172119e+00 2.668184e+00 97 92 92
5.065762e-01 2.184419e+00 2.688991e+00 96 91 84
5.065762e-01 2.184419e+00 2.688991e+00 96 91 84
5.069690e-01 2.184512e+00 2.689173e+00 122 118 106
5.063697e-01 2.184826e+00 2.689372e+00 136 132 124
5.063697e-01 2.184826e+00 2.689372e+00 136 132 124
5.065120e-01 2.184847e+00 2.689673e+00 144 139 133
5.057780e-01 2.185648e+00 2.691865e+00 135 131 119
4.978500e-01 2.188080e+00 2.695339e+00 69 69 71
5.033430e-01 2.186858e+00 2.693933e+00 86 90 93
4.981149e-01 2.188711e+00 2.695885e+00 116 120 130
4.989720e-01 2.188519e+00 2.696150e+00 103 101 103
4.994105e-01 2.188408e+00 2.696227e+00 119 115 104
4.992654e-01 2.188625e+00 2.696472e+00 161 160 156
4.974899e-01 2.189493e+00 2.696791e+00 198 214 239
4.974142e-01 2.189585e+00 2.696685e+00 201 221 244
4.979660e-01 2.189350e+00 2.697076e+00 203 212 228
5.377308e-01 2.169492e+00 2.670780e+00 143 145 143
5.051265e-01 2.184641e+00 2.689093e+00 140 140 137
5.031389e-01 2.185501e+00 2.690339e+00 76 75 70
5.046166e-01 2.185009e+00 2.689549e+00 137 135 129
5.043410e-01 2.185117e+00 2.689745e+00 97 94 87
5.042121e-01 2.185484e+00 2.690174e+00 128 127 123
5.045998e-01 2.185371e+00 2.689959e+00 140 137 132
5.045443e-01 2.185424e+00 2.690101e+00 151 146 140
5.067004e-01 2.184683e+00 2.689349e+00 133 133 128
5.032388e-01 2.186021e+00 2.690550e+00 90 81 72
5.032388e-01 2.186021e+00 2.690550e+00 90 81 72
5.069267e-01 2.184663e+00 2.689420e+00 148 143 131
5.040490e-01 2.186194e+00 2.691993e+00 132 128 123
5.040642e-01 2.186329e+00 2.692829e+00 109 106 104
4.979871e-01 2.188153e+00 2.695525e+00 136 133 128
5.038529e-01 2.186645e+00 2.693552e+00 167 168 171
4.992100e-01 2.187998e+00 2.696042e+00 163 161 148
4.981889e-01 2.188858e+00 2.695962e+00 127 143 159
4.991923e-01 2.188472e+00 2.696253e+00 127 122 116
4.987899e-01 2.188658e+00 2.696222e+00 178 178 176
4.989694e-01 2.188646e+00 2.696314e+00 170 169 170
4.993845e-01 2.188506e+00 2.696394e+00 125 125 120
4.976804e-01 2.189453e+00 2.696921e+00 160 176 203
5.064282e-01 2.184894e+00 2.689584e+00 89 82 72
5.064282e-01 2.184894e+00 2.689584e+00 89 82 72
5.033959e-01 2.186303e+00 2.691958e+00 158 157 157
5.037233e-01 2.186491e+00 2.693034e+00 181 181 181
5.037726e-01 2.186510e+00 2.692988e+00 84 84 87
4.999067e-01 2.187583e+00 2.695949e+00 113 122 131
4.989400e-01 2.188661e+00 2.696301e+00 170 171 168
5.047524e-01 2.185205e+00 2.689738e+00 125 120 115
5.067871e-01 2.184561e+00 2.688938e+00 133 130 124
5.064791e-01 2.184866e+00 2.689775e+00 95 92 77
5.076113e-01 2.184503e+00 2.689351e+00 119 109 98
5.034994e-01 2.186258e+00 2.691910e+00 86 85 83
4.991977e-01 2.187964e+00 2.696016e+00 147 142 131
4.979642e-01 2.188693e+00 2.695669e+00 120 119 125
4.998256e-01 2.188082e+00 2.696205e+00 143 139 130
4.973914e-01 2.189603e+00 2.696703e+00 157 180 214
4.978130e-01 2.189415e+00 2.697019e+00 187 202 219
4.975720e-01 2.189513e+00 2.696919e+00 190 210 241
4.975751e-01 2.189519e+00 2.696902e+00 144 166 199
4.977390e-01 2.189495e+00 2.697011e+00 157 177 207
5.007737e-01 2.188103e+00 2.696990e+00 197 204 212
5.007737e-01 2.188103e+00 2.696990e+00 197 204 212
5.016793e-01 2.186152e+00 2.689800e+00 142 142 142
5.016793e-01 2.186152e+00 2.689800e+00 142 142 142
5.003643e-01 2.188266e+00 2.696807e+00 115 115 117
4.999344e-01 2.188494e+00 2.697176e+00 120 117 119
5.006665e-01 2.186742e+00 2.690732e+00 71 72 67
5.005358e-01 2.186958e+00 2.690628e+00 136 132 128
5.024208e-01 2.186614e+00 2.695705e+00 119 119 114
4.966191e-01 2.189921e+00 2.695714e+00 83 88 95
4.966191e-01 2.189921e+00 2.695714e+00 83 88 95
4.988569e-01 2.188977e+00 2.697458e+00 135 134 139
5.063953e-01 2.183346e+00 2.686663e+00 154 158 167
5.001455e-01 2.186693e+00 2.690621e+00 59 59 59
5.015016e-01 2.186434e+00 2.690361e+00 72 71 68
4.963024e-01 2.190048e+00 2.695475e+00 89 94 104
4.963024e-01 2.190048e+00 2.695475e+00 89 94 104
4.967258e-01 2.189858e+00 2.695935e+00 85 96 111
4.965124e-01 2.190026e+00 2.695732e+00 169 169 164
5.034006e-01 2.184884e+00 2.687751e+00 137 136 137
5.037393e-01 2.184759e+00 2.687722e+00 80 80 84
5.037393e-01 2.184759e+00 2.687722e+00 80 80 84
4.997653e-01 2.186947e+00 2.690863e+00 110 110 98
5.011569e-01 2.186705e+00 2.690530e+00 149 148 145
4.998132e-01 2.187289e+00 2.691242e+00 109 107 107
4.987129e-01 2.188591e+00 2.693750e+00 180 186 186
4.982277e-01 2.188860e+00 2.694356e+00 118 128 136
5.058424e-01 2.183582e+00 2.686834e+00 66 66 66
5.030503e-01 2.185357e+00 2.689393e+00 157 157 159
5.006507e-01 2.186508e+00 2.690460e+00 66 65 63
5.021017e-01 2.186052e+00 2.689970e+00 143 140 134
5.014079e-01 2.186397e+00 2.690149e+00 149 151 151
5.014079e-01 2.186397e+00 2.690149e+00 149 151 151
5.003550e-01 2.187214e+00 2.698189e+00 158 158 156
5.003550e-01 2.187214e+00 2.698189e+00 158 158 156
4.966220e-01 2.189940e+00 2.695881e+00 155 155 145
5.054323e-01 2.183981e+00 2.685679e+00 79 81 78
5.053408e-01 2.183890e+00 2.687182e+00 137 136 132
5.024832e-01 2.186134e+00 2.690526e+00 72 72 66
5.024857e-01 2.186208e+00 2.690315e+00 79 75 72
4.988032e-01 2.187754e+00 2.692314e+00 74 73 71
4.989585e-01 2.187739e+00 2.692281e+00 160 161 157
5.100025e-01 2.182619e+00 2.693409e+00 51 54 61
5.004530e-01 2.187232e+00 2.692446e+00 96 95 95
5.078167e-01 2.184687e+00 2.692528e+00 80 80 83
5.079587e-01 2.184773e+00 2.692359e+00 82 84 83
5.022020e-01 2.186624e+00 2.695704e+00 105 106 101
5.022020e-01 2.186624e+00 2.695704e+00 105 106 101
4.987888e-01 2.188503e+00 2.693825e+00 176 183 189
5.002721e-01 2.188062e+00 2.696680e+00 155 155 155
4.975601e-01 2.189414e+00 2.695644e+00 133 149 165
5.001482e-01 2.188544e+00 2.697040e+00 123 127 128
5.001482e-01 2.188544e+00 2.697040e+00 123 127 128
4.963571e-01 2.190018e+00 2.695733e+00 71 80 87
4.962371e-01 2.190034e+00 2.695781e+00 154 150 147
4.999763e-01 2.188559e+00 2.697351e+00 185 185 185
4.964911e-01 2.190033e+00 2.695767e+00 176 176 172
4.967431e-01 2.189953e+00 2.695959e+00 150 155 151
4.970454e-01 2.189997e+00 2.695881e+00 189 189 196
4.986025e-01 2.189082e+00 2.697432e+00 141 143 142
5.047701e-01 2.184307e+00 2.687822e+00 144 144 139
5.004746e-01 2.187206e+00 2.692290e+00 95 94 90
5.000587e-01 2.187425e+00 2.692406e+00 147 146 142
5.002891e-01 2.187331e+00 2.692473e+00 166 166 164
5.002891e-01 2.187331e+00 2.692473e+00 166 166 164
5.006637e-01 2.187211e+00 2.692414e+00 171 172 168
4.999802e-01 2.187561e+00 2.692358e+00 163 163 161
4.999802e-01 2.187561e+00 2.692358e+00 163 163 161
5.075336e-01 2.184911e+00 2.692766e+00 143 141 132
4.991823e-01 2.188181e+00 2.693600e+00 184 190 191
5.022630e-01 2.186839e+00 2.695982e+00 110 111 114
5.022630e-01 2.186839e+00 2.695982e+00 110 111 114
4.963944e-01 2.189740e+00 2.695427e+00 165 165 164
5.010839e-01 2.187980e+00 2.696731e+00 204 212 217
4.962276e-01 2.190084e+00 2.695758e+00 62 74 83
4.964523e-01 2.190176e+00 2.695932e+00 171 166 158
4.982775e-01 2.189351e+00 2.697649e+00 151 157 171
4.981397e-01 2.189483e+00 2.697737e+00 173 183 192
5.042833e-01 2.184385e+00 2.687122e+00 148 155 162
5.024946e-01 2.185612e+00 2.688998e+00 148 149 144
5.000444e-01 2.187406e+00 2.692322e+00 91 90 90
4.999161e-01 2.187535e+00 2.692519e+00 94 96 100
5.093212e-01 2.183477e+00 2.694202e+00 99 91 88
5.026356e-01 2.186495e+00 2.695731e+00 159 160 158
5.024294e-01 2.186624e+00 2.695936e+00 153 157 152
5.018416e-01 2.187006e+00 2.695954e+00 92 93 95
5.016775e-01 2.187114e+00 2.696003e+00 107 107 106
5.016775e-01 2.187114e+00 2.696003e+00 107 107 106
5.015373e-01 2.187155e+00 2.696011e+00 152 152 147
5.013843e-01 2.187315e+00 2.696078e+00 102 102 100
5.013843e-01 2.187315e+00 2.696078e+00 102 102 100
5.014934e-01 2.187338e+00 2.696242e+00 115 115 115
5.004485e-01 2.187129e+00 2.698100e+00 106 110 114
4.978787e-01 2.188851e+00 2.695698e+00 133 143 152
4.976003e-01 2.188972e+00 2.695607e+00 108 119 137
4.977695e-01 2.188894e+00 2.695738e+00 175 184 195
5.001717e-01 2.188114e+00 2.696818e+00 113 113 111
4.964037e-01 2.189799e+00 2.695544e+00 151 150 148
5.002816e-01 2.188468e+00 2.697091e+00 117 115 118
5.003249e-01 2.188438e+00 2.697163e+00 110 106 107
4.999974e-01 2.188589e+00 2.697221e+00 188 187 192
4.967476e-01 2.189912e+00 2.695978e+00 158 158 158
4.965267e-01 2.190009e+00 2.695905e+00 182 180 176
4.965267e-01 2.190009e+00 2.695905e+00 182 180 176
4.965605e-01 2.190030e+00 2.695917e+00 117 115 116
4.964962e-01 2.190069e+00 2.695940e+00 175 175 172
4.985181e-01 2.189125e+00 2.697408e+00 190 193 199
5.004525e-01 2.186708e+00 2.690454e+00 77 75 76
5.020389e-01 2.186134e+00 2.689454e+00 91 85 84
4.996833e-01 2.187091e+00 2.691152e+00 114 104 95
4.996833e-01 2.187091e+00 2.691152e+00 114 104 95
5.007379e-01 2.186828e+00 2.690337e+00 139 138 126
4.997058e-01 2.187270e+00 2.691223e+00 130 130 122
5.004114e-01 2.187191e+00 2.690993e+00 93 90 85
4.989399e-01 2.187832e+00 2.692211e+00 80 84 85
4.998481e-01 2.187418e+00 2.692708e+00 124 120 108
5.076747e-01 2.184951e+00 2.692343e+00 144 142 131
4.980813e-01 2.188120e+00 2.694820e+00 111 113 112
5.024121e-01 2.186473e+00 2.695672e+00 158 159 156
5.024121e-01 2.186473e+00 2.695672e+00 158 159 156
4.988029e-01 2.188473e+00 2.693968e+00 124 129 139
5.022285e-01 2.186784e+00 2.695850e+00 153 155 153
4.983849e-01 2.188792e+00 2.694176e+00 152 161 170
5.017276e-01 2.187083e+00 2.696035e+00 158 159 154
4.979991e-01 2.188622e+00 2.695360e+00 121 122 126
4.977691e-01 2.188735e+00 2.695324e+00 129 130 134
5.014244e-01 2.187287e+00 2.696118e+00 153 154 149
4.977858e-01 2.188768e+00 2.695394e+00 133 132 137
5.012303e-01 2.187409e+00 2.696113e+00 99 95 94
