ply
format ascii 1.0
element face 0
property list uchar int vertex_indices
element vertex 942
property float x
property float y
property float z
property uchar diffuse_red
property uchar diffuse_green
property uchar diffuse_blue
end_header
-1.227884e+00 1.701235e+00 1.313358e+00 115 100 80
1.376815e+00 2.027764e+00 2.214212e+00 87 85 88
-4.829201e-01 1.919706e+00 1.441909e+00 166 154 137
1.044091e+00 1.995417e+00 2.137269e+00 134 135 126
-6.271325e-01 1.893929e+00 1.451681e+00 158 150 139
1.402005e+00 2.012108e+00 2.357877e+00 172 162 151
1.352430e+00 2.029005e+00 2.313604e+00 79 75 73
2.244136e+00 1.816513e+00 3.061943e+00 137 125 108
5.644093e-01 2.059542e+00 1.898015e+00 166 165 161
-1.450976e+00 1.720969e+00 1.395317e+00 138 133 127
-2.166143e+00 1.546947e+00 1.302777e+00 184 169 146
2.530149e+00 1.686455e+00 3.439379e+00 68 61 55
-3.929201e+00 1.112001e+00 1.068143e+00 170 163 155
1.323701e+00 2.072967e+00 2.351804e+00 119 112 102
1.236121e+00 2.101035e+00 2.276157e+00 120 115 108
2.566312e+00 1.700564e+00 3.548290e+00 152 142 130
2.575750e+00 1.699289e+00 3.570775e+00 110 99 93
2.880887e+00 1.556612e+00 3.965701e+00 144 135 125
1.221692e+00 2.145736e+00 2.293262e+00 177 173 162
2.527271e+00 1.739678e+00 3.539722e+00 119 110 101
-1.940252e+00 1.700898e+00 1.391949e+00 99 90 79
-3.891521e+00 1.235480e+00 1.156891e+00 175 164 143
2.488752e+00 1.800526e+00 3.474957e+00 128 123 112
2.934515e+00 1.553769e+00 4.075791e+00 186 179 169
-1.125900e+00 1.944175e+00 1.519462e+00 67 56 39
1.335246e+00 2.169881e+00 2.409729e+00 195 192 182
-2.898230e+00 1.536275e+00 1.315644e+00 114 109 106
2.804376e+00 1.638191e+00 3.959554e+00 171 162 148
-1.972668e+00 1.768472e+00 1.437753e+00 97 90 83
-2.162583e+00 1.738797e+00 1.434912e+00 174 171 166
2.366106e+00 1.897259e+00 3.417728e+00 81 64 46
-2.740233e+00 1.613226e+00 1.352758e+00 170 163 153
3.146923e+00 1.481914e+00 4.425259e+00 147 140 124
2.679635e+00 1.738660e+00 3.847199e+00 63 53 43
-2.044916e+00 1.832130e+00 1.505424e+00 191 184 178
-2.958894e+00 1.621009e+00 1.370283e+00 121 112 95
2.736992e+00 1.726002e+00 3.997466e+00 183 172 166
-2.132260e+00 1.824236e+00 1.481142e+00 146 136 128
-2.856997e+00 1.658159e+00 1.400955e+00 148 140 131
2.731286e+00 1.733849e+00 4.011611e+00 147 140 134
1.138435e-01 2.352818e+00 1.807695e+00 150 137 118
1.433688e+00 2.308596e+00 2.529118e+00 96 89 83
3.138348e+00 1.531440e+00 4.532588e+00 172 163 153
1.812354e+00 2.153215e+00 2.970390e+00 94 85 80
3.054237e+00 1.580513e+00 4.431382e+00 168 161 146
2.651123e+00 1.817765e+00 3.887924e+00 182 174 161
3.092523e+00 1.573339e+00 4.497161e+00 170 161 146
2.671838e+00 1.814719e+00 3.990047e+00 174 167 155
-2.061286e+00 1.920284e+00 1.548536e+00 162 153 136
-6.234824e+00 1.005392e+00 9.260134e-01 174 172 172
2.652214e+00 1.849925e+00 3.949342e+00 184 177 158
3.418759e-01 2.401640e+00 2.009488e+00 112 107 101
2.273629e+00 2.034390e+00 3.509424e+00 158 154 149
2.723905e+00 1.805269e+00 4.107286e+00 130 126 123
2.254648e+00 2.053416e+00 3.527523e+00 148 141 135
8.900428e-01 2.431802e+00 2.323095e+00 115 105 90
2.999940e+00 1.688155e+00 4.486803e+00 97 88 81
1.966336e+00 2.226755e+00 3.213558e+00 149 136 124
2.492410e+00 1.972045e+00 3.893390e+00 131 121 109
2.483514e+00 1.961391e+00 3.929175e+00 108 95 87
5.361038e-01 2.528453e+00 2.139912e+00 79 80 74
-1.800928e+00 2.102465e+00 1.698296e+00 153 143 131
1.586448e+00 2.373220e+00 2.905309e+00 55 38 28
-1.756472e+00 2.120319e+00 1.729543e+00 150 141 126
-1.763185e+00 2.130224e+00 1.740358e+00 109 103 96
2.413683e+00 2.043968e+00 3.888705e+00 81 69 62
-3.554582e+00 1.759909e+00 1.503190e+00 187 183 174
-3.573186e+00 1.757244e+00 1.497937e+00 136 132 125
2.072159e+00 2.175268e+00 3.545549e+00 141 133 119
2.877005e+00 1.831533e+00 4.469365e+00 141 131 113
-2.839192e-01 2.439980e+00 2.034049e+00 168 159 150
2.379779e+00 2.047928e+00 3.936168e+00 193 189 186
2.144214e+00 2.205084e+00 3.585554e+00 111 103 92
2.363804e+00 2.093858e+00 3.875962e+00 80 73 59
-3.576735e+00 1.800652e+00 1.527193e+00 131 126 122
2.451486e+00 2.067203e+00 3.998434e+00 104 94 88
2.438054e+00 2.077598e+00 3.977616e+00 147 135 121
2.359559e+00 2.083791e+00 3.946698e+00 166 159 143
2.348276e+00 2.114914e+00 3.910845e+00 130 123 115
2.304374e+00 2.113375e+00 3.910635e+00 113 104 100
2.365148e+00 2.136066e+00 3.954138e+00 118 108 96
2.365148e+00 2.136066e+00 3.954138e+00 118 108 96
1.847856e+00 2.359374e+00 3.364318e+00 86 70 53
1.546433e+00 2.443687e+00 3.101324e+00 158 147 141
-8.347480e-01 2.436272e+00 2.003327e+00 110 100 79
4.255865e+00 1.242352e+00 6.251641e+00 150 138 125
2.727605e+00 1.976282e+00 4.407855e+00 140 133 125
2.728811e+00 1.988946e+00 4.444434e+00 83 74 70
-8.122084e-01 2.470468e+00 2.040989e+00 154 146 131
-9.027399e-01 2.454208e+00 2.028835e+00 89 77 63
-1.551196e+00 2.337675e+00 1.908223e+00 105 97 86
1.191673e+00 2.571129e+00 2.825510e+00 78 71 57
-1.751770e+00 2.318470e+00 1.890592e+00 84 78 73
2.704966e+00 2.022600e+00 4.454282e+00 171 163 153
-3.390028e+00 1.995362e+00 1.674043e+00 116 110 106
-3.703634e+00 1.931274e+00 1.629224e+00 193 191 191
-1.676170e+00 2.339684e+00 1.933111e+00 119 110 100
1.260994e+00 2.603465e+00 2.947277e+00 155 140 124
2.274273e+00 2.259388e+00 4.031688e+00 150 147 142
-4.326151e+00 1.878071e+00 1.603044e+00 166 160 159
-1.594699e+00 2.422051e+00 2.003820e+00 165 159 145
2.631185e+00 2.102031e+00 4.466608e+00 160 153 147
2.131246e+00 2.342999e+00 3.859658e+00 106 98 84
-1.513632e+00 2.438291e+00 2.031220e+00 93 84 74
3.006779e+00 1.937974e+00 4.917832e+00 143 134 119
1.785522e+00 2.459760e+00 3.526623e+00 159 153 139
-1.440968e+00 2.465630e+00 2.044045e+00 101 88 68
2.969925e+00 1.967086e+00 4.883052e+00 89 78 71
1.015656e+00 2.716024e+00 2.782054e+00 141 124 107
9.935870e-02 2.733312e+00 2.387908e+00 106 95 78
4.907046e-01 2.796962e+00 2.528411e+00 146 134 117
4.027033e+00 1.524329e+00 6.243560e+00 136 119 103
5.407264e-01 2.817518e+00 2.551337e+00 140 126 107
4.041265e+00 1.539641e+00 6.244733e+00 149 136 121
2.520388e+00 2.234380e+00 4.434907e+00 153 144 132
2.504858e+00 2.244928e+00 4.422078e+00 144 138 118
8.045850e-01 2.812595e+00 2.706325e+00 52 43 27
8.045850e-01 2.812595e+00 2.706325e+00 52 43 27
1.668925e+00 2.580193e+00 3.529679e+00 161 149 138
1.668925e+00 2.580193e+00 3.529679e+00 161 149 138
-1.248476e+00 2.596984e+00 2.174538e+00 101 89 77
2.001269e+00 2.451351e+00 3.907634e+00 183 168 146
2.895619e+00 2.062770e+00 4.962554e+00 82 71 67
2.881220e+00 2.076343e+00 4.966699e+00 167 160 149
1.392623e+00 2.679363e+00 3.294403e+00 98 81 54
-1.151621e+00 2.646415e+00 2.242402e+00 132 124 109
2.860078e+00 2.103036e+00 4.985014e+00 116 110 98
-2.042241e+00 2.526868e+00 2.072377e+00 175 173 170
-1.198096e+00 2.661524e+00 2.268905e+00 125 120 102
1.804220e+00 2.568844e+00 3.793197e+00 92 82 70
3.825055e+00 1.735634e+00 6.072634e+00 105 94 83
-1.182226e+00 2.681344e+00 2.283366e+00 97 86 77
1.854594e+00 2.564962e+00 3.875672e+00 173 166 151
1.854034e+00 2.572889e+00 3.887743e+00 126 118 100
1.854034e+00 2.572889e+00 3.887743e+00 126 118 100
8.264746e-01 2.849208e+00 2.959371e+00 152 142 130
1.190930e+00 2.804565e+00 3.223242e+00 124 113 100
5.899931e-01 2.913290e+00 2.804382e+00 158 150 139
-3.108085e+00 2.427381e+00 2.026345e+00 114 108 93
1.721218e+00 2.650874e+00 3.826516e+00 142 129 121
2.205452e+00 2.483170e+00 4.328605e+00 153 146 138
5.280950e-01 2.950451e+00 2.778978e+00 136 127 118
2.140128e+00 2.529332e+00 4.294331e+00 119 110 104
2.212704e+00 2.503904e+00 4.395538e+00 165 160 154
2.650201e+00 2.333763e+00 4.922717e+00 158 151 133
2.617688e+00 2.348487e+00 4.889117e+00 130 120 110
1.065778e+00 2.875996e+00 3.309317e+00 143 129 109
-1.206668e+00 2.805881e+00 2.429201e+00 136 128 113
-5.353600e-02 2.947368e+00 2.686966e+00 114 101 80
1.647394e+00 2.717876e+00 3.855004e+00 175 167 145
1.661441e+00 2.717453e+00 3.863155e+00 136 127 110
2.143018e-02 2.962388e+00 2.737447e+00 141 132 107
-1.884257e+00 2.735558e+00 2.314347e+00 101 91 90
-1.968845e+00 2.721731e+00 2.313990e+00 166 158 152
2.580396e+00 2.385884e+00 4.901104e+00 138 125 117
2.133269e-01 2.995094e+00 2.814727e+00 53 36 28
-1.981921e+00 2.760540e+00 2.341900e+00 151 145 126
-1.191748e+00 2.897610e+00 2.500101e+00 120 111 105
1.830453e-01 3.033825e+00 2.906417e+00 155 138 127
2.404068e+00 2.510894e+00 4.827425e+00 128 120 115
2.547638e+00 2.461576e+00 4.983179e+00 120 107 90
1.444665e+00 2.856022e+00 3.839792e+00 118 110 91
7.863595e-01 3.013008e+00 3.273052e+00 128 120 105
2.371306e+00 2.539985e+00 4.826146e+00 133 124 119
7.886460e-01 3.018153e+00 3.303807e+00 127 120 109
-3.993000e+00 2.528855e+00 2.102711e+00 150 146 135
-7.534368e-01 3.005150e+00 2.690626e+00 151 139 115
2.429260e+00 2.528907e+00 4.956191e+00 163 154 140
1.366845e+00 2.913618e+00 3.820584e+00 150 143 130
-7.558198e-01 3.035448e+00 2.726501e+00 152 145 126
1.266365e+00 2.961795e+00 3.760895e+00 127 112 102
-2.687158e+00 2.800434e+00 2.371994e+00 170 162 143
2.399856e+00 2.579028e+00 4.966346e+00 126 118 105
-2.525166e+00 2.841941e+00 2.428954e+00 190 189 187
-4.013574e+00 2.628708e+00 2.181378e+00 173 168 154
-2.576146e+00 2.852640e+00 2.430920e+00 186 183 177
1.307662e+00 2.979631e+00 3.862591e+00 179 167 147
-5.162848e+00 2.528333e+00 1.993172e+00 119 114 108
1.623105e+00 2.905589e+00 4.208659e+00 127 116 100
-1.531829e+00 3.049031e+00 2.679589e+00 155 152 147
-1.598969e+00 3.045637e+00 2.657775e+00 179 176 167
-4.791334e+00 2.619795e+00 2.075675e+00 181 174 167
-5.781192e-01 3.174547e+00 2.907586e+00 129 122 105
-6.375472e-01 3.192708e+00 2.955430e+00 182 176 163
-1.477922e+00 3.117649e+00 2.749665e+00 114 104 95
2.029979e+00 2.840573e+00 4.737642e+00 99 91 77
-2.775873e+00 2.969022e+00 2.496078e+00 181 180 173
9.127828e-01 3.163764e+00 3.729898e+00 122 111 97
9.127828e-01 3.163764e+00 3.729898e+00 122 111 97
8.362428e-01 3.188650e+00 3.684630e+00 79 67 58
-1.267463e+00 3.171589e+00 2.850823e+00 131 122 106
1.994904e+00 2.879697e+00 4.779588e+00 109 101 99
-3.081240e-01 3.275750e+00 3.128967e+00 86 77 60
3.230510e+00 2.460532e+00 6.117396e+00 167 158 152
-2.741608e-01 3.282369e+00 3.148046e+00 86 71 51
8.440286e-01 3.229746e+00 3.762857e+00 83 75 64
-3.496855e+00 2.963381e+00 2.491828e+00 115 112 107
-3.496855e+00 2.963381e+00 2.491828e+00 115 112 107
5.862371e-01 3.288459e+00 3.569706e+00 131 118 104
-4.081343e-01 3.311128e+00 3.150813e+00 145 141 130
-2.542597e-01 3.320790e+00 3.216930e+00 140 127 112
-3.045798e+00 3.086092e+00 2.622219e+00 79 69 60
-1.148777e-01 3.382195e+00 3.322582e+00 113 99 85
-2.326679e+00 3.202305e+00 2.787837e+00 91 86 83
-2.158760e+00 3.224482e+00 2.835693e+00 135 126 117
1.045293e+00 3.247624e+00 4.116430e+00 147 139 124
-2.043143e+00 3.250208e+00 2.876142e+00 197 194 188
1.109957e+00 3.243261e+00 4.173435e+00 107 96 78
9.634630e-01 3.271441e+00 4.077157e+00 106 101 95
1.028192e+00 3.262249e+00 4.135628e+00 158 147 134
2.654905e-01 3.404293e+00 3.528257e+00 146 138 128
8.340932e-02 3.407104e+00 3.459399e+00 155 144 128
1.173593e+00 3.246177e+00 4.244582e+00 82 72 61
-9.695629e-01 3.380404e+00 3.139685e+00 165 154 137
2.571438e-01 3.420925e+00 3.537847e+00 88 82 68
-1.452437e-01 3.425145e+00 3.391363e+00 185 182 177
8.877151e-01 3.321403e+00 4.059398e+00 158 149 140
1.616719e-01 3.469610e+00 3.476772e+00 151 143 128
1.029260e+00 3.300198e+00 4.202503e+00 160 153 135
-7.834625e-01 3.462353e+00 3.294406e+00 149 140 125
-1.035268e+00 3.458637e+00 3.237581e+00 199 195 186
1.442563e+00 3.264282e+00 4.669739e+00 128 117 100
-8.483098e-01 3.514401e+00 3.359350e+00 129 122 116
-1.594829e+00 3.481521e+00 3.181410e+00 125 109 93
1.923031e+00 3.160890e+00 5.240578e+00 167 163 154
-4.178176e-01 3.582239e+00 3.564210e+00 116 107 86
-2.586812e+00 3.480234e+00 3.053822e+00 118 106 89
-3.896128e+00 3.378088e+00 2.775027e+00 170 162 150
-2.451676e-01 3.619504e+00 3.689117e+00 110 93 77
-4.801763e-01 3.622699e+00 3.608348e+00 141 130 116
-4.165250e-01 3.622003e+00 3.642048e+00 156 141 122
-2.782681e+00 3.507843e+00 3.075388e+00 153 136 122
3.396417e-01 3.649500e+00 3.997980e+00 162 158 149
-3.564419e-01 3.668477e+00 3.740919e+00 167 162 151
-3.525130e-01 3.668869e+00 3.735961e+00 167 162 151
-2.956134e+00 3.539194e+00 3.061503e+00 175 173 170
9.826543e-01 3.530713e+00 4.604774e+00 157 148 131
9.117567e-01 3.553107e+00 4.560887e+00 167 154 142
5.510865e-02 3.695258e+00 3.945184e+00 132 128 120
2.522708e-03 3.706049e+00 3.934772e+00 144 140 131
9.071560e-01 3.577842e+00 4.570154e+00 63 55 42
7.829543e-01 3.628684e+00 4.572506e+00 122 116 104
7.490683e-01 3.659358e+00 4.530034e+00 166 159 143
1.381938e+00 3.525615e+00 5.098489e+00 98 85 69
-9.531005e-01 3.777893e+00 3.699608e+00 150 136 124
-2.227122e+00 3.732471e+00 3.388264e+00 109 100 95
-2.227122e+00 3.732471e+00 3.388264e+00 109 100 95
5.166866e-01 3.742576e+00 4.472092e+00 160 153 143
1.130655e+00 3.637782e+00 4.986719e+00 119 113 102
-2.085364e+00 3.812983e+00 3.520138e+00 178 169 152
1.226507e+00 3.629477e+00 5.109072e+00 124 111 97
1.226507e+00 3.629477e+00 5.109072e+00 124 111 97
-8.017535e-01 3.872444e+00 3.871865e+00 178 171 155
-7.272302e-01 3.874895e+00 3.901413e+00 168 160 147
-2.075081e+00 3.841722e+00 3.543908e+00 160 151 136
-6.107952e-01 3.881355e+00 3.962226e+00 132 122 113
-3.497004e+00 3.795435e+00 3.209058e+00 176 169 154
2.836582e-01 3.844092e+00 4.455453e+00 150 140 126
-6.508568e-01 3.910872e+00 3.996422e+00 133 122 113
-6.687227e-01 3.948223e+00 4.041640e+00 109 100 83
8.379814e-01 3.795829e+00 4.941810e+00 86 73 55
1.794518e+00 3.616701e+00 5.729308e+00 155 148 131
7.875140e-01 3.826762e+00 4.987872e+00 91 83 80
6.079692e-02 3.956730e+00 4.432137e+00 162 153 140
-2.358539e-01 3.984977e+00 4.271883e+00 164 154 140
-3.205553e+00 3.939019e+00 3.389355e+00 71 62 65
-2.901407e-01 3.996880e+00 4.252734e+00 132 121 115
-1.631120e+00 4.006952e+00 3.864900e+00 88 81 62
-3.307723e+00 3.961445e+00 3.391444e+00 153 143 134
-2.241526e-01 4.049727e+00 4.387866e+00 191 183 176
1.308666e+00 3.853468e+00 5.466491e+00 97 89 73
-1.620127e+00 4.097994e+00 3.954476e+00 134 130 121
1.101929e+00 3.941475e+00 5.389771e+00 132 122 113
1.004721e+00 4.039987e+00 5.484514e+00 159 147 130
-2.877072e-02 4.201928e+00 4.830630e+00 88 74 65
9.315934e-01 4.072651e+00 5.455208e+00 113 96 80
-8.804784e-01 4.261421e+00 4.425279e+00 120 109 105
-8.680668e-01 4.270166e+00 4.440340e+00 116 109 100
-2.454062e-01 4.276638e+00 4.737847e+00 153 146 138
-3.271960e-01 4.285971e+00 4.714060e+00 193 187 163
-2.485126e+00 4.338912e+00 3.954062e+00 158 146 135
-1.372924e-01 4.272944e+00 4.819775e+00 133 124 103
-3.939487e-01 4.302144e+00 4.695975e+00 150 144 122
-5.673185e-01 4.327213e+00 4.591819e+00 159 152 147
7.066795e-01 4.200867e+00 5.423846e+00 144 131 115
-1.920686e+00 4.410304e+00 4.188511e+00 151 140 133
-2.223739e+00 4.422237e+00 4.115093e+00 173 166 147
-1.943693e+00 4.492044e+00 4.271187e+00 102 90 90
2.424651e-01 4.364828e+00 5.234283e+00 144 138 130
-1.234874e+00 4.499503e+00 4.491776e+00 120 103 77
-1.508492e+00 4.520993e+00 4.433696e+00 111 107 91
2.158810e-01 4.423000e+00 5.296223e+00 131 116 102
3.829613e+00 1.262088e+00 5.090319e+00 159 151 166
3.480047e+00 8.035240e-01 4.007614e+00 59 52 47
3.359307e+00 5.083442e-01 3.487779e+00 38 24 24
7.565184e-01 -6.704886e-01 1.097774e+00 182 172 183
4.382486e+00 3.105006e-01 4.645668e+00 150 139 142
2.875908e+00 -4.265437e-01 1.964657e+00 182 179 188
3.634195e+00 -3.396105e-01 2.859016e+00 93 79 79
1.646104e+00 1.065012e+00 2.036093e+00 32 22 16
2.526460e+00 1.581588e+00 3.238233e+00 186 175 175
1.138585e+00 -5.507446e-01 1.082621e+00 132 118 116
1.477327e+00 6.344284e-01 1.802416e+00 187 176 172
6.049231e-01 3.023103e+00 3.818535e+00 90 76 65
6.049231e-01 3.023103e+00 3.818535e+00 90 76 65
3.306162e+00 -7.154162e-01 1.966907e+00 121 110 119
-2.036198e-01 -3.482733e-01 1.043930e+00 168 163 162
4.880291e-01 -7.021296e-01 1.164665e+00 183 175 170
-1.653928e-01 1.270480e+00 1.403506e+00 174 155 141
1.026697e-01 -1.876281e-02 1.181179e+00 129 111 105
-4.700061e-01 8.263729e-01 1.187381e+00 171 159 146
9.704380e-01 -8.864580e-01 1.265311e+00 115 101 92
6.377339e-01 8.021186e-01 1.478909e+00 179 179 167
2.390572e-01 8.660808e-01 1.364736e+00 144 134 129
-4.243401e-01 1.124483e+00 1.294041e+00 86 63 54
2.677434e+00 -1.629491e-02 2.098670e+00 175 166 150
8.246323e-01 -2.435457e-02 1.410223e+00 202 194 184
-5.638329e-01 -2.064420e-02 1.006427e+00 91 79 75
-7.269817e-01 3.512879e-01 1.034914e+00 143 127 125
-1.232740e+00 9.077250e-01 1.276113e+00 124 113 96
4.475458e-01 1.728853e+00 1.665987e+00 69 51 40
1.974886e+00 2.453671e+00 1.832307e+00 150 140 130
1.489172e+00 2.674161e+00 2.404541e+00 160 158 154
8.458009e-01 1.344208e+00 1.751147e+00 158 148 144
3.218331e+00 -8.594763e-02 2.414879e+00 88 80 79
7.603506e-01 1.016220e+00 1.467351e+00 184 172 182
6.316528e-01 1.044083e+00 1.391982e+00 172 164 169
1.735972e+00 1.185192e+00 2.292978e+00 112 95 87
1.735972e+00 1.185192e+00 2.292978e+00 112 95 87
1.735972e+00 1.185192e+00 2.292978e+00 112 95 87
2.247373e+00 -7.533830e-01 1.471072e+00 153 139 136
8.545603e-01 8.842091e-01 1.454273e+00 183 171 175
1.235560e+00 -1.248961e+00 1.220378e+00 43 31 35
6.467490e-01 1.196639e+00 1.501721e+00 125 109 104
1.338056e+00 1.125185e+00 1.963329e+00 169 157 159
2.548944e+00 -7.548467e-02 2.074311e+00 172 159 169
4.129140e+00 -3.800922e-01 3.649940e+00 39 21 33
1.190125e+00 6.116352e-01 1.520791e+00 158 144 144
8.019642e-01 1.078681e+00 1.537185e+00 111 96 84
8.915043e-01 1.169658e+00 1.666596e+00 169 155 154
1.815659e+00 1.058232e+00 2.266446e+00 113 101 92
1.815659e+00 1.058232e+00 2.266446e+00 113 101 92
2.532159e+00 1.938792e+00 3.926461e+00 33 26 8
1.243141e+00 2.766623e-01 1.342308e+00 191 183 192
1.682061e+00 3.051914e-01 1.680118e+00 154 147 148
1.456681e+00 4.037396e-01 1.580077e+00 177 170 179
1.591892e+00 3.871246e-01 1.670889e+00 90 80 80
1.940674e+00 6.791861e-01 2.107460e+00 180 164 166
1.534460e+00 1.171522e+00 2.138067e+00 82 69 62
1.690895e+00 1.195834e+00 2.266797e+00 98 80 86
8.110540e-01 1.455350e+00 1.796558e+00 45 37 31
1.613641e+00 1.862313e-01 1.556400e+00 194 183 181
1.516920e+00 3.997546e-01 1.620661e+00 67 47 56
1.695242e+00 4.083184e-01 1.758627e+00 62 53 55
2.678127e+00 3.407172e-01 2.324816e+00 178 164 165
1.201116e+00 7.546087e-01 1.622689e+00 178 166 176
1.840160e+00 1.051028e+00 2.275176e+00 131 121 109
1.840160e+00 1.051028e+00 2.275176e+00 131 121 109
6.761232e-01 1.290894e+00 1.581646e+00 176 165 164
6.457473e-01 1.317880e+00 1.581144e+00 121 104 84
1.408087e+00 1.266168e+00 2.106978e+00 141 126 123
7.814089e-01 1.462426e+00 1.779343e+00 144 133 132
1.225484e+00 1.465186e+00 2.108925e+00 178 162 166
1.029589e+00 3.706928e+00 4.506207e+00 23 9 2
1.839440e+00 -6.488704e-01 1.347666e+00 147 144 137
1.218373e+00 -1.517900e-01 1.336117e+00 184 169 173
1.218373e+00 -1.517900e-01 1.336117e+00 184 169 173
1.181886e+00 -1.026910e-01 1.343335e+00 127 116 121
1.658830e+00 4.074834e-01 1.727650e+00 192 177 182
1.450584e+00 5.848599e-01 1.688739e+00 186 173 176
2.269565e+00 6.348937e-01 2.247593e+00 189 178 160
1.172793e+00 8.177233e-01 1.644182e+00 11 5 3
2.536470e+00 6.819747e-01 2.423614e+00 78 61 63
4.439803e-01 8.904027e-01 1.225518e+00 146 137 140
1.439397e+00 8.988126e-01 1.888215e+00 185 171 173
6.137975e-01 1.162637e+00 1.458487e+00 192 175 182
1.295919e+00 1.136384e+00 1.942410e+00 106 93 85
1.692722e+00 1.083456e+00 2.190295e+00 127 116 115
8.452783e-01 1.462715e+00 1.826579e+00 59 45 45
1.722274e+00 1.556761e-01 1.616013e+00 183 175 172
1.635278e+00 2.250625e-01 1.595462e+00 113 104 116
1.513660e+00 5.672919e-01 1.725590e+00 181 169 168
1.225675e+00 9.899377e-01 1.792572e+00 208 192 192
1.417831e+00 9.959957e-01 1.934543e+00 75 67 53
1.596118e+00 9.798808e-01 2.055949e+00 193 180 184
1.410599e+00 1.063585e+00 1.976081e+00 78 65 49
1.410599e+00 1.063585e+00 1.976081e+00 78 65 49
1.507567e+00 1.069546e+00 2.053211e+00 168 158 158
1.201757e+00 2.256774e-01 1.283065e+00 86 71 71
1.771833e+00 1.819732e-01 1.665381e+00 181 169 176
1.811481e+00 3.303094e-01 1.787914e+00 120 105 92
1.651040e+00 3.921278e-01 1.710544e+00 108 97 97
1.680208e+00 4.076120e-01 1.744504e+00 172 160 164
1.582473e+00 4.786384e-01 1.715547e+00 129 121 119
1.250012e+00 5.455405e-01 1.520435e+00 173 153 158
1.858664e+00 4.694996e-01 1.911724e+00 141 129 129
8.923250e-01 8.857149e-01 1.478576e+00 93 80 74
1.199644e+00 8.600246e-01 1.684986e+00 92 78 85
1.545435e+00 8.151353e-01 1.909722e+00 183 170 177
8.459927e-01 9.360234e-01 1.479856e+00 168 154 142
1.338179e+00 8.887874e-01 1.808804e+00 185 175 174
1.570017e+00 8.598017e-01 1.957881e+00 123 114 120
1.408498e+00 8.887067e-01 1.858806e+00 190 179 183
1.634384e+00 8.917906e-01 2.023086e+00 184 165 166
1.537220e+00 9.561197e-01 1.994029e+00 72 59 51
1.205124e+00 1.017011e+00 1.792467e+00 191 172 173
5.950196e-01 1.117443e+00 1.414282e+00 122 107 102
1.209855e+00 1.029577e+00 1.808197e+00 102 88 87
1.725422e+00 9.879403e-01 2.154343e+00 110 94 95
1.002982e+00 1.130650e+00 1.722661e+00 188 173 168
1.448953e+00 1.181693e+00 2.081413e+00 109 92 81
1.058131e+00 1.328726e+00 1.896455e+00 179 165 171
1.219217e+00 1.423198e+00 2.072295e+00 204 189 194
1.113527e+00 1.462438e+00 2.020586e+00 209 198 206
1.664893e+00 1.634268e-01 1.573639e+00 187 172 179
1.183815e+00 2.908384e-01 1.308036e+00 110 103 97
1.190016e+00 3.254692e-01 1.337470e+00 144 132 133
1.607134e+00 4.575800e-01 1.723526e+00 118 103 109
1.317705e+00 6.836613e-01 1.660887e+00 178 167 172
1.805813e+00 7.079906e-01 2.031977e+00 153 138 141
1.811229e+00 7.147677e-01 2.037883e+00 187 172 169
1.915786e+00 7.298987e-01 2.120186e+00 168 151 146
1.019823e+00 9.077809e-01 1.587776e+00 115 103 96
1.338978e+00 9.054047e-01 1.818521e+00 98 84 82
1.213900e+00 1.002843e+00 1.790253e+00 128 115 109
1.576847e+00 9.600767e-01 2.026240e+00 124 110 109
1.740343e+00 9.647284e-01 2.149670e+00 113 102 95
1.577996e+00 9.974112e-01 2.053455e+00 163 152 155
1.877236e+00 9.641428e-01 2.245633e+00 151 136 140
6.396616e-01 1.170993e+00 1.483405e+00 156 147 152
1.637637e+00 1.020884e+00 2.114437e+00 118 102 103
1.435613e+00 1.069323e+00 1.996730e+00 160 143 135
1.313634e+00 1.105593e+00 1.933524e+00 98 83 86
8.681557e-01 1.206965e+00 1.675596e+00 162 150 138
9.580699e-01 1.222882e+00 1.751257e+00 146 134 134
8.999800e-01 1.250129e+00 1.726972e+00 104 87 78
1.365472e+00 1.186769e+00 2.023840e+00 101 89 76
1.456624e+00 1.216855e+00 2.110677e+00 112 100 103
1.449602e+00 1.228389e+00 2.112716e+00 193 177 187
1.187647e+00 1.365687e+00 2.011866e+00 145 130 135
1.045394e+00 1.449617e+00 1.963954e+00 125 113 107
1.206412e+00 1.429162e+00 2.069489e+00 200 185 187
1.177381e+00 1.441214e+00 2.055429e+00 200 185 182
1.177381e+00 1.441214e+00 2.055429e+00 200 185 182
1.227416e+00 1.494703e+00 2.127335e+00 75 58 48
1.170784e+00 1.537785e+00 2.116297e+00 98 82 69
-1.542851e+00 1.116176e+00 1.420163e+00 99 82 72
2.306167e+00 -1.423031e-01 1.961631e+00 199 193 188
1.008555e+00 7.262544e-01 1.622979e+00 182 174 165
-1.815496e+00 6.689903e-01 1.351641e+00 178 168 159
-2.750842e+00 1.222222e-01 1.791077e+00 125 108 94
2.792249e+00 -2.520221e-01 2.205121e+00 178 179 171
-2.483340e+00 -8.900524e-01 1.476159e+00 91 70 67
-2.987805e+00 -6.638110e-01 1.414934e+00 195 193 185
-3.006077e+00 -5.844012e-01 1.455925e+00 84 68 66
-1.716212e+00 1.774110e+00 1.826652e+00 184 175 168
1.740571e+00 -8.292722e-01 1.599363e+00 122 108 108
2.800446e+00 1.259418e-01 2.262335e+00 197 193 188
-2.992086e+00 -5.282356e-01 1.493334e+00 187 190 194
5.619541e-02 9.775445e-01 1.353607e+00 83 69 69
-4.269607e-01 9.731607e-01 1.252141e+00 173 161 141
-3.010418e+00 2.707442e-01 1.885959e+00 84 73 70
-1.945496e+00 -2.894730e+00 3.897001e-01 133 124 109
2.889939e+00 -1.251809e+00 2.376425e+00 69 58 53
-2.217165e+00 -1.296254e+00 1.356456e+00 160 148 141
2.009750e+00 -4.586782e-01 1.752826e+00 82 72 64
3.557602e+00 -3.506734e-01 2.812174e+00 190 184 171
-8.578662e-01 8.322465e-01 1.122403e+00 84 66 59
1.912605e-01 1.086132e+00 1.449444e+00 107 103 99
-1.352887e+00 1.504395e+00 1.577614e+00 130 118 104
-1.971519e+00 1.509424e+00 1.702673e+00 79 64 61
3.608845e+00 2.859891e+00 4.584177e+00 169 161 160
-1.851613e+00 -2.822145e+00 4.876894e-01 80 63 63
-3.225760e+00 -1.454012e+00 7.929826e-01 155 154 149
-2.404347e-01 -8.297722e-01 9.649919e-01 120 105 99
-2.404347e-01 -8.297722e-01 9.649919e-01 120 105 99
-2.613055e+00 -6.124787e-01 1.573604e+00 184 181 175
1.786461e+00 7.446758e-01 1.929587e+00 185 179 167
1.584108e-01 7.183603e-01 1.336960e+00 126 115 104
-3.114291e+00 -3.147896e-01 1.547695e+00 104 90 85
-4.751439e-01 9.052483e-01 1.213629e+00 95 78 60
-6.644989e-01 9.018740e-01 1.190243e+00 175 163 146
-2.786071e+00 1.155770e-01 1.792809e+00 130 115 98
8.259797e-01 1.670563e+00 1.894408e+00 163 156 149
-1.587710e+00 1.447819e+00 1.565518e+00 178 172 151
-2.222874e+00 -3.347708e+00 -8.672081e-02 93 81 80
-1.921372e+00 -2.840208e+00 4.427580e-01 56 45 54
-1.530269e+00 -2.271179e+00 1.017481e+00 66 56 63
-2.701749e+00 -2.072678e+00 6.386495e-01 116 106 107
1.226662e+00 -1.442545e+00 1.475583e+00 191 192 180
-4.319028e-01 -1.162725e+00 9.622255e-01 179 177 157
7.358527e-01 -9.599826e-01 1.216159e+00 200 202 197
2.910748e-01 -9.387146e-01 1.094149e+00 126 115 101
-2.642793e+00 -6.372543e-01 1.551415e+00 123 108 99
-1.046291e-01 6.899308e-01 1.253647e+00 130 116 94
4.434210e+00 1.441950e+00 4.532843e+00 106 95 83
-2.458017e+00 7.312598e-01 1.725908e+00 187 179 161
4.289141e+00 2.251686e+00 3.760432e+00 115 101 94
3.608364e+00 2.937856e+00 4.507250e+00 51 45 41
1.411427e+00 -7.628056e-01 1.493497e+00 79 74 65
-1.847024e-01 -2.237795e-01 1.070321e+00 137 140 144
2.715822e+00 -5.509755e-01 2.133341e+00 149 148 143
1.828077e+00 -5.337343e-01 1.690454e+00 146 142 138
1.242020e+00 4.279382e-01 1.631842e+00 63 52 54
-2.979240e-01 8.989335e-01 1.255845e+00 67 59 53
-5.960223e-01 -3.680776e+00 3.670810e-01 78 70 68
1.647560e+00 -7.117547e-01 1.587207e+00 108 101 93
2.679693e+00 -3.537806e-01 2.122056e+00 97 91 88
-2.334458e-01 -6.917317e-01 9.996141e-01 117 119 115
-1.241342e-01 -3.029385e-01 1.074988e+00 98 96 96
3.410714e+00 1.505167e-01 2.731335e+00 117 106 104
2.299644e-01 6.491775e-01 1.333758e+00 136 135 128
-4.428152e-01 1.088425e+00 1.282553e+00 99 94 90
-1.050078e+00 -3.364803e+00 4.253042e-01 60 48 50
2.197033e+00 -8.232814e-01 1.831580e+00 61 56 56
8.384441e-02 -8.930478e-01 1.061590e+00 71 60 53
8.384441e-02 -8.930478e-01 1.061590e+00 71 60 53
1.425809e+00 6.444596e-01 1.823764e+00 63 53 51
7.357150e-01 8.386622e-01 1.582407e+00 68 62 61
-1.088475e+00 -3.478795e+00 3.218062e-01 118 114 112
1.884496e+00 6.849971e-01 2.068439e+00 128 122 108
1.390122e+00 1.073944e+00 1.935300e+00 46 36 27
1.189036e+00 1.357819e+00 2.046725e+00 81 77 71
1.433236e+00 7.210117e-01 1.660575e+00 74 66 57
1.354992e+00 9.838314e-01 2.713805e+00 154 142 120
5.794364e-01 1.213975e+00 1.463671e+00 177 164 171
1.798487e+00 1.166530e+00 2.320442e+00 184 173 181
5.233400e-01 1.511563e+00 1.619091e+00 162 140 122
5.937779e-01 1.334550e+00 1.554412e+00 143 127 104
8.354960e-02 4.564985e-01 8.662836e-01 192 179 186
4.552097e-01 1.282710e+00 1.418959e+00 80 65 58
4.552097e-01 1.282710e+00 1.418959e+00 80 65 58
6.176774e-01 1.367853e+00 1.590911e+00 110 96 95
2.191907e+00 1.865288e-01 1.967839e+00 168 155 165
8.836374e-01 4.354589e-01 1.184226e+00 128 117 120
2.137839e+00 2.866538e-01 1.995525e+00 152 147 149
2.068483e+00 6.487695e-01 2.175253e+00 197 184 192
1.951926e+00 8.985021e-01 2.257855e+00 84 73 68
5.201574e-01 1.154963e+00 1.378319e+00 181 169 172
5.201574e-01 1.154963e+00 1.378319e+00 181 169 172
5.328028e-01 1.531375e+00 1.637659e+00 65 49 28
2.056137e+00 8.153260e-02 1.803004e+00 106 95 106
2.245102e+00 6.540299e-02 1.928305e+00 154 145 138
1.067223e+00 2.689722e-01 1.214504e+00 128 122 119
1.037069e+00 3.020088e-01 1.209145e+00 189 178 175
2.026643e+00 4.268493e-01 2.004687e+00 183 171 159
7.540387e-01 6.301315e-01 1.212045e+00 190 174 180
2.072843e+00 6.012614e-01 2.152515e+00 123 108 100
4.581043e-01 1.144459e+00 1.328858e+00 183 168 165
5.420086e-01 1.139909e+00 1.389151e+00 59 47 47
2.042814e+00 9.095552e-01 2.328061e+00 105 95 93
2.059589e+00 9.168508e-01 2.345026e+00 115 105 98
5.528251e-01 1.298104e+00 1.500045e+00 141 129 121
5.966588e-01 1.370862e+00 1.577728e+00 188 173 171
5.497847e-01 1.506357e+00 1.633065e+00 112 95 77
5.240360e-01 1.514537e+00 1.623893e+00 161 143 123
6.714039e-01 1.522545e+00 1.733743e+00 69 51 40
1.986225e+00 1.698663e-01 1.809266e+00 126 115 121
6.887069e-01 7.443837e-01 1.237823e+00 107 91 91
2.049122e+00 6.001866e-01 2.132378e+00 130 122 113
2.135179e+00 6.644002e-01 2.234349e+00 179 166 166
1.938512e+00 9.276482e-01 2.265948e+00 132 117 120
1.938512e+00 9.276482e-01 2.265948e+00 132 117 120
1.926490e+00 9.738305e-01 2.288101e+00 137 126 128
5.005985e-01 1.299660e+00 1.461644e+00 189 172 184
4.918210e-01 1.516204e+00 1.601068e+00 188 171 164
5.734747e+00 2.894837e+00 5.348258e+00 205 204 210
-3.324526e+00 -3.201421e-01 1.455484e+00 197 192 190
-1.391137e+00 9.038554e-01 1.310145e+00 164 155 148
-1.390203e+00 9.063529e-01 1.308028e+00 164 155 148
1.299431e+00 -1.405265e+00 1.520891e+00 165 160 155
-3.409201e+00 3.544345e-01 1.791896e+00 187 190 195
-3.482286e+00 6.998976e-02 1.593694e+00 125 107 102
-3.366042e+00 -4.665968e-01 1.349348e+00 187 183 172
-1.631082e+00 1.075058e-01 1.188377e+00 183 171 156
-3.371855e+00 -3.041315e-01 1.441496e+00 169 155 146
-1.083692e+00 -3.412290e+00 3.736674e-01 168 164 156
-3.631456e+00 -1.093162e+00 7.949325e-01 58 38 44
-1.534892e+00 7.943173e-01 1.320858e+00 159 146 129
-3.315443e+00 6.035566e-02 1.678236e+00 190 185 160
-3.427628e+00 7.931544e-02 1.631145e+00 165 159 138
3.413751e+00 -2.940431e+00 2.137558e+00 87 69 67
-1.292835e+00 -1.245344e+00 1.204459e+00 172 169 158
1.978637e+00 2.544619e-01 1.780786e+00 203 202 200
2.284869e+00 1.248865e+00 2.318180e+00 112 96 85
3.258760e+00 1.582852e+00 2.869418e+00 177 169 156
-2.993328e+00 6.792124e-01 2.051464e+00 177 172 153
-1.894842e+00 9.526414e-01 1.474351e+00 128 122 119
-1.723281e+00 -1.373928e+00 1.378792e+00 57 49 47
-7.090335e-01 -4.420097e-01 9.372590e-01 66 62 62
-8.920318e-01 -2.684906e-01 9.341814e-01 52 41 40
-4.784874e-01 -7.532325e-01 9.493886e-01 121 122 116
-2.515496e-01 5.451212e-01 1.193324e+00 131 127 117
-1.399618e+00 1.056660e+00 1.357467e+00 53 47 44
1.954253e+00 6.459675e-01 2.110520e+00 63 60 54
1.207277e+00 8.359372e-01 3.022458e+00 69 57 35
2.509945e+00 -9.554846e-02 2.041216e+00 116 101 95
-1.471214e+00 -2.975470e+00 5.407623e-01 158 150 137
-3.456815e+00 1.061012e+00 2.109507e+00 96 80 81
-2.340965e+00 -2.222988e+00 7.025271e-01 137 127 131
-3.904276e+00 -9.827626e-02 1.267613e+00 70 58 68
3.367805e-01 -5.313414e-01 1.057820e+00 94 89 79
1.501937e+00 1.820361e-01 1.695593e+00 147 145 147
-1.465162e+00 3.256881e+00 2.117729e+00 120 113 86
3.378541e+00 1.075174e+00 2.691911e+00 83 64 45
-1.241993e+00 2.139645e+00 1.681766e+00 130 120 107
-1.443348e+00 -3.957224e-01 1.145355e+00 178 162 137
-3.470995e+00 9.055387e-01 2.035951e+00 128 114 87
-1.236523e+00 3.923489e+00 2.548088e+00 156 144 128
1.882321e+00 -1.211327e+00 1.678302e+00 22 15 9
2.437496e+00 -6.483034e-01 1.904338e+00 177 164 145
2.544299e+00 -3.186879e-01 1.923422e+00 168 156 132
3.532510e+00 1.254743e+00 3.033948e+00 161 155 139
-1.482639e+00 1.304068e+00 1.392084e+00 168 162 148
1.982834e+00 -8.886086e-01 1.629942e+00 112 104 83
1.797469e+00 7.761500e-01 1.689026e+00 75 62 40
3.323150e+00 1.810840e+00 4.872313e+00 91 76 55
-2.221815e-02 -9.409211e-01 1.199214e+00 117 107 82
1.391083e+00 -3.601285e-01 1.392842e+00 87 73 47
1.270876e+00 4.468777e-01 1.712916e+00 166 154 132
-1.559620e+00 2.629821e+00 1.847308e+00 55 39 20
-1.559620e+00 2.629821e+00 1.847308e+00 55 39 20
-7.201166e-01 3.944636e+00 2.562002e+00 97 83 57
2.156938e+00 1.260254e+00 2.200758e+00 98 85 60
2.139093e+00 3.008605e+00 5.265523e+00 56 44 45
5.276296e-01 3.725098e+00 4.353785e+00 38 35 33
7.881935e-01 -3.264528e-02 1.253592e+00 127 114 103
7.881935e-01 -3.264528e-02 1.253592e+00 127 114 103
-1.622502e+00 4.976548e-01 1.126432e+00 109 88 79
-2.244526e+00 -3.113191e+00 1.529948e-02 67 57 45
-2.905213e+00 -1.121239e+00 1.067996e+00 191 181 154
-3.251063e+00 -6.061239e-01 1.193864e+00 177 167 149
3.484661e+00 1.412230e+00 3.045818e+00 51 32 18
-1.859614e+00 -1.087519e+00 1.549553e+00 182 167 144
-4.493222e-03 4.949965e-01 4.499525e+00 65 52 32
-3.100694e+00 1.185463e+00 1.854122e+00 107 92 61
4.756806e+00 7.022402e-02 4.107801e+00 51 42 24
2.988251e-01 4.542686e+00 5.151379e+00 157 144 125
5.363926e-01 -7.122206e-02 1.565095e+00 72 65 46
4.201966e+00 1.631032e+00 3.260012e+00 136 127 106
-5.057556e+00 2.611946e+01 6.669461e+00 144 141 130
3.358003e-02 -5.897934e-02 1.519479e+00 78 69 55
-1.284979e+00 8.517140e-01 1.400590e+00 48 41 24
-2.768920e+00 1.424123e+00 1.818210e+00 116 109 87
-4.985677e+00 2.595299e+01 6.575714e+00 148 144 135
-6.330219e+00 -1.968760e+00 1.469909e+00 190 197 207
-5.557308e+00 4.108907e-01 1.304741e+00 207 216 231
-1.274198e-01 -1.770715e+00 2.696251e-01 158 154 155
-4.962493e+00 1.135471e+00 1.173496e+00 203 216 232
-1.301712e+01 7.506904e+00 4.280165e-03 99 105 117
-3.487104e+00 2.737281e+00 5.089483e-01 207 210 217
-5.406036e-01 3.666380e+00 1.254492e+00 179 178 183
-1.073269e+01 6.361714e+00 2.202986e-02 212 218 230
-1.145461e+00 9.973421e-01 1.142885e+00 62 53 39
-2.894727e+00 4.174195e+00 7.433935e-01 181 171 176
-3.344350e+00 4.474748e-01 1.343495e-01 162 150 140
-1.024267e+00 1.868596e+00 2.473971e+00 47 33 22
-3.164062e+00 3.692039e+00 3.283726e-01 172 172 166
-1.648169e+00 4.580303e+00 6.415895e-01 139 132 126
-8.510256e-01 5.414132e+00 9.080523e-01 131 122 115
-6.428880e-01 5.340843e+00 1.421571e+00 66 54 42
-8.796591e-01 6.165730e+00 1.081374e+00 62 53 49
-3.349380e+00 -7.048120e-02 5.380165e-02 72 62 44
-3.369221e+00 6.595693e-01 5.081905e-01 155 144 127
-3.285901e+00 1.380493e+00 2.853639e-01 98 103 83
-3.037826e+00 1.731696e+00 2.666822e-01 139 123 109
-2.998988e+00 1.820940e+00 3.536121e-01 76 64 53
-1.966228e+00 1.039150e+01 2.824504e+00 61 45 27
-2.212023e+00 5.075334e+00 7.111939e-01 199 180 158
4.830294e+00 -1.530636e+00 3.184123e+00 128 120 126
5.223902e+00 -1.922629e+00 3.456805e+00 37 19 33
4.484711e+00 -1.531464e+00 2.705905e+00 108 100 108
4.869206e+00 -9.181837e-01 3.912578e+00 151 154 166
4.761543e+00 -1.554535e+00 3.125677e+00 150 149 159
4.745464e+00 -1.506392e+00 3.137885e+00 143 140 138
4.703976e+00 -8.813825e-01 3.742224e+00 156 147 159
4.329945e+00 -1.242523e+00 2.754432e+00 90 84 79
4.774872e+00 -1.444736e+00 3.227543e+00 68 57 65
4.774872e+00 -1.444736e+00 3.227543e+00 68 57 65
4.944997e+00 -1.011044e+00 3.896012e+00 128 107 119
6.340007e+00 -1.953192e+00 3.900023e+00 61 51 49
5.973819e+00 -1.385825e+00 4.048759e+00 90 85 81
-3.452631e+00 -1.998613e-01 1.852764e+00 92 75 75
-3.541199e+00 2.355920e-02 1.535225e+00 196 195 177
-3.481597e+00 5.305129e-01 1.897057e+00 205 212 220
-2.398394e+00 1.528817e+00 1.705776e+00 76 70 68
1.412067e+00 1.188259e+00 1.873536e+00 108 103 99
4.462764e-01 8.194275e-01 1.402950e+00 75 61 61
2.711372e+00 8.491976e-01 2.410428e+00 94 82 79
2.580748e+00 -7.549182e-01 2.038678e+00 141 135 116
4.757766e+00 2.836134e-01 4.182447e+00 86 72 53
-1.836435e+00 2.787162e+00 2.200458e+00 53 41 25
-1.439511e+00 -3.669820e+00 -2.381172e-02 97 85 69
-2.152290e+00 -3.396921e+00 -1.522217e-01 32 30 18
4.188289e+00 -3.111414e+00 2.159756e+00 144 136 119
3.260443e+00 2.142570e+00 3.054432e+00 83 66 45
-1.785964e+00 -3.591826e+00 -1.284919e-01 144 136 118
4.431388e+00 -2.971987e+00 2.299680e+00 35 22 17
1.496383e+00 2.330710e+00 1.893492e+00 91 78 62
3.353487e+00 -1.565671e+00 2.931179e+00 146 142 124
-2.483972e+00 -1.455211e+00 1.082075e+00 114 97 76
4.692361e+00 1.988298e-01 4.148236e+00 60 44 27
4.742086e+00 -2.857654e+00 2.425812e+00 131 118 104
3.863705e+00 -4.589850e-01 3.389165e+00 159 150 121
9.103252e-01 1.165440e+00 1.835136e+00 158 147 120
-2.030482e+00 9.006086e-01 1.300491e+00 66 44 16
4.152692e+00 -2.528455e+00 2.392532e+00 71 60 42
4.105636e+00 -2.467886e+00 2.418550e+00 158 143 127
4.056276e+00 -2.474143e+00 2.404062e+00 157 141 126
5.133792e+00 1.595681e+00 1.164674e+00 126 116 89
4.001884e+00 1.582216e+00 1.262018e+00 52 46 31
-1.217740e+01 1.066267e+01 3.295464e+00 145 140 119
5.738891e+00 2.444039e+00 9.868636e-01 51 44 31
9.345794e+00 6.537277e+00 1.056634e+01 35 33 21
-1.879685e+00 7.174092e-01 1.675108e+00 123 111 84
5.213110e+00 1.196348e+00 3.725394e+00 51 39 24
5.114127e+00 1.145291e+00 3.930581e+00 51 39 24
-2.944812e+00 1.615137e+00 1.919059e+00 125 110 89
1.092724e+01 7.798190e+00 6.075375e+00 157 154 136
1.050571e+01 8.635784e+00 1.034922e+01 69 63 50
-1.121122e+00 1.463498e+00 1.649067e+00 54 46 35
4.163443e+00 1.831281e+00 3.392677e+00 55 46 29
5.094745e+00 2.406800e+00 4.330498e+00 83 75 56
9.512352e+00 4.000252e+00 5.216771e+00 140 128 110
-2.330678e+00 1.331529e+00 1.837818e+00 77 67 39
9.618702e+00 4.182390e+00 5.373008e+00 64 55 36
3.436402e+00 -2.019452e+00 1.595362e+00 171 170 175
-6.360520e+00 -1.485203e+00 1.333035e+00 110 116 128
7.677741e-02 1.372071e+00 1.863688e+00 201 200 196
-1.460603e+00 1.898532e+00 1.291253e+00 178 176 179
-9.757265e+00 -3.321949e+00 1.269592e+00 134 137 141
-6.964493e+00 -2.169891e+00 1.185793e+00 70 70 78
-7.177080e+00 -2.185905e+00 1.126020e+00 65 66 71
-7.320127e+00 -2.052938e+00 1.103767e+00 161 164 169
-3.771212e+00 1.096498e+00 3.502946e-01 103 106 113
-5.267874e+00 1.654338e+00 1.026523e-01 210 217 233
5.186694e+00 -1.505777e+00 1.090997e+00 114 120 129
-7.654047e+00 -9.506714e-01 6.474420e-01 123 122 128
-1.160350e+01 2.934675e+00 1.104006e-01 177 180 185
-8.877617e+00 3.131952e+00 3.610207e-01 83 88 94
-8.981950e+00 -1.988427e+00 5.043107e-01 124 125 130
-3.508300e+00 -1.078529e+00 2.810196e-01 201 203 210
-5.256870e+00 2.564342e-01 4.591461e-02 180 184 195
-1.440122e+01 5.161293e+00 -2.348520e-01 150 157 173
2.981356e+00 9.352679e+00 2.927754e+00 117 119 95
4.085786e+00 -5.481435e-01 1.781181e+00 57 60 41
2.764711e+00 9.454831e+00 2.871032e+00 112 108 96
-1.123002e+01 2.251407e+01 5.769929e+00 186 169 153
-1.114379e+01 1.799567e+01 4.628089e+00 124 111 96
-1.111706e+01 1.802361e+01 4.564755e+00 124 111 96
8.161411e+00 3.475769e+00 -2.496935e+00 204 189 172
9.574232e+00 7.525297e+00 4.825518e+00 117 104 79
-5.072078e+00 5.985335e-01 -1.016913e-01 192 177 158
1.197009e+00 1.343428e+01 3.171736e+00 169 160 142
-2.654592e+00 1.013774e+01 2.333570e+00 169 148 119
-8.492812e+00 1.611955e+01 4.146031e+00 110 94 70
7.316289e+00 1.912554e+00 -3.602352e-01 120 100 75
-8.812728e+00 6.021446e+00 1.358539e+00 195 182 160
1.212431e+01 2.945675e+01 7.897410e+00 164 150 134
8.281466e+00 2.767195e+00 -1.849759e+00 196 184 160
4.997136e+00 4.707726e+00 1.419466e+00 190 176 155
1.263215e+00 6.885618e+00 1.336088e+00 101 81 57
-1.348568e+01 7.924850e+00 1.747860e+00 202 185 164
-8.233219e+00 8.964458e+00 2.067781e+00 176 162 147
-2.661685e+00 9.403770e+00 2.715820e+00 175 154 129
-4.852485e+00 8.074620e-01 -8.452156e-02 189 179 160
8.253406e-01 5.934534e+00 1.633087e+00 129 115 93
-8.392247e+00 7.392956e+00 1.735960e+00 105 86 63
-1.187667e+01 8.542908e+00 1.975439e+00 87 66 42
-3.610201e+00 1.033299e+01 2.432196e+00 130 114 89
-1.181376e+01 1.059634e+01 2.462889e+00 126 113 96
-1.565610e+01 1.065167e+01 2.561060e+00 113 96 80
-1.630103e+01 1.066412e+01 2.644526e+00 111 97 85
-2.521882e+00 1.185355e+01 3.156406e+00 119 102 82
-1.782634e+00 1.333467e+01 3.730949e+00 61 25 3
-1.204031e+01 1.482261e+01 3.657907e+00 60 52 39
-1.922955e+00 1.570430e+01 4.082112e+00 35 39 33
-1.398579e+01 1.586041e+01 3.912225e+00 137 117 94
-1.218398e+01 1.655144e+01 4.106667e+00 205 187 168
-9.896460e+00 1.752957e+01 4.373410e+00 94 79 56
-4.230480e+00 2.062666e+01 5.376278e+00 103 87 64
-6.164526e+00 2.171908e+01 5.727304e+00 200 192 180
-1.093544e+01 3.910442e+01 1.026558e+01 79 75 67
-8.291755e+00 -1.362868e-01 4.588126e-01 114 97 76
-7.726483e+00 5.941275e-01 6.168440e-01 131 117 95
-7.455566e-04 4.701970e+00 1.952296e+00 96 72 38
-1.154361e+00 6.129808e+00 1.300594e+00 193 173 149
1.017272e+00 6.219265e+00 1.639498e+00 100 82 56
-1.119632e+01 9.310203e+00 2.133997e+00 59 44 12
1.724326e+00 1.024267e+01 2.604455e+00 158 140 114
-9.739847e+00 1.253354e+01 3.257305e+00 153 129 106
-1.551764e+01 1.355742e+01 3.406621e+00 147 139 125
-1.263865e+01 1.501922e+01 3.710314e+00 113 97 76
-1.074471e+01 1.538682e+01 3.871792e+00 166 148 128
-9.682065e+00 1.667267e+01 4.181310e+00 155 139 120
-8.437386e+00 1.781807e+01 4.551086e+00 181 162 139
-1.193577e+01 1.786651e+01 4.655599e+00 160 139 116
-9.154646e+00 1.829123e+01 4.626236e+00 170 152 130
-8.930234e+00 2.115548e+01 5.359644e+00 148 135 115
-1.471751e+01 2.891300e+01 7.168369e+00 131 117 103
1.222922e+01 3.030110e+01 8.222498e+00 88 64 37
-1.162856e+01 2.989387e+01 7.462513e+00 126 112 99
-1.579858e+01 2.974207e+01 7.603001e+00 139 123 106
-1.511404e+01 3.017864e+01 7.580747e+00 137 124 111
-1.496735e+01 3.234028e+01 8.131107e+00 140 126 110
-1.217225e+01 3.674537e+01 9.473447e+00 104 85 67
-1.701547e+01 3.658492e+01 1.002573e+01 106 100 90
1.948573e+00 4.277852e+01 1.119747e+01 248 248 247
-6.289885e-02 -2.407881e-01 1.929899e+00 115 99 78
-8.075469e+00 1.327626e+00 7.526204e-01 96 77 57
-1.061577e+01 3.584090e+00 9.220604e-01 129 116 96
-1.116100e+01 6.622625e+00 1.500835e+00 137 119 103
-1.114698e+01 6.829340e+00 1.531546e+00 123 103 82
-7.723165e+00 7.171740e+00 1.646053e+00 115 101 81
-1.115064e+01 7.464815e+00 1.767785e+00 154 133 112
-1.173731e+01 8.381328e+00 1.957795e+00 151 141 127
-4.311786e+00 8.837938e+00 1.974179e+00 191 176 159
-1.022086e+01 8.653115e+00 2.078450e+00 182 165 145
-1.162068e+01 1.014565e+01 2.398597e+00 174 155 137
2.828426e-01 1.184204e+01 3.125661e+00 172 154 131
2.828426e-01 1.184204e+01 3.125661e+00 172 154 131
-1.435335e+01 1.419677e+01 3.446066e+00 147 125 102
-1.628934e+01 1.464821e+01 3.767170e+00 134 118 106
-1.564153e+01 2.391494e+01 6.107869e+00 157 146 130
-1.444071e+01 2.462475e+01 6.240391e+00 175 156 131
-1.196126e+01 2.597124e+01 6.594109e+00 114 96 76
-1.353602e+01 3.896310e+01 1.026401e+01 137 126 106
-1.424193e+01 3.909525e+01 1.048146e+01 120 110 93
-2.154836e+00 1.001216e+01 3.827852e+00 74 73 71
-3.732410e-02 7.713838e+00 2.948181e+00 172 174 173
-1.490284e+01 1.373883e+01 2.409822e+00 171 168 162
-9.743752e+00 8.976241e+00 3.120688e+00 138 132 127
2.873604e+00 9.474742e+00 5.220768e+00 92 90 88
7.842821e+00 9.958869e+00 5.698042e+00 97 89 90
-1.208668e+01 9.407452e+00 2.871927e+00 109 106 107
-1.447123e-01 1.863977e+01 3.062870e+00 165 165 154
-3.650075e+00 -1.931224e+00 1.576559e+00 84 80 72
3.469926e-01 9.768421e+00 4.324881e+00 139 136 126
1.281165e+01 1.074296e+01 6.294070e+00 95 93 94
6.345923e+00 1.050529e+01 5.526385e+00 88 84 83
-9.111891e+00 1.048605e+01 3.125352e+00 73 79 87
-9.111891e+00 1.048605e+01 3.125352e+00 73 79 87
-3.406217e+00 -5.299954e-01 1.810678e+00 147 143 133
-1.690058e+00 4.964395e-01 1.303056e+00 87 78 69
-1.111851e+01 6.774487e+00 2.250002e+00 149 148 144
-7.195885e+00 8.431264e+00 3.251863e+00 71 69 69
-7.474718e+00 8.854891e+00 2.623574e+00 144 139 131
-7.445865e+00 8.612555e+00 3.214595e+00 144 139 131
-1.257803e+01 9.070549e+00 2.561336e+00 65 64 67
-1.179941e+01 1.051014e+01 2.634668e+00 121 118 119
-1.486191e+01 1.327630e+01 2.076025e+00 92 90 96
-2.995194e+00 1.547255e+01 2.379420e+00 163 164 167
4.206481e+00 1.710057e+01 3.169252e+00 150 145 139
-9.470087e-01 1.796491e+01 3.536534e+00 156 156 151
1.447828e+00 1.862479e+01 3.217114e+00 61 61 60
-9.865173e+00 6.413954e+00 2.474973e+00 109 107 112
-7.499548e+00 7.068869e+00 2.777867e+00 55 56 58
-9.561669e+00 8.665114e+00 2.861841e+00 66 64 64
-9.552760e+00 8.610249e+00 2.970595e+00 66 64 64
-8.280649e+00 1.048881e+01 3.203295e+00 77 82 87
5.343653e+00 1.709375e+01 4.924080e+00 109 109 110
5.343653e+00 1.709375e+01 4.924080e+00 109 109 110
-2.694611e+00 1.795055e+01 3.224022e+00 134 129 133
3.615836e+00 1.887497e+01 3.536460e+00 149 145 135
-1.328059e+01 1.839001e+01 3.009600e+00 164 163 158
-1.052280e+01 1.914720e+01 3.044717e+00 93 92 87
3.023775e+00 3.377211e+00 2.542281e+00 75 70 64
4.124136e+00 4.216465e+00 4.026249e+00 110 104 98
-1.031487e+00 4.773638e+00 3.162354e+00 92 86 71
4.679316e+00 7.788171e+00 4.934960e+00 57 58 60
1.866155e+00 8.957214e+00 4.683362e+00 170 166 165
-6.281940e+00 1.045851e+01 4.015166e+00 178 178 176
-1.320409e+01 1.276522e+01 1.230485e+00 144 147 143
-1.478877e+01 1.355681e+01 1.845649e+00 176 171 171
7.837757e+00 1.837373e+01 5.533671e+00 118 115 109
8.237979e+00 1.906917e+01 5.110723e+00 124 124 119
-1.307381e+01 1.860709e+01 3.561185e+00 177 176 172
9.864605e+00 2.103827e+01 5.900634e+00 126 121 115
-1.070641e+01 1.924145e+01 3.896563e+00 158 158 157
-4.302953e+00 8.037819e-01 2.477168e+00 91 90 89
5.837336e+00 7.404535e+00 5.302834e+00 163 163 174
-4.674230e+00 1.050606e+01 4.102305e+00 175 175 175
-1.071143e+01 1.125559e+01 3.046064e+00 184 185 187
-6.580312e+00 1.408307e+01 4.751079e+00 172 173 177
2.800513e+00 1.966464e+01 3.507066e+00 80 77 74
4.362909e+00 -9.653225e-01 3.277273e+00 137 134 141
3.679741e+00 -1.146767e+00 2.512029e+00 152 139 156
4.301842e+00 -9.321717e-01 3.236617e+00 91 80 85
3.832543e+00 -9.440564e-01 2.720611e+00 159 149 165
3.725081e+00 -1.180328e+00 2.297811e+00 43 32 33
4.112224e+00 -9.793328e-01 2.978972e+00 151 147 166
4.369604e+00 -9.791518e-01 3.281103e+00 142 131 141
4.543956e+00 -8.920386e-01 3.508427e+00 136 134 145
4.255658e+00 -1.111625e+00 2.917814e+00 27 17 16
3.515258e+00 -9.850036e-01 2.560993e+00 112 101 117
3.868295e+00 -1.164204e+00 2.558664e+00 154 139 144
3.298998e+00 -1.053325e+00 2.243509e+00 165 162 176
4.248450e+00 -1.106995e+00 2.946094e+00 147 132 137
3.544860e+00 -9.973403e-01 2.568864e+00 114 106 118
4.015841e+00 -9.285588e-01 2.972418e+00 167 162 166
4.081493e+00 -8.913983e-01 3.011600e+00 160 151 173
4.060529e+00 -1.510380e+00 2.275024e+00 29 12 20
3.999453e+00 -1.466095e+00 2.294722e+00 146 133 135
3.915060e+00 -1.419415e+00 2.284070e+00 64 51 60
3.915060e+00 -1.419415e+00 2.284070e+00 64 51 60
3.685515e+00 -1.184248e+00 2.196381e+00 89 74 92
3.685515e+00 -1.184248e+00 2.196381e+00 89 74 92
3.592353e+00 -1.042872e+00 2.544512e+00 139 129 126
4.271343e+00 -1.138252e+00 2.971370e+00 110 90 95
3.636062e+00 -1.093077e+00 2.493325e+00 155 144 152
3.543756e+00 -1.032690e+00 2.516968e+00 143 129 127
3.737752e+00 -1.023073e+00 2.612966e+00 69 64 71
4.124731e+00 -1.086627e+00 3.029816e+00 127 119 116
3.563994e+00 -1.122680e+00 2.421365e+00 87 74 73
3.293421e+00 -1.014227e+00 2.285432e+00 104 90 113
6.247300e+00 -2.336025e+00 3.478042e+00 173 168 164
6.247300e+00 -2.336025e+00 3.478042e+00 173 168 164
2.432011e+00 -8.377675e-01 1.803027e+00 188 185 180
-3.488971e+00 -3.043187e-01 1.376802e+00 197 195 187
6.669154e+00 -2.385482e+00 3.858208e+00 163 161 152
-1.995142e+00 -2.461333e+00 1.073040e+00 180 176 164
-3.110987e+00 -1.987767e+00 1.495979e+00 186 183 187
-3.505146e+00 -7.922648e-01 1.677659e+00 128 110 102
6.735422e+00 -2.341123e+00 3.949285e+00 174 172 164
6.186108e+00 -2.153055e+00 3.641987e+00 188 183 177
2.179141e+00 -8.179646e-01 1.741948e+00 58 53 50
-2.243526e+00 -2.076332e+00 8.129508e-01 138 131 114
3.580990e+00 -1.361646e+00 3.094379e+00 31 21 19
-3.044131e+00 4.579060e-01 1.601077e+00 175 163 137
-1.842170e+00 -4.018009e-01 1.308482e+00 182 172 145
4.425099e+00 -5.150805e-01 3.739008e+00 169 156 131
-2.480461e+00 -4.099566e-01 1.398128e+00 89 73 47
1.621480e+00 -1.370037e+00 1.669736e+00 45 36 26
4.776385e+00 2.161066e-01 4.179698e+00 75 57 35
8.821758e-01 -1.974157e+00 1.550797e+00 35 28 20
4.505901e+00 -3.156361e-01 3.857829e+00 57 39 16
4.505901e+00 -3.156361e-01 3.857829e+00 57 39 16
-2.838226e+00 -3.112179e-01 1.459804e+00 169 148 117
-2.128497e+00 9.102465e-01 1.328965e+00 81 64 39
3.664055e+00 -2.502770e+00 2.243527e+00 143 131 111
-1.375312e+01 9.154049e+00 2.209472e+00 45 42 34
-4.987773e+00 2.762738e+01 6.650266e+00 145 137 126
