ply
format ascii 1.0
element face 0
property list uchar int vertex_indices
element vertex 946
property float x
property float y
property float z
property uchar diffuse_red
property uchar diffuse_green
property uchar diffuse_blue
end_header
6.765970e+00 3.018544e+01 8.767689e+00 131 131 131
-9.208172e+00 3.459825e+01 5.614129e+00 156 155 163
-1.404247e+01 8.337779e+00 2.196978e+00 63 67 64
-1.404247e+01 8.337779e+00 2.196978e+00 63 67 64
8.214263e+00 2.172625e+01 5.627011e+00 127 128 121
-9.317559e+00 2.216491e+01 4.630080e+00 176 177 179
-1.426107e+01 2.430626e+01 3.406408e+00 156 157 153
4.093096e+00 2.938346e+01 1.000529e+01 117 120 131
-1.465003e+01 9.012903e+00 2.272175e+00 119 115 116
1.489582e+01 2.119102e+01 7.773449e+00 106 105 111
-1.293797e+01 2.430377e+01 5.372434e+00 113 113 122
-9.320818e+00 2.598817e+01 4.696636e+00 61 66 70
-1.621404e+01 2.565096e+01 5.268921e+00 119 119 119
-1.003292e+01 2.879476e-01 1.294451e-01 72 66 67
1.502921e+01 1.917780e+01 5.765708e+00 132 127 124
1.437339e+01 1.889940e+01 7.056204e+00 133 131 132
8.968475e+00 2.208124e+01 5.968586e+00 124 121 113
-1.036838e+01 2.093366e+01 4.343767e+00 112 108 107
-1.526643e+01 2.080352e+01 3.568866e+00 83 83 82
6.363500e+00 2.162458e+01 7.615274e+00 193 192 196
-1.201154e+01 2.562962e+01 6.063049e+00 166 164 166
-4.656472e+00 2.682263e+01 6.468080e+00 163 164 167
1.324508e+01 2.902842e+01 8.673554e+00 163 161 167
2.668488e+00 2.854757e+01 7.530920e+00 90 89 95
6.200194e-01 2.909681e+01 7.406588e+00 164 164 167
-1.642395e+01 8.689339e+00 2.004847e+00 65 64 79
1.488144e+01 2.391186e+01 7.378792e+00 119 121 118
-1.120952e+01 2.531123e+01 6.081400e+00 172 172 168
-9.196457e+00 2.668460e+01 5.905612e+00 113 114 117
-4.274601e+00 2.754668e+01 6.263494e+00 162 163 169
-1.186554e+01 2.765350e+01 4.960933e+00 138 138 138
1.271185e+01 2.924353e+01 8.937195e+00 175 174 180
5.703247e-02 2.895621e+01 7.411663e+00 171 171 173
-9.060309e+00 3.496506e+01 6.449802e+00 115 114 121
-7.426347e+00 2.176136e+01 5.768844e+00 134 134 136
6.518995e+00 4.380934e+00 4.934769e+00 166 161 155
-1.038961e+01 2.788310e+00 2.539567e-01 102 93 87
8.395702e+00 2.537980e+01 7.144542e+00 137 140 133
8.395702e+00 2.537980e+01 7.144542e+00 137 140 133
1.643287e+01 -6.350461e-01 -2.885040e+00 19 21 23
1.242915e+01 1.597293e+01 3.306223e+00 129 125 126
4.228777e+00 2.180809e+01 6.654530e+00 107 103 94
1.148821e+01 2.425243e+01 8.761334e+00 138 138 130
1.573373e+01 1.862175e+01 7.687502e+00 183 183 191
2.649311e+00 1.042636e+01 4.293043e+00 63 56 50
7.576182e+00 1.082400e+01 5.137383e+00 70 63 57
8.519930e+00 8.221928e+00 1.636124e+00 88 83 76
-7.072209e+00 9.797858e+00 2.755423e+00 71 62 58
7.802786e+00 2.346582e+01 6.618277e+00 132 133 136
4.388790e+00 1.014695e+01 2.404560e+00 170 165 162
-1.714926e+01 9.025651e+00 2.195312e+00 90 92 92
-6.629797e+00 1.371206e+01 3.708603e+00 168 164 155
-1.557494e+01 2.524676e+01 6.267650e+00 100 100 101
-8.603572e+00 2.646669e+01 6.466481e+00 39 38 36
-8.589962e+00 2.639229e+01 6.594316e+00 39 38 36
-1.764534e+01 2.652499e+01 5.236300e+00 169 167 168
-1.135661e+01 -3.543828e+00 -1.320784e+00 116 113 106
-8.320947e+00 1.917834e+01 5.000050e+00 161 156 152
1.676360e+01 -1.811324e+00 -1.335353e+00 113 110 97
2.206749e+01 2.614874e+00 -1.290065e+00 159 160 158
1.616092e-01 7.390244e+00 5.008093e+00 157 149 146
-5.529382e+00 9.525996e+00 2.656443e+00 69 65 60
-3.948661e+00 9.828888e+00 2.842285e+00 145 142 131
1.626441e+01 1.632648e+01 5.234522e+00 100 98 98
1.125690e+01 1.705979e+01 2.896505e+00 63 66 71
-5.837884e+00 1.499141e+01 4.251011e+00 131 127 124
1.196006e+01 1.812695e+01 6.441499e+00 170 166 165
-9.572879e+00 2.225602e+01 4.928191e+00 38 36 41
-2.031807e-01 2.822490e+01 7.440036e+00 139 135 136
-6.005347e+00 2.735981e+01 7.372979e+00 74 68 70
-1.052698e+01 -1.635231e+00 -6.701684e-01 69 61 59
1.579862e+00 1.029353e+01 3.285422e+00 132 129 121
4.175206e-02 1.057033e+01 3.195097e+00 112 102 92
-2.390588e-01 1.583571e+01 4.288774e+00 167 163 161
6.662642e+00 1.570970e+01 6.017378e+00 123 122 117
1.391525e+00 1.624364e+01 4.355908e+00 31 32 35
5.224868e+00 1.780317e+01 5.483807e+00 133 129 128
2.579185e+00 2.030890e+01 5.639977e+00 99 94 88
-3.012282e+00 2.103162e+01 5.054335e+00 170 166 165
-1.249857e+01 2.195427e+01 5.479311e+00 171 163 173
6.218381e+00 2.318583e+01 7.799439e+00 176 175 180
1.262935e+01 2.566927e+01 7.479410e+00 46 50 53
-1.596703e+01 2.407938e+01 6.052981e+00 112 111 116
-9.739092e+00 2.674060e+01 6.899682e+00 116 115 110
4.234967e+00 2.991372e+01 9.562946e+00 110 109 114
-9.907434e+00 3.909108e+01 5.404989e+00 26 29 41
-1.288778e+01 -4.306268e+00 3.336990e-01 127 122 121
1.831920e+01 -2.475323e+00 -1.972568e+00 59 54 49
-7.561769e+00 -1.453897e+00 -2.819177e-01 77 69 66
-4.013738e+00 9.103931e+00 2.535145e+00 39 36 29
-4.013738e+00 9.103931e+00 2.535145e+00 39 36 29
-1.339157e+00 9.637161e+00 2.525491e+00 142 134 125
-1.510976e+01 1.054929e+01 2.545212e+00 161 161 159
8.845655e+00 1.182507e+01 6.150701e+00 115 114 115
-6.655169e+00 1.258373e+01 3.995703e+00 192 183 184
-2.517685e+00 1.384211e+01 3.497306e+00 153 152 155
-3.086506e+00 1.549435e+01 4.006404e+00 32 31 29
7.740824e+00 1.846456e+01 5.319474e+00 158 153 149
-8.103225e+00 1.714919e+01 4.659485e+00 100 95 89
3.071610e+00 1.851012e+01 4.747079e+00 45 37 29
-1.090368e+01 1.969561e+01 4.889764e+00 180 175 172
5.396546e+00 2.250668e+01 7.174825e+00 83 80 72
1.159273e+01 2.545997e+01 7.415751e+00 57 58 63
-1.271469e+01 2.449028e+01 6.031095e+00 37 36 41
8.327685e+00 2.845786e+01 7.841176e+00 162 163 158
9.963787e+00 3.430763e+01 8.647049e+00 171 172 174
-1.236840e+01 3.448893e+01 6.339717e+00 164 163 168
-2.010498e+00 -1.649831e+00 8.852143e-01 109 106 98
1.998044e+01 1.600454e+00 -2.692109e+00 89 81 71
-1.069389e+01 1.016077e+00 -1.080884e-01 125 120 109
1.249986e+01 8.226262e+00 6.666221e+00 130 128 131
-6.554512e+00 8.821264e+00 2.460071e+00 102 95 89
1.624559e+01 9.638887e+00 6.839803e+00 151 151 149
5.608684e+00 1.022647e+01 5.456177e+00 133 124 120
1.484517e+01 1.238303e+01 8.008655e+00 139 137 141
-9.352159e+00 1.282692e+01 3.185208e+00 53 54 56
-1.811975e+01 1.367568e+01 3.034378e+00 249 252 255
2.091197e+01 1.616632e+01 5.997352e+00 254 255 255
-3.252393e+00 1.537766e+01 4.240354e+00 139 137 132
2.068832e+01 1.789410e+01 6.023413e+00 252 254 252
-4.505121e+00 1.622806e+01 4.256100e+00 108 100 97
5.030807e+00 1.710794e+01 4.546467e+00 99 96 91
-1.051239e+01 1.650882e+01 2.922372e+00 123 121 121
-2.861452e+00 1.782224e+01 3.220424e+00 41 37 35
-7.521814e+00 1.715357e+01 3.626651e+00 157 152 148
-7.834243e+00 1.704784e+01 4.208001e+00 97 92 88
-1.077346e+01 1.762272e+01 3.037026e+00 147 143 142
2.933893e+00 1.865366e+01 4.999886e+00 40 36 28
-1.148141e+01 1.782293e+01 4.104714e+00 58 53 49
-8.899282e+00 1.814167e+01 4.508727e+00 155 147 144
1.402433e+01 2.105025e+01 5.776230e+00 155 152 147
-1.047616e+01 1.895047e+01 4.591322e+00 91 86 80
-2.897077e+00 2.003123e+01 5.268414e+00 156 147 148
5.834509e+00 2.255402e+01 7.159388e+00 84 81 73
-1.321625e+01 2.360129e+01 4.001929e+00 130 134 125
-1.303412e+01 2.411054e+01 5.473446e+00 32 30 41
-1.232257e+01 2.439615e+01 5.618282e+00 97 93 89
-9.931775e+00 2.473948e+01 5.741003e+00 88 91 98
1.326787e+01 2.803248e+01 1.014373e+01 123 122 127
1.065998e+01 2.842970e+01 9.585392e+00 67 65 66
6.958633e+00 2.956677e+01 8.091859e+00 135 130 128
5.403109e+00 2.916384e+01 8.603963e+00 164 159 156
1.160246e+01 3.038279e+01 8.743197e+00 83 82 78
-7.429843e+00 -4.175227e+00 -4.621853e-01 101 96 94
-3.526883e+00 -3.468809e+00 2.169320e+00 65 60 57
-5.291787e+00 -1.169649e+00 -1.537124e-01 152 148 149
6.921132e-01 9.113883e+00 3.840253e+00 138 128 123
-7.177654e+00 1.298406e+01 2.040553e+00 144 135 130
-9.717038e+00 1.564753e+01 3.687991e+00 95 86 78
1.135401e+00 1.737174e+01 3.192069e+00 163 163 172
1.967978e-02 1.727506e+01 3.288793e+00 58 60 63
-1.585280e+00 1.774902e+01 3.104831e+00 37 38 46
-2.991351e+00 1.795410e+01 3.254784e+00 146 139 130
-2.715300e+00 1.818715e+01 3.196975e+00 46 36 37
7.840381e+00 1.899205e+01 5.485628e+00 110 109 107
-9.760988e+00 1.785115e+01 4.495510e+00 106 98 95
1.024335e+00 1.916943e+01 4.793862e+00 139 138 136
8.664735e+00 1.970103e+01 5.454976e+00 99 94 89
8.295260e+00 2.002526e+01 6.281640e+00 169 165 162
3.052066e-01 1.988526e+01 5.035396e+00 85 78 71
-1.497982e+01 1.831345e+01 4.461393e+00 60 66 65
1.034736e+01 2.089750e+01 5.590128e+00 93 84 79
1.034736e+01 2.089750e+01 5.590128e+00 93 84 79
4.451227e+00 2.081083e+01 5.859884e+00 91 85 85
1.445328e+01 2.169427e+01 6.779968e+00 100 101 96
1.445328e+01 2.169427e+01 6.779968e+00 100 101 96
3.311890e+00 2.129982e+01 5.781023e+00 105 100 97
5.196792e+00 2.261579e+01 7.224244e+00 141 140 135
7.444694e+00 2.299556e+01 9.041262e+00 47 48 50
-1.259715e+01 2.321836e+01 5.351337e+00 157 155 156
-9.673310e+00 2.424592e+01 5.624048e+00 107 106 104
-1.242491e+01 2.531460e+01 6.014205e+00 147 146 142
-1.172046e+01 3.336607e+01 7.785125e+00 150 149 154
-3.459702e+00 1.499284e+01 5.282070e+00 30 37 56
-1.989790e-01 1.737587e+01 5.806157e+00 33 35 48
8.374043e+00 1.121163e+01 5.112631e+00 63 56 52
1.519595e+00 1.349855e+01 2.594992e+00 124 119 114
1.514346e+00 1.351211e+01 2.726925e+00 124 119 114
5.412874e+00 2.060644e+01 5.653135e+00 164 162 167
9.554838e+00 2.098613e+01 4.140655e+00 124 115 103
3.325658e-01 2.856662e+01 7.713160e+00 51 49 54
3.336188e-01 2.871086e+01 7.765870e+00 119 118 124
-1.427199e+00 1.686217e+01 5.927900e+00 26 25 33
1.533664e+01 2.514124e+01 5.563938e+00 72 72 84
6.906322e+00 1.143224e+01 2.438022e+00 58 40 29
7.322065e-01 1.789062e+01 5.230300e+00 162 151 130
-2.007597e+00 1.831618e+01 5.434425e+00 53 47 44
-2.886827e+00 1.141401e+01 2.555487e+00 132 124 113
1.781810e+01 1.411660e+01 5.540181e+00 123 110 96
-5.164603e+00 1.166087e+01 2.308639e+00 115 102 86
1.543252e+01 1.237754e+01 3.303696e+00 132 118 96
-1.739365e+00 1.549496e+01 4.966462e+00 180 182 161
-2.754907e+00 1.772238e+01 5.203153e+00 38 28 19
-2.328856e+00 1.832161e+01 5.314490e+00 138 128 99
-4.699228e+00 2.681374e+01 7.151444e+00 102 86 71
-1.004877e+00 1.705507e+01 4.974710e+00 164 159 142
1.492568e+01 2.006321e+01 5.631151e+00 116 101 80
-4.108357e+00 1.796807e+01 4.828926e+00 107 94 78
-1.134087e+00 2.105140e+01 5.730651e+00 107 90 75
-1.159873e+01 2.411751e+01 6.390984e+00 176 169 151
1.471319e+01 1.078671e+01 4.037267e+00 125 109 94
1.265620e+01 1.915656e+01 4.893039e+00 125 115 101
-1.378437e+01 1.677446e+01 4.623960e+00 195 189 171
-3.230027e+00 1.324149e+01 3.659943e+00 152 144 123
-6.102153e+00 1.662169e+01 3.116662e+00 167 163 141
7.385444e+00 2.304462e+01 5.484508e+00 72 66 59
-4.814351e+00 2.501321e+01 5.987961e+00 133 127 111
-6.164102e+00 2.532057e+01 5.808448e+00 159 151 130
7.420979e+00 2.907519e+01 7.450418e+00 66 63 58
8.652190e+00 2.318018e+00 -2.465945e+00 72 67 55
7.927001e+00 1.094707e+01 3.440234e-01 139 129 106
1.158341e+00 1.910967e+01 6.201277e+00 48 51 48
-8.519290e+00 2.623239e+01 6.696133e+00 55 56 51
7.685523e+00 2.851333e+01 6.943267e+00 97 92 78
8.889345e+00 4.547205e+01 1.748361e+01 102 106 105
9.227146e+00 7.395350e+00 -1.077856e+00 167 162 140
-8.031024e+00 1.886520e+01 4.379951e+00 89 85 66
-6.783832e+00 2.661455e+01 6.162905e+00 164 159 137
9.925065e+00 2.323490e+00 -2.378902e+00 79 71 58
4.638337e+00 1.083716e+01 9.600685e-01 55 52 41
-1.437316e+01 1.782766e+01 4.693123e+00 89 82 72
-7.986640e+00 1.982256e+01 4.974551e+00 153 146 126
-4.678657e+00 2.523884e+01 6.310534e+00 126 122 104
-1.072534e+01 1.201151e+01 2.479856e+00 133 116 106
9.017176e-01 1.544147e+01 4.679638e+00 39 38 34
3.649617e-01 1.562999e+01 6.725888e+00 43 43 41
6.569150e+00 1.783123e+01 4.272778e+00 79 72 57
-1.523206e+01 1.594785e+01 3.640987e+00 113 111 96
-1.338390e+01 1.680568e+01 4.438488e+00 98 91 75
1.068807e+01 2.968599e+01 7.067033e+00 142 134 116
-4.942368e+00 1.136204e+01 5.398276e+00 73 71 54
-4.580811e+00 1.240578e+01 1.425210e+00 149 143 124
3.706788e+00 1.599011e+01 6.256518e+00 130 112 95
2.205385e-01 1.662461e+01 5.786309e+00 143 136 120
-1.235457e+01 1.689334e+01 5.081986e+00 94 89 71
-1.151845e+01 1.766078e+01 4.616243e+00 78 68 56
6.826268e+00 1.950193e+00 -9.670911e-01 80 64 48
-2.869066e+00 1.204378e+01 1.442407e+00 79 74 58
8.173892e+00 1.372211e+01 9.885595e-01 119 112 89
1.419211e+00 1.258606e+01 5.398893e+00 139 134 115
2.988458e+00 1.424127e+01 6.073703e+00 58 53 43
-1.623230e+00 1.833465e+01 5.943961e+00 114 112 103
-1.318488e+01 1.761821e+01 4.904782e+00 92 86 67
-1.847114e+00 1.857718e+01 5.607479e+00 47 45 38
-5.875132e-01 1.891630e+01 5.276630e+00 91 83 74
9.163507e+00 2.216191e+01 5.644205e+00 100 92 74
1.012076e+01 2.996248e+01 7.635669e+00 72 73 60
9.997682e-01 2.140618e+01 5.479269e+00 85 77 64
1.565732e+01 2.529439e+01 5.199391e+00 109 100 85
1.054944e+01 2.997721e+01 7.129552e+00 74 69 57
7.263865e+00 -3.157871e+00 3.658371e+00 83 80 74
8.373201e-01 8.677674e-01 1.286496e+00 121 115 109
2.868684e+00 2.346873e+00 3.133852e+00 81 63 42
-1.878234e+00 -3.743288e+00 -2.867195e-01 81 69 57
-1.589155e+01 1.180220e+01 2.875553e+00 158 157 139
8.446639e+00 6.904760e-01 7.374275e-01 98 86 70
-1.694500e+01 1.908284e+01 4.861775e+00 166 163 152
8.545881e+00 4.540350e-02 6.406012e-01 89 78 58
-4.026728e+00 -8.475208e-01 1.741415e+00 66 54 45
5.554310e+00 2.807777e+01 8.036653e+00 90 84 61
9.252409e+00 -1.178738e+00 9.614173e-01 38 31 20
-1.047811e+01 8.797712e-01 3.505837e-01 54 44 32
-1.663418e+01 9.299802e+00 1.473619e+00 104 101 91
-7.045415e+00 1.873575e-01 7.891055e-01 50 43 26
-1.454535e+01 8.410176e+00 1.550802e+00 122 115 92
-1.349803e+01 1.708183e+01 4.480890e+00 148 143 122
9.676307e+00 -3.158260e+00 1.057776e+00 103 103 111
-1.073492e+01 1.304988e-01 3.658488e-01 189 190 195
-1.072814e+01 1.320312e-01 3.698929e-01 189 190 195
8.989734e+00 -1.959903e+00 2.321434e+00 193 197 206
4.287151e+00 5.411359e+00 1.682279e+00 215 219 230
7.224642e+00 3.970296e-01 2.579291e+00 185 185 197
7.752632e+00 -2.945209e+00 2.203496e+00 222 226 235
4.988851e+00 -2.995101e+00 1.683969e+00 163 166 171
8.500184e+00 -1.525600e+00 2.366961e+00 142 141 146
8.965760e+00 -1.028321e-01 1.386045e+00 110 110 118
7.897735e+00 -2.107363e+00 2.297294e+00 197 200 207
8.045106e+00 -1.389118e+00 2.383360e+00 189 190 193
1.135537e+01 2.009358e+00 2.583019e+00 123 123 123
7.985975e+00 -4.201561e-01 2.590701e+00 143 145 154
-1.447269e+01 9.161504e+00 1.514142e+00 84 75 68
-1.431776e+01 9.000685e+00 1.866628e+00 84 75 68
-1.536234e+01 1.137108e+01 2.618336e+00 195 191 192
8.365318e+00 8.076620e+00 2.543828e+00 71 64 59
1.046131e+01 9.547166e+00 3.191263e+00 132 120 111
1.046131e+01 9.547166e+00 3.191263e+00 132 120 111
-1.481726e+01 9.161777e+00 1.863030e+00 50 44 55
-3.225497e+00 1.026706e+01 2.535145e+00 17 20 25
9.408976e+00 1.136928e+01 3.855730e+00 29 29 17
5.189607e+00 1.183694e+01 3.662154e+00 172 167 157
-1.457274e+01 1.096913e+01 2.005905e+00 88 81 79
-1.329148e+01 -2.606341e+00 -6.640288e-01 63 61 41
1.072867e+01 1.046959e+01 3.855055e+00 155 149 137
-1.503452e+01 9.954720e+00 2.011007e+00 165 159 155
9.683559e+00 1.202576e+01 4.377950e+00 116 117 104
9.683559e+00 1.202576e+01 4.377950e+00 116 117 104
-1.453691e+01 -1.434643e+00 -2.350130e-01 165 162 172
-1.610238e+01 5.334013e-02 -2.224721e-01 57 44 46
9.777632e+00 7.106167e+00 3.956787e+00 171 167 159
1.083319e+01 9.536311e+00 3.617785e+00 125 115 105
-3.089742e+00 9.366294e+00 2.368453e+00 168 160 144
-9.543123e+00 9.112249e+00 1.817501e+00 44 39 43
9.532512e+00 1.040724e+01 3.630075e+00 134 131 119
-1.709854e+01 9.364513e+00 1.531908e+00 68 67 66
-1.708016e+01 9.343557e+00 1.567378e+00 68 67 66
6.145113e+00 1.184454e+01 3.652725e+00 147 145 131
9.251044e+00 1.263911e+01 4.337877e+00 54 53 67
-1.581513e+01 1.121162e+01 2.347554e+00 196 186 186
9.223624e-01 1.325285e+01 3.362789e+00 27 43 54
9.223624e-01 1.325285e+01 3.362789e+00 27 43 54
1.900638e+00 1.347288e+01 3.543363e+00 23 41 63
4.056940e-01 1.345861e+01 3.478712e+00 174 165 160
-1.293033e+01 1.258230e+01 3.056618e+00 153 153 156
-1.558765e+01 -1.145972e+00 -5.970355e-01 161 161 161
-1.558765e+01 -1.145972e+00 -5.970355e-01 161 161 161
-1.520679e+01 -6.430362e-01 -5.719284e-01 111 102 92
-1.426110e+01 8.454644e+00 1.919361e+00 54 52 58
-1.053069e+01 8.949767e+00 2.071196e+00 44 45 31
8.272120e+00 1.034072e+01 3.502251e+00 150 149 140
1.033010e+01 1.077766e+01 3.856184e+00 54 54 44
9.027325e+00 1.074482e+01 3.647692e+00 69 61 51
1.305798e+00 1.345061e+01 3.538552e+00 157 155 148
1.305798e+00 1.345061e+01 3.538552e+00 157 155 148
1.218293e+00 1.401221e+01 3.564840e+00 189 184 190
-6.426541e-01 1.384071e+01 3.459957e+00 174 178 183
-1.632440e+01 7.239259e-01 -1.650954e-01 100 88 78
-1.122151e+01 3.955627e+00 9.839787e-01 148 138 128
-1.565509e+01 5.158085e+00 8.527549e-01 145 135 118
-1.534967e+01 6.421191e+00 1.144855e+00 130 136 128
1.042033e+01 8.721598e+00 3.103634e+00 153 153 143
7.925159e+00 8.682803e+00 2.550399e+00 139 140 144
-8.161323e+00 9.028672e+00 1.884732e+00 164 156 146
-3.209838e-01 9.983196e+00 2.580335e+00 66 62 56
-1.645909e+01 8.894121e+00 1.561003e+00 40 30 54
1.014592e+01 1.122680e+01 3.805739e+00 145 138 119
-1.348288e+01 1.141915e+01 1.659568e+00 67 79 68
6.144904e+00 1.291653e+01 4.173645e+00 95 82 76
-2.603109e-01 1.410159e+01 3.649093e+00 35 28 61
8.989724e+00 -1.201726e+00 1.360623e+00 32 28 26
-2.104477e+01 1.673917e+00 1.239366e+01 153 158 174
-8.033722e+00 7.432277e+00 1.757099e+00 152 137 128
9.415729e+00 8.815557e+00 2.929254e+00 32 33 38
3.943897e+00 9.061966e+00 2.735488e+00 32 37 36
1.112487e+01 9.808276e+00 3.653109e+00 139 127 113
8.541065e+00 1.030084e+01 3.290437e+00 177 171 163
-1.026256e+01 9.231342e+00 2.141378e+00 122 112 104
-1.698306e+01 8.898313e+00 1.724117e+00 85 78 80
-1.616711e+01 9.132763e+00 1.640036e+00 29 30 30
-1.612497e+01 9.070009e+00 1.741467e+00 29 30 30
6.814924e+00 1.094956e+01 3.346562e+00 133 121 122
9.896049e+00 1.220192e+01 4.426134e+00 173 169 164
-1.623158e+01 1.116436e+01 2.034314e+00 170 162 159
6.673273e+00 1.302847e+01 4.142431e+00 86 78 68
8.471292e+00 1.307898e+01 4.934418e+00 149 145 134
2.264691e-01 1.361641e+01 3.555152e+00 165 159 159
-1.295294e+01 -2.298775e+00 -4.921597e-01 120 111 102
-3.462240e+00 -1.489827e+00 6.602558e-01 33 21 19
8.367087e+00 -5.663162e-01 1.038955e+00 67 55 50
-1.607083e+01 4.653106e+00 4.891365e-01 159 146 144
-1.659171e+01 6.374421e+00 1.054811e+00 166 161 155
-2.737158e+00 9.203553e+00 2.643044e+00 33 30 19
-1.090083e+00 9.617832e+00 2.398890e+00 49 50 45
-1.146569e-01 9.754202e+00 2.648918e+00 153 144 127
9.111719e+00 1.036166e+01 3.454239e+00 40 42 35
7.628236e+00 1.045238e+01 3.217214e+00 146 133 127
-1.342051e+01 9.175831e+00 1.715022e+00 45 39 36
-1.420344e+01 1.012818e+01 1.864718e+00 154 147 144
-1.457426e+01 1.002087e+01 1.957293e+00 171 162 165
-1.351514e+01 1.047832e+01 2.666392e+00 80 78 62
-6.755896e+00 1.146180e+01 2.546728e+00 86 83 68
-3.318385e+00 1.182141e+01 2.889916e+00 74 78 66
-1.170982e+00 1.204090e+01 3.071380e+00 98 88 69
-1.196182e+00 1.197950e+01 3.157089e+00 98 88 69
9.113434e+00 1.312885e+01 4.314171e+00 169 160 149
5.184691e+00 1.295683e+01 3.769945e+00 74 81 65
-9.673385e-01 1.317675e+01 3.308411e+00 51 46 67
-7.024967e-01 1.341915e+01 3.312623e+00 184 175 180
2.952770e+00 1.373475e+01 3.683968e+00 36 52 52
3.510302e+00 1.430796e+01 4.093828e+00 45 55 58
3.615849e+00 1.447703e+01 3.894637e+00 45 55 58
9.160755e+00 -9.480718e-01 8.641853e-01 63 62 47
-1.374532e+01 -1.064820e+00 -2.870849e-01 84 77 62
-1.061244e+01 9.558157e-01 4.377471e-01 121 114 96
-1.631647e+01 6.534169e+00 9.567455e-01 153 151 159
-1.028323e+01 6.966360e+00 1.287688e+00 158 147 151
-1.676971e+01 6.486617e+00 1.124389e+00 132 130 128
-1.170052e+01 7.133185e+00 1.230552e+00 72 73 62
-8.086454e+00 8.819826e+00 1.607958e+00 123 109 98
7.565562e+00 1.100145e+01 3.570515e+00 158 150 134
1.042894e+01 1.152664e+01 4.003716e+00 111 94 78
4.529027e+00 1.247931e+01 3.701705e+00 80 86 73
4.441860e+00 1.264804e+01 3.853658e+00 163 156 148
7.672914e+00 1.291350e+01 4.234014e+00 165 157 154
-2.768736e+00 1.237203e+01 3.110217e+00 176 169 159
-1.032823e+00 1.292940e+01 3.315468e+00 171 162 157
5.117636e-01 1.309987e+01 3.424828e+00 70 71 65
8.895520e+00 1.398549e+01 3.928109e+00 107 101 86
7.936346e+00 1.493877e+01 4.350094e+00 164 155 145
5.241573e-02 1.450221e+01 3.760003e+00 101 97 86
9.870378e+00 -3.198125e+00 1.488126e+00 114 110 100
1.019011e+01 -3.232527e+00 1.046444e+00 114 110 100
9.525144e+00 -3.172474e+00 4.364076e-01 60 54 42
-9.326842e+00 -2.213913e+00 2.302854e-02 130 117 108
-1.543637e+01 -1.679967e+00 -6.511149e-01 87 92 77
9.425266e+00 1.508445e-01 1.619295e+00 76 63 50
-1.608888e+01 -2.245412e-01 -6.762628e-01 169 169 157
-4.276542e+00 8.962739e-01 -1.330415e-01 87 77 70
-2.217617e+01 4.183741e+00 -4.782399e+00 38 47 61
3.542101e+00 5.405582e+00 1.218122e+00 64 49 42
-1.606207e+01 6.461888e+00 1.043619e+00 149 141 142
1.626842e+00 7.847157e+00 2.117895e+00 55 59 61
1.078201e+01 8.652089e+00 3.286993e+00 170 169 174
8.661055e+00 8.820395e+00 2.857522e+00 163 146 136
6.841665e+00 1.008845e+01 3.045246e+00 96 97 86
7.200400e+00 1.096721e+01 3.014406e+00 51 50 43
5.653049e+00 1.155002e+01 3.404789e+00 50 45 40
7.748752e+00 1.273342e+01 4.183702e+00 88 84 76
7.505365e+00 1.289194e+01 4.201567e+00 70 74 58
3.435760e+00 1.401670e+01 3.773016e+00 46 53 45
-1.264698e+01 -4.644514e+00 -1.307432e+00 140 141 137
-1.544606e+01 -1.552863e+00 -6.258225e-01 92 88 76
-2.169790e+01 3.945512e+00 -5.062279e+00 134 135 141
1.131989e+01 8.674650e+00 3.280222e+00 156 146 143
9.754585e+00 8.972875e+00 2.887829e+00 131 120 105
-1.500742e+01 7.930280e+00 1.419848e+00 156 155 158
9.900357e+00 1.029552e+01 3.555143e+00 138 128 123
7.825057e+00 1.173919e+01 3.674814e+00 50 46 43
8.212947e+00 1.334469e+01 4.401877e+00 121 112 112
3.967542e+00 1.441241e+01 3.909077e+00 128 129 116
8.109307e+00 1.505919e+01 4.351994e+00 112 108 98
4.064950e+00 1.479768e+01 3.924074e+00 163 159 161
9.687276e+00 2.786512e+00 1.541013e+00 54 53 37
-2.119994e+01 3.071851e+01 9.355162e+00 255 255 255
-8.729558e+00 3.544787e+01 1.182624e+01 182 168 155
-1.158927e+01 1.218022e+01 2.359462e+00 82 84 75
2.176955e+00 4.064953e+01 1.198736e+01 121 106 88
-3.009624e+01 2.727528e+00 2.252209e+00 170 152 128
-2.934365e+01 5.094857e+00 -1.562766e+00 78 70 66
-1.688439e+01 1.640615e+01 3.702316e+00 147 122 102
-6.884282e+00 3.733607e+01 1.606314e+01 110 102 87
-3.165488e+01 3.680942e+00 -8.321364e-01 207 199 190
-5.010681e+00 2.490452e+01 6.298038e+00 176 160 140
-1.574038e+01 2.590193e+01 7.295558e+00 109 92 74
-2.912554e+01 1.851349e+00 5.852531e+00 178 161 138
-1.346965e+01 6.130523e+00 7.813506e-01 124 108 90
-1.034610e+01 7.530721e+00 7.886700e-01 115 92 64
-9.067570e+00 1.006258e+01 4.226544e+00 183 167 151
1.727398e+01 3.182380e+01 6.497342e+00 191 178 158
1.734560e+01 3.182747e+01 6.405024e+00 191 178 158
-3.212822e+01 3.166039e+00 -2.007819e+00 110 107 96
-3.212822e+01 3.166039e+00 -2.007819e+00 110 107 96
-2.895380e+01 3.470433e+00 5.792095e+00 98 95 85
-2.917571e+01 4.399087e+00 9.775691e+00 74 74 68
-1.430434e+01 9.743035e+00 1.861801e+00 183 168 153
-8.615982e-01 2.319535e+01 1.136680e+01 104 94 79
-6.058647e+00 3.648954e+01 1.583699e+01 254 254 254
-8.999564e+00 6.735747e+00 4.883217e-01 126 115 104
-9.576897e+00 7.030596e+00 1.143688e+00 195 178 164
-2.036578e-01 1.322524e+01 2.988458e+00 80 80 71
-1.956533e+01 3.448236e+01 1.177769e+01 254 254 255
-3.081641e+01 5.405258e+00 1.068284e+00 178 168 166
-5.663630e+00 7.651738e+00 -4.192444e-01 203 187 172
-6.913191e-01 8.169369e+00 1.070969e-01 188 170 155
-3.691351e+00 1.042577e+01 1.609926e-01 70 55 32
8.834715e+00 1.123243e+01 3.283780e+00 173 153 128
8.876443e+00 1.127338e+01 2.993707e+00 173 153 128
1.014188e+01 1.132590e+01 3.496384e+00 175 156 134
-1.622014e+01 1.445641e+01 2.297059e+00 207 194 181
-5.401943e+00 2.689160e+01 6.904316e+00 114 102 81
-5.773515e+00 2.755091e+01 1.777420e+01 253 253 255
1.825045e+01 3.103229e+01 8.038353e+00 106 92 66
8.952171e+00 2.214959e-01 -8.929146e-01 179 168 155
-2.325606e+01 1.132998e+01 -4.525466e+01 172 157 146
-3.426123e+01 1.411351e+00 4.565348e+00 160 145 130
-2.841463e+01 2.153346e+00 1.096074e+01 165 155 144
-3.073394e+01 5.656698e+00 1.823315e+00 92 81 64
-1.528529e+01 9.351920e+00 1.306090e+00 110 96 82
7.564894e+00 1.050978e+01 2.729673e+00 176 155 130
1.089827e+01 1.132942e+01 3.377434e+00 161 146 122
1.069673e+01 1.122766e+01 3.936556e+00 161 146 122
-1.482604e+01 1.388519e+01 4.479580e+00 197 180 161
6.593744e-01 1.557495e+01 5.078376e+00 191 176 154
-1.645046e+01 1.595883e+01 2.854013e+00 211 199 182
1.188261e+01 2.036443e+01 4.582467e+00 97 78 57
-5.035108e+00 2.331963e+01 9.276786e+00 61 50 31
-2.095644e+00 2.351347e+01 1.156995e+01 254 255 252
-1.817108e+01 2.551220e+01 7.060908e+00 96 84 67
-5.975581e-01 2.657123e+01 7.573194e+00 84 78 65
1.063702e+01 2.968509e+01 7.071087e+00 190 174 154
-1.751131e+01 2.971984e+01 7.386219e+00 199 185 172
-1.836760e+01 3.347364e+01 8.474010e+00 254 255 254
-1.306706e+01 3.805856e+01 1.118507e+01 99 88 75
-4.691218e+00 8.092856e+00 1.498865e-01 94 76 50
2.007691e+00 9.727646e+00 5.578707e-01 108 89 66
-2.289543e+00 9.443027e+00 2.238916e+00 90 71 39
-1.262443e+01 1.106040e+01 1.881063e+00 109 93 72
-2.135151e+00 1.210745e+01 3.313419e+00 115 98 83
-1.474082e+01 1.456738e+01 4.572091e+00 193 178 156
-1.228096e+01 1.538788e+01 5.044033e+00 109 95 76
-1.243256e+01 1.639165e+01 4.893206e+00 205 187 168
-3.065263e+00 1.732163e+01 5.710457e+00 174 149 125
1.041575e+01 2.131500e+01 4.876751e+00 121 103 77
-9.298467e-01 2.078421e+01 5.039635e+00 116 100 81
-3.862780e+00 2.211861e+01 5.991230e+00 98 80 62
-3.862780e+00 2.211861e+01 5.991230e+00 98 80 62
-1.389644e+01 2.217736e+01 6.172034e+00 183 166 143
-1.316509e+01 2.462565e+01 6.934068e+00 39 37 20
-4.750881e+00 2.749224e+01 7.364431e+00 176 156 137
-5.352705e+00 2.766586e+01 6.895090e+00 101 84 64
-6.207123e+00 2.829384e+01 5.601915e+00 151 135 118
5.527598e+00 3.023177e+01 6.045593e+00 102 83 57
1.842061e+01 3.083715e+01 8.102235e+00 124 111 93
-1.260816e+01 3.307335e+01 1.007904e+01 189 175 159
2.516895e+00 3.538678e+01 1.011947e+01 140 113 101
-1.528514e+01 3.589028e+01 1.190366e+01 30 19 13
9.651540e+00 4.091390e+01 1.209394e+01 180 159 132
1.098161e+00 4.049484e+01 1.163936e+01 146 126 120
8.596183e+00 4.207067e+01 1.211547e+01 105 90 77
-1.693226e+01 4.144267e+01 1.284725e+01 189 177 165
4.277003e+00 4.295789e+01 1.220316e+01 123 117 106
-8.328142e+00 4.274741e+01 1.268706e+01 254 249 242
-8.880079e+00 4.269549e+01 1.294810e+01 254 253 251
-1.563908e+01 1.439741e+00 -1.971711e-01 214 200 183
-1.365440e+01 6.553206e+00 1.030958e+00 187 172 153
9.115868e+00 8.282167e+00 4.342512e+00 172 170 155
-1.294398e+01 8.025253e+00 1.859704e+00 99 82 65
-1.294398e+01 8.025253e+00 1.859704e+00 99 82 65
-1.062258e+01 1.126248e+01 1.267948e+00 156 141 123
-1.033564e+01 1.267573e+01 4.375293e+00 152 130 105
-1.888526e+00 1.703621e+01 5.542772e+00 68 57 42
8.670955e+00 2.001137e+01 4.554280e+00 130 112 90
1.089778e+01 2.185067e+01 5.006269e+00 182 159 134
-2.726564e+00 2.216178e+01 1.134131e+01 82 65 56
-1.325197e+01 2.443321e+01 6.759494e+00 29 23 7
-1.907139e+01 2.466279e+01 7.336356e+00 254 249 243
-1.220033e+01 2.788425e+01 3.884424e+00 89 78 62
-1.342742e+01 2.690961e+01 8.606064e+00 88 76 63
7.083131e+00 2.889836e+01 7.156929e+00 138 129 110
1.723266e+00 2.912931e+01 7.087378e+00 162 152 132
1.808361e+01 3.001518e+01 7.659422e+00 107 96 79
1.156631e+01 2.972193e+01 7.155615e+00 161 146 126
-1.525788e+01 3.217769e+01 8.148533e+00 185 172 156
-1.958151e+01 3.578599e+01 1.115317e+01 250 253 251
-1.283709e+01 3.638833e+01 1.085295e+01 173 155 134
-1.569216e+01 3.833064e+01 1.173303e+01 174 165 151
4.789966e+00 4.142167e+01 1.187562e+01 134 122 109
7.272944e+00 4.357127e+01 1.247694e+01 175 159 136
1.430475e+01 -4.196804e+00 2.887156e-01 187 182 175
-4.464512e+00 8.054665e-01 -9.979717e-01 143 120 103
-2.316247e+01 3.030929e+00 1.277775e+01 102 91 84
-1.472185e+01 6.551806e+00 1.585930e+00 110 93 77
2.606595e+00 1.015530e+01 1.512179e+00 106 75 47
-1.080153e+01 1.182980e+01 2.153595e+00 154 149 136
-1.383708e+01 1.670696e+01 4.925734e+00 191 174 147
-1.368043e+01 1.718730e+01 4.986540e+00 125 110 90
8.222726e+00 1.874807e+01 4.246438e+00 187 176 148
8.840445e+00 2.028565e+01 4.664682e+00 127 108 87
-1.442736e+01 2.434241e+01 6.819574e+00 180 164 139
-1.535825e+01 2.465195e+01 6.820063e+00 108 96 81
-2.802726e+00 2.644034e+01 6.543969e+00 188 179 168
-1.616502e+01 2.583515e+01 6.048033e+00 164 148 128
-1.960453e+01 2.607778e+01 8.197160e+00 249 249 246
2.048683e+00 2.973084e+01 -3.061209e-01 178 163 141
8.733646e+00 2.910717e+01 6.851048e+00 105 85 64
1.565355e+01 3.148591e+01 1.666656e-01 100 74 61
1.122664e+01 3.022631e+01 7.312264e+00 160 151 127
1.489145e+01 3.199950e+01 2.976324e-01 164 150 123
7.340468e+00 3.095899e+01 7.367583e+00 140 126 109
-1.507404e+01 3.198355e+01 8.041624e+00 133 117 103
6.009344e+00 3.644975e+01 9.586741e+00 146 126 108
-1.248762e+01 3.632836e+01 1.127141e+01 116 99 81
-1.533729e+01 3.780597e+01 1.146378e+01 120 111 96
-1.582987e+01 3.813599e+01 1.137858e+01 180 164 146
-1.723929e+01 3.879796e+01 1.122979e+01 179 174 154
-1.178652e+01 3.945857e+01 1.295130e+01 124 116 101
-1.694905e+01 4.166806e+01 1.290584e+01 153 142 130
1.556803e+01 4.379011e+01 1.237677e+01 106 93 76
9.797112e+00 4.453454e+01 1.272818e+01 136 120 104
1.009958e+01 4.479228e+01 1.251851e+01 119 104 88
9.852146e+00 4.481929e+01 1.266784e+01 172 151 132
5.461120e+00 4.619613e+01 1.349799e+01 145 117 106
1.030207e+01 1.125914e+01 3.635159e+00 157 130 99
-9.986912e+00 1.317546e+01 3.243574e+00 190 174 149
-1.392752e+01 1.968747e+01 5.255548e+00 117 104 86
-8.736505e+00 2.538922e+01 6.624160e+00 89 87 72
-1.947650e+01 2.580103e+01 7.653178e+00 178 170 168
-2.850894e+00 2.700153e+01 6.698482e+00 109 96 80
-1.926375e+01 2.697916e+01 6.717299e+00 245 232 225
-1.582135e+01 3.548181e+01 1.123078e+01 110 93 77
-9.378123e+00 -3.273309e+00 2.747091e-01 127 124 117
-6.354265e+00 2.128390e+01 5.705520e+00 101 99 102
-1.417291e+01 6.504783e+00 1.275065e+00 158 159 162
-1.329739e+01 3.511112e+01 4.952683e+00 60 76 94
-1.096182e+01 7.151443e+00 1.546586e+00 57 55 59
-1.184494e+01 1.761176e+01 3.458041e+00 87 83 84
1.747663e+00 2.161116e+01 5.497030e+00 174 173 169
-3.206909e+00 -1.923091e+00 6.111623e-01 131 133 122
-1.938186e+01 3.736348e+01 8.625640e+00 244 250 243
-3.077485e+00 -1.931663e+00 6.186310e-01 66 64 52
-1.501841e+01 7.927818e+00 1.710874e+00 123 120 127
2.054618e+01 3.973882e+01 -8.040677e+00 90 93 112
-1.296782e+01 3.679231e+01 5.326896e+00 105 106 111
2.048979e+00 1.368898e+01 2.746167e+00 46 48 60
8.657874e+00 3.827550e+01 8.684717e+00 34 46 58
-1.260652e+01 1.279011e+01 3.285113e+00 58 60 71
-1.137486e+01 3.992969e+00 6.665291e-01 142 134 130
-3.235928e-01 8.029524e+00 2.566632e+00 39 36 31
-1.426940e+01 6.594867e+00 1.799215e+00 40 36 37
-1.523977e+01 8.045522e+00 1.998096e+00 57 55 58
-8.254170e+00 8.870099e+00 2.411822e+00 157 147 148
1.155232e+01 3.390241e+01 9.433383e+00 80 88 109
2.143378e+01 3.262727e+00 -1.971970e+00 153 151 152
-1.499353e+01 5.903211e+00 1.165888e+00 79 75 73
-3.014112e+00 1.175879e+01 3.116677e+00 91 86 83
-3.651652e+00 1.172294e+01 3.329338e+00 160 155 152
2.237282e+00 1.766726e+01 3.737590e+00 43 43 33
-7.283526e+00 1.987297e+01 4.786375e+00 105 100 97
-1.894379e+01 2.731389e+01 5.818026e+00 241 251 252
-9.290154e+00 6.511645e+00 1.100953e+00 84 80 77
-6.324951e+00 1.524848e+01 4.135272e+00 115 113 116
-6.324951e+00 1.524848e+01 4.135272e+00 115 113 116
7.739740e+00 7.764914e+00 5.416250e+00 132 131 129
6.577101e+00 9.053700e+00 5.217948e+00 146 137 138
-1.265363e+00 1.447919e+01 2.937798e+00 179 180 184
-1.265363e+00 1.447919e+01 2.937798e+00 179 180 184
-1.137686e+00 1.463111e+01 2.922844e+00 169 168 169
-3.571399e-02 1.831540e+01 3.962361e+00 170 170 163
-1.864357e+01 2.562752e+01 6.699780e+00 145 157 165
-1.519597e+01 3.279288e+01 7.641533e+00 103 104 109
-1.528621e+01 4.254462e+00 -7.123028e+00 132 123 124
-1.917222e+01 1.900659e+01 8.440731e+00 227 235 255
8.601670e+00 4.398230e+01 1.214467e+01 126 122 128
-1.826573e+01 2.811203e+01 9.195554e+00 111 111 119
1.612460e+01 2.453387e+01 6.299741e+00 55 50 52
-1.337968e+01 2.312515e+01 8.677514e+00 22 25 43
1.704874e+01 1.050183e+01 7.143799e+00 48 44 41
-5.833279e+00 1.490404e+01 3.612320e+00 136 128 127
-1.568856e+01 1.426903e+01 4.154165e+00 149 147 148
-5.804297e+00 1.833723e+01 4.253394e+00 75 68 62
-5.804297e+00 1.833723e+01 4.253394e+00 75 68 62
2.099155e+01 2.233828e+01 4.822872e+00 221 232 254
-1.046760e+01 4.047671e+01 1.399844e+01 67 76 93
-1.618566e+01 1.410913e+01 4.159505e+00 106 97 103
-1.020986e+00 1.709479e+01 5.626741e+00 30 37 48
-1.146644e+01 2.595610e+01 7.458273e+00 113 108 104
-6.697358e+00 2.665603e+01 8.499350e+00 137 133 135
-1.322237e+01 2.634704e+01 1.060555e+01 27 33 52
-1.894933e+01 3.335455e+01 1.083027e+01 110 108 122
-1.904618e+01 3.531388e+01 1.393361e+01 144 154 164
-1.598553e+01 1.255796e+01 3.862197e+00 147 146 153
2.030733e+01 2.202587e+01 2.654531e+00 88 81 76
-1.514190e+01 2.990209e+01 9.597883e+00 111 111 121
-1.814637e+01 4.079304e+01 1.317175e+01 232 245 252
-3.665933e+00 1.058304e+01 2.418893e-01 32 30 26
-5.850420e+00 2.066542e+01 5.732976e+00 156 155 150
-1.837089e+01 3.838789e+01 1.246663e+01 112 116 122
-9.308874e+00 4.081684e+01 1.260726e+01 114 118 129
-9.519366e+00 4.272472e+01 1.322447e+01 60 71 100
4.195216e+00 4.575857e+01 1.400522e+01 227 243 249
3.028982e+00 4.528922e+01 1.426774e+01 229 245 252
-1.857771e+01 1.289996e+01 5.997519e+00 210 222 241
-5.455582e+00 1.538634e+01 3.184691e+00 81 76 72
-1.631051e+01 1.488324e+01 4.279307e+00 87 86 102
-1.022866e+01 1.657029e+01 5.823115e+00 54 48 42
-1.344505e+01 1.683607e+01 5.474203e+00 83 75 72
-1.158116e+01 2.028138e+01 6.198511e+00 145 142 139
-1.024463e+01 2.497182e+01 9.002672e+00 129 126 131
-6.417978e+00 2.876466e+01 8.277306e+00 124 121 127
1.029616e+00 3.821708e+01 1.298653e+01 248 248 255
-1.888726e+01 3.568813e+01 1.395112e+01 65 71 107
-1.532883e+01 3.914771e+01 1.243630e+01 53 57 77
-9.693323e+00 4.057769e+01 1.258934e+01 52 58 77
1.427503e+01 5.046645e+01 1.231675e+01 231 247 246
-2.042307e+01 -2.371107e-02 1.800224e+01 88 103 119
-1.564223e+01 8.664978e+00 2.217413e+00 114 112 113
2.084417e+01 1.821750e+01 1.341142e+00 141 135 131
-1.628661e+01 1.448826e+01 4.574203e+00 79 76 87
-2.024950e+00 1.685917e+01 4.553443e+00 34 26 37
3.026219e+00 1.791290e+01 5.885930e+00 101 93 82
-1.102119e+01 1.945007e+01 5.198801e+00 81 73 71
5.688245e+00 2.294906e+01 4.689069e+00 151 145 145
5.688053e+00 2.851300e+01 6.763793e+00 140 135 127
-1.960702e+01 2.401115e+01 8.949872e+00 104 107 148
8.646297e+00 3.114840e+01 8.405172e+00 32 34 44
-1.958030e+01 3.561838e+01 1.140756e+01 236 251 254
-1.434887e+01 3.800567e+01 1.191734e+01 111 110 115
-1.296977e+01 3.873531e+01 1.194303e+01 75 81 95
-1.082488e+01 3.946860e+01 1.233197e+01 66 75 84
1.988670e+00 4.348716e+01 1.387893e+01 237 250 254
1.562997e+01 4.960254e+01 1.189852e+01 238 249 253
1.142778e+01 4.877931e+01 1.285805e+01 181 199 209
3.637620e+00 4.553852e+01 1.439199e+01 221 237 247
-1.907824e+01 1.186904e+01 4.794464e+00 74 82 101
-1.174437e+01 1.837193e+01 5.614391e+00 115 108 98
7.656099e+00 2.748424e+01 6.731775e+00 140 136 141
1.201000e+01 2.962623e+01 6.808356e+00 130 127 129
2.578008e+00 2.888335e+01 7.946941e+00 45 42 51
1.049754e+01 4.421292e+01 1.227999e+01 60 64 66
1.665511e+01 4.717079e+01 1.153726e+01 82 100 117
-7.161615e+00 3.867799e+01 1.504942e+01 99 102 145
-7.161615e+00 3.867799e+01 1.504942e+01 99 102 145
2.631244e+00 4.546257e+01 1.447008e+01 135 149 176
2.225205e+01 1.922526e+01 3.288515e+00 229 230 255
2.508116e+01 2.142107e+01 -1.456667e+00 212 221 251
-1.902763e+00 1.808566e+01 6.125487e+00 131 132 138
-1.885389e+01 1.809893e+01 7.611457e+00 203 216 232
1.369721e+01 3.010771e+01 6.543643e+00 54 50 52
1.021120e+01 3.018165e+01 7.315418e+00 37 36 38
-1.954870e+01 2.566803e+01 8.778293e+00 218 234 240
1.782177e+01 4.529864e+01 1.096480e+01 239 250 255
6.378300e+00 4.310910e+01 1.211943e+01 57 60 65
2.654280e+00 4.518834e+01 1.466882e+01 216 226 254
-1.486529e+01 6.854764e+00 3.238688e-01 55 53 56
-2.513631e+01 4.541335e+00 1.140107e+01 179 196 244
2.150782e+01 3.109012e+01 4.628272e+00 229 241 255
-1.914796e+01 2.211372e+01 9.509279e+00 204 212 233
-1.243561e+01 2.492111e+01 9.126023e+00 119 115 107
-1.972745e+01 3.383318e+01 1.349067e+01 220 238 249
-1.173000e+01 3.686577e+01 1.423892e+01 91 90 96
2.992562e+00 4.628672e+01 1.337135e+01 139 153 186
9.647681e+00 1.989790e+01 5.185833e+00 191 180 162
-1.069230e+01 3.181007e+01 8.346491e+00 16 17 19
-5.653750e+00 8.679336e+00 2.020248e+00 161 151 131
2.264088e-01 1.758850e+01 5.415229e+00 60 58 56
-2.989776e+00 2.644869e+01 6.942706e+00 182 175 157
-9.388455e+00 3.035853e+01 8.080813e+00 18 19 22
-3.902408e+00 2.761587e+01 7.271236e+00 129 117 103
1.026587e+01 1.079527e+01 5.234029e+00 145 138 118
-8.736914e+00 1.009847e+01 -1.119676e+00 133 133 105
-1.258518e+01 2.282768e+01 6.002112e+00 175 165 150
-1.545777e+00 1.707852e+01 5.296409e+00 66 56 56
-3.232773e+00 1.683449e+01 5.267878e+00 44 31 16
-6.084866e-01 1.783443e+01 5.569104e+00 58 55 58
7.851989e-03 2.030208e+01 5.586365e+00 122 115 96
-6.229508e-03 2.027355e+01 5.610543e+00 122 115 96
-1.263105e+01 4.017073e+01 1.119429e+01 85 74 62
2.058455e+00 1.659784e+01 5.237648e+00 180 165 152
-1.854422e+00 1.849763e+01 5.616790e+00 56 36 22
-3.956495e+00 2.765014e+01 8.856227e+00 163 157 142
-1.434511e+01 2.673934e+01 7.277634e+00 107 99 89
-1.040797e+01 2.781151e+01 7.415391e+00 149 141 126
4.926385e+00 2.849552e+01 6.268907e+00 171 162 145
1.434541e+00 8.531978e+00 1.127996e+00 43 40 41
-1.566527e+01 8.666447e+00 2.380294e+00 186 179 173
-1.152190e+00 8.047306e+00 8.815767e-01 42 39 34
6.980161e+00 3.895490e+01 9.710284e+00 2 11 22
-1.680190e+00 2.094847e+01 5.388265e+00 36 22 22
9.022910e-01 2.141626e+01 5.419210e+00 31 27 19
-3.732772e+00 2.634319e+01 6.969194e+00 88 88 75
8.383775e+00 2.874741e+01 7.229851e+00 31 21 24
5.563108e+00 1.396287e+01 5.494836e+00 158 151 125
-8.745674e+00 1.211977e+01 4.541590e+00 55 56 51
-1.258042e+01 1.381578e+01 4.828172e+00 54 54 52
7.161587e+00 1.463129e+01 3.233139e+00 172 161 140
-1.533836e+01 2.400305e+01 6.642290e+00 65 66 60
1.579380e+01 3.061124e+01 8.590621e+00 107 97 85
-2.652637e+01 7.025088e+00 5.389080e+00 250 250 248
-2.903649e+01 7.025440e+00 5.758057e+00 120 84 79
-5.569678e+00 2.792794e+01 6.505705e+00 77 73 67
1.247359e+01 4.950534e+01 1.420545e+01 144 149 143
-3.237341e+01 -4.687983e+00 9.351505e+00 37 27 26
-2.782700e+01 -1.540693e+00 6.096977e+00 37 38 33
-2.782700e+01 -1.540693e+00 6.096977e+00 37 38 33
-5.669316e+00 2.591317e+01 6.049283e+00 90 86 74
-3.144030e+01 -1.193449e+00 8.013983e+00 118 112 93
-1.565140e+01 1.706304e+01 4.154716e+00 181 176 158
1.064410e+01 4.410454e+01 1.192651e+01 83 83 75
9.506790e+00 1.836232e+00 -3.020197e+00 132 124 102
1.071624e+01 1.111762e+01 6.870255e-01 133 116 96
-1.072161e+01 2.570647e+01 6.945233e+00 51 51 46
-3.323697e+01 -2.220781e+00 9.485909e+00 35 38 29
-3.034738e+01 -1.204241e+00 7.532845e+00 101 93 77
-3.069327e+01 1.096753e+00 7.063853e+00 55 56 51
-3.200238e+01 1.026886e+00 7.839175e+00 59 61 56
-1.654965e+00 9.149422e+00 1.520462e+00 137 125 99
-2.984759e+00 9.091868e+00 1.682872e+00 138 128 101
-5.887202e+00 1.425205e+01 3.837091e+00 79 74 55
-2.051617e+00 1.601121e+01 5.866473e+00 150 143 121
5.061198e-01 1.786466e+01 5.682039e+00 136 125 104
-1.252997e+01 2.034976e+01 5.679497e+00 161 156 137
-3.320508e+01 -3.731869e-01 9.013114e+00 109 103 90
-2.723039e+01 3.489517e+00 5.440878e+00 52 48 48
-1.291321e+01 9.087128e+00 1.192422e+00 119 110 92
-2.243730e+00 1.559327e+01 5.438913e+00 137 129 112
-1.443075e+01 1.854560e+01 4.738260e+00 95 89 73
5.495100e+00 2.932554e+01 6.187911e+00 101 93 75
-1.194529e+01 3.890289e+01 1.187704e+01 145 143 127
-1.411823e+01 3.894958e+01 1.178844e+01 158 153 141
2.948664e+00 4.573358e+01 1.293985e+01 130 133 138
-2.070537e+01 -1.721772e+00 4.832435e+00 56 55 50
1.059841e+01 9.455570e+00 -8.936447e-03 62 62 50
-1.254933e+01 7.788658e+00 1.063774e+00 77 68 57
1.245279e+01 1.060309e+01 4.106305e-01 120 108 90
9.664234e-02 1.056268e+01 1.814145e+00 124 107 91
7.089671e-01 1.534456e+01 5.889053e+00 42 45 36
1.155817e+01 1.696210e+01 6.333230e+00 91 82 65
9.422356e+00 2.033893e+01 4.810215e+00 105 94 72
8.686019e+00 2.917520e+01 7.624079e+00 142 135 117
-1.340622e+01 3.851405e+01 1.178817e+01 166 165 153
8.854977e+00 8.739607e+00 2.401112e+00 46 41 29
1.108992e+01 1.012809e+01 2.875249e-01 126 111 93
1.614303e+01 1.145619e+01 -5.890478e-01 42 38 29
1.030723e+01 1.109852e+01 4.897630e-01 55 57 46
1.319098e+01 1.081574e+01 3.504111e+00 64 59 46
-3.963334e+00 1.200675e+01 7.789435e-01 80 71 56
-2.483567e+00 1.562717e+01 5.728904e+00 51 51 47
2.364614e+00 1.697011e+01 5.487012e+00 45 42 35
-1.763980e+00 1.680428e+01 5.740913e+00 156 150 140
1.281898e+01 2.008483e+01 5.446726e+00 80 76 64
-1.464687e+01 2.331827e+01 6.724421e+00 131 126 107
-3.040112e+00 2.707908e+01 6.797148e+00 144 137 121
6.059579e+00 2.858383e+01 5.510675e+00 150 149 129
9.650448e+00 2.896786e+01 6.961557e+00 148 139 126
1.713836e+01 3.051385e+01 6.115097e+00 142 136 120
-1.304942e+01 2.717414e+01 7.378363e+00 75 67 65
-1.600305e+01 3.821116e+01 1.177871e+01 102 105 97
5.060856e+00 8.535138e+00 1.167843e+00 143 136 117
-6.423253e+00 1.469399e+01 3.394679e+00 152 143 126
2.690264e+00 1.643364e+01 5.457584e+00 53 49 46
-1.402632e+01 1.666823e+01 4.867924e+00 101 97 78
8.329170e+00 1.990951e+01 5.640318e+00 92 85 69
-1.453156e+01 1.856768e+01 5.192067e+00 96 88 73
7.758270e+00 2.187781e+01 6.245266e+00 87 76 61
3.151756e-01 2.145702e+01 5.244930e+00 90 84 72
4.125502e+00 2.196396e+01 5.326089e+00 86 73 57
-1.350855e+01 2.478019e+01 6.768353e+00 96 93 78
-2.532872e+00 2.655992e+01 6.762925e+00 121 124 110
1.697745e+01 3.145825e+01 8.869186e+00 130 125 113
3.429094e+00 4.176999e+01 1.142860e+01 101 102 89
1.278396e+01 4.676341e+01 1.307525e+01 146 141 125
4.884339e+00 8.606790e+00 1.181379e+00 85 76 59
1.016591e+01 9.094199e+00 1.005079e+00 65 62 45
2.452988e+00 1.655820e+01 5.830344e+00 40 40 39
-1.367115e+01 1.713074e+01 4.956026e+00 103 96 79
-9.467593e+00 1.850929e+01 4.856368e+00 106 98 77
-9.697001e+00 1.861057e+01 4.865958e+00 105 97 76
9.184520e+00 2.065148e+01 4.708965e+00 95 84 64
1.511439e+01 2.134908e+01 4.548669e+00 106 102 82
-1.478140e+00 2.177486e+01 4.860597e+00 78 72 58
-1.678915e+01 2.409839e+01 6.302162e+00 148 146 129
-3.834174e+00 2.640882e+01 6.711041e+00 97 95 82
1.175163e+01 2.953827e+01 7.019129e+00 137 130 114
3.236484e+00 3.122157e+01 4.768587e+00 122 118 108
-1.795136e+01 3.666829e+01 1.089057e+01 106 108 96
-1.288285e+01 3.855434e+01 1.161483e+01 153 149 137
-1.481444e+01 3.915185e+01 1.446533e+01 128 128 118
4.456170e-01 1.561173e+01 4.716608e+00 59 57 44
-4.383461e+00 1.995765e+01 4.622487e+00 130 127 110
-7.208854e+00 2.733270e+01 5.379499e+00 149 133 117
-9.605480e+00 2.758171e+01 7.386135e+00 118 111 101
1.956361e+00 1.668817e+01 5.825729e+00 141 129 107
-6.944354e+00 2.068846e+01 4.610192e+00 165 152 136
-3.971590e+00 2.225532e+01 5.694806e+00 84 79 76
-1.253607e+01 2.448046e+01 6.500641e+00 117 112 102
-4.398732e+00 1.195138e+01 3.965304e-01 97 88 77
-1.454118e+01 1.852307e+01 5.739002e+00 153 146 136
-1.577046e+01 2.440364e+01 5.432356e+00 133 133 125
-1.114936e+01 2.536396e+01 6.926460e+00 129 126 111
6.532830e+00 3.145349e+01 4.740180e+00 164 158 146
-1.896368e+00 1.206204e+01 2.382373e+00 76 66 57
-1.455819e+01 1.530234e+01 5.215179e+00 109 95 84
-1.502236e+01 2.468045e+01 6.674734e+00 121 112 109
-1.070001e+01 2.543209e+01 6.890149e+00 62 57 63
-7.366520e+00 2.684721e+01 5.542217e+00 152 148 136
6.806835e-01 1.683060e+01 5.454305e+00 32 31 26
-1.559524e+01 1.672161e+01 3.795394e+00 196 193 182
-4.976347e+00 1.841556e+01 2.582132e+00 77 72 68
-1.088384e+01 1.786601e+01 5.220679e+00 74 62 50
9.579589e+00 2.110553e+01 4.527344e+00 154 142 127
-1.473074e+01 2.511356e+01 7.308005e+00 81 76 74
1.006755e+01 2.932551e+01 7.217274e+00 128 118 116
-3.217139e+00 5.468374e+00 1.395844e+01 129 117 107
9.235497e-01 1.648407e+01 5.297091e+00 119 116 110
-8.402423e+00 1.760661e+01 4.827619e+00 150 140 128
4.245669e+00 2.007637e+01 4.395669e+00 92 83 68
-4.086266e+00 2.013937e+01 5.000015e+00 137 133 124
9.310802e+00 2.368394e+01 4.740144e+00 130 123 115
7.195541e+00 2.387141e+01 3.319258e+00 145 135 125
-1.277716e+01 2.367080e+01 6.859347e+00 144 138 133
-1.390437e+01 2.422772e+01 7.024295e+00 136 136 128
-9.758988e+00 2.537782e+01 6.463562e+00 151 142 134
-1.160819e+01 2.503292e+01 6.950749e+00 98 95 80
-1.320427e+01 2.497713e+01 6.594971e+00 164 157 146
-1.397152e+01 2.498000e+01 6.653267e+00 99 95 86
-1.615410e+00 2.771838e+01 6.945190e+00 78 72 67
-1.115171e+01 2.482463e+01 6.954043e+00 34 31 35
-1.175057e+01 2.580071e+01 7.041781e+00 30 27 11
-9.808618e+00 2.441968e+01 6.761297e+00 14 12 18
4.372299e+00 9.031601e+00 2.602382e-01 27 27 30
-1.214640e+01 6.902566e+00 2.090336e+00 20 20 20
1.773032e-01 1.789459e+01 6.103977e+00 13 22 26
-9.085823e+00 4.267757e+01 1.246727e+01 215 230 250
-1.579651e+01 2.025414e+01 4.894058e+00 141 135 138
-1.771047e+01 3.562149e+01 1.036839e+01 136 133 140
-2.956908e+00 1.044992e+01 -2.064032e-01 93 85 78
-3.379959e+00 2.726643e+01 7.075106e+00 119 114 121
-1.250481e+01 3.943721e+01 1.181767e+01 141 138 147
-1.393475e+01 1.608453e+01 4.846122e+00 88 78 76
-3.704712e+00 9.572896e+00 -3.617987e-01 153 144 144
-1.917147e+01 2.354436e+01 7.652487e+00 120 129 149
-2.902626e+00 2.819036e+01 6.775009e+00 68 63 69
-3.425097e+00 -2.739321e+00 1.542765e+00 184 178 179
-2.878483e+00 -3.468874e+00 1.288614e+00 141 134 127
-4.009606e+00 -3.077353e-01 1.833218e+00 126 110 114
-3.048538e+00 -2.954450e+00 1.487461e+00 175 166 169
7.384608e+00 -3.384055e+00 3.522167e+00 164 161 156
6.514307e+00 -2.930563e+00 3.214069e+00 186 181 174
7.650642e+00 -3.573117e+00 3.560209e+00 110 103 99
1.009130e+00 -1.266703e+00 1.402981e+00 126 117 99
-1.029888e+01 2.847464e+00 5.616073e-01 88 80 61
-1.597121e+01 1.566442e+01 3.738972e+00 158 159 145
-1.647131e+01 1.962201e+01 5.183519e+00 76 73 68
-1.515892e+01 9.818724e+00 2.087730e+00 150 144 132
-1.246164e+01 8.055863e+00 1.576166e+00 128 122 103
-3.173658e+00 -1.499866e+00 4.941815e-01 38 33 30
-2.811110e+00 -1.513922e+00 1.146752e+00 33 29 25
-5.182155e+00 8.170185e-02 2.263198e-01 72 66 51
-1.284632e+01 7.625982e+00 1.279900e+00 67 61 48
-1.481619e+01 1.090202e+01 2.198767e+00 66 61 53
-4.918083e+00 6.484959e-01 2.164329e+00 66 56 46
-8.889851e+00 3.449534e+00 1.057665e+00 61 57 48
-1.547037e+01 9.055902e+00 2.044886e+00 133 126 108
-2.721050e+00 -1.847324e+00 6.180455e-01 40 33 22
-6.823860e+00 -5.353824e-01 6.753246e-01 55 46 36
-6.294542e+00 -4.128803e-01 1.018054e+00 77 67 50
-7.668625e+00 7.764185e-01 5.062397e-01 56 47 35
-7.387047e+00 8.944789e-01 7.739362e-01 53 44 37
-7.102964e+00 1.019235e+00 9.416922e-01 49 41 31
-7.816259e+00 1.557027e+00 7.499945e-01 52 46 34
-7.523868e+00 1.692736e+00 1.118327e+00 53 47 37
-1.065696e+01 5.631168e+00 9.179186e-01 73 58 45
-1.062425e+01 5.602237e+00 1.100689e+00 73 58 45
1.129854e+01 2.636104e-01 2.488532e+00 57 46 32
4.383571e+00 -1.006635e-01 1.242334e+00 122 113 96
-1.862062e+00 -2.030062e+00 7.578249e-01 39 27 13
-3.082075e+00 -7.781724e-01 1.463985e+00 127 111 91
-1.114250e+01 -3.331237e+00 1.215647e-01 167 168 172
8.851209e+00 -3.183182e+00 2.391487e+00 171 172 177
-1.087112e+00 6.059093e+00 6.614576e-01 206 210 219
9.244170e+00 -2.989831e+00 2.453193e+00 110 113 118
1.129839e+01 9.070757e+00 1.507789e+00 63 69 93
1.138697e+01 3.811079e-01 2.944578e+00 189 188 193
9.231901e+00 -3.379557e+00 2.422474e+00 90 93 98
8.041070e+00 -3.353208e+00 2.100974e+00 138 141 148
8.120991e+00 -3.300245e+00 2.124033e+00 187 188 194
8.671814e+00 -3.038047e+00 2.325184e+00 97 98 103
