ply
format ascii 1.0
element face 0
property list uchar int vertex_indices
element vertex 971
property float x
property float y
property float z
property uchar diffuse_red
property uchar diffuse_green
property uchar diffuse_blue
end_header
3.836254e-01 4.827381e-01 2.907749e+00 76 82 50
4.386467e-01 4.762568e-01 2.820219e+00 55 76 33
3.745498e-01 4.791422e-01 2.902691e+00 105 119 84
3.745498e-01 4.791422e-01 2.902691e+00 105 119 84
4.337166e-01 4.802648e-01 2.842230e+00 102 125 83
3.664877e-01 4.757661e-01 2.897337e+00 56 71 32
3.590848e-01 4.721482e-01 2.890481e+00 65 75 38
3.556586e-01 4.704112e-01 2.887106e+00 102 113 91
4.210476e-01 4.870200e-01 2.884046e+00 99 100 104
3.473491e-01 4.662204e-01 2.878665e+00 95 110 77
3.281735e-01 4.563127e-01 2.858136e+00 116 127 97
3.222060e-01 4.531299e-01 2.851502e+00 112 130 70
3.896913e-01 4.852080e-01 2.910133e+00 61 74 26
3.931310e-01 4.862767e-01 2.910751e+00 79 78 60
3.322076e-01 4.586473e-01 2.863049e+00 107 118 88
3.322076e-01 4.586473e-01 2.863049e+00 107 118 88
3.265188e-01 4.556850e-01 2.856576e+00 48 59 25
3.265188e-01 4.556850e-01 2.856576e+00 48 59 25
4.340292e-01 4.806171e-01 2.841720e+00 116 137 94
4.340292e-01 4.806171e-01 2.841720e+00 116 137 94
3.428559e-01 4.644800e-01 2.874986e+00 129 136 118
4.137022e-01 4.890114e-01 2.898966e+00 107 101 103
3.830362e-01 4.831316e-01 2.908164e+00 62 66 31
3.830362e-01 4.831316e-01 2.908164e+00 62 66 31
3.990133e-01 4.881375e-01 2.910990e+00 131 133 120
3.928104e-01 4.864967e-01 2.911081e+00 129 131 109
3.637320e-01 4.751618e-01 2.895566e+00 125 140 101
4.072686e-01 4.892534e-01 2.906217e+00 103 111 86
4.283919e-01 4.854103e-01 2.866679e+00 91 98 91
4.283919e-01 4.854103e-01 2.866679e+00 91 98 91
3.824828e-01 4.833000e-01 2.908448e+00 135 142 100
3.824828e-01 4.833000e-01 2.908448e+00 135 142 100
4.038252e-01 4.891316e-01 2.909203e+00 97 100 83
4.038252e-01 4.891316e-01 2.909203e+00 97 100 83
3.934765e-01 4.869742e-01 2.911548e+00 138 137 117
3.534139e-01 4.702344e-01 2.885998e+00 149 160 106
4.417637e-01 4.747492e-01 2.806908e+00 120 140 115
4.417637e-01 4.747492e-01 2.806908e+00 120 140 115
3.639453e-01 4.753402e-01 2.895435e+00 63 76 33
3.245784e-01 4.553179e-01 2.855187e+00 115 125 86
4.411502e-01 4.757552e-01 2.811345e+00 110 128 104
3.530474e-01 4.704084e-01 2.886533e+00 141 151 100
4.324566e-01 4.826127e-01 2.849817e+00 48 61 43
4.408904e-01 4.760970e-01 2.812745e+00 122 137 116
4.408904e-01 4.760970e-01 2.812745e+00 122 137 116
4.227652e-01 4.879140e-01 2.882455e+00 77 77 79
3.993368e-01 4.885766e-01 2.911034e+00 123 126 107
4.396293e-01 4.770901e-01 2.817926e+00 127 139 115
4.396293e-01 4.770901e-01 2.817926e+00 127 139 115
3.885691e-01 4.858536e-01 2.910983e+00 59 74 31
3.387652e-01 4.631676e-01 2.871248e+00 110 119 100
4.265017e-01 4.868603e-01 2.873185e+00 144 142 147
4.260904e-01 4.867519e-01 2.873227e+00 165 162 169
3.914816e-01 4.869582e-01 2.912006e+00 70 83 39
4.246395e-01 4.875751e-01 2.877861e+00 150 151 156
4.240174e-01 4.877519e-01 2.879236e+00 143 140 149
3.905832e-01 4.868296e-01 2.912138e+00 56 73 30
4.233452e-01 4.881674e-01 2.881593e+00 146 142 149
4.084165e-01 4.902459e-01 2.906750e+00 114 125 85
4.084165e-01 4.902459e-01 2.906750e+00 114 125 85
4.217082e-01 4.887742e-01 2.885788e+00 133 134 139
4.380831e-01 4.792590e-01 2.827344e+00 113 125 111
4.380831e-01 4.792590e-01 2.827344e+00 113 125 111
4.208420e-01 4.891563e-01 2.888163e+00 157 160 165
4.055938e-01 4.901525e-01 2.908953e+00 103 112 88
4.369664e-01 4.804636e-01 2.833375e+00 126 139 119
3.919087e-01 4.873868e-01 2.912341e+00 107 120 76
3.919087e-01 4.873868e-01 2.912341e+00 107 120 76
3.642949e-01 4.764801e-01 2.897167e+00 107 120 76
4.366701e-01 4.804019e-01 2.833285e+00 122 136 112
3.488238e-01 4.688681e-01 2.882334e+00 50 61 27
4.358184e-01 4.817607e-01 2.839267e+00 113 127 104
3.387232e-01 4.639414e-01 2.872098e+00 112 123 94
3.172446e-01 4.525559e-01 2.848016e+00 136 147 105
4.179202e-01 4.902467e-01 2.894699e+00 148 145 150
4.347035e-01 4.826555e-01 2.843776e+00 104 118 92
4.266223e-01 4.873869e-01 2.872699e+00 78 77 82
4.266223e-01 4.873869e-01 2.872699e+00 78 77 82
4.269580e-01 4.875816e-01 2.872962e+00 126 127 130
3.895898e-01 4.872197e-01 2.912711e+00 114 129 88
3.809117e-01 4.841437e-01 2.909161e+00 149 154 118
3.771414e-01 4.826731e-01 2.907179e+00 111 126 85
4.330723e-01 4.841166e-01 2.851081e+00 115 129 104
3.589397e-01 4.746979e-01 2.893276e+00 110 122 76
4.230554e-01 4.893286e-01 2.883747e+00 147 144 151
4.391731e-01 4.798527e-01 2.825349e+00 126 128 114
4.333429e-01 4.843347e-01 2.850754e+00 78 89 62
3.886246e-01 4.873028e-01 2.912801e+00 112 130 76
3.872830e-01 4.868671e-01 2.912394e+00 119 131 86
3.872830e-01 4.868671e-01 2.912394e+00 119 131 86
3.182333e-01 4.538145e-01 2.849785e+00 65 77 41
3.930472e-01 4.886624e-01 2.913447e+00 109 119 84
4.251154e-01 4.891458e-01 2.879792e+00 92 91 99
3.835816e-01 4.854418e-01 2.910024e+00 66 77 29
3.749721e-01 4.823934e-01 2.906639e+00 114 134 82
3.637530e-01 4.773025e-01 2.897633e+00 112 129 77
4.257823e-01 4.888642e-01 2.877325e+00 96 95 100
4.257823e-01 4.888642e-01 2.877325e+00 96 95 100
3.659391e-01 4.784942e-01 2.899944e+00 157 171 136
3.618371e-01 4.765849e-01 2.896344e+00 122 134 84
4.333924e-01 4.850990e-01 2.852555e+00 142 156 122
4.163490e-01 4.916279e-01 2.899193e+00 150 149 154
4.241222e-01 4.897364e-01 2.882345e+00 103 100 107
4.241222e-01 4.897364e-01 2.882345e+00 103 100 107
4.161637e-01 4.917906e-01 2.899875e+00 76 74 79
3.804756e-01 4.848760e-01 2.910225e+00 61 66 34
3.235668e-01 4.571940e-01 2.856653e+00 120 135 80
3.235668e-01 4.571940e-01 2.856653e+00 120 135 80
4.231330e-01 4.903920e-01 2.885770e+00 97 94 101
3.097889e-01 4.499185e-01 2.840321e+00 132 142 117
4.329347e-01 4.857209e-01 2.854556e+00 80 94 61
3.968162e-01 4.904300e-01 2.914340e+00 66 77 42
3.148401e-01 4.529115e-01 2.846673e+00 112 122 97
4.160752e-01 4.923470e-01 2.900994e+00 214 212 217
4.263957e-01 4.895294e-01 2.877095e+00 117 117 119
4.231875e-01 4.908234e-01 2.886229e+00 151 149 154
3.392730e-01 4.661470e-01 2.874845e+00 116 132 103
3.508681e-01 4.720686e-01 2.886926e+00 129 133 116
3.880124e-01 4.882699e-01 2.914060e+00 60 74 38
3.180562e-01 4.550509e-01 2.850758e+00 106 120 97
3.180562e-01 4.550509e-01 2.850758e+00 106 120 97
4.243728e-01 4.907125e-01 2.883721e+00 97 95 100
4.158674e-01 4.926753e-01 2.901353e+00 104 102 107
4.037219e-01 4.923898e-01 2.913597e+00 47 56 29
4.191303e-01 4.923554e-01 2.895845e+00 148 145 152
4.145735e-01 4.929609e-01 2.903473e+00 92 90 93
3.103417e-01 4.511630e-01 2.841930e+00 120 132 109
4.400943e-01 4.814843e-01 2.825599e+00 119 125 102
4.250550e-01 4.908375e-01 2.882280e+00 140 139 144
4.250550e-01 4.908375e-01 2.882280e+00 140 139 144
4.323011e-01 4.879822e-01 2.861786e+00 63 69 55
3.644582e-01 4.792124e-01 2.900254e+00 118 134 95
4.197861e-01 4.927115e-01 2.895598e+00 85 83 88
3.100496e-01 4.513757e-01 2.842125e+00 58 72 49
4.373898e-01 4.840551e-01 2.838637e+00 98 100 86
4.194572e-01 4.928111e-01 2.896256e+00 87 85 90
4.194572e-01 4.928111e-01 2.896256e+00 87 85 90
4.191397e-01 4.928815e-01 2.896918e+00 83 80 86
4.191397e-01 4.928815e-01 2.896918e+00 83 80 86
4.230252e-01 4.919634e-01 2.888565e+00 144 142 146
4.189276e-01 4.929564e-01 2.897366e+00 83 81 86
4.189276e-01 4.929564e-01 2.897366e+00 83 81 86
4.186122e-01 4.930687e-01 2.898161e+00 87 85 90
4.186122e-01 4.930687e-01 2.898161e+00 87 85 90
4.179814e-01 4.930179e-01 2.898484e+00 80 79 84
3.166780e-01 4.552368e-01 2.850567e+00 57 68 51
4.170160e-01 4.934087e-01 2.901001e+00 77 75 78
3.817954e-01 4.869780e-01 2.912869e+00 119 122 105
4.216373e-01 4.923806e-01 2.891429e+00 131 130 135
4.166523e-01 4.934582e-01 2.901515e+00 80 80 82
4.157020e-01 4.931620e-01 2.901300e+00 126 126 129
3.683347e-01 4.812999e-01 2.903692e+00 113 127 102
3.683347e-01 4.812999e-01 2.903692e+00 113 127 102
3.683347e-01 4.812999e-01 2.903692e+00 113 127 102
3.587408e-01 4.769920e-01 2.895778e+00 132 149 113
4.404550e-01 4.819422e-01 2.825037e+00 104 113 92
3.506754e-01 4.731471e-01 2.888220e+00 108 115 99
4.359343e-01 4.855084e-01 2.845119e+00 132 135 124
4.294412e-01 4.896903e-01 2.870421e+00 73 81 68
4.138960e-01 4.935450e-01 2.904449e+00 53 49 50
3.769579e-01 4.851485e-01 2.909788e+00 133 138 111
4.383111e-01 4.843230e-01 2.836674e+00 113 121 101
4.054506e-01 4.937540e-01 2.914047e+00 128 137 123
4.054506e-01 4.937540e-01 2.914047e+00 128 137 123
4.038906e-01 4.937421e-01 2.915618e+00 150 154 137
4.038906e-01 4.937421e-01 2.915618e+00 150 154 137
4.031464e-01 4.934974e-01 2.915131e+00 146 148 134
3.592584e-01 4.777101e-01 2.896685e+00 65 81 51
3.739094e-01 4.844696e-01 2.908789e+00 72 83 52
3.932510e-01 4.915561e-01 2.917267e+00 122 135 108
3.917985e-01 4.910173e-01 2.916573e+00 116 130 107
3.917985e-01 4.910173e-01 2.916573e+00 116 130 107
3.150584e-01 4.552437e-01 2.849326e+00 123 134 117
3.444886e-01 4.707162e-01 2.882433e+00 99 112 89
3.444886e-01 4.707162e-01 2.882433e+00 99 112 89
4.168266e-01 4.944146e-01 2.902805e+00 119 114 116
3.484956e-01 4.727859e-01 2.886684e+00 118 126 110
4.106714e-01 4.945305e-01 2.910136e+00 116 119 112
3.951035e-01 4.920520e-01 2.916830e+00 129 142 114
3.575233e-01 4.773985e-01 2.895696e+00 113 124 104
3.727377e-01 4.843927e-01 2.908314e+00 118 130 104
3.324172e-01 4.648295e-01 2.869563e+00 131 138 122
3.685634e-01 4.826779e-01 2.905339e+00 117 132 102
3.685634e-01 4.826779e-01 2.905339e+00 117 132 102
3.627428e-01 4.801000e-01 2.900711e+00 145 161 134
3.391451e-01 4.685865e-01 2.877440e+00 59 72 44
3.756171e-01 4.858823e-01 2.910328e+00 62 73 38
3.910675e-01 4.917319e-01 2.917892e+00 63 75 51
3.233762e-01 4.606647e-01 2.860147e+00 149 156 140
4.063164e-01 4.949814e-01 2.914645e+00 34 40 28
4.330503e-01 4.896075e-01 2.860977e+00 158 165 149
3.748854e-01 4.858079e-01 2.910264e+00 132 142 116
3.562501e-01 4.774287e-01 2.894864e+00 49 55 28
3.465161e-01 4.727285e-01 2.885352e+00 31 44 14
3.465161e-01 4.727285e-01 2.885352e+00 31 44 14
4.397465e-01 4.850552e-01 2.833077e+00 44 50 22
3.914315e-01 4.921730e-01 2.918126e+00 108 123 91
3.554873e-01 4.773797e-01 2.894799e+00 59 65 37
4.006691e-01 4.947038e-01 2.918422e+00 25 41 2
3.367902e-01 4.682463e-01 2.875815e+00 47 54 20
4.067313e-01 4.957543e-01 2.915499e+00 116 124 100
3.562277e-01 4.780917e-01 2.896067e+00 134 141 107
3.562277e-01 4.780917e-01 2.896067e+00 134 141 107
3.755770e-01 4.868445e-01 2.911540e+00 109 123 87
3.367903e-01 4.686751e-01 2.876446e+00 108 119 84
3.549103e-01 4.777751e-01 2.895065e+00 123 130 96
3.152010e-01 4.574627e-01 2.851862e+00 109 125 98
3.609552e-01 4.806517e-01 2.900648e+00 62 76 40
3.609552e-01 4.806517e-01 2.900648e+00 62 76 40
4.058304e-01 4.961406e-01 2.916897e+00 123 126 101
3.855758e-01 4.909113e-01 2.917117e+00 50 69 40
3.855758e-01 4.909113e-01 2.917117e+00 50 69 40
3.386460e-01 4.698012e-01 2.878512e+00 108 117 81
4.056909e-01 4.962781e-01 2.917507e+00 34 40 12
3.634621e-01 4.819532e-01 2.902791e+00 54 73 42
3.178359e-01 4.592331e-01 2.855356e+00 98 112 84
4.067784e-01 4.963934e-01 2.915875e+00 46 56 31
4.082249e-01 4.969097e-01 2.916172e+00 83 96 70
4.082249e-01 4.969097e-01 2.916172e+00 83 96 70
3.686453e-01 4.846381e-01 2.907481e+00 57 69 29
3.606645e-01 4.811858e-01 2.901333e+00 55 69 33
4.398646e-01 4.870621e-01 2.836719e+00 99 106 73
4.177300e-01 4.968836e-01 2.904972e+00 177 174 181
4.157060e-01 4.971018e-01 2.908179e+00 162 159 164
3.987134e-01 4.953933e-01 2.919967e+00 134 152 98
4.124437e-01 4.972207e-01 2.912186e+00 67 69 64
3.978346e-01 4.952698e-01 2.920220e+00 76 91 47
3.664214e-01 4.836990e-01 2.905547e+00 113 132 104
3.092192e-01 4.552397e-01 2.846138e+00 60 75 44
4.139072e-01 4.971725e-01 2.910182e+00 146 146 146
4.120038e-01 4.972531e-01 2.912707e+00 49 52 45
4.127263e-01 4.973411e-01 2.911889e+00 147 148 148
4.000895e-01 4.958921e-01 2.919901e+00 63 74 34
3.310519e-01 4.668067e-01 2.871312e+00 42 57 18
3.989624e-01 4.957733e-01 2.920165e+00 73 91 36
3.502199e-01 4.764951e-01 2.891351e+00 124 141 97
3.473123e-01 4.751448e-01 2.888581e+00 47 63 26
3.485017e-01 4.758427e-01 2.889739e+00 115 132 90
4.105484e-01 4.978091e-01 2.915055e+00 46 49 42
3.727699e-01 4.871803e-01 2.911443e+00 55 72 34
3.371996e-01 4.704717e-01 2.878604e+00 55 73 35
3.371996e-01 4.704717e-01 2.878604e+00 55 73 35
3.710829e-01 4.866449e-01 2.910361e+00 68 81 37
3.710829e-01 4.866449e-01 2.910361e+00 68 81 37
3.628597e-01 4.830236e-01 2.903882e+00 67 91 43
4.126141e-01 4.980948e-01 2.913008e+00 164 163 169
3.663644e-01 4.847132e-01 2.906830e+00 52 74 36
3.880694e-01 4.933533e-01 2.919961e+00 61 81 46
3.612450e-01 4.824916e-01 2.902616e+00 113 129 81
4.124111e-01 4.982998e-01 2.913719e+00 109 108 114
4.335034e-01 4.929896e-01 2.865881e+00 56 56 48
3.756331e-01 4.888345e-01 2.913587e+00 139 153 104
3.542828e-01 4.793759e-01 2.896434e+00 48 66 25
3.530446e-01 4.789867e-01 2.895494e+00 112 129 87
3.536104e-01 4.791634e-01 2.895539e+00 91 109 68
4.260818e-01 4.966994e-01 2.889820e+00 191 195 211
3.515176e-01 4.783156e-01 2.893896e+00 82 100 56
3.601496e-01 4.823962e-01 2.901821e+00 67 80 37
3.256379e-01 4.655223e-01 2.866775e+00 73 98 42
3.110539e-01 4.579007e-01 2.849846e+00 94 114 79
3.274033e-01 4.664174e-01 2.868653e+00 110 138 80
3.700782e-01 4.869882e-01 2.910371e+00 158 173 118
3.138630e-01 4.594825e-01 2.853094e+00 114 137 93
4.234818e-01 4.977428e-01 2.896418e+00 182 185 200
4.229647e-01 4.979098e-01 2.897741e+00 194 197 212
3.546395e-01 4.801338e-01 2.897470e+00 47 69 23
3.040642e-01 4.544227e-01 2.841558e+00 102 134 87
4.224515e-01 4.979257e-01 2.898251e+00 191 194 209
4.219186e-01 4.981901e-01 2.899915e+00 186 191 206
3.889704e-01 4.945217e-01 2.920988e+00 63 83 32
3.314690e-01 4.689186e-01 2.873495e+00 163 181 136
3.759474e-01 4.898866e-01 2.915115e+00 42 59 8
3.759474e-01 4.898866e-01 2.915115e+00 42 59 8
3.541938e-01 4.802393e-01 2.896934e+00 95 117 71
4.335515e-01 4.944959e-01 2.868849e+00 112 113 96
4.082076e-01 4.991637e-01 2.918747e+00 47 63 24
4.080660e-01 4.993164e-01 2.919530e+00 115 134 88
3.984771e-01 4.976535e-01 2.923035e+00 130 149 93
3.797294e-01 4.916324e-01 2.917459e+00 96 113 68
3.763358e-01 4.902373e-01 2.915152e+00 61 78 23
3.755937e-01 4.899527e-01 2.914763e+00 48 66 18
4.016450e-01 4.985049e-01 2.922754e+00 50 62 26
3.794072e-01 4.915821e-01 2.917471e+00 37 56 10
3.702796e-01 4.878473e-01 2.911321e+00 136 153 98
3.304596e-01 4.687974e-01 2.872601e+00 116 141 86
4.364141e-01 4.928378e-01 2.857261e+00 78 93 60
3.752560e-01 4.899330e-01 2.914749e+00 139 159 110
4.117193e-01 4.998248e-01 2.916667e+00 192 198 210
3.713113e-01 4.885050e-01 2.912611e+00 103 123 64
3.862426e-01 4.944823e-01 2.921286e+00 151 171 112
3.050290e-01 4.562440e-01 2.844322e+00 35 69 13
3.663736e-01 4.865669e-01 2.908774e+00 59 80 24
3.663736e-01 4.865669e-01 2.908774e+00 59 80 24
3.937594e-01 4.971438e-01 2.923711e+00 111 131 78
4.436712e-01 4.887452e-01 2.828160e+00 118 144 96
3.181398e-01 4.634042e-01 2.860048e+00 35 61 14
4.052290e-01 4.999145e-01 2.922364e+00 89 109 70
4.052290e-01 4.999145e-01 2.922364e+00 89 109 70
3.543588e-01 4.814432e-01 2.898418e+00 116 141 83
3.543588e-01 4.814432e-01 2.898418e+00 116 141 83
3.497606e-01 4.792689e-01 2.894039e+00 60 87 32
3.963060e-01 4.980732e-01 2.923793e+00 91 106 75
4.430798e-01 4.896799e-01 2.831881e+00 145 171 108
4.430798e-01 4.896799e-01 2.831881e+00 145 171 108
3.425005e-01 4.758735e-01 2.886618e+00 54 79 22
3.846254e-01 4.945440e-01 2.921135e+00 34 53 1
3.749976e-01 4.910288e-01 2.915991e+00 108 136 86
4.396334e-01 4.925829e-01 2.847440e+00 52 75 19
3.999147e-01 4.994638e-01 2.924489e+00 93 103 75
4.106509e-01 5.011314e-01 2.919313e+00 87 97 71
3.924257e-01 4.975128e-01 2.924052e+00 51 56 26
3.270290e-01 4.689801e-01 2.870910e+00 118 139 82
4.072171e-01 5.011730e-01 2.922574e+00 95 109 74
3.756254e-01 4.918672e-01 2.917203e+00 50 78 27
4.047739e-01 5.007248e-01 2.923055e+00 33 48 17
4.091449e-01 5.014755e-01 2.920897e+00 77 94 40
3.310926e-01 4.714963e-01 2.876169e+00 120 150 88
3.310926e-01 4.714963e-01 2.876169e+00 120 150 88
4.349285e-01 4.965601e-01 2.868098e+00 148 165 123
3.993589e-01 5.000780e-01 2.925150e+00 52 68 35
3.479391e-01 4.801395e-01 2.894157e+00 95 116 58
4.005592e-01 5.006833e-01 2.925589e+00 91 104 78
4.087834e-01 5.020592e-01 2.922084e+00 20 43 0
3.770240e-01 4.934382e-01 2.919365e+00 119 144 87
4.367975e-01 4.963146e-01 2.862506e+00 96 121 73
3.477009e-01 4.803905e-01 2.894242e+00 42 63 6
3.477009e-01 4.803905e-01 2.894242e+00 42 63 6
4.334739e-01 4.984207e-01 2.875504e+00 111 138 88
4.391208e-01 4.954115e-01 2.854382e+00 100 122 83
3.649852e-01 4.888766e-01 2.910812e+00 97 122 67
3.939096e-01 4.998537e-01 2.926672e+00 64 79 36
3.939096e-01 4.998537e-01 2.926672e+00 64 79 36
3.970852e-01 5.007473e-01 2.926805e+00 48 71 18
4.326475e-01 4.993109e-01 2.878568e+00 111 137 90
3.571307e-01 4.858064e-01 2.904216e+00 121 136 76
3.571307e-01 4.858064e-01 2.904216e+00 121 136 76
4.444480e-01 4.928964e-01 2.833708e+00 39 61 12
4.086324e-01 5.035219e-01 2.924091e+00 43 69 27
4.067748e-01 5.033025e-01 2.925016e+00 103 115 79
4.357700e-01 4.987531e-01 2.869863e+00 94 118 66
4.357700e-01 4.987531e-01 2.869863e+00 94 118 66
3.775403e-01 4.950577e-01 2.920910e+00 50 74 16
3.775403e-01 4.950577e-01 2.920910e+00 50 74 16
4.066352e-01 5.035901e-01 2.925531e+00 53 65 26
4.088535e-01 5.039188e-01 2.924194e+00 135 157 119
4.470516e-01 4.918135e-01 2.823116e+00 47 68 30
4.112996e-01 5.041252e-01 2.922024e+00 105 118 98
4.341167e-01 5.004127e-01 2.877417e+00 47 74 23
4.341167e-01 5.004127e-01 2.877417e+00 47 74 23
4.098340e-01 5.044442e-01 2.924189e+00 53 70 38
3.733818e-01 4.939934e-01 2.918848e+00 77 94 39
4.441727e-01 4.947134e-01 2.837928e+00 102 128 80
3.670759e-01 4.914874e-01 2.914101e+00 71 84 41
4.337554e-01 5.010004e-01 2.878911e+00 104 135 76
3.816095e-01 4.973169e-01 2.923599e+00 119 133 83
3.816095e-01 4.973169e-01 2.923599e+00 119 133 83
3.894329e-01 5.001212e-01 2.927087e+00 118 130 84
3.894329e-01 5.001212e-01 2.927087e+00 118 130 84
3.146203e-01 4.667416e-01 2.861105e+00 38 62 0
3.146203e-01 4.667416e-01 2.861105e+00 38 62 0
4.363316e-01 4.997566e-01 2.869892e+00 49 78 17
4.121381e-01 5.051146e-01 2.922911e+00 168 180 171
3.945475e-01 5.020246e-01 2.929089e+00 52 78 30
3.945475e-01 5.020246e-01 2.929089e+00 52 78 30
4.285074e-01 5.033068e-01 2.894906e+00 64 85 67
4.274778e-01 5.039191e-01 2.898295e+00 71 86 63
4.252674e-01 5.047389e-01 2.903922e+00 84 103 73
3.847908e-01 4.993379e-01 2.926549e+00 61 81 18
3.766005e-01 4.962988e-01 2.922027e+00 40 56 9
4.216816e-01 5.054808e-01 2.910909e+00 77 96 62
4.149719e-01 5.058810e-01 2.920754e+00 158 169 162
3.459301e-01 4.830896e-01 2.896449e+00 37 56 13
4.198175e-01 5.055946e-01 2.913429e+00 88 102 79
4.030649e-01 5.047366e-01 2.928789e+00 110 135 80
3.089816e-01 4.651048e-01 2.855964e+00 54 83 25
3.464966e-01 4.835351e-01 2.896960e+00 76 94 56
3.046478e-01 4.630283e-01 2.851110e+00 108 137 83
3.046478e-01 4.630283e-01 2.851110e+00 108 137 83
4.149116e-01 5.061754e-01 2.920820e+00 99 112 93
3.886304e-01 5.010087e-01 2.927963e+00 54 72 17
4.419135e-01 4.982940e-01 2.851597e+00 99 122 75
4.297848e-01 5.041920e-01 2.893432e+00 62 84 40
3.732277e-01 4.954504e-01 2.919904e+00 119 138 86
4.390679e-01 5.000487e-01 2.862805e+00 48 71 32
4.198315e-01 5.063433e-01 2.915213e+00 111 126 94
3.980108e-01 5.040705e-01 2.930532e+00 53 67 24
3.980108e-01 5.040705e-01 2.930532e+00 53 67 24
3.423441e-01 4.818801e-01 2.892906e+00 26 54 5
4.454492e-01 4.964012e-01 2.837581e+00 87 112 82
4.173218e-01 5.066268e-01 2.919101e+00 66 81 60
4.411612e-01 4.990071e-01 2.854801e+00 98 114 77
4.129117e-01 5.066153e-01 2.923805e+00 176 192 161
4.155448e-01 5.068339e-01 2.921420e+00 53 70 41
3.896790e-01 5.018840e-01 2.928922e+00 60 79 19
4.344284e-01 5.032698e-01 2.881413e+00 100 125 79
4.222558e-01 5.068197e-01 2.912114e+00 119 145 100
4.222558e-01 5.068197e-01 2.912114e+00 119 145 100
4.167188e-01 5.071778e-01 2.920067e+00 93 115 77
4.154093e-01 5.071827e-01 2.921633e+00 192 212 177
4.154093e-01 5.071827e-01 2.921633e+00 192 212 177
4.392103e-01 5.012176e-01 2.864838e+00 89 105 79
3.457559e-01 4.843174e-01 2.897371e+00 35 62 19
4.482525e-01 4.956057e-01 2.826902e+00 93 113 85
3.808615e-01 4.993753e-01 2.925759e+00 53 82 23
3.550825e-01 4.886423e-01 2.905989e+00 22 50 10
3.864965e-01 5.015439e-01 2.928730e+00 52 71 15
3.302362e-01 4.771586e-01 2.881353e+00 62 88 25
3.764771e-01 4.978620e-01 2.923374e+00 59 76 32
3.708847e-01 4.956499e-01 2.919633e+00 70 84 32
3.838424e-01 5.007251e-01 2.927645e+00 110 138 88
3.682827e-01 4.946453e-01 2.917612e+00 104 120 83
4.409905e-01 5.005568e-01 2.858209e+00 88 105 73
3.720983e-01 4.962290e-01 2.920343e+00 44 62 22
4.244161e-01 5.071399e-01 2.908943e+00 39 58 32
4.289380e-01 5.060136e-01 2.898137e+00 32 49 30
3.769532e-01 4.982874e-01 2.923841e+00 115 136 91
3.597112e-01 4.912017e-01 2.911060e+00 30 58 10
3.597112e-01 4.912017e-01 2.911060e+00 30 58 10
4.369944e-01 5.030868e-01 2.874075e+00 97 120 91
3.929125e-01 5.038916e-01 2.930870e+00 62 85 32
4.340262e-01 5.047182e-01 2.885247e+00 29 52 23
4.178141e-01 5.079784e-01 2.920078e+00 94 114 81
4.111253e-01 5.077027e-01 2.926764e+00 68 90 42
3.923470e-01 5.038499e-01 2.931181e+00 66 94 36
3.490317e-01 4.866030e-01 2.901331e+00 113 146 92
3.490317e-01 4.866030e-01 2.901331e+00 113 146 92
3.092505e-01 4.674288e-01 2.858419e+00 62 92 38
4.392356e-01 5.022531e-01 2.866894e+00 87 100 82
4.269731e-01 5.069089e-01 2.903563e+00 86 106 79
4.269731e-01 5.069089e-01 2.903563e+00 86 106 79
3.921617e-01 5.035907e-01 2.929569e+00 125 150 95
4.064681e-01 5.072158e-01 2.929466e+00 58 86 37
3.827918e-01 5.008062e-01 2.927494e+00 99 126 83
4.250515e-01 5.074557e-01 2.908129e+00 79 97 71
4.245848e-01 5.075151e-01 2.909030e+00 85 100 77
4.245848e-01 5.075151e-01 2.909030e+00 85 100 77
3.882291e-01 5.026759e-01 2.929753e+00 57 79 33
3.882291e-01 5.026759e-01 2.929753e+00 57 79 33
3.109138e-01 4.684837e-01 2.860550e+00 93 123 69
4.195707e-01 5.083495e-01 2.918306e+00 118 143 104
3.933833e-01 5.044585e-01 2.931323e+00 60 81 25
4.441562e-01 4.999855e-01 2.848605e+00 78 96 80
3.837512e-01 5.013487e-01 2.927964e+00 50 75 38
3.587636e-01 4.913738e-01 2.910749e+00 13 39 2
4.237517e-01 5.080103e-01 2.911302e+00 37 61 29
4.475782e-01 4.976807e-01 2.833025e+00 74 87 77
3.461890e-01 4.858478e-01 2.899237e+00 97 126 80
4.481974e-01 4.976589e-01 2.831544e+00 27 44 25
3.116811e-01 4.694557e-01 2.862299e+00 34 62 13
3.169931e-01 4.720043e-01 2.867832e+00 86 107 54
3.169931e-01 4.720043e-01 2.867832e+00 86 107 54
3.127134e-01 4.699959e-01 2.863392e+00 43 70 21
3.127134e-01 4.699959e-01 2.863392e+00 43 70 21
3.544387e-01 4.898557e-01 2.907177e+00 19 43 7
3.177788e-01 4.724544e-01 2.868712e+00 143 164 108
3.112356e-01 4.695205e-01 2.862526e+00 92 120 71
3.186381e-01 4.729632e-01 2.869856e+00 47 68 11
3.816314e-01 5.011998e-01 2.927764e+00 27 49 13
4.348720e-01 5.055063e-01 2.883855e+00 35 60 39
4.348720e-01 5.055063e-01 2.883855e+00 35 60 39
4.061446e-01 5.079638e-01 2.930297e+00 59 84 43
3.101449e-01 4.691214e-01 2.861005e+00 38 66 18
3.101449e-01 4.691214e-01 2.861005e+00 38 66 18
3.532820e-01 4.895800e-01 2.906339e+00 37 59 23
4.481267e-01 4.982821e-01 2.832605e+00 80 99 80
4.062798e-01 5.079170e-01 2.929575e+00 152 179 137
3.679408e-01 4.961209e-01 2.919137e+00 88 110 72
3.497457e-01 4.881507e-01 2.903151e+00 34 66 17
3.477485e-01 4.873378e-01 2.901660e+00 48 81 26
2.985266e-01 4.636164e-01 2.847907e+00 65 99 38
2.985266e-01 4.636164e-01 2.847907e+00 65 99 38
4.465264e-01 4.994637e-01 2.839440e+00 83 96 86
4.465264e-01 4.994637e-01 2.839440e+00 83 96 86
3.991548e-01 5.069357e-01 2.932714e+00 47 74 25
3.564950e-01 4.912923e-01 2.909627e+00 71 96 60
3.426359e-01 4.850675e-01 2.896691e+00 89 117 76
3.997030e-01 5.071225e-01 2.932733e+00 28 51 8
3.871610e-01 5.035526e-01 2.930621e+00 87 106 78
3.396180e-01 4.837574e-01 2.893499e+00 44 72 24
4.065658e-01 5.086014e-01 2.930870e+00 26 51 12
3.685448e-01 4.966979e-01 2.919735e+00 76 98 59
3.863344e-01 5.034756e-01 2.930534e+00 117 141 112
3.460224e-01 4.869017e-01 2.900052e+00 108 135 92
4.382835e-01 5.044033e-01 2.871861e+00 85 108 79
4.216271e-01 5.096891e-01 2.917473e+00 92 107 85
4.050805e-01 5.086021e-01 2.932223e+00 99 125 89
4.050805e-01 5.086021e-01 2.932223e+00 99 125 89
4.316483e-01 5.072672e-01 2.893541e+00 65 78 58
3.642109e-01 4.950734e-01 2.916658e+00 42 52 23
3.454261e-01 4.867319e-01 2.899608e+00 30 56 17
3.451700e-01 4.868085e-01 2.899848e+00 85 111 75
3.329411e-01 4.811163e-01 2.887011e+00 97 124 73
3.311471e-01 4.802966e-01 2.885027e+00 31 59 8
4.363354e-01 5.061296e-01 2.881240e+00 28 42 27
4.134853e-01 5.098306e-01 2.926808e+00 109 137 88
4.248659e-01 5.096957e-01 2.912125e+00 26 51 19
4.144076e-01 5.100501e-01 2.926543e+00 94 116 75
4.112488e-01 5.098144e-01 2.929312e+00 131 152 109
3.977173e-01 5.072151e-01 2.933240e+00 101 129 80
3.977173e-01 5.072151e-01 2.933240e+00 101 129 80
4.206339e-01 5.100889e-01 2.918984e+00 107 127 99
4.123214e-01 5.100391e-01 2.928718e+00 64 82 44
3.891193e-01 5.048574e-01 2.931560e+00 31 52 21
3.859811e-01 5.039368e-01 2.930856e+00 83 107 85
4.026141e-01 5.086059e-01 2.933093e+00 21 46 16
3.495171e-01 4.891948e-01 2.904234e+00 24 52 12
4.352952e-01 5.068343e-01 2.884612e+00 36 56 44
4.048750e-01 5.091864e-01 2.932984e+00 88 114 75
3.964799e-01 5.071284e-01 2.933135e+00 28 49 21
3.960397e-01 5.070497e-01 2.933434e+00 24 43 17
3.928288e-01 5.062217e-01 2.933352e+00 21 50 20
3.874922e-01 5.044455e-01 2.931273e+00 22 43 21
3.359359e-01 4.831815e-01 2.891145e+00 29 56 10
4.372892e-01 5.059670e-01 2.877487e+00 85 104 82
4.304091e-01 5.085908e-01 2.898466e+00 34 50 47
4.098987e-01 5.099231e-01 2.929966e+00 29 52 24
4.009702e-01 5.086008e-01 2.934149e+00 71 86 57
3.297089e-01 4.802091e-01 2.884067e+00 89 120 63
4.367654e-01 5.066520e-01 2.881004e+00 82 99 80
3.253620e-01 4.783021e-01 2.879747e+00 25 57 8
4.356219e-01 5.072456e-01 2.885053e+00 71 89 75
4.041090e-01 5.091089e-01 2.932436e+00 17 45 7
3.969375e-01 5.076492e-01 2.934133e+00 91 114 88
3.262420e-01 4.787817e-01 2.880747e+00 29 60 10
4.218398e-01 5.106781e-01 2.918218e+00 94 107 90
3.976322e-01 5.078919e-01 2.934203e+00 94 116 85
3.943708e-01 5.069911e-01 2.933784e+00 83 105 84
3.943708e-01 5.069911e-01 2.933784e+00 83 105 84
4.392722e-01 5.061349e-01 2.874300e+00 18 37 17
4.227859e-01 5.106765e-01 2.916339e+00 106 121 100
3.633933e-01 4.959576e-01 2.917386e+00 10 30 3
4.426340e-01 5.040745e-01 2.859615e+00 40 62 24
4.188746e-01 5.110352e-01 2.922508e+00 125 139 111
4.188746e-01 5.110352e-01 2.922508e+00 125 139 111
4.275798e-01 5.102575e-01 2.907413e+00 107 121 104
4.153593e-01 5.111145e-01 2.926524e+00 112 132 108
4.153593e-01 5.111145e-01 2.926524e+00 112 132 108
4.088116e-01 5.105968e-01 2.931927e+00 55 81 45
3.858240e-01 5.048820e-01 2.932220e+00 21 44 26
3.662086e-01 4.972877e-01 2.919454e+00 22 44 5
3.772128e-01 5.017576e-01 2.927390e+00 80 108 68
4.190643e-01 5.112518e-01 2.922274e+00 50 68 43
3.371356e-01 4.846570e-01 2.893207e+00 80 106 67
3.837401e-01 5.042921e-01 2.931125e+00 103 126 98
3.837401e-01 5.042921e-01 2.931125e+00 103 126 98
3.856649e-01 5.051333e-01 2.932280e+00 87 108 91
3.843940e-01 5.047797e-01 2.931875e+00 25 48 21
4.185848e-01 5.117509e-01 2.923823e+00 72 84 72
4.057489e-01 5.105607e-01 2.933831e+00 36 58 22
3.854325e-01 5.051848e-01 2.932472e+00 25 46 29
3.854325e-01 5.051848e-01 2.932472e+00 25 46 29
4.172706e-01 5.116306e-01 2.924798e+00 75 92 76
4.246613e-01 5.112720e-01 2.913854e+00 20 45 16
4.246613e-01 5.112720e-01 2.913854e+00 20 45 16
4.298566e-01 5.104261e-01 2.902893e+00 78 102 88
4.141360e-01 5.117285e-01 2.928451e+00 78 95 76
4.134092e-01 5.116575e-01 2.929094e+00 76 96 71
3.351347e-01 4.843085e-01 2.891503e+00 83 108 68
4.097911e-01 5.114628e-01 2.932257e+00 73 96 69
4.474066e-01 5.030085e-01 2.844288e+00 113 142 93
4.457775e-01 5.039373e-01 2.850628e+00 89 114 75
4.457775e-01 5.039373e-01 2.850628e+00 89 114 75
4.360939e-01 5.086934e-01 2.885836e+00 100 114 83
3.817067e-01 5.042184e-01 2.930730e+00 96 117 86
3.533590e-01 4.927516e-01 2.909530e+00 97 122 80
3.533590e-01 4.927516e-01 2.909530e+00 97 122 80
2.985082e-01 4.671795e-01 2.851891e+00 120 145 80
4.045264e-01 5.107329e-01 2.934413e+00 83 106 71
3.998092e-01 5.097165e-01 2.935323e+00 89 105 79
3.998092e-01 5.097165e-01 2.935323e+00 89 105 79
4.052130e-01 5.107779e-01 2.933625e+00 47 67 39
4.052130e-01 5.107779e-01 2.933625e+00 47 67 39
3.234462e-01 4.790954e-01 2.879188e+00 102 130 72
3.825205e-01 5.045549e-01 2.930695e+00 112 129 97
3.682511e-01 4.992109e-01 2.922035e+00 81 105 71
3.637588e-01 4.974818e-01 2.918652e+00 12 38 2
3.630403e-01 4.972682e-01 2.918396e+00 18 44 6
3.830611e-01 5.049516e-01 2.931315e+00 33 48 18
4.022697e-01 5.106813e-01 2.935574e+00 9 23 0
4.186545e-01 5.125419e-01 2.924341e+00 74 89 74
3.814710e-01 5.045738e-01 2.930996e+00 31 47 20
3.933857e-01 5.084652e-01 2.935310e+00 22 43 26
3.573300e-01 4.948362e-01 2.912727e+00 75 95 70
4.240443e-01 5.124030e-01 2.916480e+00 100 121 89
3.935224e-01 5.085428e-01 2.934775e+00 72 90 74
3.930783e-01 5.085803e-01 2.935559e+00 67 87 72
3.903568e-01 5.077593e-01 2.934620e+00 29 58 11
3.903568e-01 5.077593e-01 2.934620e+00 29 58 11
3.516031e-01 4.927252e-01 2.908630e+00 88 116 82
3.232958e-01 4.798083e-01 2.879923e+00 121 149 90
3.232958e-01 4.798083e-01 2.879923e+00 121 149 90
3.232958e-01 4.798083e-01 2.879923e+00 121 149 90
3.799326e-01 5.041664e-01 2.929678e+00 84 107 70
3.735282e-01 5.019273e-01 2.926553e+00 42 61 22
4.085864e-01 5.121464e-01 2.933428e+00 107 134 91
3.851570e-01 5.062200e-01 2.933113e+00 22 36 13
3.621980e-01 4.973480e-01 2.917916e+00 80 106 69
4.104419e-01 5.124851e-01 2.932738e+00 83 107 75
3.157262e-01 4.764279e-01 2.872078e+00 120 149 91
3.157262e-01 4.764279e-01 2.872078e+00 120 149 91
3.880319e-01 5.070972e-01 2.933680e+00 40 62 26
3.880319e-01 5.070972e-01 2.933680e+00 40 62 26
3.209130e-01 4.789167e-01 2.877692e+00 67 92 27
4.436081e-01 5.068279e-01 2.863188e+00 53 81 28
3.977110e-01 5.102042e-01 2.936677e+00 34 51 15
3.957462e-01 5.096149e-01 2.936216e+00 110 130 102
4.083502e-01 5.123952e-01 2.934029e+00 57 84 39
3.576503e-01 4.957208e-01 2.914533e+00 90 116 80
3.201803e-01 4.787067e-01 2.877036e+00 128 155 92
4.112245e-01 5.128475e-01 2.932643e+00 111 132 100
3.966316e-01 5.098976e-01 2.936181e+00 110 132 94
3.966316e-01 5.098976e-01 2.936181e+00 110 132 94
3.709426e-01 5.010940e-01 2.924491e+00 21 40 10
4.216626e-01 5.131293e-01 2.920987e+00 86 108 70
3.991031e-01 5.105412e-01 2.935853e+00 95 108 78
3.526806e-01 4.936994e-01 2.909955e+00 34 65 25
4.084305e-01 5.122403e-01 2.932477e+00 98 125 84
2.978333e-01 4.684156e-01 2.852707e+00 155 163 116
4.315932e-01 5.118936e-01 2.901847e+00 94 120 90
3.787770e-01 5.045801e-01 2.930860e+00 71 88 52
3.851925e-01 5.067953e-01 2.933718e+00 71 84 58
3.714708e-01 5.018047e-01 2.925971e+00 19 38 6
4.276886e-01 5.127678e-01 2.910428e+00 100 128 80
4.276886e-01 5.127678e-01 2.910428e+00 100 128 80
4.022899e-01 5.117304e-01 2.936617e+00 35 52 17
3.977803e-01 5.107071e-01 2.936887e+00 96 117 77
3.977803e-01 5.107071e-01 2.936887e+00 96 117 77
3.007165e-01 4.701750e-01 2.856251e+00 129 147 95
4.111895e-01 5.134106e-01 2.933448e+00 63 84 43
3.510121e-01 4.934314e-01 2.909031e+00 87 107 79
3.510121e-01 4.934314e-01 2.909031e+00 87 107 79
4.104132e-01 5.132884e-01 2.933564e+00 97 122 82
4.104132e-01 5.132884e-01 2.933564e+00 97 122 82
3.949144e-01 5.101188e-01 2.936867e+00 71 95 63
3.949144e-01 5.101188e-01 2.936867e+00 71 95 63
3.070300e-01 4.733800e-01 2.863683e+00 116 145 91
4.033697e-01 5.122126e-01 2.936593e+00 95 119 86
4.160733e-01 5.138127e-01 2.928668e+00 104 127 81
4.500578e-01 5.040928e-01 2.837476e+00 128 156 98
3.771994e-01 5.043136e-01 2.929616e+00 105 124 86
3.771994e-01 5.043136e-01 2.929616e+00 105 124 86
4.189832e-01 5.140235e-01 2.925795e+00 101 125 79
4.186404e-01 5.141522e-01 2.926834e+00 109 137 88
4.186404e-01 5.141522e-01 2.926834e+00 109 137 88
3.240252e-01 4.815734e-01 2.882372e+00 69 97 38
4.053296e-01 5.127929e-01 2.936256e+00 79 95 68
4.053296e-01 5.127929e-01 2.936256e+00 79 95 68
3.904248e-01 5.091187e-01 2.936463e+00 24 53 9
4.188408e-01 5.142785e-01 2.926643e+00 69 97 47
4.257771e-01 5.139901e-01 2.916192e+00 51 81 29
4.143830e-01 5.140666e-01 2.930884e+00 101 124 78
4.020363e-01 5.122692e-01 2.937064e+00 41 62 19
4.013095e-01 5.120778e-01 2.937155e+00 47 69 23
3.004960e-01 4.707756e-01 2.856958e+00 165 173 138
2.991137e-01 4.700496e-01 2.854955e+00 19 24 1
4.338699e-01 5.121611e-01 2.896872e+00 91 114 72
3.502696e-01 4.936967e-01 2.908896e+00 112 138 97
3.079461e-01 4.742594e-01 2.864890e+00 51 81 32
3.813940e-01 5.062696e-01 2.932589e+00 33 60 18
3.813940e-01 5.062696e-01 2.932589e+00 33 60 18
3.030158e-01 4.719792e-01 2.859281e+00 67 89 49
3.023833e-01 4.718793e-01 2.859399e+00 146 162 123
4.439440e-01 5.082651e-01 2.863957e+00 35 65 5
4.028275e-01 5.126756e-01 2.937314e+00 49 75 31
3.557958e-01 4.962374e-01 2.913884e+00 54 81 40
3.195098e-01 4.799538e-01 2.877847e+00 60 89 26
3.187889e-01 4.796144e-01 2.877125e+00 135 162 99
3.187889e-01 4.796144e-01 2.877125e+00 135 162 99
4.054502e-01 5.131408e-01 2.936288e+00 34 54 19
4.404294e-01 5.100362e-01 2.876661e+00 109 140 81
3.027814e-01 4.722040e-01 2.859466e+00 127 146 115
3.027814e-01 4.722040e-01 2.859466e+00 127 146 115
4.007830e-01 5.123860e-01 2.937728e+00 122 144 98
3.181852e-01 4.795803e-01 2.876880e+00 64 90 29
3.509646e-01 4.944981e-01 2.910209e+00 50 79 33
3.844751e-01 5.077274e-01 2.934207e+00 98 117 69
4.144852e-01 5.146563e-01 2.931439e+00 25 52 2
3.818351e-01 5.070091e-01 2.933657e+00 97 125 77
3.794316e-01 5.060946e-01 2.932086e+00 90 117 69
4.061482e-01 5.138132e-01 2.936944e+00 91 115 68
4.055955e-01 5.136431e-01 2.936750e+00 102 129 80
3.404037e-01 4.900825e-01 2.900195e+00 107 129 91
4.027407e-01 5.130917e-01 2.937447e+00 105 131 81
3.459705e-01 4.927147e-01 2.905876e+00 46 73 20
4.189496e-01 5.152196e-01 2.927297e+00 123 150 99
4.189496e-01 5.152196e-01 2.927297e+00 123 150 99
4.114165e-01 5.147344e-01 2.934343e+00 102 125 73
4.143171e-01 5.149572e-01 2.931668e+00 96 121 63
4.007501e-01 5.130035e-01 2.938198e+00 104 130 82
3.939657e-01 5.113103e-01 2.938047e+00 98 128 76
3.995538e-01 5.126970e-01 2.937812e+00 63 87 35
4.137080e-01 5.152541e-01 2.932916e+00 112 133 76
4.130789e-01 5.153255e-01 2.933630e+00 122 145 89
3.320665e-01 4.870101e-01 2.892564e+00 119 143 85
3.411167e-01 4.911290e-01 2.901595e+00 36 58 20
3.411167e-01 4.911290e-01 2.901595e+00 36 58 20
3.223999e-01 4.829103e-01 2.882816e+00 57 81 43
3.877268e-01 5.099181e-01 2.936894e+00 105 134 69
3.986726e-01 5.131778e-01 2.939520e+00 50 72 8
4.319226e-01 5.147506e-01 2.905475e+00 116 140 86
4.134398e-01 5.156833e-01 2.933353e+00 74 98 34
4.076679e-01 5.150502e-01 2.937422e+00 70 99 41
3.201045e-01 4.818660e-01 2.879799e+00 122 145 119
4.119425e-01 5.156040e-01 2.934717e+00 47 71 19
3.041861e-01 4.746135e-01 2.862962e+00 124 141 162
4.007509e-01 5.136775e-01 2.938925e+00 55 88 31
3.915225e-01 5.111890e-01 2.937867e+00 104 132 84
3.798853e-01 5.073562e-01 2.933133e+00 107 136 82
3.884088e-01 5.102946e-01 2.937228e+00 121 150 83
3.884088e-01 5.102946e-01 2.937228e+00 121 150 83
3.815817e-01 5.081525e-01 2.934528e+00 116 145 89
3.476294e-01 4.946653e-01 2.908739e+00 66 92 44
3.203874e-01 4.824856e-01 2.881221e+00 72 92 82
3.022680e-01 4.740005e-01 2.861117e+00 47 55 78
3.835168e-01 5.088613e-01 2.935263e+00 54 83 29
3.835168e-01 5.088613e-01 2.935263e+00 54 83 29
3.963716e-01 5.129105e-01 2.939470e+00 64 95 28
3.752691e-01 5.059207e-01 2.930603e+00 48 71 25
3.501458e-01 4.958334e-01 2.911115e+00 40 70 21
4.408593e-01 5.122186e-01 2.879582e+00 138 166 108
4.005141e-01 5.139143e-01 2.938802e+00 97 131 71
4.283941e-01 5.158552e-01 2.913332e+00 101 133 76
4.292038e-01 5.159022e-01 2.912397e+00 41 72 12
4.299043e-01 5.158363e-01 2.910564e+00 128 156 95
3.868306e-01 5.103301e-01 2.936957e+00 63 93 32
4.069440e-01 5.155490e-01 2.937951e+00 101 130 76
3.843465e-01 5.092852e-01 2.934561e+00 108 134 76
3.525863e-01 4.974065e-01 2.914043e+00 33 68 12
4.146362e-01 5.168163e-01 2.933968e+00 24 47 1
3.845695e-01 5.098331e-01 2.936358e+00 67 95 37
3.278971e-01 4.868022e-01 2.890490e+00 118 139 133
4.411432e-01 5.130431e-01 2.880500e+00 74 99 41
3.936618e-01 5.127284e-01 2.939207e+00 114 145 85
3.936618e-01 5.127284e-01 2.939207e+00 114 145 85
3.647213e-01 5.026117e-01 2.924056e+00 107 144 75
3.237777e-01 4.849565e-01 2.885576e+00 135 152 158
4.423846e-01 5.124903e-01 2.875655e+00 42 72 19
4.222955e-01 5.174239e-01 2.926250e+00 126 153 100
4.222955e-01 5.174239e-01 2.926250e+00 126 153 100
3.401556e-01 4.921373e-01 2.901099e+00 66 91 49
4.038982e-01 5.155970e-01 2.939750e+00 45 69 20
3.820830e-01 5.093110e-01 2.935345e+00 66 95 37
4.121521e-01 5.170127e-01 2.936063e+00 41 69 20
4.311294e-01 5.166728e-01 2.909587e+00 80 99 39
4.311294e-01 5.166728e-01 2.909587e+00 80 99 39
4.475557e-01 5.107328e-01 2.857733e+00 118 146 109
4.211504e-01 5.177539e-01 2.927623e+00 141 166 111
3.974617e-01 5.143397e-01 2.940307e+00 140 164 102
3.382512e-01 4.920543e-01 2.901063e+00 47 67 33
3.287308e-01 4.879848e-01 2.891758e+00 57 71 82
4.358022e-01 5.156505e-01 2.897491e+00 124 152 94
4.219537e-01 5.178353e-01 2.926339e+00 127 152 97
3.276256e-01 4.874010e-01 2.890023e+00 127 140 157
4.289506e-01 5.172447e-01 2.914049e+00 64 94 34
3.993010e-01 5.150616e-01 2.940447e+00 66 86 25
4.512650e-01 5.093931e-01 2.844172e+00 74 101 93
4.424671e-01 5.134892e-01 2.876788e+00 105 131 83
4.171677e-01 5.179763e-01 2.932264e+00 46 83 29
3.477554e-01 4.966601e-01 2.910543e+00 133 159 122
3.997455e-01 5.155501e-01 2.941155e+00 119 142 84
3.815484e-01 5.101123e-01 2.936135e+00 106 133 76
3.815484e-01 5.101123e-01 2.936135e+00 106 133 76
4.457222e-01 5.127057e-01 2.867051e+00 54 85 44
4.459490e-01 5.125502e-01 2.865797e+00 91 127 91
3.363650e-01 4.920505e-01 2.900047e+00 146 157 160
3.580964e-01 5.012775e-01 2.919906e+00 108 133 89
4.345997e-01 5.168699e-01 2.902429e+00 143 164 107
3.941633e-01 5.142124e-01 2.940490e+00 126 153 91
3.941633e-01 5.142124e-01 2.940490e+00 126 153 91
4.479837e-01 5.117176e-01 2.858249e+00 127 143 119
4.320161e-01 5.174205e-01 2.908186e+00 139 157 97
3.344975e-01 4.915421e-01 2.898420e+00 125 137 149
3.937348e-01 5.144212e-01 2.941008e+00 58 88 25
4.473459e-01 5.123032e-01 2.861003e+00 34 50 39
4.471586e-01 5.125782e-01 2.862278e+00 91 110 99
4.471586e-01 5.125782e-01 2.862278e+00 91 110 99
3.844916e-01 5.115127e-01 2.937443e+00 127 152 87
4.270791e-01 5.187635e-01 2.919940e+00 52 75 19
3.405134e-01 4.945017e-01 2.904648e+00 65 78 70
3.405134e-01 4.945017e-01 2.904648e+00 65 78 70
4.442507e-01 5.142564e-01 2.873716e+00 113 140 120
4.442507e-01 5.142564e-01 2.873716e+00 113 140 120
4.255922e-01 5.189832e-01 2.922382e+00 65 83 23
4.255922e-01 5.189832e-01 2.922382e+00 65 83 23
3.847886e-01 5.120938e-01 2.938507e+00 51 78 17
4.467097e-01 5.134550e-01 2.865619e+00 86 108 96
3.484907e-01 4.981368e-01 2.912177e+00 93 107 76
4.515326e-01 5.110084e-01 2.846095e+00 73 79 107
4.383151e-01 5.167678e-01 2.893234e+00 124 151 113
4.063664e-01 5.180177e-01 2.940804e+00 118 143 89
4.320970e-01 5.183571e-01 2.909154e+00 90 109 63
3.723981e-01 5.081431e-01 2.931756e+00 117 129 94
4.227629e-01 5.198149e-01 2.927821e+00 134 150 106
4.227629e-01 5.198149e-01 2.927821e+00 134 150 106
3.644860e-01 5.052362e-01 2.926366e+00 100 120 86
4.059746e-01 5.182371e-01 2.940723e+00 58 86 25
4.059746e-01 5.182371e-01 2.940723e+00 58 86 25
4.172195e-01 5.198251e-01 2.934265e+00 136 158 119
4.419536e-01 5.160218e-01 2.882134e+00 44 59 38
4.419536e-01 5.160218e-01 2.882134e+00 44 59 38
4.418543e-01 5.163089e-01 2.883706e+00 112 127 109
4.449210e-01 5.150518e-01 2.873051e+00 30 50 41
4.294097e-01 5.195607e-01 2.916436e+00 103 127 71
4.475262e-01 5.142037e-01 2.864444e+00 81 86 80
3.646037e-01 5.056376e-01 2.926505e+00 31 45 38
4.208214e-01 5.202504e-01 2.930421e+00 51 77 38
4.208214e-01 5.202504e-01 2.930421e+00 51 77 38
3.644975e-01 5.056723e-01 2.926751e+00 29 46 37
4.355082e-01 5.184933e-01 2.901894e+00 89 104 101
4.355082e-01 5.184933e-01 2.901894e+00 89 104 101
4.219968e-01 5.202217e-01 2.928687e+00 86 109 83
4.059242e-01 5.185211e-01 2.940505e+00 113 140 85
4.059242e-01 5.185211e-01 2.940505e+00 113 140 85
4.320545e-01 5.194569e-01 2.911304e+00 87 108 90
3.426383e-01 4.968997e-01 2.908394e+00 131 134 149
3.882664e-01 5.142739e-01 2.940385e+00 67 92 62
4.261612e-01 5.203097e-01 2.922863e+00 157 168 139
3.780584e-01 5.109419e-01 2.935855e+00 128 147 135
3.939963e-01 5.161683e-01 2.942091e+00 109 132 80
4.496890e-01 5.139190e-01 2.856784e+00 80 84 96
4.312372e-01 5.201497e-01 2.913912e+00 56 74 58
4.299980e-01 5.203081e-01 2.916279e+00 90 103 85
3.724645e-01 5.093107e-01 2.932884e+00 74 88 82
4.205252e-01 5.210196e-01 2.932150e+00 42 55 35
3.715045e-01 5.090923e-01 2.932547e+00 150 70 92
3.469765e-01 4.993707e-01 2.912991e+00 27 28 48
3.994737e-01 5.179542e-01 2.942875e+00 130 145 116
3.171426e-01 4.865113e-01 2.883413e+00 71 72 90
4.229543e-01 5.210696e-01 2.928760e+00 108 106 95
3.863247e-01 5.141728e-01 2.939884e+00 135 146 146
4.283229e-01 5.207297e-01 2.919765e+00 114 127 98
4.339974e-01 5.201517e-01 2.908896e+00 74 66 89
4.021622e-01 5.187088e-01 2.942755e+00 69 87 63
3.423186e-01 4.976740e-01 2.908737e+00 20 19 29
4.176396e-01 5.211243e-01 2.934852e+00 39 51 45
4.479186e-01 5.154807e-01 2.864984e+00 89 83 86
4.479186e-01 5.154807e-01 2.864984e+00 89 83 86
4.121474e-01 5.206732e-01 2.939346e+00 41 52 33
4.236608e-01 5.215583e-01 2.928741e+00 168 164 146
4.510489e-01 5.142248e-01 2.853383e+00 43 47 66
4.179235e-01 5.214523e-01 2.935085e+00 96 107 110
3.943874e-01 5.171136e-01 2.942663e+00 27 38 36
4.093078e-01 5.204755e-01 2.941065e+00 85 57 41
4.093078e-01 5.204755e-01 2.941065e+00 85 57 41
4.342747e-01 5.205058e-01 2.908228e+00 85 91 113
4.342747e-01 5.205058e-01 2.908228e+00 85 91 113
4.151819e-01 5.213191e-01 2.937681e+00 120 138 137
3.692202e-01 5.089213e-01 2.931467e+00 225 130 155
4.485126e-01 5.158004e-01 2.864021e+00 147 134 144
4.399984e-01 5.192615e-01 2.893549e+00 62 68 87
3.919072e-01 5.165536e-01 2.941937e+00 121 136 130
3.072415e-01 4.831040e-01 2.874002e+00 64 69 91
4.484201e-01 5.162677e-01 2.865796e+00 56 31 44
4.309951e-01 5.214017e-01 2.916018e+00 17 26 28
4.098867e-01 5.208774e-01 2.940822e+00 139 139 140
4.150999e-01 5.216955e-01 2.938191e+00 36 50 58
4.012946e-01 5.194483e-01 2.944036e+00 153 156 161
3.917384e-01 5.168029e-01 2.942267e+00 41 54 63
4.321873e-01 5.214204e-01 2.913697e+00 150 159 168
4.317454e-01 5.215699e-01 2.914538e+00 45 56 58
4.147609e-01 5.218460e-01 2.938290e+00 156 164 185
3.215453e-01 4.899551e-01 2.889527e+00 126 131 150
4.415455e-01 5.194657e-01 2.889893e+00 138 145 173
4.321101e-01 5.219394e-01 2.915166e+00 133 143 150
4.090367e-01 5.213695e-01 2.942147e+00 39 20 16
4.515685e-01 5.159062e-01 2.855602e+00 174 180 196
4.503863e-01 5.163188e-01 2.859572e+00 125 137 153
4.503863e-01 5.163188e-01 2.859572e+00 125 137 153
4.488883e-01 5.170402e-01 2.865439e+00 117 88 110
4.331060e-01 5.219354e-01 2.912673e+00 147 152 174
3.670087e-01 5.091283e-01 2.930822e+00 17 24 43
3.670087e-01 5.091283e-01 2.930822e+00 17 24 43
2.918392e-01 4.773797e-01 2.858413e+00 121 133 157
4.086651e-01 5.215802e-01 2.942864e+00 44 26 27
4.317054e-01 5.221823e-01 2.915443e+00 61 70 75
4.496698e-01 5.170121e-01 2.862865e+00 169 181 199
3.851589e-01 5.160553e-01 2.941999e+00 34 25 42
3.587902e-01 5.064067e-01 2.924331e+00 73 76 97
3.555800e-01 5.054307e-01 2.922829e+00 70 86 111
4.536054e-01 5.157799e-01 2.848649e+00 104 98 110
4.536054e-01 5.157799e-01 2.848649e+00 104 98 110
3.550874e-01 5.054031e-01 2.922784e+00 121 133 159
3.941276e-01 5.188504e-01 2.943986e+00 82 85 105
3.295521e-01 4.949657e-01 2.899527e+00 81 97 120
4.446677e-01 5.200291e-01 2.882414e+00 77 82 105
4.446677e-01 5.200291e-01 2.882414e+00 77 82 105
3.476341e-01 5.026644e-01 2.916821e+00 172 184 209
3.598334e-01 5.074741e-01 2.926558e+00 100 96 116
4.472935e-01 5.190405e-01 2.873184e+00 87 69 95
4.472935e-01 5.190405e-01 2.873184e+00 87 69 95
3.673545e-01 5.102766e-01 2.931572e+00 132 137 156
4.537589e-01 5.167294e-01 2.851388e+00 112 104 117
4.159697e-01 5.234604e-01 2.938593e+00 61 74 105
4.451132e-01 5.201827e-01 2.881670e+00 111 109 125
4.451132e-01 5.201827e-01 2.881670e+00 111 109 125
4.475722e-01 5.196038e-01 2.874279e+00 54 31 57
3.514556e-01 5.044120e-01 2.919394e+00 38 47 58
4.493264e-01 5.189415e-01 2.867701e+00 128 108 129
4.453685e-01 5.204376e-01 2.881307e+00 36 32 46
4.528279e-01 5.173115e-01 2.853816e+00 39 27 37
4.504804e-01 5.186028e-01 2.863617e+00 107 120 137
3.550204e-01 5.063888e-01 2.923549e+00 114 130 153
3.043650e-01 4.852028e-01 2.874750e+00 126 124 135
3.729047e-01 5.132824e-01 2.937002e+00 161 175 196
3.729047e-01 5.132824e-01 2.937002e+00 161 175 196
4.453096e-01 5.210142e-01 2.882290e+00 105 101 116
3.566595e-01 5.070848e-01 2.924193e+00 55 67 96
4.097810e-01 5.235566e-01 2.943393e+00 125 132 150
4.097810e-01 5.235566e-01 2.943393e+00 125 132 150
4.150815e-01 5.238612e-01 2.937945e+00 117 131 160
3.282989e-01 4.959546e-01 2.899827e+00 191 207 236
3.601978e-01 5.088203e-01 2.927668e+00 22 18 33
4.276879e-01 5.251226e-01 2.926404e+00 66 71 90
3.725796e-01 5.135784e-01 2.936490e+00 170 185 208
4.318966e-01 5.247604e-01 2.918381e+00 36 27 43
4.249275e-01 5.250816e-01 2.929455e+00 73 83 103
4.124544e-01 5.244883e-01 2.943015e+00 24 29 42
4.124544e-01 5.244883e-01 2.943015e+00 24 29 42
4.238720e-01 5.252961e-01 2.932011e+00 88 94 118
3.389688e-01 5.007667e-01 2.910109e+00 183 192 221
4.229996e-01 5.253341e-01 2.933128e+00 38 43 63
3.518484e-01 5.060485e-01 2.921421e+00 61 77 101
2.972679e-01 4.834430e-01 2.869009e+00 125 121 138
4.450089e-01 5.223737e-01 2.885689e+00 144 129 148
4.350247e-01 5.248784e-01 2.912800e+00 72 68 91
4.441294e-01 5.228800e-01 2.889177e+00 47 42 64
4.441294e-01 5.228800e-01 2.889177e+00 47 42 64
3.669769e-01 5.121328e-01 2.933351e+00 33 36 50
3.523790e-01 5.072459e-01 2.925182e+00 40 49 77
4.453123e-01 5.224664e-01 2.884688e+00 32 34 47
3.530015e-01 5.070556e-01 2.923250e+00 187 200 234
4.482437e-01 5.217226e-01 2.875962e+00 117 104 115
4.500379e-01 5.210812e-01 2.869718e+00 108 94 109
4.452206e-01 5.228426e-01 2.886087e+00 118 115 130
4.020403e-01 5.231649e-01 2.946211e+00 128 131 150
2.931579e-01 4.822734e-01 2.865154e+00 139 119 154
3.708416e-01 5.140020e-01 2.936480e+00 123 128 150
3.114633e-01 4.903302e-01 2.884524e+00 35 28 46
3.067802e-01 4.883953e-01 2.879869e+00 62 57 89
3.067802e-01 4.883953e-01 2.879869e+00 62 57 89
4.499422e-01 5.215832e-01 2.871368e+00 34 21 31
4.131375e-01 5.252788e-01 2.941976e+00 117 123 135
4.490540e-01 5.218643e-01 2.873998e+00 82 65 71
3.554942e-01 5.085501e-01 2.925523e+00 35 39 68
3.248199e-01 4.962731e-01 2.898147e+00 141 116 135
4.008291e-01 5.232490e-01 2.946249e+00 102 105 122
4.247609e-01 5.265415e-01 2.932157e+00 94 103 120
4.247609e-01 5.265415e-01 2.932157e+00 94 103 120
2.979208e-01 4.849890e-01 2.871091e+00 124 105 132
4.508004e-01 5.215999e-01 2.868676e+00 106 92 105
4.117627e-01 5.256634e-01 2.944183e+00 40 38 52
4.219223e-01 5.263642e-01 2.934204e+00 117 124 143
4.049893e-01 5.229337e-01 2.937512e+00 66 73 92
4.298132e-01 5.266479e-01 2.924691e+00 101 99 112
3.896700e-01 5.206818e-01 2.945252e+00 57 60 77
3.896700e-01 5.206818e-01 2.945252e+00 57 60 77
3.896700e-01 5.206818e-01 2.945252e+00 57 60 77
3.301625e-01 4.988640e-01 2.903221e+00 15 22 38
3.763734e-01 5.166119e-01 2.940020e+00 83 91 102
4.326232e-01 5.264375e-01 2.918741e+00 33 36 69
4.478839e-01 5.231624e-01 2.879241e+00 123 118 138
3.837208e-01 5.190274e-01 2.943207e+00 87 90 107
3.821907e-01 5.186447e-01 2.943053e+00 79 86 102
4.285957e-01 5.271265e-01 2.927249e+00 106 102 116
4.073117e-01 5.253087e-01 2.945974e+00 62 68 84
4.090403e-01 5.256881e-01 2.945663e+00 73 81 94
4.090403e-01 5.256881e-01 2.945663e+00 73 81 94
3.083660e-01 4.903797e-01 2.883588e+00 71 65 109
4.185120e-01 5.269182e-01 2.939555e+00 123 126 143
4.100293e-01 5.258644e-01 2.945044e+00 111 115 127
3.881999e-01 5.206226e-01 2.945288e+00 91 51 95
