ply
format ascii 1.0
element face 0
property list uchar int vertex_indices
element vertex 955
property float x
property float y
property float z
property uchar diffuse_red
property uchar diffuse_green
property uchar diffuse_blue
end_header
4.103155e-01 5.934157e-01 3.083531e+00 170 173 182
4.358727e-01 5.761082e-01 3.086010e+00 157 156 164
4.359258e-01 5.761463e-01 3.085901e+00 157 156 164
4.486406e-01 5.696069e-01 3.085557e+00 134 131 138
4.296529e-01 5.898814e-01 3.066730e+00 208 228 250
4.437510e-01 5.724754e-01 3.090017e+00 149 149 151
4.456479e-01 5.725050e-01 3.087509e+00 147 145 150
4.324855e-01 5.938316e-01 3.065838e+00 100 117 139
4.392331e-01 5.907192e-01 3.082979e+00 150 159 171
3.667399e-01 5.296815e-01 3.077486e+00 88 83 89
3.918928e-01 5.177504e-01 3.079627e+00 85 79 79
3.896500e-01 5.205624e-01 3.079934e+00 114 108 110
3.881861e-01 5.246053e-01 3.079401e+00 117 106 110
4.030870e-01 5.164678e-01 3.081176e+00 84 72 75
3.834979e-01 5.357386e-01 3.078493e+00 96 87 88
3.895873e-01 5.342199e-01 3.078885e+00 98 86 86
4.047290e-01 5.298925e-01 3.080144e+00 122 112 113
4.001292e-01 5.347379e-01 3.079877e+00 130 116 115
4.040012e-01 5.324761e-01 3.079836e+00 122 113 116
4.275546e-01 5.171707e-01 3.083561e+00 94 84 83
4.285022e-01 5.186631e-01 3.083528e+00 153 143 142
3.795411e-01 5.574900e-01 3.078745e+00 161 154 162
3.658502e-01 5.677868e-01 3.087377e+00 178 177 185
3.832279e-01 5.564615e-01 3.078723e+00 105 104 112
3.735198e-01 5.630130e-01 3.085549e+00 166 165 173
3.720072e-01 5.644977e-01 3.078040e+00 107 106 114
3.813770e-01 5.589530e-01 3.077873e+00 99 98 103
4.193246e-01 5.347129e-01 3.081538e+00 134 131 138
4.248191e-01 5.320656e-01 3.081892e+00 143 142 150
4.166061e-01 5.370290e-01 3.090707e+00 76 75 84
4.362284e-01 5.247037e-01 3.083679e+00 89 88 93
4.087310e-01 5.433314e-01 3.079250e+00 164 157 162
4.340003e-01 5.276775e-01 3.083517e+00 144 144 150
4.363600e-01 5.266322e-01 3.083974e+00 102 101 109
3.813695e-01 5.655453e-01 3.086274e+00 81 77 78
3.813695e-01 5.655453e-01 3.086274e+00 81 77 78
4.318372e-01 5.331206e-01 3.081558e+00 131 126 132
4.080425e-01 5.490088e-01 3.078128e+00 98 92 96
4.418162e-01 5.285198e-01 3.084493e+00 142 137 144
4.227706e-01 5.424405e-01 3.079106e+00 87 80 87
3.850465e-01 5.685639e-01 3.078990e+00 143 142 148
3.970689e-01 5.610950e-01 3.080381e+00 137 132 138
3.896871e-01 5.661231e-01 3.088021e+00 157 159 171
3.928006e-01 5.644976e-01 3.086374e+00 164 164 174
3.718683e-01 5.789268e-01 3.087016e+00 174 169 176
3.781284e-01 5.756771e-01 3.086017e+00 68 63 67
3.791803e-01 5.751906e-01 3.085041e+00 57 55 60
3.866491e-01 5.709456e-01 3.085869e+00 76 75 80
3.953700e-01 5.667393e-01 3.087968e+00 74 71 78
4.039002e-01 5.613062e-01 3.088606e+00 175 174 178
4.501639e-01 5.315911e-01 3.085953e+00 122 124 136
4.264585e-01 5.486078e-01 3.087752e+00 163 160 167
4.425392e-01 5.385470e-01 3.090682e+00 166 162 163
3.866550e-01 5.793435e-01 3.080188e+00 168 170 183
4.084871e-01 5.653328e-01 3.079706e+00 188 187 194
4.469969e-01 5.394268e-01 3.085299e+00 95 93 105
4.134266e-01 5.622217e-01 3.086678e+00 113 111 122
3.917343e-01 5.806438e-01 3.080852e+00 97 90 92
4.117896e-01 5.671576e-01 3.083929e+00 65 68 79
4.274162e-01 5.578381e-01 3.080804e+00 165 167 179
4.207916e-01 5.619664e-01 3.083602e+00 189 186 195
3.997213e-01 5.768072e-01 3.081795e+00 89 82 89
3.996799e-01 5.766131e-01 3.082925e+00 89 82 89
3.884871e-01 5.838410e-01 3.084460e+00 130 121 124
4.084743e-01 5.723381e-01 3.082778e+00 126 121 127
4.460753e-01 5.477042e-01 3.084142e+00 101 97 98
4.460753e-01 5.477042e-01 3.084142e+00 101 97 98
3.954693e-01 5.820074e-01 3.081471e+00 135 127 124
3.963226e-01 5.818892e-01 3.081817e+00 134 126 123
4.207200e-01 5.652675e-01 3.085498e+00 112 111 119
4.039936e-01 5.762262e-01 3.086563e+00 100 99 107
3.935022e-01 5.852188e-01 3.080564e+00 186 185 191
4.205097e-01 5.664270e-01 3.085504e+00 171 170 176
4.093950e-01 5.745325e-01 3.082675e+00 162 160 163
3.980219e-01 5.828110e-01 3.081340e+00 190 185 192
4.476283e-01 5.508209e-01 3.085033e+00 131 125 129
4.145797e-01 5.752126e-01 3.080539e+00 122 112 113
4.521463e-01 5.510524e-01 3.085564e+00 122 121 129
4.490369e-01 5.548684e-01 3.084382e+00 188 187 195
3.879336e-01 5.956435e-01 3.082322e+00 106 106 114
4.230334e-01 5.738882e-01 3.082273e+00 130 127 138
4.303433e-01 5.697216e-01 3.082011e+00 142 136 136
3.965569e-01 5.918376e-01 3.082211e+00 143 138 144
3.963855e-01 5.920087e-01 3.082958e+00 104 99 105
4.229049e-01 5.762701e-01 3.082125e+00 145 135 136
4.385754e-01 5.654970e-01 3.084695e+00 105 103 114
3.918330e-01 5.972932e-01 3.081149e+00 105 103 114
4.190862e-01 5.803149e-01 3.084179e+00 178 179 181
4.268263e-01 5.765304e-01 3.082536e+00 134 128 130
4.194898e-01 5.842835e-01 3.084330e+00 110 109 117
4.490693e-01 5.651001e-01 3.085179e+00 100 96 97
4.383262e-01 5.724512e-01 3.085299e+00 74 72 73
3.988309e-01 5.990849e-01 3.082711e+00 142 145 154
4.042653e-01 5.960963e-01 3.083336e+00 134 138 149
4.221738e-01 5.840889e-01 3.084647e+00 147 146 154
4.097827e-01 5.933581e-01 3.083005e+00 119 121 133
4.115037e-01 5.914977e-01 3.085346e+00 137 136 142
4.417630e-01 5.735760e-01 3.084580e+00 123 121 124
4.412492e-01 5.732245e-01 3.086332e+00 123 121 124
4.460677e-01 5.706815e-01 3.086323e+00 130 125 131
4.384755e-01 5.776093e-01 3.084110e+00 128 143 165
4.464596e-01 5.716572e-01 3.087557e+00 93 88 94
4.484111e-01 5.707000e-01 3.086947e+00 82 81 89
4.514582e-01 5.697135e-01 3.085438e+00 149 151 163
4.504920e-01 5.716950e-01 3.083929e+00 125 126 131
4.600257e-01 5.932110e-01 3.015441e+00 199 217 241
4.283191e-01 5.946346e-01 3.072721e+00 131 131 139
4.440079e-01 5.866212e-01 3.082847e+00 140 156 171
4.355709e-01 5.938750e-01 3.082167e+00 86 93 108
3.763835e-01 5.274737e-01 3.078265e+00 76 70 74
4.012447e-01 5.292605e-01 3.080162e+00 122 110 109
3.741128e-01 5.615616e-01 3.077987e+00 149 148 158
3.777377e-01 5.607052e-01 3.088761e+00 165 164 170
3.858756e-01 5.556816e-01 3.078093e+00 159 156 165
4.354163e-01 5.259590e-01 3.083789e+00 109 109 119
4.406172e-01 5.246524e-01 3.084729e+00 156 153 162
3.687764e-01 5.720840e-01 3.087923e+00 137 132 139
4.055217e-01 5.489045e-01 3.081090e+00 140 135 139
3.818599e-01 5.666079e-01 3.088052e+00 132 130 133
3.953825e-01 5.590544e-01 3.079968e+00 73 64 67
4.197155e-01 5.441820e-01 3.078536e+00 116 111 115
4.105895e-01 5.507396e-01 3.081887e+00 154 143 146
3.862660e-01 5.689510e-01 3.079525e+00 170 170 179
3.932423e-01 5.644205e-01 3.087565e+00 124 124 134
3.761587e-01 5.781406e-01 3.079351e+00 131 128 135
3.793783e-01 5.756830e-01 3.085206e+00 68 66 69
3.980835e-01 5.643603e-01 3.087315e+00 105 103 108
3.958729e-01 5.662503e-01 3.087660e+00 152 145 153
4.196579e-01 5.524671e-01 3.085117e+00 84 82 85
4.343909e-01 5.443626e-01 3.086259e+00 142 137 141
4.164885e-01 5.573027e-01 3.086380e+00 163 161 172
4.172083e-01 5.573763e-01 3.087799e+00 141 143 155
4.149862e-01 5.603522e-01 3.083532e+00 180 178 191
4.099554e-01 5.654914e-01 3.083163e+00 78 74 89
3.800776e-01 5.854258e-01 3.085073e+00 130 129 134
3.900503e-01 5.803094e-01 3.080539e+00 159 157 162
4.169871e-01 5.617688e-01 3.087201e+00 135 135 145
4.087344e-01 5.680641e-01 3.083023e+00 173 170 178
4.172141e-01 5.623634e-01 3.085749e+00 169 168 178
4.104483e-01 5.675675e-01 3.083435e+00 67 66 82
4.016913e-01 5.775021e-01 3.079810e+00 194 192 203
4.492558e-01 5.457010e-01 3.084664e+00 144 138 145
4.212770e-01 5.639236e-01 3.086201e+00 158 155 164
3.888758e-01 5.866607e-01 3.080791e+00 138 132 136
3.957332e-01 5.823026e-01 3.081116e+00 95 87 84
4.208004e-01 5.659110e-01 3.085778e+00 97 96 101
4.173298e-01 5.694212e-01 3.084999e+00 156 154 165
4.173298e-01 5.694212e-01 3.084999e+00 156 154 165
3.930393e-01 5.885154e-01 3.081330e+00 167 167 171
3.947770e-01 5.870614e-01 3.082925e+00 100 98 103
3.921864e-01 5.912248e-01 3.082447e+00 130 125 132
4.521461e-01 5.549133e-01 3.084264e+00 157 155 160
4.278186e-01 5.706348e-01 3.086810e+00 140 133 140
4.172397e-01 5.788667e-01 3.084333e+00 80 74 78
4.180150e-01 5.789221e-01 3.082836e+00 109 100 101
4.180183e-01 5.803867e-01 3.083191e+00 181 179 184
4.065956e-01 5.883620e-01 3.082820e+00 114 112 115
4.164772e-01 5.826405e-01 3.082648e+00 143 142 150
4.535166e-01 5.589275e-01 3.085387e+00 132 123 124
4.486162e-01 5.631378e-01 3.085354e+00 104 103 108
4.291855e-01 5.765336e-01 3.083050e+00 70 65 69
4.248739e-01 5.802438e-01 3.084248e+00 111 109 115
4.252213e-01 5.799283e-01 3.085544e+00 167 165 170
4.217144e-01 5.829490e-01 3.084916e+00 98 95 102
3.993034e-01 5.980400e-01 3.084011e+00 200 204 215
4.080989e-01 5.935341e-01 3.083174e+00 139 141 153
4.049309e-01 5.961925e-01 3.081934e+00 134 137 149
4.231455e-01 5.862148e-01 3.084963e+00 67 65 78
4.275252e-01 5.951365e-01 3.085817e+00 104 101 110
4.392964e-01 5.899156e-01 3.083350e+00 128 137 152
3.727741e-01 5.644199e-01 3.078268e+00 151 148 155
4.315108e-01 5.318848e-01 3.083160e+00 136 130 132
3.721999e-01 5.728185e-01 3.078328e+00 112 106 110
3.780042e-01 5.692402e-01 3.078669e+00 137 127 135
3.839011e-01 5.665445e-01 3.079218e+00 117 111 113
4.135405e-01 5.473403e-01 3.082475e+00 91 80 84
3.950841e-01 5.598612e-01 3.079839e+00 123 114 115
3.867290e-01 5.680534e-01 3.087323e+00 123 124 130
3.867045e-01 5.711775e-01 3.086319e+00 123 122 128
3.881750e-01 5.707113e-01 3.085249e+00 82 80 85
4.215965e-01 5.599076e-01 3.080200e+00 185 183 192
4.271063e-01 5.562501e-01 3.087320e+00 146 143 150
4.136704e-01 5.669317e-01 3.082157e+00 99 96 106
4.152049e-01 5.674419e-01 3.081856e+00 69 69 77
4.392603e-01 5.713240e-01 3.084643e+00 147 144 147
4.389725e-01 5.725074e-01 3.083926e+00 126 124 127
4.246215e-01 5.962832e-01 3.084323e+00 166 165 170
3.835045e-01 5.147357e-01 3.078645e+00 66 58 69
3.973340e-01 5.443458e-01 3.081342e+00 165 163 168
3.760075e-01 5.753796e-01 3.079177e+00 145 145 155
3.716778e-01 5.834055e-01 3.079356e+00 194 195 210
4.077835e-01 5.621242e-01 3.083100e+00 180 179 185
3.855611e-01 5.105921e-01 3.079970e+00 132 128 129
4.281536e-01 5.801811e-01 3.085402e+00 91 88 97
4.374217e-01 5.122415e-01 3.082789e+00 121 112 113
3.788238e-01 5.623489e-01 3.078829e+00 96 90 90
4.251966e-01 5.878893e-01 3.085348e+00 54 53 63
3.658860e-01 5.315958e-01 3.078580e+00 83 74 77
3.658860e-01 5.315958e-01 3.078580e+00 83 74 77
4.487360e-01 5.659758e-01 3.087382e+00 175 169 172
4.220482e-01 5.856237e-01 3.084434e+00 140 146 158
3.643078e-01 5.296655e-01 3.077695e+00 156 151 157
4.058354e-01 5.189049e-01 3.081407e+00 105 95 96
4.129787e-01 5.145002e-01 3.082131e+00 113 108 114
4.535395e-01 5.262245e-01 3.086599e+00 156 147 155
3.995114e-01 5.664473e-01 3.079903e+00 181 181 191
4.064462e-01 5.625694e-01 3.079618e+00 184 181 188
4.126708e-01 5.591818e-01 3.084647e+00 69 67 81
3.890996e-01 5.026826e-01 3.081160e+00 108 108 108
3.833955e-01 5.101733e-01 3.079789e+00 53 48 54
4.009757e-01 5.074891e-01 3.081741e+00 134 125 130
3.581992e-01 5.405375e-01 3.077053e+00 152 143 146
3.556692e-01 5.454865e-01 3.076947e+00 150 141 142
3.545503e-01 5.465968e-01 3.076718e+00 157 148 149
3.545503e-01 5.465968e-01 3.076718e+00 157 148 149
3.573988e-01 5.467997e-01 3.077185e+00 142 132 133
3.587481e-01 5.539082e-01 3.077490e+00 83 77 79
3.862177e-01 5.371335e-01 3.078641e+00 111 102 100
3.914716e-01 5.407804e-01 3.078959e+00 155 144 148
4.036158e-01 5.336445e-01 3.080361e+00 135 128 128
4.036158e-01 5.336445e-01 3.080361e+00 135 128 128
4.051595e-01 5.459023e-01 3.078736e+00 71 69 72
3.718293e-01 5.820886e-01 3.079055e+00 182 186 198
4.184632e-01 5.701265e-01 3.084302e+00 182 180 193
4.183051e-01 5.699246e-01 3.084854e+00 182 180 193
4.238752e-01 5.682055e-01 3.085826e+00 156 153 162
4.207977e-01 5.859170e-01 3.084910e+00 180 184 196
4.207977e-01 5.859170e-01 3.084910e+00 180 184 196
3.809150e-01 5.251404e-01 3.078656e+00 129 122 126
3.977243e-01 5.158512e-01 3.080956e+00 100 89 93
4.170387e-01 5.068030e-01 3.083106e+00 158 147 151
4.134169e-01 5.156185e-01 3.082727e+00 179 177 188
3.819113e-01 5.365888e-01 3.078582e+00 107 98 99
4.004902e-01 5.289535e-01 3.080073e+00 72 62 61
4.053656e-01 5.328091e-01 3.079743e+00 131 127 126
4.008650e-01 5.362975e-01 3.079470e+00 127 118 121
3.722004e-01 5.570688e-01 3.077589e+00 131 125 129
3.987343e-01 5.418121e-01 3.078890e+00 164 154 155
4.247246e-01 5.314584e-01 3.082531e+00 78 76 81
3.806473e-01 5.604117e-01 3.078865e+00 142 136 138
4.033624e-01 5.477118e-01 3.081390e+00 153 143 151
3.642777e-01 5.782731e-01 3.078265e+00 142 137 143
4.375181e-01 5.359406e-01 3.085014e+00 43 34 35
4.277624e-01 5.423185e-01 3.080679e+00 43 34 37
4.480406e-01 5.298012e-01 3.086222e+00 38 29 31
4.051170e-01 5.618067e-01 3.081786e+00 57 55 62
4.175958e-01 5.650111e-01 3.080732e+00 40 39 52
3.841960e-01 5.862202e-01 3.080433e+00 162 157 161
3.841960e-01 5.862202e-01 3.080433e+00 162 157 161
3.999850e-01 5.787333e-01 3.080900e+00 91 84 91
3.953979e-01 5.835662e-01 3.081372e+00 156 155 163
4.229611e-01 5.787997e-01 3.085196e+00 116 111 115
4.474995e-01 5.657299e-01 3.087008e+00 89 83 83
4.503900e-01 5.643849e-01 3.087825e+00 183 181 186
4.346603e-01 5.920319e-01 3.086569e+00 68 76 92
4.293783e-01 5.971525e-01 3.085925e+00 30 30 38
3.882919e-01 5.018759e-01 3.080876e+00 49 58 55
3.655473e-01 5.209857e-01 3.077885e+00 116 111 131
3.909730e-01 5.062780e-01 3.080672e+00 131 123 122
3.624795e-01 5.236591e-01 3.077621e+00 78 69 70
3.712067e-01 5.194292e-01 3.078585e+00 100 94 98
3.768907e-01 5.169373e-01 3.078712e+00 134 128 128
3.963490e-01 5.054986e-01 3.081522e+00 52 46 48
3.906326e-01 5.167861e-01 3.080364e+00 119 115 112
4.068058e-01 5.099639e-01 3.082062e+00 94 88 98
3.648924e-01 5.367653e-01 3.077618e+00 147 136 140
3.582796e-01 5.415724e-01 3.077394e+00 82 77 74
3.786586e-01 5.302167e-01 3.079144e+00 158 148 149
4.104120e-01 5.108858e-01 3.083112e+00 116 114 117
3.667261e-01 5.390800e-01 3.077787e+00 146 140 144
3.572704e-01 5.456273e-01 3.076907e+00 103 94 95
3.601081e-01 5.442494e-01 3.077155e+00 101 97 98
3.865902e-01 5.298173e-01 3.079123e+00 83 71 73
4.113675e-01 5.176489e-01 3.082077e+00 186 181 187
4.221221e-01 5.113070e-01 3.083314e+00 172 161 160
4.090075e-01 5.210325e-01 3.081304e+00 93 86 93
4.273407e-01 5.104074e-01 3.084155e+00 135 125 124
3.974365e-01 5.313674e-01 3.079844e+00 145 131 128
4.095949e-01 5.273502e-01 3.080430e+00 96 87 90
4.023119e-01 5.399112e-01 3.078867e+00 66 57 60
3.692000e-01 5.671088e-01 3.078934e+00 90 83 92
3.868398e-01 5.570143e-01 3.078822e+00 130 125 131
4.183565e-01 5.388401e-01 3.080643e+00 141 134 142
3.737016e-01 5.672171e-01 3.078768e+00 87 86 92
4.476534e-01 5.245508e-01 3.086264e+00 170 168 173
4.528318e-01 5.217392e-01 3.087492e+00 154 154 162
3.777143e-01 5.708230e-01 3.079324e+00 42 35 35
3.833294e-01 5.679210e-01 3.079584e+00 130 121 122
4.265216e-01 5.410457e-01 3.080533e+00 89 82 90
3.681945e-01 5.823138e-01 3.078772e+00 106 104 109
3.942554e-01 5.669625e-01 3.079688e+00 152 147 154
4.183820e-01 5.581610e-01 3.085410e+00 38 38 48
4.214180e-01 5.594424e-01 3.086159e+00 85 85 97
4.544538e-01 5.419178e-01 3.087580e+00 141 140 145
4.149705e-01 5.681455e-01 3.084282e+00 194 192 205
3.872324e-01 5.865669e-01 3.081166e+00 153 147 149
3.901783e-01 5.848034e-01 3.080916e+00 79 76 85
4.275312e-01 5.730806e-01 3.086153e+00 123 119 120
4.276611e-01 5.732773e-01 3.085854e+00 123 119 120
4.042679e-01 5.926435e-01 3.082756e+00 119 116 123
4.003605e-01 6.032281e-01 3.082291e+00 172 171 179
4.220222e-01 6.021352e-01 3.084672e+00 147 150 157
3.805451e-01 5.212354e-01 3.079108e+00 100 94 98
4.209563e-01 5.035313e-01 3.083733e+00 91 82 81
3.846874e-01 5.281289e-01 3.079046e+00 71 61 59
3.594107e-01 5.440434e-01 3.077158e+00 156 151 153
3.594107e-01 5.440434e-01 3.077158e+00 156 151 153
3.774062e-01 5.335204e-01 3.079114e+00 139 136 147
3.861931e-01 5.294548e-01 3.079008e+00 146 132 134
3.779438e-01 5.351491e-01 3.079046e+00 172 169 176
4.154275e-01 5.127463e-01 3.082667e+00 164 156 154
3.667005e-01 5.430393e-01 3.078625e+00 163 153 154
3.675261e-01 5.427470e-01 3.077837e+00 164 154 155
3.662077e-01 5.441732e-01 3.078527e+00 151 146 150
3.759429e-01 5.385063e-01 3.077936e+00 69 66 73
3.882521e-01 5.319439e-01 3.079196e+00 146 132 132
3.689003e-01 5.467755e-01 3.077229e+00 73 65 63
3.697697e-01 5.477171e-01 3.077141e+00 76 68 69
4.096792e-01 5.235890e-01 3.083151e+00 178 173 177
4.063209e-01 5.279307e-01 3.080487e+00 142 133 136
4.236544e-01 5.200806e-01 3.082723e+00 195 190 196
4.281577e-01 5.195415e-01 3.083251e+00 96 86 87
4.354070e-01 5.156761e-01 3.084156e+00 86 77 78
3.838137e-01 5.526310e-01 3.078933e+00 150 147 154
4.239091e-01 5.306184e-01 3.081459e+00 114 108 110
3.755865e-01 5.620489e-01 3.077924e+00 164 159 165
4.320900e-01 5.280930e-01 3.083175e+00 46 46 56
4.147271e-01 5.395228e-01 3.080126e+00 182 179 188
4.061772e-01 5.463607e-01 3.079573e+00 170 165 171
3.681670e-01 5.718329e-01 3.078458e+00 105 103 109
4.253092e-01 5.378821e-01 3.081619e+00 120 114 122
3.639996e-01 5.765694e-01 3.078190e+00 157 155 160
3.961056e-01 5.611217e-01 3.080663e+00 79 70 75
3.749969e-01 5.768114e-01 3.079117e+00 121 121 131
3.871509e-01 5.693405e-01 3.080025e+00 140 138 149
3.784792e-01 5.750307e-01 3.079466e+00 111 113 125
4.115898e-01 5.571759e-01 3.083249e+00 62 58 67
4.477445e-01 5.355392e-01 3.086341e+00 71 75 82
4.580959e-01 5.310359e-01 3.087242e+00 182 179 186
3.956939e-01 5.718642e-01 3.081168e+00 157 157 166
4.365646e-01 5.551291e-01 3.086618e+00 104 103 111
4.365646e-01 5.551291e-01 3.086618e+00 104 103 111
4.190741e-01 5.667180e-01 3.084948e+00 207 206 215
4.121077e-01 5.713856e-01 3.083815e+00 29 28 35
4.203728e-01 5.666004e-01 3.085282e+00 182 180 191
4.341887e-01 5.582202e-01 3.087276e+00 188 188 198
4.294309e-01 5.614768e-01 3.086746e+00 117 113 121
4.522973e-01 5.487109e-01 3.087628e+00 64 54 52
4.174400e-01 5.787955e-01 3.084400e+00 68 63 67
4.471768e-01 5.643472e-01 3.087642e+00 82 77 81
4.461896e-01 5.661155e-01 3.087458e+00 89 83 83
4.045912e-01 5.950899e-01 3.082695e+00 164 168 178
4.302127e-01 5.786958e-01 3.086090e+00 64 61 68
4.473233e-01 5.707377e-01 3.087444e+00 135 130 136
4.478348e-01 5.713042e-01 3.087477e+00 161 160 166
4.403238e-01 5.814829e-01 3.082630e+00 211 233 255
4.159267e-01 6.005280e-01 3.084155e+00 84 83 89
4.300914e-01 5.951211e-01 3.085956e+00 36 35 45
3.887451e-01 5.017255e-01 3.081141e+00 128 130 131
3.879521e-01 5.035194e-01 3.080835e+00 103 104 106
3.668177e-01 5.202107e-01 3.078100e+00 146 133 151
3.945317e-01 5.066868e-01 3.081179e+00 53 51 54
3.881453e-01 5.150111e-01 3.080067e+00 104 102 103
3.874506e-01 5.153899e-01 3.080061e+00 125 122 127
3.577347e-01 5.356892e-01 3.076698e+00 65 63 68
3.650148e-01 5.324977e-01 3.077530e+00 52 43 44
3.902777e-01 5.184614e-01 3.080199e+00 43 39 40
3.848402e-01 5.226508e-01 3.079395e+00 113 107 109
4.125396e-01 5.083180e-01 3.082678e+00 120 111 112
4.019800e-01 5.151885e-01 3.081479e+00 151 141 142
4.180281e-01 5.053464e-01 3.083402e+00 88 79 82
4.254955e-01 5.007398e-01 3.084210e+00 82 72 73
3.845594e-01 5.263556e-01 3.079184e+00 166 155 153
3.665219e-01 5.374797e-01 3.077704e+00 151 145 147
3.693509e-01 5.361031e-01 3.077895e+00 63 54 58
3.647080e-01 5.399166e-01 3.077698e+00 154 149 153
4.109542e-01 5.130138e-01 3.082330e+00 185 180 186
3.719084e-01 5.377278e-01 3.077663e+00 108 99 100
4.109900e-01 5.137861e-01 3.082614e+00 195 192 199
3.624154e-01 5.438721e-01 3.077476e+00 130 121 122
3.770703e-01 5.365211e-01 3.078113e+00 91 88 95
3.662986e-01 5.434131e-01 3.077798e+00 104 95 96
4.083720e-01 5.175481e-01 3.082071e+00 144 139 145
4.114222e-01 5.156450e-01 3.081542e+00 96 91 97
4.114222e-01 5.156450e-01 3.081542e+00 96 91 97
4.067501e-01 5.207591e-01 3.080637e+00 92 86 89
4.284293e-01 5.076079e-01 3.084074e+00 93 83 82
3.818584e-01 5.368150e-01 3.078717e+00 104 98 100
3.711929e-01 5.434041e-01 3.077521e+00 56 50 52
3.941463e-01 5.348144e-01 3.080057e+00 135 127 125
4.222011e-01 5.180448e-01 3.082780e+00 107 97 98
4.020482e-01 5.307984e-01 3.079947e+00 132 121 125
3.908530e-01 5.378157e-01 3.079247e+00 159 151 149
4.046998e-01 5.294710e-01 3.079950e+00 68 59 61
4.255270e-01 5.191648e-01 3.082912e+00 92 82 83
4.261679e-01 5.194880e-01 3.084396e+00 95 85 84
3.986978e-01 5.393963e-01 3.079470e+00 145 134 139
4.337896e-01 5.204320e-01 3.083835e+00 85 83 84
4.471508e-01 5.155448e-01 3.086937e+00 182 179 186
3.785063e-01 5.603970e-01 3.078263e+00 191 188 196
3.823005e-01 5.584161e-01 3.079241e+00 70 65 69
4.367667e-01 5.244887e-01 3.084545e+00 86 84 92
3.712769e-01 5.657122e-01 3.078509e+00 50 48 54
4.355673e-01 5.271579e-01 3.084327e+00 185 184 194
4.517418e-01 5.182361e-01 3.087318e+00 167 166 174
4.149045e-01 5.435651e-01 3.079885e+00 109 103 110
4.464761e-01 5.250917e-01 3.085873e+00 179 177 182
4.216772e-01 5.421682e-01 3.080184e+00 162 157 164
4.328125e-01 5.364578e-01 3.084684e+00 90 85 89
4.527180e-01 5.259314e-01 3.087132e+00 165 160 166
3.874697e-01 5.677969e-01 3.084877e+00 183 181 194
4.007366e-01 5.610781e-01 3.079130e+00 177 175 188
3.785099e-01 5.757747e-01 3.079614e+00 72 71 76
3.707107e-01 5.808852e-01 3.078889e+00 171 168 177
3.741394e-01 5.790385e-01 3.079165e+00 55 54 62
3.800776e-01 5.750824e-01 3.083230e+00 64 63 69
3.874353e-01 5.714455e-01 3.079701e+00 65 60 67
4.001255e-01 5.641164e-01 3.081389e+00 90 88 94
4.379781e-01 5.419741e-01 3.086665e+00 71 72 77
4.466780e-01 5.387140e-01 3.085546e+00 133 131 144
4.344914e-01 5.485205e-01 3.086864e+00 137 135 140
4.092081e-01 5.654769e-01 3.083020e+00 72 71 85
4.362961e-01 5.484256e-01 3.087425e+00 137 132 136
3.816008e-01 5.843993e-01 3.080162e+00 106 102 108
3.894946e-01 5.800155e-01 3.080503e+00 157 155 160
3.894946e-01 5.800155e-01 3.080503e+00 157 155 160
3.812847e-01 5.856137e-01 3.080014e+00 96 89 96
4.206704e-01 5.600628e-01 3.086087e+00 204 206 218
3.908965e-01 5.800050e-01 3.081022e+00 176 173 178
4.373072e-01 5.509901e-01 3.087319e+00 168 164 165
4.188235e-01 5.631112e-01 3.085333e+00 64 64 78
4.565559e-01 5.399486e-01 3.087229e+00 161 156 160
4.240262e-01 5.609316e-01 3.084779e+00 76 77 90
3.841082e-01 5.869117e-01 3.080316e+00 97 92 96
3.832978e-01 5.875619e-01 3.080398e+00 111 109 113
4.179150e-01 5.665143e-01 3.085274e+00 69 72 81
3.849563e-01 5.881912e-01 3.080483e+00 94 89 95
4.192578e-01 5.659845e-01 3.085394e+00 151 149 155
4.516904e-01 5.459921e-01 3.088165e+00 117 115 126
4.498980e-01 5.479986e-01 3.086705e+00 79 73 77
3.968373e-01 5.816979e-01 3.081688e+00 87 77 78
3.940199e-01 5.838331e-01 3.081101e+00 183 182 190
4.020194e-01 5.792441e-01 3.081014e+00 76 75 81
4.439752e-01 5.522014e-01 3.087004e+00 130 121 124
4.413564e-01 5.537437e-01 3.087511e+00 145 136 137
4.033342e-01 5.794993e-01 3.082508e+00 204 204 216
4.478179e-01 5.529303e-01 3.087326e+00 195 194 202
4.478179e-01 5.529303e-01 3.087326e+00 195 194 202
3.926028e-01 5.890368e-01 3.081408e+00 176 175 180
4.028397e-01 5.855664e-01 3.082779e+00 74 71 79
3.981307e-01 5.912865e-01 3.081917e+00 70 66 67
4.325147e-01 5.695590e-01 3.086551e+00 72 65 72
4.525198e-01 5.578311e-01 3.087281e+00 50 43 50
4.008006e-01 5.953733e-01 3.082378e+00 139 138 144
4.335862e-01 5.772264e-01 3.086464e+00 164 163 171
4.134257e-01 6.046441e-01 3.083841e+00 26 25 33
4.308882e-01 5.931439e-01 3.086132e+00 114 119 135
4.281101e-01 5.954567e-01 3.085662e+00 174 172 183
3.733486e-01 5.095327e-01 3.078826e+00 54 15 54
3.814505e-01 5.049122e-01 3.079947e+00 138 144 158
3.814505e-01 5.049122e-01 3.079947e+00 138 144 158
3.685595e-01 5.128999e-01 3.078575e+00 145 148 161
3.808730e-01 5.058019e-01 3.079890e+00 123 126 135
3.895580e-01 5.028364e-01 3.080903e+00 124 119 123
3.833125e-01 5.073221e-01 3.080056e+00 74 73 81
3.695996e-01 5.159248e-01 3.078489e+00 56 53 62
3.668373e-01 5.176417e-01 3.078271e+00 79 81 94
3.668519e-01 5.180891e-01 3.078130e+00 116 116 128
3.703201e-01 5.171308e-01 3.078470e+00 80 75 81
3.866951e-01 5.111185e-01 3.080133e+00 94 89 93
3.735744e-01 5.200154e-01 3.078635e+00 127 124 122
3.978505e-01 5.062941e-01 3.081464e+00 59 53 55
3.659429e-01 5.296753e-01 3.077711e+00 90 85 89
3.659429e-01 5.296753e-01 3.077711e+00 90 85 89
4.104113e-01 5.027920e-01 3.082563e+00 153 147 149
3.822377e-01 5.215943e-01 3.079247e+00 103 93 92
3.911085e-01 5.175259e-01 3.080329e+00 140 134 136
3.918043e-01 5.181258e-01 3.079924e+00 164 155 158
3.631654e-01 5.361801e-01 3.077470e+00 102 98 99
3.978723e-01 5.155277e-01 3.080948e+00 96 85 91
3.855683e-01 5.253352e-01 3.079373e+00 177 167 168
3.866946e-01 5.247500e-01 3.079452e+00 112 103 106
4.246296e-01 5.011790e-01 3.083950e+00 83 72 76
3.768502e-01 5.310205e-01 3.078217e+00 118 112 116
3.872974e-01 5.256372e-01 3.079343e+00 152 142 143
4.041943e-01 5.160008e-01 3.081482e+00 75 68 72
4.104221e-01 5.126097e-01 3.082346e+00 94 92 97
4.074561e-01 5.154063e-01 3.081821e+00 149 143 147
4.045386e-01 5.174089e-01 3.080658e+00 155 145 147
3.678783e-01 5.408714e-01 3.077747e+00 152 145 151
4.150412e-01 5.133125e-01 3.083418e+00 91 83 84
3.938340e-01 5.264982e-01 3.079691e+00 74 65 66
4.085672e-01 5.181133e-01 3.081800e+00 160 155 162
3.707088e-01 5.433733e-01 3.077483e+00 129 123 125
3.905813e-01 5.322723e-01 3.079089e+00 83 71 69
3.730117e-01 5.432595e-01 3.077464e+00 96 90 94
3.983871e-01 5.334849e-01 3.079511e+00 145 131 131
3.790374e-01 5.578582e-01 3.078290e+00 158 153 160
3.831058e-01 5.575775e-01 3.078922e+00 182 181 189
4.424917e-01 5.203920e-01 3.085925e+00 156 154 157
4.161708e-01 5.376221e-01 3.079662e+00 147 146 154
3.825024e-01 5.587711e-01 3.078691e+00 158 154 155
3.852209e-01 5.572294e-01 3.079098e+00 157 149 155
4.426616e-01 5.220419e-01 3.085410e+00 79 79 89
4.390069e-01 5.246365e-01 3.084882e+00 174 177 186
3.844219e-01 5.606773e-01 3.079334e+00 121 110 118
4.418542e-01 5.249047e-01 3.084987e+00 168 166 169
3.653681e-01 5.736972e-01 3.078220e+00 185 183 193
3.861458e-01 5.612554e-01 3.079540e+00 168 162 166
4.133591e-01 5.444900e-01 3.081819e+00 152 146 150
4.527924e-01 5.200345e-01 3.086624e+00 114 117 124
4.375331e-01 5.297213e-01 3.084938e+00 85 79 87
3.975704e-01 5.548532e-01 3.080780e+00 160 155 161
3.672265e-01 5.742750e-01 3.078491e+00 163 160 167
3.695625e-01 5.741455e-01 3.078519e+00 130 125 131
4.492693e-01 5.246136e-01 3.086262e+00 104 103 109
4.256963e-01 5.416854e-01 3.080618e+00 54 45 50
4.553935e-01 5.239393e-01 3.087117e+00 77 72 78
3.842331e-01 5.721228e-01 3.080006e+00 105 102 111
3.811765e-01 5.743767e-01 3.079489e+00 77 76 84
3.753658e-01 5.783945e-01 3.079275e+00 58 55 64
3.688377e-01 5.826461e-01 3.078742e+00 72 72 80
3.754801e-01 5.792359e-01 3.079266e+00 169 166 173
3.736365e-01 5.804182e-01 3.079165e+00 76 76 86
4.368206e-01 5.405041e-01 3.086652e+00 94 94 102
4.526321e-01 5.337299e-01 3.086821e+00 75 72 79
4.430916e-01 5.398246e-01 3.085879e+00 64 63 68
4.131788e-01 5.604730e-01 3.079499e+00 154 154 166
3.863695e-01 5.772498e-01 3.080210e+00 154 156 168
4.160239e-01 5.601947e-01 3.084452e+00 109 108 116
4.452365e-01 5.434179e-01 3.086301e+00 177 176 184
3.891818e-01 5.803342e-01 3.080482e+00 102 99 106
4.195992e-01 5.610454e-01 3.085579e+00 95 95 105
4.205522e-01 5.603917e-01 3.086293e+00 197 198 210
4.371472e-01 5.513692e-01 3.087089e+00 116 111 114
3.909493e-01 5.815140e-01 3.080675e+00 191 190 195
4.466377e-01 5.465653e-01 3.084940e+00 141 140 146
3.837999e-01 5.867450e-01 3.080408e+00 154 149 153
3.889883e-01 5.834764e-01 3.080826e+00 132 130 135
4.383073e-01 5.517543e-01 3.087229e+00 108 104 105
3.996715e-01 5.768033e-01 3.082034e+00 73 66 74
4.480581e-01 5.477641e-01 3.085149e+00 188 187 193
4.481430e-01 5.488492e-01 3.085210e+00 116 112 119
4.349614e-01 5.581628e-01 3.082073e+00 188 186 196
4.229578e-01 5.669089e-01 3.086011e+00 39 39 51
4.143233e-01 5.738798e-01 3.084142e+00 56 45 49
4.520471e-01 5.515952e-01 3.087467e+00 193 192 200
4.477284e-01 5.544100e-01 3.087455e+00 121 122 127
4.061357e-01 5.836710e-01 3.082675e+00 68 66 78
4.509368e-01 5.551643e-01 3.087802e+00 88 86 91
4.483974e-01 5.573156e-01 3.087566e+00 96 96 98
4.581713e-01 5.549255e-01 3.087948e+00 173 164 169
4.461004e-01 5.638056e-01 3.087479e+00 81 79 84
4.241208e-01 5.796243e-01 3.084835e+00 173 172 177
4.404713e-01 5.691054e-01 3.087169e+00 113 116 126
3.988345e-01 5.992491e-01 3.082183e+00 199 203 214
4.154071e-01 5.885327e-01 3.084150e+00 138 137 142
4.122365e-01 6.004066e-01 3.083696e+00 104 102 113
4.098725e-01 6.025959e-01 3.083403e+00 106 108 116
4.344891e-01 5.880247e-01 3.086507e+00 105 122 139
4.248070e-01 5.944766e-01 3.085415e+00 62 61 66
4.141279e-01 6.028820e-01 3.083895e+00 113 112 118
4.330927e-01 5.904766e-01 3.086377e+00 229 249 254
4.277935e-01 5.941007e-01 3.085808e+00 54 51 62
4.112636e-01 6.053199e-01 3.083413e+00 180 179 185
4.130995e-01 6.040886e-01 3.083818e+00 24 23 31
4.348201e-01 5.902221e-01 3.086534e+00 74 87 100
4.310041e-01 5.942926e-01 3.086109e+00 115 117 129
4.231713e-01 6.013083e-01 3.084981e+00 168 169 174
3.731667e-01 5.098511e-01 3.079006e+00 108 86 114
3.816215e-01 5.059722e-01 3.080062e+00 141 145 156
3.686973e-01 5.150324e-01 3.078407e+00 102 102 113
3.819606e-01 5.073500e-01 3.080051e+00 131 127 136
3.665208e-01 5.175901e-01 3.078213e+00 134 136 149
3.627289e-01 5.199533e-01 3.077748e+00 134 134 142
3.630460e-01 5.199988e-01 3.077719e+00 77 79 86
3.622447e-01 5.205058e-01 3.077674e+00 73 72 78
3.736165e-01 5.209457e-01 3.078694e+00 65 61 60
3.986264e-01 5.058073e-01 3.081709e+00 68 59 64
3.990818e-01 5.106970e-01 3.081033e+00 90 89 94
3.990818e-01 5.106970e-01 3.081033e+00 90 89 94
3.667696e-01 5.307815e-01 3.077587e+00 117 112 116
3.641510e-01 5.331691e-01 3.077497e+00 75 64 68
4.126456e-01 5.036490e-01 3.082842e+00 53 47 49
4.138388e-01 5.028970e-01 3.082880e+00 92 86 86
3.985193e-01 5.140044e-01 3.081171e+00 43 37 39
3.985762e-01 5.139898e-01 3.080846e+00 43 37 39
4.062257e-01 5.109770e-01 3.082061e+00 102 99 106
3.733458e-01 5.315250e-01 3.078091e+00 124 119 125
3.768229e-01 5.304887e-01 3.078346e+00 120 112 117
3.783345e-01 5.297875e-01 3.078331e+00 92 81 85
4.059475e-01 5.127721e-01 3.081486e+00 84 77 84
3.641290e-01 5.386255e-01 3.077577e+00 97 89 87
3.858275e-01 5.257269e-01 3.079549e+00 172 162 163
3.852525e-01 5.308523e-01 3.079071e+00 91 80 76
3.774728e-01 5.364092e-01 3.078186e+00 166 161 168
3.891851e-01 5.322804e-01 3.079343e+00 93 79 79
3.885231e-01 5.406469e-01 3.079430e+00 93 84 88
4.355254e-01 5.119530e-01 3.084416e+00 83 78 75
4.276965e-01 5.183156e-01 3.082957e+00 107 97 97
3.752182e-01 5.596467e-01 3.078511e+00 165 160 164
4.146007e-01 5.389655e-01 3.079392e+00 165 165 177
4.355213e-01 5.263564e-01 3.084486e+00 93 93 105
4.498832e-01 5.175194e-01 3.086316e+00 95 95 103
4.498832e-01 5.175194e-01 3.086316e+00 95 95 103
4.424731e-01 5.224479e-01 3.085605e+00 183 183 192
4.409243e-01 5.234403e-01 3.085285e+00 167 167 179
4.441369e-01 5.218732e-01 3.085660e+00 129 126 133
4.441145e-01 5.218665e-01 3.085791e+00 129 126 133
3.772984e-01 5.651064e-01 3.078990e+00 108 101 109
3.850699e-01 5.607508e-01 3.079567e+00 121 112 117
3.784713e-01 5.657302e-01 3.079164e+00 172 167 174
3.814469e-01 5.644390e-01 3.079320e+00 115 108 115
3.788163e-01 5.664379e-01 3.078974e+00 136 130 140
4.441489e-01 5.253991e-01 3.085564e+00 126 124 129
3.817741e-01 5.649383e-01 3.078983e+00 119 114 118
4.530090e-01 5.204627e-01 3.086736e+00 126 126 134
4.419153e-01 5.283647e-01 3.085622e+00 160 157 164
4.504703e-01 5.242818e-01 3.086612e+00 202 200 205
3.800137e-01 5.689417e-01 3.079412e+00 135 124 128
3.952129e-01 5.597254e-01 3.080234e+00 76 70 74
3.812893e-01 5.687866e-01 3.079494e+00 124 115 120
3.863532e-01 5.659168e-01 3.079054e+00 112 101 105
4.495593e-01 5.278221e-01 3.086112e+00 107 97 98
4.541341e-01 5.256906e-01 3.086952e+00 152 141 147
3.824619e-01 5.710078e-01 3.079639e+00 114 116 128
3.688416e-01 5.814710e-01 3.078738e+00 148 146 152
3.849162e-01 5.722754e-01 3.079889e+00 156 154 159
3.867870e-01 5.712583e-01 3.080031e+00 148 143 150
3.832857e-01 5.740951e-01 3.079763e+00 132 129 138
4.538198e-01 5.295253e-01 3.087115e+00 115 119 131
4.144248e-01 5.548716e-01 3.084439e+00 85 85 87
3.841846e-01 5.750131e-01 3.079946e+00 94 90 106
4.257474e-01 5.490448e-01 3.087953e+00 153 152 160
3.861197e-01 5.769808e-01 3.080247e+00 154 156 168
4.387564e-01 5.449269e-01 3.087686e+00 123 125 146
4.239241e-01 5.547020e-01 3.087477e+00 157 155 169
4.148792e-01 5.614651e-01 3.084376e+00 196 200 211
4.148792e-01 5.614651e-01 3.084376e+00 196 200 211
4.205528e-01 5.583780e-01 3.084359e+00 171 170 181
4.144830e-01 5.629187e-01 3.084030e+00 110 108 117
3.807818e-01 5.860242e-01 3.080102e+00 117 112 119
3.901318e-01 5.801310e-01 3.081798e+00 154 153 158
3.899858e-01 5.813456e-01 3.080890e+00 181 180 186
4.185205e-01 5.629250e-01 3.085377e+00 180 178 191
4.498570e-01 5.437027e-01 3.087319e+00 127 135 146
4.066095e-01 5.738280e-01 3.082895e+00 95 95 105
4.158285e-01 5.690974e-01 3.084481e+00 192 192 204
3.878486e-01 5.874458e-01 3.080799e+00 133 130 131
3.941923e-01 5.843986e-01 3.081365e+00 123 123 131
3.920203e-01 5.859793e-01 3.081126e+00 177 180 187
4.498698e-01 5.514406e-01 3.087378e+00 122 121 129
4.041946e-01 5.862115e-01 3.082632e+00 105 102 110
3.958757e-01 5.918105e-01 3.081784e+00 140 134 136
3.958757e-01 5.918105e-01 3.081784e+00 140 134 136
4.337276e-01 5.680389e-01 3.086873e+00 138 133 140
4.045596e-01 5.891799e-01 3.082712e+00 177 175 182
4.568333e-01 5.570419e-01 3.087926e+00 155 149 149
4.008890e-01 5.933347e-01 3.082225e+00 145 145 153
4.472965e-01 5.634112e-01 3.087553e+00 114 112 117
4.461258e-01 5.640998e-01 3.087589e+00 113 111 116
4.305242e-01 5.740582e-01 3.086307e+00 65 60 64
4.528907e-01 5.610898e-01 3.087971e+00 194 193 198
4.185984e-01 5.834276e-01 3.084473e+00 164 162 167
4.403424e-01 5.695596e-01 3.087142e+00 60 60 68
4.403424e-01 5.695596e-01 3.087142e+00 60 60 68
4.113438e-01 5.925732e-01 3.083536e+00 162 160 173
4.351575e-01 5.785660e-01 3.086623e+00 126 133 146
4.351575e-01 5.785660e-01 3.086623e+00 126 133 146
4.221715e-01 5.975580e-01 3.084934e+00 156 155 163
4.199562e-01 6.026274e-01 3.084504e+00 187 186 192
3.625839e-01 5.204829e-01 3.077750e+00 133 132 138
4.018032e-01 5.104068e-01 3.081387e+00 100 94 98
4.136783e-01 5.031056e-01 3.082945e+00 125 119 119
3.923293e-01 5.178787e-01 3.080366e+00 86 77 80
3.586712e-01 5.387664e-01 3.077142e+00 83 77 81
3.869802e-01 5.239874e-01 3.079561e+00 112 103 104
3.571908e-01 5.457473e-01 3.076915e+00 85 76 77
4.296722e-01 5.042163e-01 3.084078e+00 106 96 94
4.299586e-01 5.043417e-01 3.084148e+00 148 138 136
4.073347e-01 5.216658e-01 3.081445e+00 148 137 143
3.873799e-01 5.380839e-01 3.079258e+00 165 158 159
3.730346e-01 5.638169e-01 3.078503e+00 148 147 155
3.698653e-01 5.662036e-01 3.078406e+00 170 167 176
4.446491e-01 5.264075e-01 3.085684e+00 137 132 138
3.767189e-01 5.694674e-01 3.078900e+00 136 126 133
4.107049e-01 5.486943e-01 3.082149e+00 83 77 79
3.656484e-01 5.777665e-01 3.078361e+00 141 138 144
3.774245e-01 5.705718e-01 3.079177e+00 127 121 123
4.537303e-01 5.234866e-01 3.086782e+00 175 174 180
4.040002e-01 5.562475e-01 3.081723e+00 141 130 138
3.802539e-01 5.728556e-01 3.079589e+00 108 112 124
3.882157e-01 5.683945e-01 3.080181e+00 137 135 149
4.278184e-01 5.482003e-01 3.088362e+00 142 140 149
4.385396e-01 5.434943e-01 3.087124e+00 122 122 135
4.482139e-01 5.402810e-01 3.086848e+00 131 138 154
3.811863e-01 5.856942e-01 3.080568e+00 104 99 105
3.907027e-01 5.798305e-01 3.080815e+00 118 116 119
4.315989e-01 5.543976e-01 3.086794e+00 151 149 154
4.171587e-01 5.637468e-01 3.084763e+00 116 116 128
4.391081e-01 5.506237e-01 3.087632e+00 136 131 137
4.245196e-01 5.627075e-01 3.086116e+00 135 133 141
4.216240e-01 5.648454e-01 3.085401e+00 122 120 131
4.155886e-01 5.695354e-01 3.082880e+00 183 183 195
4.197818e-01 5.665234e-01 3.085289e+00 174 173 181
4.263086e-01 5.631292e-01 3.083835e+00 171 170 176
4.248573e-01 5.664367e-01 3.086117e+00 176 174 185
3.980009e-01 5.851661e-01 3.081850e+00 130 131 136
4.016816e-01 5.850176e-01 3.082239e+00 123 121 126
4.063539e-01 5.864824e-01 3.082855e+00 144 141 148
4.302606e-01 5.747545e-01 3.086266e+00 104 99 105
4.283611e-01 5.782476e-01 3.085880e+00 73 71 76
4.035666e-01 5.959283e-01 3.082436e+00 151 153 165
4.071910e-01 5.958289e-01 3.082926e+00 126 126 138
4.300522e-01 5.815236e-01 3.085934e+00 121 127 139
4.191476e-01 6.028298e-01 3.084448e+00 63 62 70
4.331206e-01 4.891630e-01 3.101883e+00 169 169 179
4.157364e-01 5.266836e-01 3.098868e+00 183 181 186
4.045858e-01 5.027095e-01 3.082004e+00 161 160 168
4.045858e-01 5.027095e-01 3.082004e+00 161 160 168
4.486883e-01 5.181191e-01 3.086009e+00 122 123 134
4.286486e-01 6.613846e-01 3.064915e+00 51 53 65
4.521773e-01 6.476600e-01 3.069251e+00 76 75 93
4.521773e-01 6.476600e-01 3.069251e+00 76 75 93
3.829285e-01 5.779939e-01 3.079873e+00 62 63 84
3.828741e-01 5.779387e-01 3.079883e+00 62 63 84
4.222406e-01 6.150158e-01 3.085544e+00 40 40 58
4.655454e-01 5.904539e-01 3.090089e+00 18 17 29
4.938406e-01 6.187165e-01 3.072021e+00 159 163 175
3.375305e-01 5.563472e-01 3.083855e+00 64 67 72
4.212685e-01 5.241863e-01 3.099035e+00 200 198 209
4.602934e-01 5.458890e-01 3.099419e+00 189 191 206
4.681514e-01 5.662503e-01 3.089164e+00 157 156 164
4.849303e-01 6.225526e-01 3.072843e+00 95 97 109
3.917469e-01 5.048525e-01 3.081204e+00 115 106 110
3.725159e-01 5.211164e-01 3.078424e+00 115 106 107
3.578194e-01 5.335343e-01 3.080978e+00 161 155 159
3.578194e-01 5.335343e-01 3.080978e+00 161 155 159
3.573446e-01 5.715893e-01 3.076432e+00 90 92 97
4.340642e-01 6.116920e-01 3.077359e+00 142 142 152
4.502763e-01 6.310059e-01 3.061353e+00 86 88 101
4.156362e-01 6.526712e-01 3.068019e+00 112 111 125
4.213658e-01 6.499844e-01 3.070027e+00 103 103 115
4.331788e-01 5.265295e-01 3.082330e+00 93 90 97
4.087706e-01 5.564500e-01 3.079176e+00 182 180 191
4.017606e-01 6.016952e-01 3.081099e+00 181 188 198
4.443090e-01 6.267671e-01 3.072263e+00 142 148 156
4.181767e-01 5.436042e-01 3.085126e+00 176 173 179
4.252249e-01 5.398044e-01 3.086654e+00 165 162 169
4.444546e-01 5.516215e-01 3.084682e+00 65 59 63
4.713813e-01 5.604251e-01 3.088660e+00 162 166 178
4.458474e-01 5.923991e-01 3.083964e+00 140 138 143
4.027025e-01 6.258411e-01 3.079180e+00 175 177 189
4.207927e-01 6.317048e-01 3.072656e+00 11 11 21
3.913962e-01 5.062314e-01 3.080989e+00 123 113 114
3.380776e-01 5.577845e-01 3.086823e+00 82 81 87
3.505742e-01 5.545494e-01 3.093100e+00 72 70 77
3.990428e-01 5.465565e-01 3.079041e+00 115 110 117
4.020297e-01 5.448487e-01 3.077432e+00 120 115 122
3.964310e-01 5.522387e-01 3.078759e+00 163 157 159
4.037571e-01 5.485589e-01 3.077518e+00 163 157 159
4.203730e-01 5.388246e-01 3.081665e+00 169 167 170
4.329946e-01 5.351228e-01 3.083159e+00 141 134 141
4.330810e-01 5.352169e-01 3.082878e+00 141 134 141
4.070820e-01 5.539514e-01 3.077531e+00 43 34 35
4.500494e-01 5.277552e-01 3.110719e+00 79 74 80
4.559638e-01 5.429770e-01 3.102591e+00 191 194 207
4.319626e-01 5.795631e-01 3.086627e+00 138 148 158
4.296237e-01 5.975019e-01 3.081720e+00 148 148 156
3.945871e-01 6.233212e-01 3.076286e+00 64 62 75
4.380634e-01 5.939028e-01 3.081518e+00 154 158 167
3.981649e-01 6.260066e-01 3.079708e+00 62 67 86
4.801577e-01 5.884452e-01 3.077996e+00 8 8 20
4.621070e-01 6.010193e-01 3.079765e+00 138 137 151
4.140570e-01 6.385540e-01 3.074252e+00 120 126 140
4.291170e-01 6.312178e-01 3.074533e+00 9 11 23
4.496765e-01 6.260891e-01 3.063489e+00 221 245 255
4.124685e-01 6.514453e-01 3.067084e+00 210 237 254
4.681586e-01 6.082048e-01 3.082506e+00 169 171 183
4.509976e-01 6.319991e-01 3.073170e+00 214 237 255
4.891118e-01 6.177949e-01 3.072784e+00 63 62 69
4.876921e-01 6.070255e-01 3.090987e+00 69 66 77
4.012546e-01 4.999093e-01 3.081933e+00 46 43 60
3.804330e-01 5.135066e-01 3.077661e+00 60 61 63
3.906869e-01 5.157170e-01 3.083300e+00 70 58 62
3.669019e-01 5.384011e-01 3.090127e+00 87 76 74
3.669019e-01 5.384011e-01 3.090127e+00 87 76 74
3.669019e-01 5.384011e-01 3.090127e+00 87 76 74
4.348424e-01 4.984971e-01 3.097714e+00 97 91 99
3.924473e-01 5.472649e-01 3.077841e+00 154 145 148
4.497671e-01 5.172762e-01 3.086898e+00 125 124 130
4.498955e-01 5.171003e-01 3.086176e+00 125 124 130
4.472621e-01 5.195720e-01 3.085391e+00 176 175 181
4.472621e-01 5.195720e-01 3.085391e+00 176 175 181
4.436311e-01 5.338246e-01 3.083744e+00 108 103 109
4.098613e-01 5.642924e-01 3.079738e+00 64 62 75
4.027599e-01 5.713257e-01 3.078006e+00 192 190 201
4.406772e-01 5.515580e-01 3.083794e+00 147 141 145
4.378052e-01 5.693514e-01 3.083586e+00 169 167 172
3.837642e-01 6.061591e-01 3.081432e+00 179 181 194
4.638089e-01 5.762738e-01 3.085112e+00 154 153 159
4.830523e-01 5.733627e-01 3.085212e+00 134 134 146
4.649255e-01 5.871670e-01 3.083782e+00 132 133 138
4.684029e-01 5.861823e-01 3.082009e+00 144 141 150
4.872241e-01 5.751231e-01 3.086485e+00 48 51 60
4.200838e-01 6.374295e-01 3.071235e+00 10 12 20
4.731339e-01 6.012233e-01 3.076877e+00 36 42 56
4.853769e-01 5.944172e-01 3.075638e+00 82 80 102
4.213750e-01 6.411734e-01 3.071677e+00 146 148 157
4.714338e-01 6.122438e-01 3.079065e+00 175 177 189
4.714338e-01 6.122438e-01 3.079065e+00 175 177 189
4.722044e-01 6.253097e-01 3.074144e+00 220 239 254
4.949311e-01 6.168957e-01 3.072092e+00 171 174 181
3.902991e-01 5.027980e-01 3.080976e+00 81 71 79
3.897958e-01 5.040580e-01 3.080869e+00 131 120 126
4.099597e-01 4.935688e-01 3.082914e+00 62 57 61
4.039637e-01 4.975127e-01 3.082222e+00 112 107 114
3.861983e-01 5.139062e-01 3.078569e+00 60 54 58
3.486797e-01 5.467980e-01 3.081788e+00 86 84 89
4.295322e-01 4.928861e-01 3.084171e+00 44 39 45
4.288994e-01 4.942878e-01 3.084629e+00 123 118 124
3.398972e-01 5.578541e-01 3.086896e+00 31 30 38
4.090534e-01 5.170300e-01 3.082483e+00 111 106 112
3.409505e-01 5.663176e-01 3.086566e+00 84 82 87
4.098161e-01 5.216391e-01 3.082379e+00 172 165 173
4.036518e-01 5.292290e-01 3.079935e+00 123 110 117
4.059796e-01 5.306775e-01 3.092270e+00 94 83 87
3.729638e-01 5.535184e-01 3.086646e+00 164 159 165
3.447439e-01 5.737943e-01 3.086688e+00 43 48 68
3.872611e-01 5.587296e-01 3.091480e+00 87 80 87
3.832764e-01 5.651046e-01 3.090219e+00 65 56 59
3.880789e-01 5.639702e-01 3.079004e+00 151 142 145
4.015006e-01 5.563249e-01 3.080884e+00 156 147 148
4.240171e-01 5.440231e-01 3.079971e+00 44 32 36
4.485992e-01 5.287881e-01 3.086022e+00 34 29 30
4.497412e-01 5.282841e-01 3.089003e+00 43 33 34
4.292658e-01 5.466237e-01 3.080274e+00 165 161 164
3.943749e-01 5.699352e-01 3.078796e+00 142 141 147
3.812272e-01 5.867062e-01 3.078980e+00 185 182 189
4.437567e-01 5.460523e-01 3.084528e+00 78 76 87
4.146113e-01 5.668777e-01 3.079885e+00 187 186 192
4.040553e-01 5.747773e-01 3.079272e+00 138 138 148
4.230532e-01 5.683556e-01 3.076598e+00 71 73 84
4.230532e-01 5.683556e-01 3.076598e+00 71 73 84
4.263122e-01 5.663358e-01 3.081401e+00 181 180 188
4.074867e-01 5.975817e-01 3.082660e+00 174 175 180
4.537195e-01 5.869374e-01 3.088256e+00 109 107 110
4.337821e-01 6.024899e-01 3.083617e+00 153 157 166
4.728373e-01 5.830433e-01 3.083556e+00 169 169 177
4.803946e-01 5.788872e-01 3.084160e+00 117 117 125
4.842444e-01 5.771379e-01 3.086123e+00 56 56 68
4.439774e-01 6.191749e-01 3.064880e+00 129 131 143
4.715422e-01 5.991967e-01 3.078010e+00 15 15 27
4.336475e-01 6.310250e-01 3.071637e+00 14 18 30
4.847102e-01 5.991767e-01 3.075594e+00 9 7 18
4.330107e-01 6.380196e-01 3.071032e+00 15 15 17
4.386536e-01 6.349112e-01 3.075691e+00 71 71 81
4.925099e-01 6.106996e-01 3.073660e+00 14 9 15
4.894127e-01 6.133439e-01 3.074175e+00 134 133 141
4.938447e-01 6.126777e-01 3.072035e+00 134 129 133
4.752446e-01 6.241353e-01 3.073620e+00 163 163 181
4.545342e-01 6.418480e-01 3.067610e+00 212 233 254
4.545342e-01 6.418480e-01 3.067610e+00 212 233 254
4.317943e-01 6.666158e-01 3.061309e+00 153 156 171
4.551694e-01 6.517032e-01 3.066879e+00 72 81 114
5.045635e-01 6.218581e-01 3.067697e+00 121 119 127
4.861657e-01 6.353089e-01 3.067054e+00 86 94 117
5.180741e-01 6.196371e-01 3.064719e+00 194 219 249
3.689064e-01 5.205215e-01 3.077768e+00 174 174 186
3.908457e-01 5.071407e-01 3.080827e+00 66 55 59
3.541375e-01 5.377051e-01 3.091575e+00 152 150 153
3.472930e-01 5.411613e-01 3.081362e+00 81 76 82
3.658088e-01 5.320000e-01 3.092053e+00 142 131 136
4.261410e-01 4.893580e-01 3.084052e+00 134 129 135
3.533332e-01 5.440388e-01 3.095752e+00 140 137 143
4.281355e-01 4.918818e-01 3.087452e+00 138 135 142
3.512400e-01 5.469882e-01 3.099143e+00 173 172 186
4.291827e-01 4.921025e-01 3.084239e+00 131 126 130
3.781006e-01 5.298139e-01 3.098474e+00 86 78 82
3.993567e-01 5.130539e-01 3.081210e+00 36 30 33
3.766674e-01 5.321643e-01 3.101935e+00 93 90 99
3.754942e-01 5.350146e-01 3.072957e+00 188 187 195
3.841527e-01 5.315448e-01 3.078985e+00 110 96 96
3.799513e-01 5.347553e-01 3.078436e+00 121 110 115
3.900791e-01 5.292272e-01 3.079379e+00 162 149 144
4.083602e-01 5.204250e-01 3.078662e+00 161 152 155
3.864159e-01 5.395836e-01 3.078578e+00 124 115 116
3.633790e-01 5.548780e-01 3.078036e+00 89 84 86
3.724390e-01 5.518891e-01 3.091786e+00 144 138 140
3.683137e-01 5.553794e-01 3.092854e+00 163 157 159
3.706584e-01 5.544359e-01 3.078815e+00 90 81 86
4.017610e-01 5.357699e-01 3.079986e+00 83 72 76
3.991037e-01 5.378177e-01 3.079860e+00 137 125 129
4.429191e-01 5.092085e-01 3.086673e+00 136 133 144
4.086791e-01 5.327365e-01 3.079829e+00 98 93 99
3.989227e-01 5.424138e-01 3.077736e+00 100 91 92
4.067354e-01 5.374280e-01 3.079023e+00 84 75 76
4.041812e-01 5.403649e-01 3.095538e+00 84 75 79
3.882506e-01 5.543172e-01 3.077415e+00 108 105 114
3.882506e-01 5.543172e-01 3.077415e+00 108 105 114
4.241348e-01 5.342313e-01 3.099736e+00 164 158 163
3.677233e-01 5.722867e-01 3.090540e+00 66 65 71
4.463535e-01 5.213270e-01 3.086327e+00 53 50 53
3.697757e-01 5.732522e-01 3.090316e+00 151 149 151
3.627448e-01 5.791675e-01 3.077597e+00 153 151 156
4.264711e-01 5.370762e-01 3.079808e+00 97 91 93
3.642881e-01 5.783454e-01 3.080742e+00 41 36 42
3.899745e-01 5.617404e-01 3.079924e+00 68 62 64
3.900107e-01 5.618677e-01 3.078998e+00 68 62 64
3.833503e-01 5.665832e-01 3.077970e+00 150 141 143
4.047443e-01 5.530247e-01 3.079045e+00 89 84 88
3.667008e-01 5.775953e-01 3.091531e+00 95 95 105
4.316689e-01 5.365040e-01 3.080893e+00 158 149 152
4.025297e-01 5.558485e-01 3.081145e+00 43 34 37
4.123351e-01 5.501236e-01 3.082830e+00 49 39 40
4.178047e-01 5.453091e-01 3.096840e+00 173 162 166
4.161784e-01 5.483284e-01 3.079065e+00 43 33 35
4.309995e-01 5.391627e-01 3.080796e+00 172 164 162
4.182032e-01 5.481116e-01 3.078735e+00 135 127 125
4.352185e-01 5.366973e-01 3.081466e+00 40 30 31
4.352185e-01 5.366973e-01 3.081466e+00 40 30 31
4.397234e-01 5.321969e-01 3.099905e+00 154 148 150
4.476893e-01 5.290061e-01 3.085907e+00 153 148 152
4.514441e-01 5.268080e-01 3.086473e+00 168 162 164
4.062542e-01 5.581814e-01 3.078595e+00 171 169 180
3.994602e-01 5.663296e-01 3.077587e+00 181 181 191
3.681806e-01 5.904766e-01 3.078639e+00 194 200 216
4.150423e-01 5.610524e-01 3.079680e+00 41 39 52
3.789451e-01 5.861714e-01 3.080666e+00 178 178 183
3.789451e-01 5.861714e-01 3.080666e+00 178 178 183
4.239195e-01 5.592823e-01 3.080883e+00 174 175 180
4.355202e-01 5.567299e-01 3.081490e+00 123 123 133
4.260073e-01 5.672002e-01 3.082854e+00 175 175 185
3.802426e-01 6.052350e-01 3.080689e+00 196 214 238
4.225215e-01 5.785947e-01 3.078497e+00 136 130 132
4.225215e-01 5.785947e-01 3.078497e+00 136 130 132
4.536695e-01 5.563866e-01 3.087865e+00 156 151 155
4.467082e-01 5.638678e-01 3.085548e+00 90 88 93
4.373123e-01 5.702882e-01 3.084921e+00 104 99 105
3.884464e-01 6.145849e-01 3.077203e+00 189 193 205
4.017932e-01 6.051168e-01 3.080752e+00 21 21 29
4.509876e-01 5.705081e-01 3.088534e+00 176 178 187
4.652469e-01 5.646636e-01 3.088345e+00 177 177 189
4.684888e-01 5.627466e-01 3.088665e+00 57 59 71
3.923268e-01 6.153371e-01 3.080783e+00 174 174 183
4.115436e-01 6.062230e-01 3.076089e+00 74 70 77
3.984289e-01 6.138115e-01 3.081232e+00 77 79 91
3.981325e-01 6.149877e-01 3.081814e+00 78 78 88
4.051080e-01 6.134094e-01 3.080217e+00 28 27 33
3.934375e-01 6.247690e-01 3.077295e+00 147 153 168
4.542309e-01 5.830134e-01 3.086585e+00 98 95 102
4.509969e-01 5.878877e-01 3.083351e+00 140 137 146
4.887867e-01 5.671607e-01 3.084015e+00 209 225 250
4.525966e-01 5.919379e-01 3.083442e+00 47 48 52
4.890339e-01 5.680641e-01 3.083798e+00 101 115 140
