ply
format ascii 1.0
element face 0
property list uchar int vertex_indices
element vertex 964
property float x
property float y
property float z
property uchar diffuse_red
property uchar diffuse_green
property uchar diffuse_blue
end_header
3.865276e-01 5.032790e-01 2.929780e+00 87 106 78
3.394286e-01 4.828184e-01 2.891826e+00 44 72 24
4.060962e-01 5.084460e-01 2.930377e+00 26 51 12
3.679582e-01 4.961676e-01 2.918463e+00 76 98 59
3.856971e-01 5.031993e-01 2.929682e+00 117 141 112
3.457023e-01 4.860419e-01 2.898409e+00 108 135 92
4.394838e-01 5.042285e-01 2.873637e+00 85 108 79
4.215672e-01 5.094815e-01 2.917279e+00 92 107 85
4.045674e-01 5.084517e-01 2.931695e+00 99 125 89
4.045674e-01 5.084517e-01 2.931695e+00 99 125 89
4.322576e-01 5.070393e-01 2.894214e+00 65 78 58
3.636485e-01 4.944793e-01 2.915287e+00 42 52 23
3.451126e-01 4.858658e-01 2.897957e+00 30 56 17
3.448444e-01 4.859402e-01 2.898179e+00 85 111 75
3.328887e-01 4.801093e-01 2.885318e+00 97 124 73
3.311409e-01 4.792712e-01 2.883338e+00 31 59 8
4.372851e-01 5.059295e-01 2.882517e+00 28 42 27
4.131578e-01 5.096720e-01 2.926429e+00 109 137 88
4.249508e-01 5.094667e-01 2.912047e+00 26 51 19
4.140890e-01 5.098886e-01 2.926162e+00 94 116 75
4.108451e-01 5.096645e-01 2.928873e+00 131 152 109
3.971307e-01 5.070499e-01 2.932627e+00 101 129 80
3.971307e-01 5.070499e-01 2.932627e+00 101 129 80
4.205338e-01 5.098949e-01 2.918766e+00 107 127 99
4.119434e-01 5.098951e-01 2.928315e+00 64 82 44
3.884927e-01 5.046237e-01 2.930786e+00 31 52 21
3.853361e-01 5.036703e-01 2.930005e+00 83 107 85
4.020706e-01 5.084673e-01 2.932558e+00 21 46 16
3.491144e-01 4.883907e-01 2.902607e+00 24 52 12
4.361546e-01 5.066314e-01 2.885729e+00 36 56 44
4.043509e-01 5.090572e-01 2.932479e+00 88 114 75
3.958848e-01 5.069578e-01 2.932499e+00 28 49 21
3.954371e-01 5.068825e-01 2.932799e+00 24 43 17
3.921984e-01 5.060327e-01 2.932653e+00 21 50 20
3.868550e-01 5.041968e-01 2.930461e+00 22 43 21
3.357783e-01 4.822107e-01 2.889418e+00 29 56 10
4.383425e-01 5.057857e-01 2.878981e+00 85 104 82
4.308790e-01 5.083594e-01 2.898905e+00 34 50 47
4.094732e-01 5.097812e-01 2.929518e+00 29 52 24
4.003863e-01 5.084622e-01 2.933570e+00 71 86 57
3.297066e-01 4.791636e-01 2.882330e+00 89 120 63
4.377169e-01 5.064476e-01 2.882263e+00 82 99 80
3.254790e-01 4.772310e-01 2.878060e+00 25 57 8
4.364712e-01 5.070459e-01 2.886155e+00 71 89 75
4.035999e-01 5.089839e-01 2.931956e+00 17 45 7
3.963248e-01 5.074944e-01 2.933504e+00 91 114 88
3.263306e-01 4.777166e-01 2.879046e+00 29 60 10
4.217620e-01 5.104836e-01 2.918007e+00 94 107 90
3.970266e-01 5.077454e-01 2.933595e+00 94 116 85
3.937491e-01 5.068245e-01 2.933129e+00 83 105 84
3.937491e-01 5.068245e-01 2.933129e+00 83 105 84
4.404194e-01 5.059805e-01 2.876024e+00 18 37 17
4.227624e-01 5.104806e-01 2.916189e+00 106 121 100
3.628073e-01 4.953769e-01 2.915996e+00 10 30 3
4.441686e-01 5.039839e-01 2.862222e+00 40 62 24
4.186806e-01 5.108685e-01 2.922224e+00 125 139 111
4.186806e-01 5.108685e-01 2.922224e+00 125 139 111
4.278072e-01 5.100435e-01 2.907536e+00 107 121 104
4.150511e-01 5.109713e-01 2.926168e+00 112 132 108
4.150511e-01 5.109713e-01 2.926168e+00 112 132 108
4.083385e-01 5.104805e-01 2.931471e+00 55 81 45
3.851530e-01 5.046427e-01 2.931380e+00 21 44 26
3.656058e-01 4.967529e-01 2.918128e+00 22 44 5
3.765553e-01 5.013985e-01 2.926340e+00 80 108 68
4.188720e-01 5.110800e-01 2.921972e+00 50 68 43
3.369254e-01 4.837095e-01 2.891460e+00 80 106 67
3.830742e-01 5.040301e-01 2.930245e+00 103 126 98
3.830742e-01 5.040301e-01 2.930245e+00 103 126 98
3.849933e-01 5.048994e-01 2.931444e+00 87 108 91
3.837205e-01 5.045347e-01 2.931016e+00 25 48 21
4.183642e-01 5.116074e-01 2.923547e+00 72 84 72
4.052069e-01 5.104493e-01 2.933312e+00 36 58 22
3.847554e-01 5.049530e-01 2.931633e+00 25 46 29
3.847554e-01 5.049530e-01 2.931633e+00 25 46 29
4.170037e-01 5.114704e-01 2.924430e+00 75 92 76
4.247136e-01 5.110825e-01 2.913795e+00 20 45 16
4.247136e-01 5.110825e-01 2.913795e+00 20 45 16
4.302166e-01 5.102225e-01 2.903214e+00 78 102 88
4.137755e-01 5.116039e-01 2.928066e+00 78 95 76
4.130293e-01 5.115357e-01 2.928696e+00 76 96 71
3.349578e-01 4.833451e-01 2.889743e+00 83 108 68
4.093328e-01 5.113787e-01 2.931871e+00 73 96 69
4.493453e-01 5.030429e-01 2.848067e+00 113 142 93
4.475515e-01 5.039216e-01 2.853919e+00 89 114 75
4.475515e-01 5.039216e-01 2.853919e+00 89 114 75
4.369247e-01 5.085067e-01 2.886918e+00 100 114 83
3.810309e-01 5.039452e-01 2.929808e+00 96 117 86
3.528575e-01 4.920326e-01 2.907937e+00 97 122 80
3.528575e-01 4.920326e-01 2.907937e+00 97 122 80
2.994855e-01 4.659941e-01 2.850626e+00 120 145 80
4.039846e-01 5.106519e-01 2.933960e+00 83 106 71
3.992042e-01 5.096141e-01 2.934774e+00 89 105 79
3.992042e-01 5.096141e-01 2.934774e+00 89 105 79
4.046794e-01 5.106762e-01 2.933130e+00 47 67 39
4.046794e-01 5.106762e-01 2.933130e+00 47 67 39
3.235536e-01 4.780129e-01 2.877437e+00 102 130 72
3.818562e-01 5.042915e-01 2.929800e+00 112 129 97
3.676159e-01 4.987329e-01 2.920765e+00 81 105 71
3.631492e-01 4.969318e-01 2.917269e+00 12 38 2
3.624280e-01 4.967094e-01 2.916993e+00 18 44 6
3.823905e-01 5.047024e-01 2.930438e+00 33 48 18
4.016807e-01 5.105998e-01 2.935069e+00 9 23 0
4.184188e-01 5.124064e-01 2.924044e+00 74 89 74
3.807900e-01 5.043089e-01 2.930078e+00 31 47 20
3.927332e-01 5.083375e-01 2.934671e+00 22 43 26
3.567873e-01 4.941772e-01 2.911196e+00 75 95 70
4.240289e-01 5.122344e-01 2.916360e+00 100 121 89
3.928818e-01 5.084112e-01 2.934136e+00 72 90 74
3.924195e-01 5.084570e-01 2.934920e+00 67 87 72
3.896947e-01 5.076102e-01 2.933930e+00 29 58 11
3.896947e-01 5.076102e-01 2.933930e+00 29 58 11
3.511037e-01 4.919900e-01 2.906993e+00 88 116 82
3.233846e-01 4.787372e-01 2.878164e+00 121 149 90
3.233846e-01 4.787372e-01 2.878164e+00 121 149 90
3.233846e-01 4.787372e-01 2.878164e+00 121 149 90
3.792680e-01 5.038821e-01 2.928734e+00 84 107 70
3.728549e-01 5.015499e-01 2.925425e+00 42 61 22
4.080925e-01 5.120768e-01 2.933018e+00 107 134 91
3.844733e-01 5.060150e-01 2.932299e+00 22 36 13
3.615924e-01 4.967863e-01 2.916505e+00 80 106 69
4.099743e-01 5.124139e-01 2.932345e+00 83 107 75
3.160297e-01 4.753035e-01 2.870389e+00 120 149 91
3.160297e-01 4.753035e-01 2.870389e+00 120 149 91
3.873671e-01 5.069223e-01 2.932938e+00 40 62 26
3.873671e-01 5.069223e-01 2.932938e+00 40 62 26
3.210613e-01 4.778305e-01 2.875949e+00 67 92 27
4.450546e-01 5.067457e-01 2.865639e+00 53 81 28
3.970697e-01 5.101250e-01 2.936127e+00 34 51 15
3.950955e-01 5.095164e-01 2.935622e+00 110 130 102
4.078364e-01 5.123268e-01 2.933594e+00 57 84 39
3.570703e-01 4.950883e-01 2.913008e+00 90 116 80
3.203400e-01 4.776117e-01 2.875282e+00 128 155 92
4.107656e-01 5.127821e-01 2.932264e+00 111 132 100
3.959952e-01 5.098113e-01 2.935624e+00 110 132 94
3.959952e-01 5.098113e-01 2.935624e+00 110 132 94
3.702868e-01 5.006764e-01 2.923298e+00 21 40 10
4.215240e-01 5.129850e-01 2.920763e+00 86 108 70
3.984917e-01 5.104635e-01 2.935329e+00 95 108 78
3.521608e-01 4.929899e-01 2.908337e+00 34 65 25
4.079533e-01 5.121612e-01 2.932057e+00 98 125 84
2.987642e-01 4.672234e-01 2.851365e+00 155 163 116
4.319926e-01 5.117137e-01 2.902247e+00 94 120 90
3.780724e-01 5.043030e-01 2.929881e+00 71 88 52
3.845002e-01 5.066065e-01 2.932916e+00 71 84 58
3.707878e-01 5.014104e-01 2.924790e+00 19 38 6
4.278429e-01 5.125898e-01 2.910484e+00 100 128 80
4.278429e-01 5.125898e-01 2.910484e+00 100 128 80
4.016888e-01 5.116817e-01 2.936148e+00 35 52 17
3.971410e-01 5.106423e-01 2.936358e+00 96 117 77
3.971410e-01 5.106423e-01 2.936358e+00 96 117 77
3.015293e-01 4.689962e-01 2.854838e+00 129 147 95
4.107123e-01 5.133575e-01 2.933063e+00 63 84 43
3.504998e-01 4.927065e-01 2.907383e+00 87 107 79
3.504998e-01 4.927065e-01 2.907383e+00 87 107 79
4.099305e-01 5.132371e-01 2.933181e+00 97 122 82
4.099305e-01 5.132371e-01 2.933181e+00 97 122 82
3.942512e-01 5.100388e-01 2.936287e+00 71 95 63
3.942512e-01 5.100388e-01 2.936287e+00 71 95 63
3.075877e-01 4.722188e-01 2.862104e+00 116 145 91
4.027773e-01 5.121713e-01 2.936138e+00 95 119 86
4.157300e-01 5.137279e-01 2.928340e+00 104 127 81
4.521661e-01 5.041923e-01 2.841831e+00 128 156 98
3.765082e-01 5.040178e-01 2.928606e+00 105 124 86
3.765082e-01 5.040178e-01 2.928606e+00 105 124 86
4.187205e-01 5.139202e-01 2.925507e+00 101 125 79
4.183529e-01 5.140576e-01 2.926535e+00 109 137 88
4.183529e-01 5.140576e-01 2.926535e+00 109 137 88
3.240360e-01 4.805197e-01 2.880552e+00 69 97 38
4.047605e-01 5.127606e-01 2.935835e+00 79 95 68
4.047605e-01 5.127606e-01 2.935835e+00 79 95 68
3.897314e-01 5.090097e-01 2.935799e+00 24 53 9
4.185589e-01 5.141845e-01 2.926349e+00 69 97 47
4.257811e-01 5.138428e-01 2.916106e+00 51 81 29
4.139854e-01 5.140070e-01 2.930552e+00 101 124 78
4.014292e-01 5.122363e-01 2.936610e+00 41 62 19
4.006982e-01 5.120457e-01 2.936703e+00 47 69 23
3.012745e-01 4.695929e-01 2.855498e+00 165 173 138
2.999489e-01 4.688535e-01 2.853514e+00 19 24 1
4.344008e-01 5.119776e-01 2.897440e+00 91 114 72
3.497487e-01 4.929667e-01 2.907218e+00 112 138 97
3.084555e-01 4.730984e-01 2.863264e+00 51 81 32
3.806894e-01 5.060495e-01 2.931703e+00 33 60 18
3.806894e-01 5.060495e-01 2.931703e+00 33 60 18
3.037128e-01 4.708024e-01 2.857770e+00 67 89 49
3.030879e-01 4.707108e-01 2.857906e+00 146 162 123
4.453647e-01 5.081773e-01 2.866330e+00 35 65 5
4.022229e-01 5.126533e-01 2.936879e+00 49 75 31
3.552097e-01 4.955953e-01 2.912308e+00 54 81 40
3.196356e-01 4.788658e-01 2.876048e+00 60 89 26
3.189291e-01 4.785169e-01 2.875319e+00 135 162 99
3.189291e-01 4.785169e-01 2.875319e+00 135 162 99
4.048839e-01 5.131162e-01 2.935878e+00 34 54 19
4.415106e-01 5.098937e-01 2.878249e+00 109 140 81
3.034614e-01 4.710206e-01 2.857922e+00 127 146 115
3.034614e-01 4.710206e-01 2.857922e+00 127 146 115
4.001582e-01 5.123645e-01 2.937277e+00 122 144 98
3.183379e-01 4.784870e-01 2.875088e+00 64 90 29
3.504173e-01 4.937879e-01 2.908536e+00 50 79 33
3.837748e-01 5.075603e-01 2.933418e+00 98 117 69
4.140806e-01 5.146137e-01 2.931125e+00 25 52 2
3.811162e-01 5.068130e-01 2.932794e+00 97 125 77
3.787184e-01 5.058596e-01 2.931154e+00 90 117 69
4.055800e-01 5.138112e-01 2.936570e+00 91 115 68
4.050223e-01 5.136308e-01 2.936349e+00 102 129 80
3.400131e-01 4.892210e-01 2.898372e+00 107 129 91
4.021353e-01 5.130784e-01 2.937020e+00 105 131 81
3.454787e-01 4.919321e-01 2.904109e+00 46 73 20
4.186584e-01 5.151476e-01 2.927021e+00 123 150 99
4.186584e-01 5.151476e-01 2.927021e+00 123 150 99
4.109300e-01 5.147151e-01 2.933994e+00 102 125 73
4.139076e-01 5.149214e-01 2.931356e+00 96 121 63
4.001230e-01 5.130020e-01 2.937775e+00 104 130 82
3.932851e-01 5.112683e-01 2.937502e+00 98 128 76
3.989233e-01 5.126835e-01 2.937361e+00 63 87 35
4.132644e-01 5.152273e-01 2.932580e+00 112 133 76
4.126163e-01 5.153057e-01 2.933289e+00 122 145 89
3.318174e-01 4.860526e-01 2.890671e+00 119 143 85
3.406898e-01 4.902841e-01 2.899757e+00 36 58 20
3.406898e-01 4.902841e-01 2.899757e+00 36 58 20
3.223702e-01 4.818523e-01 2.880913e+00 57 81 43
3.870134e-01 5.098265e-01 2.936218e+00 105 134 69
3.979974e-01 5.131812e-01 2.939050e+00 50 72 8
4.322327e-01 5.146048e-01 2.905770e+00 116 140 86
4.129944e-01 5.156766e-01 2.933053e+00 74 98 34
4.070989e-01 5.150674e-01 2.937060e+00 70 99 41
3.201638e-01 4.807933e-01 2.877941e+00 122 145 119
4.114500e-01 5.155969e-01 2.934366e+00 47 71 19
3.047268e-01 4.734317e-01 2.861279e+00 124 141 162
4.001136e-01 5.136959e-01 2.938520e+00 55 88 31
3.908312e-01 5.111430e-01 2.937297e+00 104 132 84
3.791642e-01 5.071568e-01 2.932241e+00 107 136 82
3.876976e-01 5.102159e-01 2.936576e+00 121 150 83
3.876976e-01 5.102159e-01 2.936576e+00 121 150 83
3.808507e-01 5.079853e-01 2.933686e+00 116 145 89
3.470835e-01 4.939310e-01 2.906990e+00 66 92 44
3.204000e-01 4.814190e-01 2.879327e+00 72 92 82
3.028939e-01 4.728318e-01 2.859520e+00 47 55 78
3.827966e-01 5.087244e-01 2.934488e+00 54 83 29
3.827966e-01 5.087244e-01 2.934488e+00 54 83 29
3.956892e-01 5.129155e-01 2.938997e+00 64 95 28
3.745477e-01 5.056538e-01 2.929577e+00 48 71 25
3.495658e-01 4.951387e-01 2.909408e+00 40 70 21
4.418611e-01 5.120763e-01 2.881000e+00 138 166 108
3.998817e-01 5.139385e-01 2.938409e+00 97 131 71
4.284856e-01 5.157270e-01 2.913353e+00 101 133 76
4.293209e-01 5.157694e-01 2.912437e+00 41 72 12
4.300763e-01 5.157082e-01 2.910691e+00 128 156 95
3.861112e-01 5.102440e-01 2.936273e+00 63 93 32
4.063692e-01 5.155878e-01 2.937620e+00 101 130 76
3.836603e-01 5.091610e-01 2.933838e+00 108 134 76
3.519592e-01 4.967603e-01 2.912374e+00 33 68 12
4.141850e-01 5.168284e-01 2.933677e+00 24 47 1
3.838422e-01 5.097275e-01 2.935626e+00 67 95 37
3.276709e-01 4.858170e-01 2.888533e+00 118 139 133
4.421209e-01 5.129031e-01 2.881870e+00 74 99 41
3.929694e-01 5.127280e-01 2.938707e+00 114 145 85
3.929694e-01 5.127280e-01 2.938707e+00 114 145 85
3.640142e-01 5.021822e-01 2.922719e+00 107 144 75
3.236683e-01 4.839253e-01 2.883628e+00 135 152 158
4.434894e-01 5.123608e-01 2.877283e+00 42 72 19
4.220479e-01 5.173713e-01 2.926008e+00 126 153 100
4.220479e-01 5.173713e-01 2.926008e+00 126 153 100
3.397213e-01 4.912872e-01 2.899210e+00 66 91 49
4.032773e-01 5.156626e-01 2.939429e+00 45 69 20
3.813515e-01 5.091780e-01 2.934550e+00 66 95 37
4.116438e-01 5.170478e-01 2.935759e+00 41 69 20
4.313263e-01 5.165439e-01 2.909721e+00 80 99 39
4.313263e-01 5.165439e-01 2.909721e+00 80 99 39
4.491387e-01 5.107012e-01 2.860576e+00 118 146 109
4.208728e-01 5.177247e-01 2.927398e+00 141 166 111
3.967842e-01 5.143860e-01 2.939899e+00 140 164 102
3.378040e-01 4.911982e-01 2.899142e+00 47 67 33
3.284666e-01 4.870129e-01 2.889775e+00 57 71 82
4.363230e-01 5.154999e-01 2.898050e+00 124 152 94
4.217131e-01 5.178035e-01 2.926148e+00 127 152 97
3.273936e-01 4.864056e-01 2.888023e+00 127 140 157
4.290287e-01 5.171363e-01 2.914066e+00 64 94 34
3.986378e-01 5.151250e-01 2.940080e+00 66 86 25
4.531831e-01 5.094276e-01 2.847940e+00 74 101 93
4.435422e-01 5.133634e-01 2.878359e+00 105 131 83
4.167830e-01 5.180071e-01 2.932064e+00 46 83 29
3.471574e-01 4.959533e-01 2.908758e+00 133 159 122
3.990708e-01 5.156265e-01 2.940795e+00 119 142 84
3.808025e-01 5.100006e-01 2.935351e+00 106 133 76
3.808025e-01 5.100006e-01 2.935351e+00 106 133 76
4.470560e-01 5.126195e-01 2.869224e+00 54 85 44
4.473170e-01 5.124726e-01 2.868063e+00 91 127 91
3.359214e-01 4.911763e-01 2.898078e+00 146 157 160
3.574001e-01 5.007553e-01 2.918375e+00 108 133 89
4.349891e-01 5.167303e-01 2.902794e+00 143 164 107
3.934626e-01 5.142571e-01 2.940049e+00 126 153 91
3.934626e-01 5.142571e-01 2.940049e+00 126 153 91
4.495435e-01 5.116687e-01 2.860988e+00 127 143 119
4.322467e-01 5.172897e-01 2.908338e+00 139 157 97
3.340731e-01 4.906404e-01 2.896409e+00 125 137 149
3.930227e-01 5.144748e-01 2.940569e+00 58 88 25
4.488365e-01 5.122461e-01 2.863573e+00 34 50 39
4.486105e-01 5.125038e-01 2.864718e+00 91 110 99
4.486105e-01 5.125038e-01 2.864718e+00 91 110 99
3.837587e-01 5.114532e-01 2.936764e+00 127 152 87
4.270103e-01 5.187007e-01 2.919848e+00 52 75 19
3.399886e-01 4.936980e-01 2.902727e+00 65 78 70
3.399886e-01 4.936980e-01 2.902727e+00 65 78 70
4.454057e-01 5.141433e-01 2.875456e+00 113 140 120
4.454057e-01 5.141433e-01 2.875456e+00 113 140 120
4.254574e-01 5.189344e-01 2.922238e+00 65 83 23
4.254574e-01 5.189344e-01 2.922238e+00 65 83 23
3.840421e-01 5.120577e-01 2.937855e+00 51 78 17
4.480794e-01 5.133778e-01 2.867881e+00 86 108 96
3.478636e-01 4.974641e-01 2.910406e+00 93 107 76
4.533967e-01 5.110274e-01 2.849698e+00 73 79 107
4.389524e-01 5.166290e-01 2.893975e+00 124 151 113
4.057524e-01 5.181377e-01 2.940560e+00 118 143 89
4.323135e-01 5.182531e-01 2.909336e+00 90 109 63
3.716376e-01 5.079123e-01 2.930700e+00 117 129 94
4.224952e-01 5.198180e-01 2.927630e+00 134 150 106
4.224952e-01 5.198180e-01 2.927630e+00 134 150 106
3.637339e-01 5.048631e-01 2.925041e+00 100 120 86
4.053640e-01 5.183631e-01 2.940490e+00 58 86 25
4.053640e-01 5.183631e-01 2.940490e+00 58 86 25
4.167876e-01 5.198883e-01 2.934038e+00 136 158 119
4.428909e-01 5.159044e-01 2.883446e+00 44 59 38
4.428909e-01 5.159044e-01 2.883446e+00 44 59 38
4.427458e-01 5.161801e-01 2.884900e+00 112 127 109
4.460958e-01 5.149513e-01 2.874853e+00 30 50 41
4.294339e-01 5.194890e-01 2.916414e+00 103 127 71
4.489226e-01 5.141299e-01 2.866762e+00 81 86 80
3.638417e-01 5.052638e-01 2.925158e+00 31 45 38
4.204907e-01 5.202849e-01 2.930224e+00 51 77 38
4.204907e-01 5.202849e-01 2.930224e+00 51 77 38
3.637401e-01 5.053103e-01 2.925434e+00 29 46 37
4.359164e-01 5.183737e-01 2.902299e+00 89 104 101
4.359164e-01 5.183737e-01 2.902299e+00 89 104 101
4.217134e-01 5.202465e-01 2.928522e+00 86 109 83
4.053068e-01 5.186365e-01 2.940230e+00 113 140 85
4.053068e-01 5.186365e-01 2.940230e+00 113 140 85
4.322175e-01 5.193690e-01 2.911425e+00 87 108 90
3.420306e-01 4.961487e-01 2.906469e+00 131 134 149
3.875330e-01 5.143134e-01 2.939875e+00 67 92 62
4.260216e-01 5.202836e-01 2.922734e+00 157 168 139
3.772943e-01 5.108308e-01 2.935017e+00 128 147 135
3.932854e-01 5.162740e-01 2.941729e+00 109 132 80
4.512865e-01 5.138953e-01 2.859669e+00 80 84 96
4.313332e-01 5.200780e-01 2.913967e+00 56 74 58
4.300316e-01 5.202480e-01 2.916279e+00 90 103 85
3.716892e-01 5.091114e-01 2.931853e+00 74 88 82
4.201604e-01 5.210828e-01 2.931966e+00 42 55 35
3.707247e-01 5.088812e-01 2.931487e+00 150 70 92
3.463137e-01 4.987105e-01 2.911175e+00 27 28 48
3.987968e-01 5.181102e-01 2.942637e+00 130 145 116
3.170297e-01 4.854500e-01 2.881313e+00 71 72 90
4.226733e-01 5.211027e-01 2.928594e+00 108 106 95
3.855857e-01 5.142000e-01 2.939335e+00 135 146 146
4.282650e-01 5.206895e-01 2.919687e+00 114 127 98
4.342105e-01 5.200373e-01 2.908987e+00 74 66 89
4.015053e-01 5.188762e-01 2.942553e+00 69 87 63
3.417017e-01 4.969346e-01 2.906806e+00 20 19 29
4.172061e-01 5.212183e-01 2.934664e+00 39 51 45
4.492947e-01 5.154003e-01 2.867227e+00 89 83 86
4.492947e-01 5.154003e-01 2.867227e+00 89 83 86
4.116055e-01 5.208215e-01 2.939184e+00 41 52 33
4.233839e-01 5.215964e-01 2.928578e+00 168 164 146
4.527173e-01 5.141902e-01 2.856385e+00 43 47 66
4.174895e-01 5.215555e-01 2.934912e+00 96 107 110
3.936804e-01 5.172488e-01 2.942350e+00 27 38 36
4.087207e-01 5.206440e-01 2.940906e+00 85 57 41
4.087207e-01 5.206440e-01 2.940906e+00 85 57 41
4.345207e-01 5.204176e-01 2.908432e+00 85 91 113
4.345207e-01 5.204176e-01 2.908432e+00 85 91 113
4.146928e-01 5.214612e-01 2.937548e+00 120 138 137
3.684344e-01 5.086826e-01 2.930334e+00 225 130 155
4.499117e-01 5.157228e-01 2.866316e+00 147 134 144
4.406304e-01 5.191415e-01 2.894276e+00 62 68 87
3.911972e-01 5.166697e-01 2.941581e+00 121 136 130
3.073798e-01 4.819721e-01 2.871955e+00 64 69 91
4.497791e-01 5.161962e-01 2.868026e+00 56 31 44
4.310369e-01 5.213485e-01 2.916014e+00 17 26 28
4.093157e-01 5.210573e-01 2.940699e+00 139 139 140
4.145941e-01 5.218399e-01 2.938033e+00 36 50 58
4.006151e-01 5.196445e-01 2.943857e+00 153 156 161
3.910279e-01 5.169317e-01 2.941934e+00 41 54 63
4.322915e-01 5.213598e-01 2.913756e+00 150 159 168
4.318253e-01 5.215115e-01 2.914565e+00 45 56 58
4.142552e-01 5.219980e-01 2.938148e+00 156 164 185
3.212657e-01 4.889509e-01 2.887365e+00 126 131 150
4.422695e-01 5.193404e-01 2.890748e+00 138 145 173
4.321777e-01 5.218881e-01 2.915185e+00 133 143 150
4.084316e-01 5.215649e-01 2.942010e+00 39 20 16
4.531880e-01 5.158869e-01 2.858543e+00 174 180 196
4.518987e-01 5.162662e-01 2.862174e+00 125 137 153
4.518987e-01 5.162662e-01 2.862174e+00 125 137 153
4.502479e-01 5.169579e-01 2.867627e+00 117 88 110
4.332437e-01 5.218834e-01 2.912788e+00 147 152 174
3.662081e-01 5.088705e-01 2.929616e+00 17 24 43
3.662081e-01 5.088705e-01 2.929616e+00 17 24 43
2.924886e-01 4.761848e-01 2.856623e+00 121 133 157
4.080514e-01 5.217933e-01 2.942756e+00 44 26 27
4.317636e-01 5.221345e-01 2.915452e+00 61 70 75
4.510955e-01 5.169418e-01 2.865226e+00 169 181 199
3.843931e-01 5.161443e-01 2.941512e+00 34 25 42
3.580268e-01 5.060044e-01 2.922868e+00 73 76 97
3.547905e-01 5.049680e-01 2.921221e+00 70 86 111
4.553880e-01 5.157780e-01 2.852011e+00 104 98 110
4.553880e-01 5.157780e-01 2.852011e+00 104 98 110
3.542915e-01 5.049357e-01 2.921158e+00 121 133 159
3.934155e-01 5.190400e-01 2.943750e+00 82 85 105
3.290373e-01 4.940746e-01 2.897345e+00 81 97 120
4.455885e-01 5.199173e-01 2.883633e+00 77 82 105
4.455885e-01 5.199173e-01 2.883633e+00 77 82 105
3.468692e-01 5.020597e-01 2.914956e+00 172 184 209
3.590221e-01 5.071010e-01 2.925095e+00 100 96 116
4.484507e-01 5.189377e-01 2.874885e+00 87 69 95
4.484507e-01 5.189377e-01 2.874885e+00 87 69 95
3.665577e-01 5.100541e-01 2.930418e+00 132 137 156
4.554681e-01 5.167059e-01 2.854514e+00 112 104 117
4.154689e-01 5.236392e-01 2.938479e+00 61 74 105
4.460499e-01 5.200660e-01 2.882899e+00 111 109 125
4.460499e-01 5.200660e-01 2.882899e+00 111 109 125
4.487036e-01 5.195047e-01 2.875934e+00 54 31 57
3.506839e-01 5.038759e-01 2.917644e+00 38 47 58
4.506235e-01 5.188532e-01 2.869722e+00 128 108 129
4.463065e-01 5.203080e-01 2.882492e+00 36 32 46
4.544599e-01 5.172397e-01 2.856607e+00 39 27 37
4.518821e-01 5.185296e-01 2.865903e+00 107 120 137
3.542075e-01 5.059397e-01 2.921921e+00 114 130 153
3.044369e-01 4.840638e-01 2.872567e+00 126 124 135
3.720824e-01 5.131993e-01 2.936085e+00 161 175 196
3.720824e-01 5.131993e-01 2.936085e+00 161 175 196
4.462260e-01 5.208945e-01 2.883456e+00 105 101 116
3.558619e-01 5.066669e-01 2.922636e+00 55 67 96
4.091848e-01 5.238215e-01 2.943382e+00 125 132 150
4.091848e-01 5.238215e-01 2.943382e+00 125 132 150
4.146127e-01 5.240661e-01 2.937926e+00 117 131 160
3.277589e-01 4.950666e-01 2.897598e+00 191 207 236
3.593800e-01 5.084855e-01 2.926248e+00 22 18 33
4.274852e-01 5.251864e-01 2.926292e+00 66 71 90
3.717694e-01 5.134960e-01 2.935576e+00 170 185 208
4.318877e-01 5.247569e-01 2.918343e+00 36 27 43
4.246499e-01 5.251775e-01 2.929340e+00 73 83 103
4.118724e-01 5.247523e-01 2.942996e+00 24 29 42
4.118724e-01 5.247523e-01 2.942996e+00 24 29 42
4.235402e-01 5.254228e-01 2.931907e+00 88 94 118
3.382578e-01 5.000363e-01 2.908017e+00 183 192 221
4.226397e-01 5.254712e-01 2.933016e+00 38 43 63
3.510482e-01 5.055608e-01 2.919712e+00 61 77 101
2.975136e-01 4.822740e-01 2.866881e+00 125 121 138
4.458392e-01 5.222622e-01 2.886696e+00 144 129 148
4.351584e-01 5.248445e-01 2.912868e+00 72 68 91
4.448711e-01 5.227730e-01 2.890033e+00 47 42 64
4.448711e-01 5.227730e-01 2.890033e+00 47 42 64
3.661497e-01 5.119554e-01 2.932218e+00 33 36 50
3.498051e-01 5.053908e-01 2.918904e+00 40 49 77
4.461676e-01 5.223554e-01 2.885739e+00 32 34 47
3.521712e-01 5.065998e-01 2.921564e+00 187 200 234
4.493165e-01 5.216029e-01 2.877400e+00 117 104 115
4.512755e-01 5.209833e-01 2.871559e+00 108 94 109
4.460357e-01 5.227243e-01 2.887034e+00 118 115 130
4.013725e-01 5.234757e-01 2.946228e+00 128 131 150
2.935183e-01 4.810809e-01 2.863058e+00 139 119 154
3.700134e-01 5.139151e-01 2.935520e+00 123 128 150
3.112313e-01 4.892580e-01 2.882176e+00 35 28 46
3.066858e-01 4.872926e-01 2.877576e+00 62 57 89
3.066858e-01 4.872926e-01 2.877576e+00 62 57 89
4.511367e-01 5.214809e-01 2.873100e+00 34 21 31
4.125871e-01 5.255495e-01 2.941989e+00 117 123 135
4.501750e-01 5.217453e-01 2.875527e+00 82 65 71
3.546530e-01 5.081537e-01 2.923929e+00 35 39 68
3.242743e-01 4.953510e-01 2.895809e+00 141 116 135
4.001586e-01 5.235643e-01 2.946268e+00 102 105 122
4.244329e-01 5.266864e-01 2.932068e+00 94 103 120
4.244329e-01 5.266864e-01 2.932068e+00 94 103 120
2.980669e-01 4.838153e-01 2.868848e+00 124 105 132
4.520606e-01 5.215002e-01 2.870548e+00 106 92 105
4.111755e-01 5.259757e-01 2.944248e+00 40 38 52
4.215439e-01 5.265356e-01 2.934133e+00 117 124 143
4.067038e-01 5.251804e-01 2.945597e+00 66 73 92
4.296567e-01 5.267132e-01 2.924593e+00 101 99 112
3.889398e-01 5.209277e-01 2.945065e+00 57 60 77
3.889398e-01 5.209277e-01 2.945065e+00 57 60 77
3.889398e-01 5.209277e-01 2.945065e+00 57 60 77
3.295376e-01 4.980265e-01 2.900966e+00 15 22 38
3.755700e-01 5.166511e-01 2.939327e+00 83 91 102
4.326071e-01 5.264517e-01 2.918691e+00 33 36 69
4.488732e-01 5.230481e-01 2.880509e+00 123 118 138
3.829609e-01 5.191926e-01 2.942818e+00 87 90 107
3.814139e-01 5.187920e-01 2.942609e+00 79 86 102
4.283819e-01 5.272231e-01 2.927151e+00 106 102 116
4.066849e-01 5.256531e-01 2.946078e+00 62 68 84
4.084220e-01 5.260275e-01 2.945757e+00 73 81 94
4.084220e-01 5.260275e-01 2.945757e+00 73 81 94
3.081241e-01 4.892832e-01 2.881159e+00 71 65 109
4.180237e-01 5.271670e-01 2.939541e+00 123 126 143
4.094307e-01 5.262025e-01 2.945155e+00 111 115 127
3.874574e-01 5.208629e-01 2.945071e+00 91 51 95
3.596312e-01 5.109546e-01 2.928518e+00 118 110 142
3.596312e-01 5.109546e-01 2.928518e+00 118 110 142
4.539419e-01 5.217341e-01 2.866076e+00 134 115 133
4.296940e-01 5.272579e-01 2.925124e+00 144 137 152
3.955752e-01 5.232346e-01 2.947068e+00 85 92 107
3.955752e-01 5.232346e-01 2.947068e+00 85 92 107
3.955752e-01 5.232346e-01 2.947068e+00 85 92 107
4.325068e-01 5.270593e-01 2.920452e+00 170 174 211
3.861037e-01 5.205631e-01 2.944868e+00 81 25 73
3.748244e-01 5.167782e-01 2.939264e+00 130 134 146
4.560927e-01 5.209793e-01 2.858910e+00 125 105 117
4.330923e-01 5.270651e-01 2.919573e+00 172 176 206
4.330923e-01 5.270651e-01 2.919573e+00 172 176 206
3.781629e-01 5.179630e-01 2.940990e+00 161 163 175
3.507632e-01 5.075852e-01 2.921599e+00 134 145 173
4.001909e-01 5.245731e-01 2.947527e+00 106 106 118
3.888202e-01 5.214293e-01 2.945611e+00 117 116 134
3.839628e-01 5.199313e-01 2.943777e+00 137 139 152
3.764344e-01 5.173671e-01 2.939930e+00 149 151 164
3.933712e-01 5.228157e-01 2.946924e+00 118 119 138
3.863942e-01 5.207816e-01 2.944947e+00 161 94 152
3.760005e-01 5.172987e-01 2.940095e+00 139 145 157
4.282225e-01 5.275433e-01 2.927628e+00 167 161 172
4.278164e-01 5.275398e-01 2.928116e+00 146 145 153
4.266662e-01 5.276480e-01 2.930039e+00 157 157 167
4.219349e-01 5.276773e-01 2.936312e+00 28 29 48
4.411645e-01 5.257819e-01 2.902086e+00 107 114 130
4.411645e-01 5.257819e-01 2.902086e+00 107 114 130
4.424862e-01 5.255574e-01 2.898972e+00 71 69 83
4.263914e-01 5.278298e-01 2.930934e+00 154 155 167
4.263914e-01 5.278298e-01 2.930934e+00 154 155 167
4.251789e-01 5.277229e-01 2.931833e+00 126 131 144
4.251789e-01 5.277229e-01 2.931833e+00 126 131 144
3.973732e-01 5.238883e-01 2.946706e+00 108 114 137
3.790712e-01 5.185958e-01 2.942187e+00 163 165 177
3.285599e-01 4.982798e-01 2.899937e+00 17 25 37
4.193521e-01 5.277638e-01 2.939063e+00 147 147 157
4.193521e-01 5.277638e-01 2.939063e+00 147 147 157
4.299318e-01 5.276485e-01 2.924994e+00 159 148 162
4.234067e-01 5.278863e-01 2.934438e+00 49 51 72
4.010769e-01 5.250670e-01 2.947868e+00 120 122 135
4.003992e-01 5.248065e-01 2.947397e+00 194 196 208
3.806685e-01 5.191558e-01 2.942685e+00 156 158 170
3.813221e-01 5.194373e-01 2.943203e+00 168 172 184
4.280653e-01 5.279349e-01 2.928467e+00 74 71 78
4.242158e-01 5.279866e-01 2.933611e+00 75 77 93
3.818842e-01 5.196686e-01 2.943433e+00 165 169 181
4.284549e-01 5.279996e-01 2.928209e+00 78 70 81
3.823586e-01 5.198250e-01 2.943515e+00 166 168 181
3.276638e-01 4.984253e-01 2.900725e+00 194 210 240
4.255077e-01 5.277501e-01 2.930423e+00 90 93 102
3.622388e-01 5.126413e-01 2.931266e+00 170 158 194
3.846949e-01 5.206629e-01 2.944548e+00 169 163 178
3.801767e-01 5.194671e-01 2.944078e+00 158 160 172
3.801767e-01 5.194671e-01 2.944078e+00 158 160 172
4.010766e-01 5.250951e-01 2.946979e+00 58 58 71
4.010766e-01 5.250951e-01 2.946979e+00 58 58 71
3.800479e-01 5.191298e-01 2.942297e+00 158 160 172
3.375161e-01 5.027633e-01 2.910304e+00 186 190 206
4.569393e-01 5.213578e-01 2.856866e+00 48 39 56
4.472650e-01 5.248246e-01 2.887182e+00 79 69 88
4.105537e-01 5.270123e-01 2.944955e+00 139 140 160
4.006559e-01 5.251437e-01 2.947554e+00 83 85 97
3.331358e-01 5.010328e-01 2.906374e+00 18 27 44
4.391337e-01 5.270153e-01 2.908656e+00 152 155 172
3.962801e-01 5.242024e-01 2.947655e+00 179 179 189
3.830806e-01 5.203742e-01 2.944336e+00 153 153 165
3.069357e-01 4.897255e-01 2.880174e+00 69 69 97
2.954148e-01 4.847517e-01 2.868592e+00 125 107 129
4.108701e-01 5.272037e-01 2.944960e+00 47 44 65
4.058919e-01 5.263338e-01 2.946624e+00 146 146 158
4.058919e-01 5.263338e-01 2.946624e+00 146 146 158
4.315871e-01 5.282052e-01 2.923684e+00 114 115 157
4.310965e-01 5.279316e-01 2.923060e+00 39 38 70
4.051358e-01 5.263389e-01 2.947306e+00 155 155 165
4.051358e-01 5.263389e-01 2.947306e+00 155 155 165
3.876805e-01 5.217742e-01 2.945331e+00 158 149 175
3.617854e-01 5.129715e-01 2.931881e+00 178 163 205
4.545173e-01 5.229140e-01 2.866854e+00 216 207 226
4.140356e-01 5.277345e-01 2.943140e+00 111 111 123
3.567035e-01 5.108884e-01 2.927356e+00 175 172 183
3.353659e-01 5.021094e-01 2.908344e+00 13 16 33
4.009172e-01 5.254930e-01 2.947788e+00 128 130 142
4.005338e-01 5.254450e-01 2.948117e+00 165 167 179
3.954207e-01 5.241912e-01 2.947783e+00 170 170 180
3.848010e-01 5.210999e-01 2.945043e+00 168 162 176
3.627080e-01 5.133471e-01 2.932323e+00 91 75 102
4.252970e-01 5.283991e-01 2.932088e+00 46 46 57
4.045020e-01 5.262536e-01 2.946921e+00 149 147 158
4.045020e-01 5.262536e-01 2.946921e+00 149 147 158
3.384835e-01 5.036374e-01 2.911535e+00 141 141 153
3.138923e-01 4.932109e-01 2.887825e+00 28 22 50
4.461870e-01 5.256284e-01 2.890623e+00 171 174 195
3.894040e-01 5.226018e-01 2.946390e+00 147 146 155
3.604127e-01 5.125608e-01 2.930276e+00 50 40 66
4.326357e-01 5.283460e-01 2.921639e+00 103 123 170
4.107780e-01 5.276593e-01 2.945652e+00 134 136 155
4.107780e-01 5.276593e-01 2.945652e+00 134 136 155
3.681015e-01 5.155688e-01 2.936004e+00 151 155 164
3.889464e-01 5.226194e-01 2.946544e+00 162 161 169
4.246045e-01 5.288152e-01 2.933942e+00 87 87 99
3.749715e-01 5.180916e-01 2.940175e+00 150 156 168
4.301823e-01 5.286620e-01 2.925710e+00 56 44 55
4.171210e-01 5.286812e-01 2.942311e+00 120 127 143
4.171210e-01 5.286812e-01 2.942311e+00 120 127 143
4.069240e-01 5.271183e-01 2.946902e+00 141 140 146
3.495831e-01 5.085591e-01 2.921899e+00 209 220 236
3.085482e-01 4.912300e-01 2.882632e+00 172 166 204
4.015215e-01 5.261223e-01 2.948337e+00 26 29 38
4.296661e-01 5.289396e-01 2.927572e+00 81 69 81
3.707533e-01 5.168905e-01 2.938494e+00 205 211 228
4.574330e-01 5.226304e-01 2.858569e+00 108 108 132
4.409643e-01 5.275681e-01 2.905310e+00 109 116 132
3.498711e-01 5.089087e-01 2.922198e+00 87 94 108
2.960715e-01 4.860992e-01 2.870205e+00 133 121 137
2.960715e-01 4.860992e-01 2.870205e+00 133 121 137
4.470290e-01 5.261455e-01 2.889882e+00 158 160 180
4.260061e-01 5.292255e-01 2.932656e+00 147 146 152
3.613440e-01 5.135492e-01 2.931753e+00 62 50 69
3.050205e-01 4.900548e-01 2.879270e+00 133 129 146
3.010775e-01 4.883163e-01 2.875192e+00 116 111 131
4.208766e-01 5.291013e-01 2.938144e+00 138 133 140
3.090578e-01 4.919975e-01 2.883893e+00 30 23 55
4.425734e-01 5.273936e-01 2.901289e+00 93 90 107
3.996147e-01 5.258907e-01 2.947700e+00 173 173 185
3.779507e-01 5.196916e-01 2.942464e+00 130 129 137
3.019599e-01 4.889156e-01 2.876274e+00 156 153 170
3.446593e-01 5.070987e-01 2.917781e+00 60 59 71
4.270321e-01 5.295430e-01 2.931679e+00 62 57 63
4.333797e-01 5.291329e-01 2.921320e+00 166 193 215
4.199482e-01 5.293141e-01 2.939430e+00 86 83 90
4.199482e-01 5.293141e-01 2.939430e+00 86 83 90
4.098508e-01 5.281401e-01 2.946083e+00 68 72 84
4.537092e-01 5.245803e-01 2.871145e+00 29 32 51
3.358662e-01 5.037410e-01 2.910706e+00 27 23 40
3.132850e-01 4.941497e-01 2.888595e+00 47 40 72
3.993496e-01 5.262166e-01 2.948669e+00 151 147 162
4.247409e-01 5.295787e-01 2.934117e+00 76 68 81
3.611195e-01 5.138747e-01 2.931751e+00 145 135 144
4.474127e-01 5.267184e-01 2.890027e+00 160 162 181
4.183815e-01 5.292042e-01 2.940037e+00 138 137 143
4.470454e-01 5.268331e-01 2.890894e+00 165 171 187
4.451885e-01 5.272915e-01 2.895637e+00 158 160 173
4.447198e-01 5.273491e-01 2.896259e+00 159 163 175
4.355295e-01 5.291104e-01 2.917221e+00 131 139 158
3.895212e-01 5.237058e-01 2.947182e+00 119 113 122
3.679745e-01 5.164246e-01 2.936044e+00 171 174 181
3.297407e-01 5.013647e-01 2.904946e+00 48 51 68
4.459271e-01 5.272413e-01 2.894034e+00 161 167 180
4.455845e-01 5.273333e-01 2.895066e+00 165 167 180
4.016256e-01 5.269453e-01 2.948371e+00 71 77 75
4.341201e-01 5.295123e-01 2.920537e+00 173 147 176
3.339167e-01 5.033325e-01 2.909186e+00 132 125 143
3.890210e-01 5.237853e-01 2.947328e+00 148 144 150
3.859577e-01 5.228093e-01 2.946045e+00 141 123 142
3.759574e-01 5.196418e-01 2.942125e+00 156 162 174
3.285916e-01 5.010854e-01 2.903781e+00 70 74 93
3.695011e-01 5.173683e-01 2.937675e+00 163 165 177
3.207956e-01 4.979315e-01 2.896516e+00 43 37 51
3.207956e-01 4.979315e-01 2.896516e+00 43 37 51
3.728795e-01 5.185253e-01 2.939522e+00 227 230 245
4.269133e-01 5.302909e-01 2.932980e+00 157 152 158
4.264443e-01 5.302038e-01 2.933058e+00 174 172 177
4.264443e-01 5.302038e-01 2.933058e+00 174 172 177
4.242170e-01 5.302235e-01 2.936022e+00 63 61 82
4.237087e-01 5.301448e-01 2.936229e+00 70 66 88
4.164603e-01 5.295272e-01 2.942187e+00 146 148 163
4.395207e-01 5.290407e-01 2.909961e+00 142 145 160
4.392344e-01 5.292205e-01 2.911248e+00 141 144 159
4.205780e-01 5.300266e-01 2.939527e+00 151 146 152
4.205780e-01 5.300266e-01 2.939527e+00 151 146 152
4.195557e-01 5.301299e-01 2.941241e+00 155 152 159
3.803364e-01 5.212266e-01 2.943955e+00 134 133 141
3.803364e-01 5.212266e-01 2.943955e+00 134 133 141
3.283407e-01 5.013558e-01 2.904338e+00 53 56 76
4.106780e-01 5.291719e-01 2.947113e+00 69 73 82
3.659987e-01 5.163204e-01 2.935633e+00 59 56 63
4.158659e-01 5.298030e-01 2.943643e+00 131 134 149
4.359005e-01 5.297056e-01 2.917399e+00 130 135 157
3.973768e-01 5.264210e-01 2.949174e+00 130 130 140
3.500721e-01 5.103777e-01 2.923851e+00 116 119 124
3.526097e-01 5.113118e-01 2.925322e+00 123 122 128
4.175299e-01 5.300199e-01 2.941991e+00 95 99 111
4.175299e-01 5.300199e-01 2.941991e+00 95 99 111
3.865333e-01 5.234232e-01 2.946351e+00 69 57 72
3.400444e-01 5.064599e-01 2.915343e+00 77 71 78
4.267881e-01 5.302662e-01 2.931300e+00 64 59 63
4.173536e-01 5.300715e-01 2.942360e+00 140 146 158
3.885064e-01 5.241256e-01 2.947467e+00 153 153 155
3.885064e-01 5.241256e-01 2.947467e+00 153 153 155
3.843596e-01 5.229044e-01 2.946158e+00 126 125 130
4.138552e-01 5.297875e-01 2.944901e+00 119 117 131
4.138552e-01 5.297875e-01 2.944901e+00 119 117 131
4.016872e-01 5.277839e-01 2.949715e+00 54 53 58
3.142844e-01 4.958443e-01 2.890838e+00 110 99 115
3.142844e-01 4.958443e-01 2.890838e+00 110 99 115
4.354294e-01 5.301183e-01 2.918843e+00 97 103 119
3.168780e-01 4.970837e-01 2.893666e+00 42 32 45
3.972265e-01 5.266803e-01 2.948958e+00 131 130 138
3.181519e-01 4.975936e-01 2.894649e+00 112 106 116
4.268322e-01 5.308200e-01 2.933107e+00 153 148 154
3.665858e-01 5.170713e-01 2.936682e+00 123 118 125
3.619571e-01 5.155376e-01 2.934330e+00 146 136 144
4.198875e-01 5.306756e-01 2.941098e+00 139 136 143
4.452078e-01 5.286278e-01 2.897423e+00 148 152 161
4.452078e-01 5.286278e-01 2.897423e+00 148 152 161
4.326407e-01 5.306544e-01 2.924491e+00 94 106 134
4.361257e-01 5.305230e-01 2.918941e+00 122 125 140
3.211257e-01 4.990847e-01 2.898040e+00 151 145 155
4.158550e-01 5.303963e-01 2.943951e+00 144 141 152
3.751880e-01 5.202288e-01 2.941586e+00 151 155 167
3.331185e-01 5.041333e-01 2.909381e+00 128 121 134
4.097290e-01 5.295488e-01 2.947256e+00 101 98 105
3.665964e-01 5.174859e-01 2.937675e+00 55 50 56
3.665964e-01 5.174859e-01 2.937675e+00 55 50 56
4.470557e-01 5.283718e-01 2.892793e+00 156 158 170
3.862296e-01 5.240850e-01 2.947653e+00 119 116 123
4.069177e-01 5.291185e-01 2.948020e+00 119 117 120
3.169521e-01 4.975403e-01 2.893912e+00 39 29 43
4.310970e-01 5.310562e-01 2.927307e+00 49 42 54
4.199901e-01 5.309230e-01 2.940713e+00 92 89 96
4.188397e-01 5.308628e-01 2.941905e+00 106 105 110
4.188397e-01 5.308628e-01 2.941905e+00 106 105 110
3.973046e-01 5.271219e-01 2.949442e+00 126 124 132
3.891491e-01 5.249693e-01 2.948204e+00 149 144 148
3.884697e-01 5.247100e-01 2.947628e+00 153 151 153
3.880474e-01 5.246137e-01 2.947761e+00 148 151 150
3.847688e-01 5.235336e-01 2.946098e+00 126 124 129
3.722847e-01 5.196815e-01 2.941415e+00 101 103 116
4.454288e-01 5.290609e-01 2.897729e+00 109 113 122
4.454288e-01 5.290609e-01 2.897729e+00 109 113 122
4.454288e-01 5.290609e-01 2.897729e+00 109 113 122
4.102702e-01 5.298959e-01 2.947198e+00 139 138 146
4.446256e-01 5.292522e-01 2.899351e+00 89 93 102
4.313696e-01 5.312849e-01 2.927421e+00 130 122 136
4.264770e-01 5.313831e-01 2.934059e+00 156 151 155
4.260670e-01 5.313982e-01 2.934555e+00 162 157 161
3.959712e-01 5.269741e-01 2.949441e+00 161 161 163
3.309795e-01 5.037134e-01 2.907726e+00 154 144 152
4.198689e-01 5.312636e-01 2.941428e+00 164 162 167
4.191452e-01 5.312657e-01 2.942336e+00 161 159 164
3.868674e-01 5.245475e-01 2.947698e+00 70 69 75
4.186930e-01 5.312035e-01 2.942566e+00 157 155 160
4.182286e-01 5.311437e-01 2.942861e+00 155 154 161
3.877182e-01 5.247537e-01 2.947607e+00 84 85 87
2.910948e-01 4.869265e-01 2.868160e+00 141 146 166
4.448795e-01 5.296283e-01 2.899582e+00 142 146 155
3.806047e-01 5.227384e-01 2.945317e+00 140 134 144
3.352934e-01 5.057661e-01 2.912191e+00 155 152 164
3.160924e-01 4.977931e-01 2.893881e+00 69 55 68
4.452230e-01 5.295257e-01 2.898530e+00 151 154 163
4.452230e-01 5.295257e-01 2.898530e+00 151 154 163
4.452230e-01 5.295257e-01 2.898530e+00 151 154 163
4.326019e-01 5.315079e-01 2.925222e+00 133 129 143
3.954068e-01 5.271603e-01 2.949819e+00 79 78 83
3.001616e-01 4.911373e-01 2.878028e+00 161 168 184
4.269684e-01 5.316670e-01 2.933262e+00 70 61 66
4.263827e-01 5.318555e-01 2.935040e+00 115 110 114
3.748468e-01 5.211549e-01 2.943085e+00 53 54 68
3.786986e-01 5.221714e-01 2.943598e+00 81 79 84
3.786986e-01 5.221714e-01 2.943598e+00 81 79 84
3.609360e-01 5.159447e-01 2.932828e+00 64 58 62
3.795759e-01 5.228146e-01 2.945387e+00 135 133 138
3.000262e-01 4.914935e-01 2.878437e+00 84 92 109
3.000262e-01 4.914935e-01 2.878437e+00 84 92 109
4.474382e-01 5.294607e-01 2.893445e+00 153 151 165
4.450993e-01 5.301465e-01 2.899894e+00 103 106 115
4.375917e-01 5.315421e-01 2.917166e+00 81 79 90
4.375917e-01 5.315421e-01 2.917166e+00 81 79 90
2.917438e-01 4.880474e-01 2.869749e+00 157 159 182
4.110628e-01 5.308860e-01 2.947619e+00 116 115 135
4.110628e-01 5.308860e-01 2.947619e+00 116 115 135
3.188039e-01 4.997269e-01 2.897677e+00 141 138 152
4.467669e-01 5.301618e-01 2.896143e+00 160 158 169
4.456739e-01 5.304448e-01 2.899119e+00 154 157 166
4.142651e-01 5.315921e-01 2.946149e+00 180 179 188
4.449426e-01 5.306796e-01 2.900969e+00 145 148 157
3.964863e-01 5.281696e-01 2.950237e+00 164 159 163
4.442310e-01 5.309189e-01 2.902977e+00 137 140 149
4.439053e-01 5.311088e-01 2.904217e+00 143 143 153
4.434888e-01 5.311223e-01 2.904748e+00 143 142 150
4.434888e-01 5.311223e-01 2.904748e+00 143 142 150
4.324248e-01 5.325374e-01 2.926755e+00 103 97 104
4.324248e-01 5.325374e-01 2.926755e+00 103 97 104
4.213019e-01 5.325643e-01 2.941408e+00 152 147 153
4.469407e-01 5.304089e-01 2.895994e+00 105 105 117
4.466281e-01 5.306491e-01 2.897339e+00 103 103 113
4.458847e-01 5.307914e-01 2.899200e+00 107 110 119
4.462459e-01 5.307165e-01 2.898177e+00 103 103 115
4.455235e-01 5.309136e-01 2.900044e+00 106 107 116
3.950370e-01 5.281212e-01 2.950497e+00 62 57 63
4.542940e-01 5.286102e-01 2.875824e+00 48 51 69
4.447496e-01 5.310734e-01 2.901712e+00 95 96 105
4.447496e-01 5.310734e-01 2.901712e+00 95 96 105
4.436900e-01 5.313631e-01 2.904530e+00 95 95 104
4.433103e-01 5.314875e-01 2.905526e+00 96 96 104
4.433103e-01 5.314875e-01 2.905526e+00 96 96 104
4.460904e-01 5.312076e-01 2.899403e+00 160 160 172
4.457179e-01 5.312739e-01 2.900195e+00 161 161 171
4.131680e-01 5.324438e-01 2.947348e+00 142 130 144
4.538424e-01 5.297892e-01 2.879050e+00 59 65 84
3.329628e-01 5.071741e-01 2.912451e+00 154 145 148
4.536337e-01 5.300822e-01 2.879860e+00 131 136 155
4.547263e-01 5.294749e-01 2.873970e+00 53 55 67
3.954190e-01 5.294396e-01 2.951310e+00 145 138 142
4.158383e-01 5.335900e-01 2.946584e+00 121 119 122
4.581774e-01 5.297753e-01 2.867858e+00 107 110 127
4.355593e-01 5.345203e-01 2.923876e+00 82 77 81
4.355593e-01 5.345203e-01 2.923876e+00 82 77 81
3.330141e-01 5.084122e-01 2.913571e+00 162 160 165
3.360512e-01 5.096716e-01 2.916261e+00 180 177 184
2.953469e-01 4.931265e-01 2.877602e+00 73 60 77
4.475785e-01 5.331824e-01 2.898883e+00 151 154 163
4.155855e-01 5.342665e-01 2.947004e+00 180 179 185
3.261372e-01 5.062046e-01 2.908037e+00 110 107 118
3.261372e-01 5.062046e-01 2.908037e+00 110 107 118
4.476155e-01 5.334619e-01 2.898747e+00 36 38 50
4.476155e-01 5.334619e-01 2.898747e+00 36 38 50
3.561359e-01 5.180897e-01 2.933676e+00 54 49 55
4.469433e-01 5.335692e-01 2.900199e+00 159 161 173
3.334633e-01 5.099259e-01 2.915220e+00 110 108 113
3.951955e-01 5.311726e-01 2.952225e+00 56 50 56
3.270505e-01 5.076968e-01 2.910415e+00 117 114 123
4.133799e-01 5.346128e-01 2.947260e+00 189 187 201
4.119728e-01 5.345768e-01 2.949035e+00 145 142 156
3.743429e-01 5.251912e-01 2.945577e+00 193 192 208
4.475931e-01 5.345681e-01 2.900684e+00 157 159 172
3.374325e-01 5.120057e-01 2.919606e+00 103 100 107
4.043060e-01 5.336362e-01 2.951972e+00 100 94 96
4.477958e-01 5.348336e-01 2.900358e+00 43 42 56
4.465231e-01 5.353338e-01 2.904049e+00 162 166 178
4.461024e-01 5.354709e-01 2.905233e+00 160 162 174
3.416701e-01 5.142450e-01 2.923711e+00 160 157 162
3.031145e-01 4.989872e-01 2.888021e+00 51 47 61
4.188079e-01 5.365660e-01 2.946529e+00 89 79 87
4.465414e-01 5.358835e-01 2.904901e+00 101 105 118
3.977424e-01 5.330517e-01 2.953837e+00 131 126 132
4.268968e-01 5.374183e-01 2.939202e+00 142 132 135
4.167445e-01 5.365534e-01 2.947934e+00 162 156 160
3.868511e-01 5.299848e-01 2.950521e+00 93 87 86
3.020773e-01 4.991586e-01 2.887982e+00 28 25 35
4.194975e-01 5.370227e-01 2.945540e+00 95 89 91
4.476234e-01 5.364048e-01 2.903507e+00 109 113 125
4.339607e-01 5.380225e-01 2.931037e+00 123 122 127
3.280990e-01 5.101462e-01 2.913363e+00 114 111 119
4.096448e-01 5.360284e-01 2.951188e+00 82 73 78
3.858234e-01 5.305936e-01 2.950992e+00 145 136 139
3.877716e-01 5.311735e-01 2.951424e+00 94 88 87
3.877716e-01 5.311735e-01 2.951424e+00 94 88 87
3.531531e-01 5.203449e-01 2.934135e+00 70 61 64
4.556030e-01 5.361406e-01 2.886230e+00 33 33 43
3.825682e-01 5.300510e-01 2.949975e+00 106 97 98
4.458318e-01 5.379184e-01 2.909477e+00 159 159 171
4.269965e-01 5.390431e-01 2.940870e+00 145 135 134
3.403486e-01 5.162368e-01 2.925610e+00 149 145 146
3.386864e-01 5.154569e-01 2.923297e+00 137 132 136
3.418633e-01 5.167982e-01 2.925780e+00 62 60 63
4.268729e-01 5.390272e-01 2.939425e+00 75 65 66
3.088543e-01 5.043524e-01 2.897679e+00 186 186 195
4.215570e-01 5.390580e-01 2.946244e+00 73 67 71
3.867453e-01 5.319981e-01 2.952049e+00 66 60 64
4.066186e-01 5.368426e-01 2.952887e+00 69 63 67
3.452857e-01 5.187231e-01 2.929448e+00 149 144 145
4.331436e-01 5.400221e-01 2.933803e+00 65 63 68
3.378371e-01 5.163291e-01 2.924095e+00 123 118 124
4.497279e-01 5.389057e-01 2.902583e+00 112 111 125
4.066498e-01 5.374788e-01 2.953224e+00 93 84 88
4.527836e-01 5.383852e-01 2.894349e+00 21 25 34
4.088109e-01 5.380063e-01 2.952257e+00 89 83 83
4.463984e-01 5.397910e-01 2.910431e+00 173 179 192
4.330295e-01 5.407491e-01 2.934414e+00 92 90 94
3.555748e-01 5.232281e-01 2.937406e+00 166 165 163
4.167689e-01 5.395600e-01 2.949210e+00 92 87 91
4.600028e-01 5.371574e-01 2.875174e+00 90 92 107
3.851921e-01 5.327793e-01 2.952033e+00 82 73 74
4.609972e-01 5.372323e-01 2.872953e+00 141 141 161
3.673039e-01 5.276831e-01 2.945245e+00 106 101 105
3.673039e-01 5.276831e-01 2.945245e+00 106 101 105
4.495933e-01 5.398034e-01 2.903239e+00 118 120 132
4.093573e-01 5.388787e-01 2.953634e+00 146 138 136
3.863342e-01 5.332692e-01 2.952110e+00 149 138 141
3.447693e-01 5.202036e-01 2.930612e+00 96 92 91
3.854354e-01 5.334411e-01 2.953066e+00 73 63 64
4.489814e-01 5.405842e-01 2.906887e+00 52 61 68
3.441252e-01 5.202169e-01 2.930421e+00 104 99 103
4.514012e-01 5.409970e-01 2.901179e+00 29 32 39
4.212748e-01 5.417154e-01 2.947290e+00 69 59 67
3.398067e-01 5.198247e-01 2.927784e+00 85 79 83
3.686191e-01 5.297300e-01 2.947043e+00 84 80 81
4.056961e-01 5.396047e-01 2.953968e+00 100 91 94
3.684115e-01 5.299615e-01 2.947074e+00 133 129 130
3.684115e-01 5.299615e-01 2.947074e+00 133 129 130
3.543603e-01 5.254771e-01 2.939070e+00 112 106 110
4.617325e-01 5.397739e-01 2.875042e+00 24 23 37
4.166146e-01 5.417236e-01 2.950250e+00 91 86 90
3.371347e-01 5.198600e-01 2.927484e+00 85 80 86
3.398796e-01 5.209474e-01 2.929643e+00 77 70 77
4.350462e-01 5.439260e-01 2.935359e+00 96 95 101
3.786333e-01 5.336978e-01 2.952321e+00 111 106 110
4.165121e-01 5.421082e-01 2.950102e+00 105 96 99
4.165121e-01 5.421082e-01 2.950102e+00 105 96 99
3.434790e-01 5.228839e-01 2.933197e+00 69 60 63
3.454901e-01 5.235150e-01 2.933965e+00 72 63 64
4.491172e-01 5.433457e-01 2.909082e+00 138 141 146
3.665613e-01 5.304788e-01 2.946506e+00 113 104 107
4.186776e-01 5.431532e-01 2.950212e+00 84 78 78
4.267846e-01 5.441440e-01 2.944370e+00 144 134 134
3.636865e-01 5.300579e-01 2.946016e+00 141 135 139
4.266697e-01 5.444593e-01 2.944096e+00 132 122 121
4.167604e-01 5.435379e-01 2.951950e+00 100 91 94
4.167604e-01 5.435379e-01 2.951950e+00 100 91 94
3.951137e-01 5.392204e-01 2.955739e+00 51 48 51
3.894065e-01 5.376748e-01 2.953857e+00 133 122 126
3.253956e-01 5.175602e-01 2.919697e+00 87 87 95
3.857442e-01 5.371243e-01 2.954930e+00 134 129 126
3.358308e-01 5.215985e-01 2.928782e+00 166 162 167
3.756438e-01 5.345146e-01 2.951430e+00 145 144 150
4.166019e-01 5.441213e-01 2.952693e+00 147 138 141
3.712488e-01 5.335183e-01 2.951012e+00 186 184 189
4.055722e-01 5.420354e-01 2.954963e+00 129 128 130
3.577908e-01 5.294551e-01 2.944317e+00 93 87 89
4.617241e-01 5.432305e-01 2.881304e+00 27 29 42
3.611361e-01 5.305104e-01 2.945974e+00 150 146 147
3.534780e-01 5.280833e-01 2.941506e+00 105 97 102
3.540952e-01 5.283952e-01 2.941885e+00 93 87 91
3.540952e-01 5.283952e-01 2.941885e+00 93 87 91
3.297635e-01 5.201693e-01 2.924918e+00 163 165 177
3.536235e-01 5.283988e-01 2.941531e+00 140 134 138
4.627806e-01 5.445067e-01 2.880703e+00 75 79 88
4.487983e-01 5.469798e-01 2.915471e+00 64 68 69
4.162396e-01 5.454322e-01 2.951799e+00 116 110 114
4.069600e-01 5.436956e-01 2.953207e+00 49 43 47
4.085533e-01 5.442246e-01 2.954123e+00 57 50 57
3.374506e-01 5.247826e-01 2.932902e+00 121 116 120
4.152166e-01 5.457049e-01 2.952798e+00 77 72 78
4.102994e-01 5.449715e-01 2.955233e+00 103 102 105
4.626577e-01 5.455714e-01 2.881894e+00 63 70 78
3.412240e-01 5.267012e-01 2.936764e+00 110 106 112
4.249325e-01 5.477661e-01 2.949011e+00 150 141 144
4.096530e-01 5.450697e-01 2.954097e+00 75 70 76
4.202708e-01 5.473528e-01 2.951696e+00 107 98 97
3.252862e-01 5.215325e-01 2.924103e+00 114 111 118
4.102667e-01 5.458367e-01 2.954829e+00 171 168 173
4.270090e-01 5.486570e-01 2.947453e+00 149 140 143
3.335723e-01 5.251072e-01 2.932125e+00 133 135 146
4.273471e-01 5.488565e-01 2.947742e+00 95 89 91
4.111636e-01 5.467456e-01 2.954084e+00 88 85 94
4.236735e-01 5.491830e-01 2.950842e+00 128 120 121
4.257745e-01 5.493659e-01 2.948542e+00 145 137 134
4.149151e-01 5.480430e-01 2.954423e+00 146 144 149
4.215486e-01 5.490674e-01 2.950519e+00 146 138 136
3.426339e-01 5.297146e-01 2.939934e+00 101 95 97
4.158393e-01 5.481836e-01 2.952683e+00 107 103 104
4.261792e-01 5.502027e-01 2.949649e+00 80 74 74
4.329035e-01 5.509140e-01 2.943833e+00 90 81 84
4.299328e-01 5.508376e-01 2.946485e+00 86 80 82
4.364619e-01 5.515517e-01 2.940944e+00 77 72 78
4.376857e-01 5.527426e-01 2.940434e+00 115 114 122
4.065952e-01 5.479827e-01 2.954593e+00 87 82 84
4.132470e-01 5.494723e-01 2.954282e+00 159 154 160
4.119657e-01 5.494696e-01 2.955717e+00 175 170 177
4.133316e-01 5.501945e-01 2.955955e+00 101 96 102
4.378318e-01 5.537378e-01 2.942142e+00 111 109 120
4.173402e-01 5.512215e-01 2.953565e+00 108 98 99
4.173402e-01 5.512215e-01 2.953565e+00 108 98 99
4.347699e-01 5.540824e-01 2.945534e+00 84 78 82
4.432526e-01 5.545259e-01 2.935282e+00 143 143 151
4.488383e-01 5.543802e-01 2.925296e+00 81 101 110
4.376703e-01 5.551946e-01 2.943012e+00 102 101 109
4.218187e-01 5.548174e-01 2.954090e+00 115 107 105
