ply
format ascii 1.0
element face 0
property list uchar int vertex_indices
element vertex 964
property float x
property float y
property float z
property uchar diffuse_red
property uchar diffuse_green
property uchar diffuse_blue
end_header
4.243317e-01 5.567046e-01 3.049623e+00 111 106 110
4.177176e-01 5.589768e-01 3.048788e+00 95 92 99
4.195388e-01 5.590499e-01 3.048802e+00 73 72 80
4.532597e-01 5.479801e-01 3.053666e+00 174 169 173
4.494348e-01 5.496244e-01 3.053257e+00 155 152 163
4.499242e-01 5.497203e-01 3.053186e+00 90 87 98
4.403030e-01 5.538697e-01 3.052174e+00 106 103 114
4.373058e-01 5.558599e-01 3.051174e+00 90 89 94
3.965881e-01 5.724927e-01 3.048822e+00 169 168 176
3.838596e-01 5.774237e-01 3.049324e+00 97 96 104
3.743576e-01 5.803777e-01 3.050327e+00 161 158 165
4.032946e-01 5.719148e-01 3.048393e+00 124 122 135
3.905715e-01 5.764878e-01 3.048689e+00 157 155 169
3.762608e-01 5.809395e-01 3.050267e+00 120 114 121
3.526347e-01 5.891858e-01 3.049659e+00 119 134 163
4.184004e-01 5.683291e-01 3.049510e+00 160 154 164
3.746457e-01 5.832549e-01 3.050662e+00 126 123 130
4.377370e-01 5.629134e-01 3.051826e+00 158 156 160
3.867053e-01 5.800004e-01 3.049274e+00 192 194 200
4.217737e-01 5.702973e-01 3.049994e+00 86 81 87
3.843187e-01 5.828361e-01 3.049934e+00 140 131 134
4.107132e-01 5.747300e-01 3.049284e+00 79 77 91
4.082160e-01 5.755283e-01 3.049332e+00 184 182 193
4.082160e-01 5.755283e-01 3.049332e+00 184 182 193
3.839730e-01 5.832813e-01 3.049988e+00 75 64 68
4.652315e-01 5.571148e-01 3.053709e+00 163 189 224
4.034129e-01 5.785722e-01 3.050496e+00 84 83 98
4.200854e-01 5.731641e-01 3.050243e+00 60 53 60
3.777530e-01 5.878889e-01 3.050863e+00 178 176 181
3.815012e-01 5.873730e-01 3.050718e+00 191 192 198
4.105513e-01 5.783979e-01 3.049680e+00 150 150 160
4.105513e-01 5.783979e-01 3.049680e+00 150 150 160
4.365682e-01 5.692842e-01 3.054035e+00 140 139 145
4.075325e-01 5.771278e-01 3.060213e+00 67 67 79
3.974745e-01 5.833503e-01 3.049707e+00 159 154 159
3.838531e-01 5.923714e-01 3.052329e+00 82 81 86
4.497934e-01 5.716576e-01 3.055214e+00 110 109 117
3.663105e-01 6.019636e-01 3.055580e+00 75 74 80
4.172691e-01 5.864259e-01 3.053732e+00 101 100 105
4.401370e-01 5.899539e-01 3.055363e+00 115 117 130
3.706051e-01 6.150768e-01 3.051429e+00 120 119 127
3.794984e-01 6.127500e-01 3.051986e+00 67 66 71
4.523416e-01 5.877192e-01 3.055196e+00 111 111 121
3.824038e-01 6.148704e-01 3.050052e+00 139 138 144
3.913150e-01 6.116429e-01 3.052840e+00 146 145 151
4.520014e-01 5.913145e-01 3.055288e+00 134 133 139
3.867999e-01 6.142757e-01 3.052460e+00 119 119 126
4.145349e-01 6.046302e-01 3.054461e+00 102 110 123
3.932429e-01 6.123399e-01 3.052955e+00 112 112 120
3.932429e-01 6.123399e-01 3.052955e+00 112 112 120
4.238740e-01 6.020607e-01 3.055054e+00 156 159 174
4.156127e-01 5.982344e-01 3.069048e+00 68 72 81
3.737340e-01 6.204372e-01 3.051041e+00 136 134 147
3.985728e-01 6.118174e-01 3.053318e+00 180 183 193
4.435812e-01 5.961788e-01 3.055489e+00 150 149 155
3.872205e-01 6.161811e-01 3.052504e+00 112 111 117
4.548755e-01 5.929054e-01 3.054954e+00 111 109 119
4.020879e-01 6.115918e-01 3.054154e+00 85 84 91
4.012150e-01 6.123720e-01 3.053553e+00 165 164 170
3.969791e-01 6.141596e-01 3.053312e+00 128 131 136
4.098990e-01 6.094869e-01 3.054257e+00 170 169 175
4.666100e-01 5.910695e-01 3.053548e+00 150 150 162
4.377612e-01 6.002912e-01 3.055420e+00 90 90 98
4.394766e-01 5.998704e-01 3.055554e+00 41 38 47
4.433873e-01 5.987493e-01 3.055505e+00 40 40 50
4.510861e-01 5.967725e-01 3.054742e+00 142 142 148
4.002045e-01 6.148280e-01 3.053479e+00 147 146 154
4.313666e-01 6.038199e-01 3.055394e+00 150 145 152
4.654666e-01 5.932445e-01 3.053764e+00 136 136 144
4.531354e-01 5.975237e-01 3.054382e+00 72 70 75
4.620750e-01 5.950049e-01 3.054014e+00 127 126 134
4.720736e-01 5.919055e-01 3.052739e+00 108 124 154
4.505215e-01 5.988289e-01 3.055224e+00 147 144 151
4.320095e-01 6.070262e-01 3.055483e+00 95 98 112
4.319720e-01 6.077552e-01 3.055570e+00 119 122 137
4.058687e-01 6.172116e-01 3.054303e+00 156 159 168
4.632078e-01 5.986693e-01 3.053820e+00 138 134 148
4.610776e-01 6.021308e-01 3.053987e+00 54 54 66
4.337167e-01 6.148283e-01 3.055357e+00 211 227 240
4.351113e-01 6.189809e-01 3.055094e+00 213 225 243
4.745015e-01 6.148552e-01 3.050220e+00 194 217 248
4.746115e-01 6.150869e-01 3.050176e+00 108 133 164
4.753042e-01 6.179088e-01 3.049590e+00 109 129 160
4.438941e-01 6.329943e-01 3.052575e+00 111 112 130
4.447400e-01 6.378634e-01 3.051708e+00 210 219 243
4.539902e-01 4.783403e-01 3.035006e+00 102 98 112
4.138632e-01 4.971139e-01 3.048125e+00 101 96 103
3.671167e-01 5.169694e-01 3.051499e+00 69 53 65
3.275667e-01 5.340160e-01 3.052406e+00 198 203 225
3.300238e-01 5.342999e-01 3.052709e+00 187 200 223
4.136921e-01 5.096255e-01 3.047977e+00 153 144 147
4.130254e-01 5.136231e-01 3.046745e+00 163 157 161
4.054192e-01 5.168081e-01 3.048039e+00 141 136 140
4.044591e-01 5.186572e-01 3.049113e+00 102 96 98
3.485296e-01 5.401670e-01 3.052201e+00 115 106 109
3.750171e-01 5.316444e-01 3.049169e+00 154 147 153
4.188013e-01 5.172811e-01 3.048196e+00 145 131 131
3.730395e-01 5.368762e-01 3.049143e+00 58 53 60
4.093257e-01 5.277230e-01 3.063689e+00 183 182 190
4.125076e-01 5.256908e-01 3.053301e+00 165 165 172
4.050648e-01 5.280265e-01 3.050740e+00 121 115 113
3.954552e-01 5.323172e-01 3.048706e+00 154 144 145
3.885177e-01 5.355745e-01 3.047974e+00 108 98 96
4.039923e-01 5.330868e-01 3.049690e+00 143 134 137
3.358433e-01 5.621100e-01 3.054376e+00 176 210 238
3.455263e-01 5.641704e-01 3.052539e+00 89 88 94
3.963516e-01 5.473511e-01 3.060645e+00 108 105 108
3.977230e-01 5.469229e-01 3.060806e+00 67 61 63
3.910840e-01 5.496631e-01 3.060399e+00 118 113 119
3.673003e-01 5.580250e-01 3.049426e+00 141 141 150
3.769917e-01 5.553190e-01 3.048093e+00 104 103 111
4.010876e-01 5.481281e-01 3.047905e+00 170 167 174
3.866642e-01 5.528220e-01 3.047571e+00 149 146 157
3.655348e-01 5.599191e-01 3.049674e+00 164 159 165
3.632114e-01 5.608341e-01 3.049894e+00 169 168 176
4.167426e-01 5.437249e-01 3.048743e+00 160 157 164
3.996915e-01 5.496104e-01 3.047841e+00 49 48 54
4.499511e-01 5.330734e-01 3.053079e+00 134 128 138
3.888222e-01 5.536870e-01 3.047455e+00 51 46 53
4.073628e-01 5.479945e-01 3.048009e+00 169 167 172
4.266886e-01 5.417475e-01 3.049948e+00 125 122 131
3.999535e-01 5.510680e-01 3.048011e+00 134 128 132
4.514314e-01 5.349226e-01 3.053186e+00 147 146 152
4.275122e-01 5.438086e-01 3.049958e+00 140 131 136
4.386038e-01 5.401214e-01 3.051673e+00 116 114 119
3.916544e-01 5.565035e-01 3.047646e+00 105 98 105
4.054587e-01 5.529067e-01 3.047644e+00 144 138 142
4.519537e-01 5.386906e-01 3.053391e+00 185 184 192
3.513079e-01 5.711067e-01 3.057272e+00 95 94 99
3.848644e-01 5.625192e-01 3.047728e+00 118 112 114
3.799625e-01 5.665184e-01 3.048258e+00 63 62 68
4.317372e-01 5.505848e-01 3.050255e+00 100 97 99
4.105807e-01 5.605412e-01 3.048339e+00 170 168 173
4.041836e-01 5.632396e-01 3.047872e+00 143 141 146
4.075052e-01 5.640917e-01 3.048088e+00 139 138 146
3.491268e-01 5.859014e-01 3.049273e+00 157 177 201
3.976607e-01 5.710608e-01 3.050991e+00 187 185 198
4.457314e-01 5.549116e-01 3.053374e+00 107 109 121
3.723730e-01 5.796237e-01 3.050230e+00 155 155 167
4.051664e-01 5.697776e-01 3.048112e+00 115 117 130
4.061901e-01 5.707162e-01 3.048354e+00 139 137 150
3.928965e-01 5.785450e-01 3.049015e+00 98 97 105
3.783273e-01 5.836579e-01 3.050375e+00 152 141 145
4.294666e-01 5.676259e-01 3.050851e+00 174 172 177
4.077825e-01 5.749779e-01 3.049231e+00 137 134 141
4.098533e-01 5.745866e-01 3.049433e+00 104 101 112
3.993318e-01 5.784530e-01 3.049200e+00 159 158 166
4.152041e-01 5.749699e-01 3.050850e+00 156 158 170
4.446662e-01 5.652628e-01 3.053029e+00 89 84 81
4.446662e-01 5.652628e-01 3.053029e+00 89 84 81
4.504996e-01 5.635539e-01 3.053872e+00 164 159 165
4.507802e-01 5.635617e-01 3.053766e+00 96 91 97
4.113950e-01 5.774225e-01 3.049618e+00 127 125 136
3.778223e-01 5.883343e-01 3.051089e+00 149 147 152
4.007760e-01 5.815693e-01 3.049629e+00 98 87 91
4.435841e-01 5.675916e-01 3.052904e+00 170 170 178
3.785441e-01 5.894019e-01 3.051175e+00 151 149 156
4.103665e-01 5.802357e-01 3.049747e+00 73 73 85
3.786480e-01 5.951424e-01 3.052037e+00 92 91 97
4.018620e-01 5.912612e-01 3.052943e+00 74 73 78
4.269822e-01 5.840449e-01 3.053785e+00 123 120 129
4.530717e-01 5.815148e-01 3.054987e+00 135 134 144
4.500266e-01 5.840501e-01 3.055273e+00 157 159 171
4.408909e-01 5.872360e-01 3.055328e+00 58 62 73
4.514021e-01 5.847674e-01 3.055151e+00 40 38 51
3.904394e-01 6.093034e-01 3.049507e+00 85 84 95
4.185356e-01 5.986688e-01 3.055435e+00 215 229 241
3.864716e-01 6.111949e-01 3.052399e+00 185 185 194
4.227439e-01 5.981740e-01 3.054964e+00 138 155 175
3.738198e-01 6.157263e-01 3.051921e+00 151 149 160
3.738198e-01 6.157263e-01 3.051921e+00 151 149 160
4.227989e-01 5.992335e-01 3.054863e+00 73 80 97
4.521353e-01 5.901363e-01 3.055288e+00 77 76 84
3.711293e-01 6.181123e-01 3.051130e+00 130 130 140
3.935612e-01 6.112304e-01 3.051305e+00 106 103 110
4.416763e-01 5.936870e-01 3.055647e+00 71 71 79
4.427448e-01 5.958249e-01 3.050991e+00 34 33 41
4.425924e-01 5.959698e-01 3.051032e+00 130 129 136
4.199568e-01 6.024140e-01 3.054868e+00 140 143 160
3.801815e-01 6.176463e-01 3.049991e+00 182 180 191
3.799493e-01 6.179587e-01 3.050042e+00 180 179 187
3.936474e-01 6.126751e-01 3.053052e+00 26 26 34
3.856142e-01 6.156791e-01 3.052375e+00 138 139 144
4.001824e-01 6.106339e-01 3.053485e+00 128 131 138
3.732356e-01 6.203455e-01 3.051061e+00 129 126 135
4.270565e-01 6.014200e-01 3.055178e+00 83 86 102
4.270739e-01 6.016094e-01 3.055246e+00 128 131 144
4.401404e-01 5.979802e-01 3.055439e+00 165 163 168
4.451858e-01 5.967273e-01 3.055424e+00 132 129 138
4.515238e-01 5.947552e-01 3.055205e+00 114 114 122
3.968668e-01 6.148014e-01 3.051557e+00 111 112 117
4.088245e-01 6.100417e-01 3.054179e+00 103 102 108
4.532839e-01 5.950597e-01 3.055052e+00 115 116 122
4.474381e-01 5.969637e-01 3.055325e+00 160 159 167
4.565840e-01 5.941473e-01 3.054784e+00 132 127 133
4.181049e-01 6.071115e-01 3.054778e+00 158 157 163
4.204982e-01 6.064296e-01 3.054940e+00 155 156 161
4.174683e-01 6.074915e-01 3.054748e+00 99 98 106
3.807148e-01 6.231059e-01 3.049805e+00 162 161 174
4.546897e-01 5.975764e-01 3.055488e+00 146 145 150
4.469245e-01 6.008605e-01 3.054669e+00 141 136 140
4.447900e-01 6.016698e-01 3.055436e+00 149 144 150
4.641378e-01 5.957938e-01 3.053769e+00 165 165 173
4.041568e-01 6.178967e-01 3.053778e+00 113 113 125
4.019311e-01 6.185509e-01 3.054168e+00 108 107 123
4.053723e-01 6.175290e-01 3.054461e+00 92 94 106
4.394470e-01 6.291879e-01 3.044964e+00 197 218 241
4.762019e-01 6.245060e-01 3.048273e+00 110 113 132
4.791051e-01 6.264928e-01 3.047067e+00 176 204 241
4.744911e-01 6.283955e-01 3.047887e+00 68 70 85
3.761021e-01 5.463181e-01 3.045106e+00 178 178 186
3.929479e-01 4.729796e-01 3.044966e+00 74 85 55
3.683183e-01 5.225449e-01 3.044436e+00 188 188 200
3.550062e-01 5.552589e-01 3.040983e+00 166 164 169
4.164887e-01 4.570940e-01 3.044462e+00 103 104 99
3.914738e-01 4.686797e-01 3.045429e+00 89 86 67
4.015799e-01 4.786140e-01 3.047610e+00 169 181 197
3.612704e-01 4.996786e-01 3.042679e+00 27 47 19
3.612704e-01 4.996786e-01 3.042679e+00 27 47 19
4.035861e-01 5.002054e-01 3.049472e+00 35 34 54
4.564582e-01 5.003727e-01 3.051286e+00 79 84 90
3.539185e-01 4.960475e-01 3.039930e+00 92 110 50
4.469678e-01 4.685983e-01 3.045637e+00 65 84 78
3.548748e-01 5.011739e-01 3.040537e+00 23 41 20
3.724731e-01 4.965696e-01 3.045246e+00 20 34 8
3.273546e-01 5.152138e-01 3.031633e+00 35 41 54
3.273546e-01 5.152138e-01 3.031633e+00 35 41 54
3.592486e-01 5.113869e-01 3.042399e+00 34 33 49
3.212769e-01 5.250527e-01 3.030327e+00 203 220 251
3.828392e-01 5.093167e-01 3.047301e+00 60 57 66
4.248496e-01 4.953244e-01 3.049915e+00 64 53 61
3.908739e-01 5.084411e-01 3.048293e+00 69 56 63
3.791683e-01 5.129299e-01 3.046438e+00 150 142 140
4.340265e-01 4.962590e-01 3.050427e+00 118 117 125
3.593611e-01 5.413605e-01 3.043938e+00 138 136 139
4.429670e-01 4.596985e-01 3.043687e+00 55 58 41
4.429670e-01 4.596985e-01 3.043687e+00 55 58 41
3.914561e-01 4.851409e-01 3.047446e+00 111 140 82
4.388706e-01 4.713752e-01 3.046606e+00 33 50 38
4.388706e-01 4.713752e-01 3.046606e+00 33 50 38
3.225899e-01 5.171249e-01 3.030378e+00 127 143 169
3.323936e-01 5.153978e-01 3.033383e+00 120 140 167
3.546209e-01 5.102536e-01 3.040973e+00 141 157 192
4.322538e-01 4.845118e-01 3.049160e+00 135 151 176
3.700422e-01 5.061097e-01 3.044790e+00 131 138 164
3.840111e-01 5.032974e-01 3.047303e+00 122 133 158
3.840111e-01 5.032974e-01 3.047303e+00 122 133 158
4.345643e-01 4.880720e-01 3.049536e+00 34 43 60
3.560395e-01 5.180212e-01 3.041493e+00 48 38 47
4.629418e-01 4.837202e-01 3.046392e+00 27 30 39
3.996290e-01 5.061624e-01 3.049330e+00 133 128 132
3.996290e-01 5.061624e-01 3.049330e+00 133 128 132
3.480563e-01 5.284612e-01 3.040312e+00 164 159 162
3.992072e-01 5.704461e-01 3.050192e+00 40 42 55
4.373672e-01 4.435206e-01 3.040171e+00 182 181 189
4.505832e-01 4.564525e-01 3.042599e+00 52 53 39
4.070801e-01 4.721581e-01 3.047326e+00 102 100 105
3.960452e-01 4.765365e-01 3.047067e+00 55 62 46
3.841891e-01 4.809426e-01 3.046419e+00 109 125 76
3.867995e-01 4.830612e-01 3.046836e+00 77 85 62
3.490959e-01 5.043594e-01 3.038984e+00 47 59 42
4.499413e-01 4.731911e-01 3.046387e+00 89 114 59
3.721224e-01 5.009760e-01 3.045321e+00 92 117 58
4.247028e-01 4.832054e-01 3.048989e+00 116 133 76
3.439681e-01 5.128289e-01 3.037915e+00 131 140 155
3.508175e-01 5.115910e-01 3.039800e+00 29 23 35
4.249285e-01 4.870046e-01 3.049455e+00 23 24 29
3.734186e-01 5.044433e-01 3.045650e+00 35 30 47
3.734186e-01 5.044433e-01 3.045650e+00 35 30 47
3.241405e-01 5.220855e-01 3.030825e+00 29 28 43
4.131779e-01 4.920327e-01 3.050152e+00 148 154 168
3.178289e-01 5.248849e-01 3.028371e+00 21 13 29
3.491782e-01 5.172504e-01 3.039856e+00 201 217 243
4.481850e-01 4.855473e-01 3.048827e+00 121 127 139
3.341637e-01 5.278342e-01 3.035510e+00 97 90 111
4.023025e-01 5.093326e-01 3.049573e+00 117 108 113
4.444816e-01 5.021327e-01 3.051352e+00 187 191 200
4.602571e-01 5.036385e-01 3.052017e+00 42 48 74
3.920290e-01 4.420850e-01 3.040254e+00 241 39 48
3.896349e-01 4.435558e-01 3.040736e+00 181 162 176
3.818214e-01 4.467971e-01 3.040089e+00 237 39 53
3.777373e-01 4.487844e-01 3.039899e+00 236 39 57
3.644980e-01 4.531885e-01 3.037804e+00 221 37 63
3.899588e-01 4.460862e-01 3.040968e+00 229 26 44
4.005370e-01 4.435411e-01 3.041151e+00 242 38 55
4.005370e-01 4.435411e-01 3.041151e+00 242 38 55
3.775153e-01 4.556526e-01 3.041125e+00 194 18 49
3.775153e-01 4.556526e-01 3.041125e+00 194 18 49
3.821344e-01 4.547023e-01 3.041868e+00 205 5 34
3.821344e-01 4.547023e-01 3.041868e+00 205 5 34
4.018779e-01 4.615539e-01 3.045090e+00 90 90 78
3.904051e-01 4.663761e-01 3.044970e+00 92 93 80
4.211102e-01 4.628689e-01 3.045720e+00 71 78 72
4.384636e-01 4.577735e-01 3.043718e+00 114 123 102
4.184343e-01 4.656914e-01 3.046070e+00 146 145 150
4.263557e-01 4.640681e-01 3.045833e+00 100 103 94
3.897187e-01 4.787815e-01 3.046640e+00 36 39 22
4.273953e-01 4.665257e-01 3.046017e+00 157 163 175
3.206212e-01 5.037591e-01 3.027359e+00 33 54 22
3.986591e-01 4.779692e-01 3.047480e+00 171 175 190
3.867744e-01 4.830128e-01 3.046791e+00 77 85 62
4.067016e-01 4.843887e-01 3.048800e+00 41 55 41
4.022165e-01 4.858392e-01 3.048704e+00 42 59 43
3.258055e-01 5.145633e-01 3.030666e+00 40 40 50
3.258055e-01 5.145633e-01 3.030666e+00 40 40 50
3.249091e-01 5.173904e-01 3.030795e+00 130 138 167
3.279282e-01 5.183766e-01 3.032130e+00 27 24 32
3.279282e-01 5.183766e-01 3.032130e+00 27 24 32
4.105013e-01 4.910284e-01 3.049549e+00 89 91 79
4.615186e-01 4.739343e-01 3.045705e+00 26 22 37
3.648956e-01 5.069307e-01 3.043538e+00 123 137 156
3.948355e-01 4.975545e-01 3.048681e+00 136 147 167
4.000684e-01 4.969568e-01 3.049321e+00 155 161 173
4.000684e-01 4.969568e-01 3.049321e+00 155 161 173
4.000684e-01 4.969568e-01 3.049321e+00 155 161 173
4.426256e-01 4.830796e-01 3.048438e+00 25 24 42
4.426256e-01 4.830796e-01 3.048438e+00 25 24 42
4.255327e-01 4.901251e-01 3.050385e+00 30 26 40
3.877227e-01 5.041907e-01 3.048090e+00 41 47 71
4.375805e-01 4.878986e-01 3.049409e+00 131 137 151
3.859781e-01 5.062778e-01 3.047851e+00 176 176 182
3.707235e-01 5.122987e-01 3.045097e+00 114 113 121
3.884255e-01 5.070639e-01 3.048020e+00 68 61 79
4.188970e-01 4.972344e-01 3.050378e+00 59 52 62
4.188970e-01 4.972344e-01 3.050378e+00 59 52 62
3.870214e-01 5.096354e-01 3.047923e+00 146 142 143
3.870214e-01 5.096354e-01 3.047923e+00 146 142 143
3.532161e-01 5.209751e-01 3.040961e+00 126 121 127
3.532161e-01 5.209751e-01 3.040961e+00 126 121 127
4.068333e-01 5.030654e-01 3.049898e+00 176 176 186
4.662320e-01 4.847647e-01 3.047372e+00 106 112 128
3.784493e-01 5.218532e-01 3.043659e+00 139 130 135
4.680967e-01 4.930268e-01 3.049024e+00 137 139 151
3.913650e-01 4.400580e-01 3.039709e+00 187 175 196
3.812194e-01 4.443324e-01 3.039604e+00 180 172 193
3.872353e-01 4.444257e-01 3.040210e+00 251 61 70
3.951051e-01 4.423907e-01 3.040587e+00 183 166 183
3.799611e-01 4.482551e-01 3.039878e+00 165 141 164
3.799611e-01 4.482551e-01 3.039878e+00 165 141 164
3.664680e-01 4.545567e-01 3.038572e+00 221 26 54
3.664680e-01 4.545567e-01 3.038572e+00 221 26 54
3.724408e-01 4.563385e-01 3.040443e+00 199 6 27
3.724408e-01 4.563385e-01 3.040443e+00 199 6 27
3.866811e-01 4.535714e-01 3.042150e+00 220 7 37
3.697109e-01 4.621017e-01 3.040944e+00 191 1 35
3.937091e-01 4.649995e-01 3.045172e+00 107 105 92
4.156956e-01 4.600643e-01 3.045224e+00 86 83 90
4.118286e-01 4.616231e-01 3.045589e+00 102 97 102
4.301251e-01 4.618471e-01 3.045119e+00 162 167 135
4.474351e-01 4.569941e-01 3.042418e+00 44 57 37
4.341764e-01 4.619028e-01 3.045178e+00 44 45 31
4.010250e-01 4.739752e-01 3.047203e+00 43 40 33
4.329390e-01 4.652445e-01 3.045648e+00 54 62 38
4.399821e-01 4.645414e-01 3.045279e+00 108 129 70
3.345404e-01 5.009337e-01 3.033272e+00 43 64 26
3.974458e-01 4.799779e-01 3.047589e+00 49 58 38
4.422573e-01 4.670189e-01 3.045414e+00 92 123 63
4.541870e-01 4.636811e-01 3.043685e+00 43 57 40
4.072566e-01 4.803155e-01 3.048345e+00 63 78 57
3.678573e-01 4.942502e-01 3.043929e+00 95 120 63
3.575122e-01 4.977433e-01 3.041239e+00 98 118 67
3.814708e-01 4.900063e-01 3.046548e+00 109 132 76
4.092938e-01 4.813092e-01 3.048440e+00 80 105 63
3.568668e-01 4.997420e-01 3.041273e+00 25 46 16
3.229737e-01 5.130085e-01 3.029462e+00 140 157 112
3.994571e-01 4.872553e-01 3.048645e+00 41 56 35
3.910423e-01 4.909552e-01 3.048100e+00 42 56 31
3.930893e-01 4.904043e-01 3.048147e+00 38 51 30
3.714566e-01 4.978929e-01 3.044987e+00 28 41 11
3.295752e-01 5.138519e-01 3.032366e+00 31 30 39
3.446721e-01 5.104732e-01 3.038006e+00 63 82 53
3.498479e-01 5.087927e-01 3.039636e+00 122 148 110
4.575955e-01 4.723319e-01 3.045425e+00 23 26 45
4.390377e-01 4.796535e-01 3.048087e+00 115 136 127
3.821861e-01 4.989782e-01 3.047379e+00 115 142 80
4.175072e-01 4.881986e-01 3.049489e+00 193 164 131
3.810668e-01 5.018319e-01 3.047040e+00 40 40 52
3.475628e-01 5.140397e-01 3.039362e+00 22 21 29
4.435393e-01 4.813556e-01 3.047969e+00 42 40 51
3.974893e-01 4.972130e-01 3.049037e+00 29 23 32
3.974893e-01 4.972130e-01 3.049037e+00 29 23 32
3.757604e-01 5.047179e-01 3.046081e+00 158 157 171
3.442170e-01 5.155584e-01 3.038025e+00 36 29 38
3.886570e-01 5.011683e-01 3.047723e+00 139 147 169
3.886570e-01 5.011683e-01 3.047723e+00 139 147 169
3.823558e-01 5.033967e-01 3.047156e+00 162 169 195
3.312594e-01 5.210390e-01 3.033474e+00 62 52 58
3.621496e-01 5.105897e-01 3.043312e+00 127 135 156
4.044003e-01 4.964118e-01 3.049732e+00 59 64 88
3.645201e-01 5.100925e-01 3.043739e+00 145 157 181
4.156177e-01 4.926434e-01 3.050076e+00 35 41 65
4.156177e-01 4.926434e-01 3.050076e+00 35 41 65
3.913572e-01 5.027191e-01 3.048588e+00 36 33 47
3.913572e-01 5.027191e-01 3.048588e+00 36 33 47
3.296120e-01 5.237856e-01 3.032941e+00 123 122 136
4.436302e-01 4.854524e-01 3.048810e+00 37 36 50
3.416669e-01 5.207216e-01 3.037415e+00 25 21 36
3.416669e-01 5.207216e-01 3.037415e+00 25 21 36
3.324202e-01 5.238739e-01 3.034387e+00 146 137 192
3.784609e-01 5.083867e-01 3.046039e+00 107 102 117
3.397443e-01 5.216113e-01 3.036851e+00 198 213 247
3.397443e-01 5.216113e-01 3.036851e+00 198 213 247
3.631921e-01 5.140122e-01 3.043544e+00 150 155 161
3.655810e-01 5.135341e-01 3.044131e+00 220 223 239
3.655810e-01 5.135341e-01 3.044131e+00 220 223 239
4.322753e-01 4.918730e-01 3.050187e+00 182 197 217
3.507343e-01 5.197156e-01 3.040184e+00 51 50 56
3.614912e-01 5.161272e-01 3.042983e+00 97 90 97
4.152298e-01 4.981790e-01 3.050417e+00 63 55 66
3.918917e-01 5.064178e-01 3.048611e+00 65 58 66
3.365635e-01 5.264272e-01 3.035777e+00 163 169 181
4.679260e-01 4.814041e-01 3.046829e+00 45 45 55
3.188069e-01 5.326687e-01 3.029319e+00 164 157 181
4.564768e-01 4.867073e-01 3.048476e+00 82 82 88
3.455428e-01 5.246112e-01 3.038908e+00 103 98 104
3.207675e-01 5.334065e-01 3.030098e+00 36 25 39
3.622557e-01 5.192729e-01 3.043456e+00 136 131 128
3.403219e-01 5.272752e-01 3.037380e+00 165 160 166
3.284240e-01 5.329627e-01 3.033261e+00 53 48 62
4.366750e-01 4.990910e-01 3.050979e+00 113 109 116
4.370381e-01 5.010047e-01 3.051627e+00 125 122 129
3.664047e-01 4.524734e-01 3.038376e+00 179 151 166
3.946639e-01 4.470441e-01 3.041693e+00 203 153 103
3.673177e-01 4.573336e-01 3.039540e+00 228 178 157
3.673177e-01 4.573336e-01 3.039540e+00 228 178 157
3.652772e-01 4.581341e-01 3.039010e+00 178 14 37
3.691281e-01 4.575453e-01 3.039778e+00 168 14 35
3.691281e-01 4.575453e-01 3.039778e+00 168 14 35
3.658729e-01 4.602314e-01 3.039322e+00 226 170 136
3.658729e-01 4.602314e-01 3.039322e+00 226 170 136
3.796798e-01 4.579245e-01 3.042083e+00 234 18 42
3.796798e-01 4.579245e-01 3.042083e+00 234 18 42
3.768752e-01 4.591287e-01 3.041731e+00 232 23 51
3.667255e-01 4.632445e-01 3.040211e+00 186 10 39
4.075410e-01 4.635093e-01 3.045861e+00 95 95 97
4.506195e-01 4.531859e-01 3.041475e+00 83 106 72
3.979126e-01 4.716286e-01 3.046680e+00 120 122 110
4.406730e-01 4.590092e-01 3.043710e+00 40 52 28
4.467157e-01 4.600557e-01 3.043429e+00 138 148 87
4.520723e-01 4.583756e-01 3.042537e+00 146 154 108
3.435461e-01 4.965994e-01 3.036583e+00 64 75 43
3.683641e-01 4.885738e-01 3.043522e+00 59 79 28
3.683601e-01 4.885735e-01 3.043563e+00 59 79 28
3.897180e-01 4.814112e-01 3.046921e+00 29 37 14
3.897180e-01 4.814112e-01 3.046921e+00 29 37 14
4.548907e-01 4.599410e-01 3.042685e+00 70 86 52
3.778153e-01 4.867898e-01 3.045532e+00 62 68 32
3.778153e-01 4.867898e-01 3.045532e+00 62 68 32
4.309388e-01 4.696064e-01 3.046714e+00 47 67 32
4.594576e-01 4.610170e-01 3.042635e+00 28 49 30
3.753334e-01 4.897360e-01 3.045329e+00 72 87 36
3.564015e-01 4.962141e-01 3.040857e+00 66 77 34
3.440950e-01 5.005177e-01 3.037082e+00 85 109 47
3.223462e-01 5.088458e-01 3.028838e+00 39 67 18
3.223462e-01 5.088458e-01 3.028838e+00 39 67 18
3.766065e-01 4.911711e-01 3.045618e+00 94 116 52
3.623002e-01 4.973474e-01 3.042563e+00 35 50 21
3.593157e-01 4.981823e-01 3.041744e+00 31 43 16
4.037426e-01 4.839814e-01 3.048575e+00 113 136 93
3.340407e-01 5.079372e-01 3.033648e+00 52 78 37
3.207432e-01 5.131412e-01 3.028409e+00 63 87 53
3.255187e-01 5.122691e-01 3.030500e+00 106 129 76
3.949099e-01 4.888265e-01 3.048309e+00 84 116 67
3.522880e-01 5.034028e-01 3.039922e+00 67 95 50
3.656373e-01 4.991131e-01 3.043630e+00 72 101 53
3.967321e-01 4.886762e-01 3.048321e+00 39 65 30
4.275967e-01 4.785057e-01 3.048275e+00 28 47 18
3.725492e-01 4.973251e-01 3.045167e+00 31 41 15
3.578788e-01 5.031278e-01 3.041642e+00 30 54 18
3.827137e-01 4.951237e-01 3.047203e+00 96 130 70
3.932152e-01 4.921206e-01 3.048343e+00 91 120 62
3.901197e-01 4.930096e-01 3.047964e+00 104 129 73
3.954960e-01 4.914782e-01 3.048589e+00 106 134 73
3.293576e-01 5.168803e-01 3.032433e+00 124 134 159
3.293576e-01 5.168803e-01 3.032433e+00 124 134 159
4.509432e-01 4.756004e-01 3.046763e+00 13 15 12
3.484109e-01 5.108070e-01 3.039216e+00 28 32 38
4.031491e-01 4.935480e-01 3.049179e+00 123 142 146
3.640439e-01 5.073815e-01 3.043546e+00 138 135 152
3.629366e-01 5.086617e-01 3.043278e+00 30 19 35
4.295412e-01 4.864583e-01 3.049552e+00 27 30 49
4.295412e-01 4.864583e-01 3.049552e+00 27 30 49
4.172224e-01 4.911602e-01 3.049873e+00 178 181 196
4.079658e-01 4.941848e-01 3.049798e+00 53 46 62
3.404591e-01 5.183667e-01 3.036820e+00 177 199 229
4.495101e-01 4.812233e-01 3.047891e+00 44 33 60
4.069654e-01 4.956345e-01 3.049829e+00 129 137 161
3.467074e-01 5.176914e-01 3.038949e+00 21 20 37
3.263760e-01 5.249903e-01 3.032141e+00 189 173 202
3.191504e-01 5.281102e-01 3.029029e+00 116 103 121
3.191504e-01 5.281102e-01 3.029029e+00 116 103 121
4.612221e-01 4.799394e-01 3.046878e+00 140 123 135
4.356918e-01 4.886382e-01 3.049592e+00 49 63 103
4.310018e-01 4.905546e-01 3.050273e+00 94 37 71
3.261218e-01 5.268207e-01 3.032005e+00 70 62 77
3.261218e-01 5.268207e-01 3.032005e+00 70 62 77
4.206661e-01 4.948725e-01 3.050424e+00 176 175 180
4.077684e-01 4.993564e-01 3.050243e+00 140 142 157
3.249125e-01 5.282857e-01 3.031606e+00 130 137 156
4.268564e-01 4.943744e-01 3.050288e+00 70 60 69
3.314715e-01 5.271112e-01 3.033891e+00 167 173 185
3.471031e-01 5.220788e-01 3.039256e+00 161 152 155
3.437483e-01 5.238025e-01 3.038322e+00 135 124 141
4.498284e-01 4.886639e-01 3.049188e+00 166 168 180
4.215980e-01 4.983077e-01 3.050638e+00 163 154 157
4.039167e-01 5.044117e-01 3.049820e+00 131 122 146
4.595605e-01 4.856239e-01 3.048069e+00 164 170 182
3.245515e-01 5.341607e-01 3.031504e+00 78 76 89
3.410748e-01 5.301770e-01 3.037748e+00 174 170 171
4.513128e-01 4.945999e-01 3.049398e+00 171 177 189
4.527512e-01 4.945587e-01 3.050110e+00 32 39 45
4.306338e-01 5.233043e-01 3.050800e+00 133 125 123
3.939809e-01 4.422003e-01 3.040634e+00 180 160 176
3.907495e-01 4.439438e-01 3.040616e+00 190 166 164
3.907495e-01 4.439438e-01 3.040616e+00 190 166 164
3.938591e-01 4.435412e-01 3.040800e+00 197 43 66
3.723944e-01 4.520202e-01 3.039631e+00 195 10 46
3.701742e-01 4.529695e-01 3.039226e+00 194 14 44
3.701742e-01 4.529695e-01 3.039226e+00 194 14 44
3.987322e-01 4.445366e-01 3.041297e+00 166 134 148
3.865174e-01 4.487567e-01 3.041280e+00 216 8 42
3.930966e-01 4.478023e-01 3.041838e+00 159 8 31
3.762036e-01 4.540594e-01 3.040528e+00 168 9 42
3.762036e-01 4.540594e-01 3.040528e+00 168 9 42
3.813406e-01 4.526528e-01 3.041402e+00 162 130 137
3.849445e-01 4.522738e-01 3.041758e+00 205 7 43
3.849445e-01 4.522738e-01 3.041758e+00 205 7 43
3.766661e-01 4.553155e-01 3.041081e+00 161 6 31
3.671276e-01 4.598752e-01 3.039837e+00 190 7 33
3.671276e-01 4.598752e-01 3.039837e+00 190 7 33
3.943629e-01 4.507979e-01 3.042401e+00 150 90 82
3.943629e-01 4.507979e-01 3.042401e+00 150 90 82
3.548167e-01 4.661714e-01 3.036984e+00 210 16 35
3.548167e-01 4.661714e-01 3.036984e+00 210 16 35
4.468284e-01 4.413987e-01 3.038716e+00 89 91 90
4.438523e-01 4.430351e-01 3.039472e+00 91 88 82
3.965653e-01 4.642577e-01 3.045351e+00 98 93 89
4.062119e-01 4.620742e-01 3.045451e+00 163 159 158
4.062119e-01 4.620742e-01 3.045451e+00 163 159 158
4.236423e-01 4.587922e-01 3.044688e+00 57 70 50
4.236423e-01 4.587922e-01 3.044688e+00 57 70 50
3.664489e-01 4.784257e-01 3.042235e+00 51 64 34
3.664489e-01 4.784257e-01 3.042235e+00 51 64 34
4.490139e-01 4.520404e-01 3.041407e+00 47 62 39
4.549042e-01 4.509743e-01 3.040397e+00 95 115 78
4.334367e-01 4.593459e-01 3.044439e+00 108 123 94
4.007152e-01 4.715377e-01 3.046870e+00 65 62 61
4.366959e-01 4.596536e-01 3.044238e+00 42 46 31
4.366959e-01 4.596536e-01 3.044238e+00 42 46 31
3.947800e-01 4.760047e-01 3.046617e+00 45 53 33
4.057439e-01 4.726821e-01 3.047269e+00 110 104 109
3.503582e-01 4.925064e-01 3.038685e+00 91 108 63
4.296668e-01 4.656855e-01 3.045879e+00 50 53 32
4.483186e-01 4.599593e-01 3.043374e+00 147 156 102
4.384975e-01 4.631801e-01 3.044919e+00 50 63 20
3.329600e-01 5.001520e-01 3.032532e+00 73 100 52
4.457993e-01 4.630942e-01 3.044364e+00 31 40 17
4.457993e-01 4.630942e-01 3.044364e+00 31 40 17
3.490971e-01 4.993500e-01 3.038543e+00 36 54 16
3.451962e-01 5.013751e-01 3.037476e+00 49 75 28
3.614580e-01 4.963162e-01 3.042447e+00 111 126 83
4.460960e-01 4.676321e-01 3.045415e+00 43 56 48
4.347126e-01 4.715300e-01 3.046849e+00 47 63 37
4.024979e-01 4.825892e-01 3.048542e+00 45 66 27
3.713402e-01 4.944321e-01 3.044764e+00 38 61 35
4.124449e-01 4.808911e-01 3.048637e+00 39 50 34
3.628905e-01 4.989717e-01 3.042890e+00 85 109 75
3.586190e-01 5.005772e-01 3.041676e+00 76 98 59
3.525182e-01 5.033258e-01 3.040147e+00 82 107 62
3.225428e-01 5.139399e-01 3.029260e+00 123 137 140
3.188249e-01 5.152728e-01 3.027439e+00 27 35 47
3.536360e-01 5.033874e-01 3.040470e+00 18 40 15
3.536360e-01 5.033874e-01 3.040470e+00 18 40 15
4.534928e-01 4.701357e-01 3.045295e+00 112 140 82
3.608727e-01 5.035611e-01 3.042540e+00 45 71 23
4.368024e-01 4.791927e-01 3.048123e+00 75 105 53
3.432778e-01 5.114265e-01 3.037432e+00 151 162 168
3.257683e-01 5.183353e-01 3.031142e+00 114 127 150
4.533485e-01 4.748463e-01 3.046452e+00 37 39 44
3.631597e-01 5.057579e-01 3.043256e+00 46 41 4
4.160117e-01 4.877195e-01 3.049568e+00 80 86 40
4.066810e-01 4.908007e-01 3.049421e+00 112 135 93
3.413089e-01 5.135191e-01 3.036925e+00 49 56 78
3.250591e-01 5.193121e-01 3.030753e+00 34 42 71
3.872163e-01 4.977455e-01 3.047847e+00 123 145 81
3.211310e-01 5.208144e-01 3.029148e+00 168 187 222
4.636214e-01 4.719468e-01 3.044880e+00 29 116 195
4.636214e-01 4.719468e-01 3.044880e+00 29 116 195
4.636214e-01 4.719468e-01 3.044880e+00 29 116 195
3.475930e-01 5.119723e-01 3.038989e+00 31 33 48
3.175400e-01 5.223502e-01 3.027777e+00 14 17 36
3.654258e-01 5.060128e-01 3.043845e+00 138 151 159
3.362174e-01 5.165900e-01 3.035166e+00 20 23 32
3.833294e-01 5.005401e-01 3.047329e+00 26 33 41
3.488950e-01 5.124953e-01 3.039430e+00 120 131 153
4.220905e-01 4.873558e-01 3.049647e+00 36 43 52
3.640125e-01 5.073961e-01 3.043539e+00 139 135 151
3.611592e-01 5.084478e-01 3.042886e+00 138 135 154
3.602397e-01 5.090945e-01 3.042645e+00 26 28 40
4.042040e-01 4.944554e-01 3.049504e+00 43 49 75
4.407280e-01 4.821426e-01 3.048580e+00 24 27 41
4.011859e-01 4.955702e-01 3.049306e+00 40 37 54
3.527502e-01 5.126281e-01 3.040584e+00 31 31 47
4.350592e-01 4.856644e-01 3.049169e+00 80 86 110
3.982171e-01 4.988037e-01 3.049189e+00 120 133 152
3.546887e-01 5.137271e-01 3.041218e+00 119 133 158
3.546887e-01 5.137271e-01 3.041218e+00 119 133 158
3.453257e-01 5.173026e-01 3.038384e+00 186 197 225
4.399600e-01 4.849915e-01 3.048992e+00 33 38 57
4.430796e-01 4.842387e-01 3.048897e+00 24 29 48
4.430796e-01 4.842387e-01 3.048897e+00 24 29 48
3.523197e-01 5.154194e-01 3.040683e+00 199 210 243
3.507534e-01 5.159268e-01 3.040237e+00 98 105 134
4.631990e-01 4.778873e-01 3.046346e+00 27 28 47
3.276430e-01 5.247494e-01 3.032460e+00 40 18 49
4.495743e-01 4.829446e-01 3.048280e+00 150 139 156
4.062310e-01 4.981695e-01 3.049348e+00 44 42 64
3.584326e-01 5.148275e-01 3.042379e+00 166 151 193
3.184689e-01 5.292353e-01 3.028833e+00 34 28 42
4.598762e-01 4.807961e-01 3.046903e+00 60 55 75
4.598762e-01 4.807961e-01 3.046903e+00 60 55 75
3.315056e-01 5.254448e-01 3.033945e+00 43 38 61
3.315056e-01 5.254448e-01 3.033945e+00 43 38 61
3.222325e-01 5.286769e-01 3.030397e+00 33 24 41
4.005813e-01 5.019780e-01 3.049481e+00 158 159 171
3.792864e-01 5.096415e-01 3.046798e+00 115 113 116
3.672226e-01 5.139943e-01 3.044418e+00 50 52 67
3.174870e-01 5.313327e-01 3.028559e+00 35 29 40
4.293333e-01 4.933426e-01 3.050195e+00 136 133 148
3.453146e-01 5.224402e-01 3.038729e+00 150 141 142
3.264758e-01 5.291971e-01 3.032297e+00 101 111 129
3.389103e-01 5.253454e-01 3.036716e+00 110 108 113
3.389103e-01 5.253454e-01 3.036716e+00 110 108 113
3.592864e-01 5.184322e-01 3.042698e+00 146 140 140
3.688974e-01 5.152658e-01 3.044905e+00 172 170 183
3.169969e-01 5.332021e-01 3.028530e+00 49 11 32
3.353253e-01 5.279499e-01 3.035538e+00 42 38 55
3.353253e-01 5.279499e-01 3.035538e+00 42 38 55
4.056792e-01 5.052088e-01 3.049904e+00 64 61 80
3.270720e-01 5.335755e-01 3.032800e+00 96 93 101
4.496242e-01 4.933667e-01 3.049934e+00 72 74 87
4.537990e-01 4.935833e-01 3.049783e+00 117 126 135
4.705918e-01 4.892368e-01 3.048273e+00 32 32 44
4.249350e-01 5.090526e-01 3.050671e+00 129 125 126
4.001540e-01 5.187913e-01 3.049188e+00 124 120 121
3.526532e-01 5.621821e-01 3.041389e+00 109 109 117
4.105368e-01 5.550881e-01 3.043490e+00 44 35 40
3.882268e-01 5.926417e-01 3.051273e+00 151 148 155
3.926423e-01 4.414351e-01 3.040162e+00 225 33 72
3.926423e-01 4.414351e-01 3.040162e+00 225 33 72
3.878327e-01 4.438922e-01 3.040264e+00 225 37 61
3.878327e-01 4.438922e-01 3.040264e+00 225 37 61
3.822789e-01 4.458244e-01 3.039907e+00 208 33 72
3.822789e-01 4.458244e-01 3.039907e+00 208 33 72
3.782490e-01 4.478063e-01 3.039743e+00 198 31 57
3.782490e-01 4.478063e-01 3.039743e+00 198 31 57
3.721284e-01 4.498935e-01 3.039024e+00 188 17 63
3.690420e-01 4.509119e-01 3.038557e+00 210 36 66
3.649107e-01 4.523728e-01 3.037837e+00 200 26 69
3.890509e-01 4.444214e-01 3.040672e+00 188 164 164
3.903984e-01 4.451164e-01 3.040776e+00 214 28 59
3.928260e-01 4.445102e-01 3.041071e+00 252 212 182
3.830787e-01 4.480955e-01 3.040766e+00 194 20 45
3.830787e-01 4.480955e-01 3.040766e+00 194 20 45
3.815546e-01 4.487467e-01 3.040644e+00 194 14 42
3.655486e-01 4.544774e-01 3.038563e+00 193 21 41
3.879739e-01 4.469713e-01 3.041166e+00 247 214 177
3.789563e-01 4.500400e-01 3.040504e+00 213 21 47
3.773881e-01 4.505947e-01 3.040311e+00 201 15 51
3.736580e-01 4.523584e-01 3.039979e+00 252 208 177
3.736580e-01 4.523584e-01 3.039979e+00 252 208 177
3.677761e-01 4.559087e-01 3.039275e+00 178 16 47
4.016371e-01 4.448971e-01 3.041706e+00 221 27 56
4.016371e-01 4.448971e-01 3.041706e+00 221 27 56
3.823632e-01 4.516649e-01 3.041241e+00 183 57 76
3.773409e-01 4.543641e-01 3.041041e+00 158 123 123
3.947039e-01 4.485771e-01 3.042047e+00 154 87 63
3.947039e-01 4.485771e-01 3.042047e+00 154 87 63
3.861002e-01 4.520081e-01 3.042018e+00 173 137 139
3.861002e-01 4.520081e-01 3.042018e+00 173 137 139
3.929176e-01 4.505669e-01 3.042434e+00 181 153 157
3.980931e-01 4.499402e-01 3.042549e+00 135 73 73
3.980931e-01 4.499402e-01 3.042549e+00 135 73 73
3.963529e-01 4.507409e-01 3.042585e+00 167 43 64
3.972513e-01 4.504451e-01 3.042581e+00 159 157 153
3.934082e-01 4.519306e-01 3.042570e+00 160 153 162
3.934082e-01 4.519306e-01 3.042570e+00 160 153 162
3.683517e-01 4.610282e-01 3.040257e+00 178 22 36
3.683517e-01 4.610282e-01 3.040257e+00 178 22 36
3.668178e-01 4.615354e-01 3.040000e+00 174 7 24
3.668178e-01 4.615354e-01 3.040000e+00 174 7 24
3.904786e-01 4.550606e-01 3.042886e+00 234 32 48
3.745194e-01 4.607204e-01 3.041620e+00 225 36 62
3.898761e-01 4.566491e-01 3.043164e+00 176 164 173
3.741438e-01 4.624387e-01 3.041794e+00 165 169 182
4.036188e-01 4.550402e-01 3.043936e+00 150 147 158
4.156650e-01 4.578575e-01 3.044545e+00 141 141 139
4.184934e-01 4.573220e-01 3.044572e+00 68 70 65
4.184934e-01 4.573220e-01 3.044572e+00 68 70 65
4.102461e-01 4.602310e-01 3.045127e+00 151 146 143
4.379827e-01 4.520999e-01 3.042346e+00 54 66 42
4.379827e-01 4.520999e-01 3.042346e+00 54 66 42
4.379827e-01 4.520999e-01 3.042346e+00 54 66 42
3.836616e-01 4.705751e-01 3.044739e+00 135 131 126
3.897991e-01 4.702650e-01 3.045566e+00 54 54 44
4.112739e-01 4.635006e-01 3.045845e+00 216 215 221
4.097146e-01 4.640968e-01 3.045980e+00 207 208 212
4.087622e-01 4.644817e-01 3.045941e+00 210 209 215
4.210971e-01 4.604803e-01 3.045162e+00 111 125 91
4.073039e-01 4.650691e-01 3.046083e+00 214 212 217
4.156302e-01 4.627091e-01 3.045822e+00 101 100 105
3.374266e-01 4.897550e-01 3.033581e+00 112 123 83
3.374266e-01 4.897550e-01 3.033581e+00 112 123 83
4.544163e-01 4.497980e-01 3.040129e+00 40 51 34
4.180569e-01 4.620194e-01 3.045608e+00 73 78 71
3.477911e-01 4.865460e-01 3.037278e+00 94 111 65
3.390776e-01 4.899639e-01 3.034210e+00 52 62 35
3.533886e-01 4.858809e-01 3.039052e+00 58 63 43
4.251418e-01 4.617144e-01 3.045333e+00 131 146 105
4.156645e-01 4.657454e-01 3.046329e+00 130 127 137
4.097467e-01 4.679958e-01 3.046605e+00 126 125 131
3.505598e-01 4.887042e-01 3.038355e+00 56 65 38
4.482093e-01 4.555702e-01 3.042579e+00 83 99 70
4.482093e-01 4.555702e-01 3.042579e+00 83 99 70
4.534895e-01 4.543751e-01 3.041478e+00 27 33 6
3.245443e-01 4.991842e-01 3.029027e+00 105 120 89
4.549286e-01 4.554140e-01 3.041457e+00 56 65 27
4.229180e-01 4.660401e-01 3.046313e+00 86 90 86
3.908790e-01 4.771954e-01 3.046686e+00 36 38 24
4.096319e-01 4.714215e-01 3.047224e+00 92 88 89
3.469873e-01 4.931747e-01 3.037501e+00 46 58 36
3.410267e-01 4.953993e-01 3.035474e+00 43 58 23
3.552389e-01 4.905884e-01 3.040034e+00 47 59 23
3.552389e-01 4.905884e-01 3.040034e+00 47 59 23
4.130113e-01 4.716068e-01 3.047227e+00 114 115 125
4.136069e-01 4.714901e-01 3.047248e+00 116 118 130
3.499954e-01 4.937557e-01 3.038569e+00 60 81 42
3.499954e-01 4.937557e-01 3.038569e+00 60 81 42
3.355406e-01 4.991778e-01 3.033713e+00 96 119 77
4.486929e-01 4.610746e-01 3.043545e+00 49 61 25
3.661155e-01 4.891254e-01 3.043016e+00 62 82 33
4.430383e-01 4.632376e-01 3.044678e+00 117 143 80
3.958669e-01 4.796683e-01 3.047279e+00 138 149 105
3.958669e-01 4.796683e-01 3.047279e+00 138 149 105
3.742641e-01 4.872557e-01 3.044817e+00 67 82 29
3.505815e-01 4.962451e-01 3.038984e+00 108 126 76
3.293929e-01 5.061180e-01 3.031669e+00 102 127 72
3.836111e-01 4.873780e-01 3.046642e+00 62 79 35
3.207512e-01 5.095117e-01 3.028184e+00 43 69 20
4.502475e-01 4.661295e-01 3.044769e+00 23 41 19
4.502475e-01 4.661295e-01 3.044769e+00 23 41 19
4.502475e-01 4.661295e-01 3.044769e+00 23 41 19
4.322198e-01 4.725557e-01 3.047077e+00 27 47 18
4.169747e-01 4.780294e-01 3.048297e+00 54 69 42
3.653539e-01 4.962294e-01 3.043332e+00 29 56 15
3.873762e-01 4.886894e-01 3.047351e+00 105 123 73
3.692662e-01 4.950974e-01 3.044267e+00 33 54 21
4.522113e-01 4.675076e-01 3.044774e+00 31 52 21
4.452813e-01 4.702760e-01 3.045965e+00 35 58 30
4.164781e-01 4.811361e-01 3.048731e+00 37 61 25
3.444440e-01 5.060867e-01 3.037539e+00 42 66 30
3.696682e-01 4.974554e-01 3.044411e+00 85 106 73
3.197716e-01 5.150948e-01 3.028190e+00 125 142 152
4.560494e-01 4.683890e-01 3.044634e+00 37 63 26
3.752537e-01 4.965534e-01 3.045749e+00 26 45 15
3.516989e-01 5.050974e-01 3.039958e+00 37 61 27
3.516989e-01 5.050974e-01 3.039958e+00 37 61 27
3.232479e-01 5.150418e-01 3.029744e+00 28 27 43
4.245493e-01 4.803019e-01 3.048765e+00 48 69 30
3.243109e-01 5.151197e-01 3.030186e+00 131 122 133
4.166664e-01 4.833029e-01 3.049086e+00 115 145 95
3.726096e-01 4.985917e-01 3.045246e+00 89 111 58
3.206707e-01 5.169508e-01 3.028888e+00 138 152 179
3.464737e-01 5.082778e-01 3.038370e+00 61 81 44
3.860730e-01 4.952904e-01 3.047722e+00 121 144 84
3.860730e-01 4.952904e-01 3.047722e+00 121 144 84
3.253246e-01 5.165507e-01 3.030726e+00 140 137 158
4.622546e-01 4.699456e-01 3.044389e+00 34 58 86
3.174623e-01 5.197973e-01 3.027713e+00 125 133 154
3.174623e-01 5.197973e-01 3.027713e+00 125 133 154
4.539057e-01 4.736091e-01 3.046140e+00 84 98 80
3.757171e-01 5.018393e-01 3.046077e+00 79 104 71
4.436581e-01 4.789224e-01 3.047896e+00 25 34 39
4.212215e-01 4.864710e-01 3.049510e+00 105 123 71
3.813049e-01 5.001281e-01 3.047016e+00 109 133 80
3.463402e-01 5.122519e-01 3.038547e+00 153 159 173
3.665975e-01 5.054910e-01 3.044178e+00 26 37 41
3.516081e-01 5.106439e-01 3.040251e+00 20 26 32
4.552799e-01 4.751883e-01 3.046301e+00 26 27 47
4.543028e-01 4.754997e-01 3.046576e+00 162 168 184
3.744829e-01 5.031879e-01 3.045833e+00 36 40 52
3.329530e-01 5.175038e-01 3.033832e+00 12 19 40
3.329530e-01 5.175038e-01 3.033832e+00 12 19 40
3.376413e-01 5.160798e-01 3.035652e+00 37 45 64
4.292155e-01 4.851284e-01 3.049351e+00 149 149 173
4.464150e-01 4.794870e-01 3.047864e+00 137 138 156
4.239031e-01 4.874786e-01 3.049676e+00 20 24 34
4.417586e-01 4.813991e-01 3.048324e+00 139 146 171
4.417586e-01 4.813991e-01 3.048324e+00 139 146 171
4.163943e-01 4.900650e-01 3.049815e+00 117 107 104
3.285391e-01 5.204643e-01 3.032308e+00 115 123 144
3.830073e-01 5.017519e-01 3.047217e+00 129 132 158
3.276596e-01 5.209245e-01 3.032057e+00 51 67 93
3.397119e-01 5.166413e-01 3.036717e+00 70 87 105
4.588778e-01 4.764544e-01 3.046304e+00 85 77 90
3.462275e-01 5.151433e-01 3.038696e+00 118 126 147
4.600405e-01 4.764596e-01 3.046238e+00 32 24 35
4.463982e-01 4.814741e-01 3.048225e+00 31 26 46
3.281143e-01 5.221419e-01 3.032317e+00 39 45 61
4.529306e-01 4.796519e-01 3.047430e+00 101 35 63
3.237055e-01 5.240207e-01 3.030700e+00 149 154 186
3.262472e-01 5.234122e-01 3.031681e+00 184 173 205
3.745809e-01 5.070925e-01 3.045930e+00 128 135 154
4.511392e-01 4.814785e-01 3.047961e+00 141 128 147
4.511392e-01 4.814785e-01 3.047961e+00 141 128 147
4.279140e-01 4.893710e-01 3.050041e+00 33 31 53
3.318490e-01 5.227774e-01 3.033837e+00 128 118 167
3.998031e-01 4.994094e-01 3.049368e+00 39 39 51
3.979964e-01 5.000839e-01 3.049195e+00 73 81 94
4.447445e-01 4.843779e-01 3.048661e+00 218 223 242
4.171277e-01 4.937306e-01 3.050160e+00 50 57 73
4.583968e-01 4.798976e-01 3.047042e+00 149 132 151
4.466049e-01 4.838792e-01 3.048563e+00 38 27 44
4.466049e-01 4.838792e-01 3.048563e+00 38 27 44
4.338802e-01 4.885512e-01 3.049733e+00 87 105 126
3.441340e-01 5.198812e-01 3.038046e+00 16 13 30
4.473570e-01 4.845316e-01 3.048472e+00 129 131 150
3.664828e-01 5.121599e-01 3.044278e+00 45 46 62
3.301191e-01 5.248354e-01 3.033437e+00 132 129 140
3.301191e-01 5.248354e-01 3.033437e+00 132 129 140
3.232735e-01 5.272623e-01 3.030674e+00 47 49 72
4.272329e-01 4.917101e-01 3.050061e+00 105 112 151
3.273082e-01 5.261367e-01 3.032328e+00 41 32 53
4.580788e-01 4.813969e-01 3.047415e+00 59 60 78
3.456087e-01 5.202391e-01 3.038783e+00 105 100 107
4.322278e-01 4.905049e-01 3.049910e+00 191 190 207
4.461997e-01 4.862588e-01 3.048971e+00 128 134 146
4.433010e-01 4.877668e-01 3.049315e+00 88 87 102
3.856704e-01 5.076776e-01 3.047865e+00 130 129 134
3.383792e-01 5.240044e-01 3.036631e+00 170 177 195
4.001846e-01 5.031079e-01 3.049532e+00 91 87 93
3.595603e-01 5.170115e-01 3.042764e+00 91 80 85
3.420913e-01 5.233780e-01 3.037733e+00 146 137 142
3.810913e-01 5.109964e-01 3.047151e+00 69 62 69
3.655112e-01 5.163024e-01 3.044174e+00 43 42 60
4.152592e-01 4.997341e-01 3.050371e+00 71 64 71
4.024485e-01 5.040374e-01 3.049600e+00 58 55 76
4.017640e-01 5.047292e-01 3.049619e+00 127 124 134
3.333895e-01 5.285444e-01 3.034975e+00 36 32 49
4.586099e-01 4.866190e-01 3.048408e+00 71 74 83
3.662871e-01 5.183325e-01 3.044328e+00 34 34 48
3.662871e-01 5.183325e-01 3.044328e+00 34 34 48
3.167626e-01 5.361918e-01 3.028673e+00 118 121 129
3.167626e-01 5.361918e-01 3.028673e+00 118 121 129
3.257836e-01 5.336943e-01 3.032326e+00 50 40 51
3.177229e-01 5.365846e-01 3.029196e+00 35 35 45
4.533425e-01 4.907833e-01 3.049485e+00 133 135 150
4.506939e-01 4.935919e-01 3.049993e+00 162 168 180
3.837851e-01 5.207860e-01 3.045526e+00 133 118 119
4.016300e-01 5.150870e-01 3.049359e+00 143 138 142
4.152435e-01 5.124598e-01 3.050354e+00 143 132 138
3.889221e-01 5.227825e-01 3.045695e+00 147 141 141
3.843852e-01 5.296261e-01 3.047141e+00 152 142 141
4.343533e-01 5.168579e-01 3.051783e+00 94 90 91
3.518156e-01 5.470846e-01 3.041894e+00 98 94 93
4.019947e-01 5.315954e-01 3.047917e+00 130 121 122
4.629323e-01 5.514939e-01 3.051693e+00 167 167 175
3.868308e-01 4.432537e-01 3.040104e+00 183 161 166
3.735733e-01 4.493569e-01 3.039177e+00 189 13 56
3.735733e-01 4.493569e-01 3.039177e+00 189 13 56
3.859589e-01 4.457547e-01 3.040609e+00 187 160 151
3.744572e-01 4.498192e-01 3.039576e+00 170 153 166
3.919082e-01 4.443674e-01 3.040891e+00 226 34 59
3.742391e-01 4.516130e-01 3.039923e+00 187 13 35
3.682716e-01 4.536273e-01 3.039006e+00 226 34 66
3.923045e-01 4.457257e-01 3.041135e+00 166 94 88
3.651138e-01 4.553998e-01 3.038541e+00 253 229 194
3.948174e-01 4.456295e-01 3.041494e+00 177 27 47
3.836753e-01 4.494916e-01 3.040948e+00 158 89 88
3.818316e-01 4.502359e-01 3.040843e+00 159 103 95
3.688855e-01 4.548379e-01 3.039268e+00 152 112 86
3.911273e-01 4.473292e-01 3.041517e+00 197 9 42
3.896990e-01 4.477706e-01 3.041344e+00 212 13 27
3.976552e-01 4.452075e-01 3.041639e+00 196 20 47
3.962003e-01 4.457676e-01 3.041666e+00 201 17 48
3.797080e-01 4.513711e-01 3.040761e+00 136 79 72
3.776207e-01 4.521224e-01 3.040502e+00 153 88 86
3.727134e-01 4.538409e-01 3.039967e+00 168 21 43
3.944889e-01 4.465537e-01 3.041563e+00 241 189 141
3.760285e-01 4.529704e-01 3.040447e+00 159 129 139
3.970591e-01 4.459400e-01 3.041675e+00 254 199 180
3.970591e-01 4.459400e-01 3.041675e+00 254 199 180
3.670056e-01 4.567080e-01 3.039383e+00 247 194 169
4.001848e-01 4.456090e-01 3.041727e+00 230 26 53
3.966643e-01 4.470383e-01 3.041840e+00 131 80 67
4.010087e-01 4.456571e-01 3.041860e+00 254 221 185
4.010087e-01 4.456571e-01 3.041860e+00 254 221 185
3.994160e-01 4.461202e-01 3.041686e+00 154 134 146
3.895960e-01 4.497233e-01 3.041728e+00 169 22 40
3.636546e-01 4.593364e-01 3.038811e+00 255 229 202
4.005540e-01 4.468582e-01 3.041996e+00 158 110 97
3.919768e-01 4.499565e-01 3.042091e+00 154 74 61
3.659917e-01 4.588745e-01 3.039377e+00 167 16 42
3.617419e-01 4.603533e-01 3.038496e+00 192 10 33
3.673998e-01 4.585203e-01 3.039662e+00 146 76 68
3.998746e-01 4.477605e-01 3.042209e+00 174 163 177
3.810368e-01 4.548527e-01 3.041741e+00 186 22 39
3.723677e-01 4.578002e-01 3.040662e+00 191 20 35
3.731103e-01 4.579416e-01 3.040887e+00 253 205 177
3.731103e-01 4.579416e-01 3.040887e+00 253 205 177
3.658678e-01 4.614827e-01 3.039692e+00 133 88 59
3.658678e-01 4.614827e-01 3.039692e+00 133 88 59
4.018262e-01 4.493023e-01 3.042712e+00 134 83 82
3.624166e-01 4.628577e-01 3.038965e+00 131 81 64
3.624166e-01 4.628577e-01 3.038965e+00 131 81 64
3.996228e-01 4.504772e-01 3.042758e+00 122 95 88
3.655327e-01 4.622855e-01 3.039762e+00 250 225 195
3.951382e-01 4.523713e-01 3.042823e+00 135 86 76
3.728408e-01 4.614014e-01 3.041618e+00 223 26 53
3.728772e-01 4.613929e-01 3.041409e+00 223 26 53
3.920037e-01 4.550163e-01 3.043016e+00 145 108 84
3.563100e-01 4.673111e-01 3.037865e+00 187 19 34
3.951893e-01 4.542526e-01 3.043397e+00 181 169 183
3.601705e-01 4.662619e-01 3.039033e+00 171 11 29
3.601705e-01 4.662619e-01 3.039033e+00 171 11 29
3.875628e-01 4.571469e-01 3.042988e+00 119 88 85
3.808213e-01 4.597737e-01 3.042523e+00 151 94 80
3.868440e-01 4.578499e-01 3.043054e+00 168 157 172
3.868440e-01 4.578499e-01 3.043054e+00 168 157 172
3.820891e-01 4.594249e-01 3.042665e+00 140 100 82
3.748672e-01 4.619513e-01 3.041821e+00 168 106 92
3.773964e-01 4.611707e-01 3.042137e+00 130 90 80
3.842000e-01 4.590177e-01 3.042832e+00 180 175 180
3.714539e-01 4.635493e-01 3.041375e+00 170 171 175
3.714539e-01 4.635493e-01 3.041375e+00 170 171 175
4.274717e-01 4.450875e-01 3.041269e+00 139 138 146
4.134325e-01 4.564461e-01 3.044400e+00 100 97 90
3.333280e-01 4.855186e-01 3.031425e+00 71 78 71
4.516372e-01 4.457235e-01 3.039330e+00 88 104 78
4.330303e-01 4.520645e-01 3.042614e+00 100 111 81
3.783308e-01 4.707609e-01 3.043863e+00 153 151 140
3.840232e-01 4.694677e-01 3.044669e+00 92 83 80
3.779181e-01 4.715189e-01 3.043884e+00 77 79 68
4.327045e-01 4.532779e-01 3.042983e+00 59 74 51
3.644631e-01 4.782803e-01 3.041575e+00 63 69 35
3.506016e-01 4.834319e-01 3.037920e+00 107 117 83
4.184135e-01 4.602273e-01 3.045159e+00 127 142 109
3.835752e-01 4.726699e-01 3.045002e+00 73 77 50
4.049345e-01 4.659707e-01 3.046107e+00 214 214 219
4.365480e-01 4.554710e-01 3.043276e+00 112 128 79
3.692713e-01 4.784843e-01 3.042867e+00 104 112 62
3.692713e-01 4.784843e-01 3.042867e+00 104 112 62
3.773033e-01 4.767271e-01 3.044470e+00 59 62 40
4.316355e-01 4.584997e-01 3.044322e+00 108 120 80
4.316355e-01 4.584997e-01 3.044322e+00 108 120 80
3.542648e-01 4.850583e-01 3.039328e+00 89 102 74
4.408743e-01 4.558646e-01 3.042991e+00 51 70 40
4.183811e-01 4.637313e-01 3.045928e+00 55 53 58
4.531924e-01 4.523537e-01 3.041005e+00 106 123 90
4.086508e-01 4.674443e-01 3.046549e+00 53 50 57
4.041691e-01 4.692266e-01 3.046571e+00 68 66 69
3.747886e-01 4.792919e-01 3.044171e+00 64 78 29
4.349792e-01 4.591313e-01 3.044236e+00 102 115 97
4.331698e-01 4.604147e-01 3.044632e+00 63 69 56
