ply
format ascii 1.0
element face 0
property list uchar int vertex_indices
element vertex 952
property float x
property float y
property float z
property uchar diffuse_red
property uchar diffuse_green
property uchar diffuse_blue
end_header
-2.281905e+00 2.778005e+00 2.549962e+00 77 76 70
-3.381897e+00 2.817453e+00 2.406308e+00 252 251 254
1.244763e+00 2.799675e+00 2.735709e+00 136 131 128
-4.710876e-01 2.797904e+00 2.652312e+00 143 146 154
1.726931e+00 2.860712e+00 2.669963e+00 60 52 50
-3.214640e+00 2.798913e+00 2.478599e+00 120 116 106
-3.084557e+00 2.882203e+00 2.350824e+00 55 54 52
-3.084557e+00 2.882203e+00 2.350824e+00 55 54 52
-2.255950e-01 2.743953e+00 2.796602e+00 160 160 168
-1.104526e+00 3.048260e+00 2.195520e+00 80 79 78
-2.183344e+00 2.880994e+00 2.433286e+00 58 54 53
-1.092186e+00 2.869943e+00 2.530569e+00 141 141 139
-1.171791e+00 2.780295e+00 2.688686e+00 62 57 60
-3.088538e+00 2.904200e+00 2.348555e+00 131 130 128
-1.298955e+00 2.819632e+00 2.631369e+00 115 110 106
3.159508e+00 2.945146e+00 2.665675e+00 57 52 51
1.201254e+00 3.083311e+00 2.320683e+00 139 135 132
-1.693985e+00 2.810827e+00 2.640007e+00 125 120 117
2.986133e+00 2.965725e+00 2.635440e+00 66 61 58
3.245315e+00 2.963701e+00 2.653203e+00 90 85 105
-1.539010e+00 2.708049e+00 2.856012e+00 51 46 47
7.818322e-01 2.907803e+00 2.638081e+00 125 121 120
1.146470e+00 3.098086e+00 2.328664e+00 48 42 44
-1.662991e+00 2.885439e+00 2.550593e+00 82 79 74
5.440689e-01 2.858795e+00 2.729151e+00 144 140 142
-2.065183e+00 2.925136e+00 2.468033e+00 76 71 65
-2.069996e+00 3.141872e+00 2.090495e+00 132 129 124
3.345277e+00 2.993948e+00 2.663091e+00 44 41 52
-1.111867e+00 2.880787e+00 2.633595e+00 58 57 53
-2.499317e+00 2.908734e+00 2.499409e+00 63 59 58
3.428932e+00 3.197392e+00 2.347037e+00 82 78 101
-2.072823e+00 2.885090e+00 2.586349e+00 125 119 108
-3.411143e+00 2.963658e+00 2.373217e+00 127 125 128
1.075095e+00 2.686777e+00 3.175475e+00 63 55 53
3.313159e+00 3.020406e+00 2.690810e+00 118 116 120
-1.708105e+00 3.009154e+00 2.439782e+00 135 128 122
1.257709e+00 2.916685e+00 2.782193e+00 66 57 57
-3.485406e+00 2.979228e+00 2.384730e+00 252 251 253
-2.116755e+00 3.000664e+00 2.454726e+00 127 121 109
-2.213727e+00 2.976774e+00 2.491184e+00 122 117 109
3.444102e+00 3.064069e+00 2.665616e+00 97 98 127
-1.853117e+00 3.062338e+00 2.423317e+00 68 61 52
-1.853117e+00 3.062338e+00 2.423317e+00 68 61 52
-2.721808e+00 3.060239e+00 2.373616e+00 118 116 119
2.367114e+00 3.052790e+00 2.689418e+00 113 109 105
1.974328e+00 3.046072e+00 2.679104e+00 64 60 59
-3.517924e+00 3.039302e+00 2.353865e+00 253 253 254
2.217529e+00 3.260998e+00 2.343823e+00 99 91 89
2.310684e+00 3.071463e+00 2.681480e+00 41 37 36
1.825585e+00 3.031363e+00 2.730874e+00 107 102 99
2.362419e+00 3.269822e+00 2.350803e+00 44 38 41
2.580065e+00 3.121201e+00 2.631743e+00 105 102 97
2.606405e+00 3.159066e+00 2.569239e+00 105 102 97
1.991847e+00 3.073037e+00 2.688457e+00 52 46 45
1.760036e+00 3.287949e+00 2.309419e+00 33 28 32
1.760036e+00 3.287949e+00 2.309419e+00 33 28 32
1.939793e+00 3.119855e+00 2.618336e+00 47 43 42
4.035938e-01 3.030912e+00 2.683939e+00 117 120 129
1.832047e+00 3.068921e+00 2.698561e+00 51 47 47
4.386104e-01 3.028313e+00 2.698800e+00 104 105 109
2.882383e-01 3.020146e+00 2.704234e+00 252 253 253
1.701210e+00 3.125354e+00 2.612585e+00 40 36 37
1.680724e+00 3.086296e+00 2.679531e+00 40 36 37
6.947488e-01 3.052449e+00 2.681407e+00 93 92 98
1.516842e+00 3.076349e+00 2.697345e+00 46 44 49
1.548057e+00 3.135730e+00 2.601606e+00 46 44 49
3.373114e-01 3.036375e+00 2.707105e+00 252 255 251
2.718375e-01 3.024337e+00 2.723069e+00 97 97 100
4.039860e-01 3.045179e+00 2.707721e+00 139 138 156
4.039860e-01 3.045179e+00 2.707721e+00 139 138 156
8.697596e-01 3.072136e+00 2.697680e+00 65 64 69
3.088870e+00 3.161924e+00 2.662480e+00 43 42 49
1.613119e+00 3.072806e+00 2.733853e+00 95 91 86
8.152498e-01 3.114775e+00 2.629420e+00 71 70 76
3.161690e+00 3.358631e+00 2.341483e+00 38 37 45
2.865770e-01 3.047790e+00 2.715471e+00 250 252 250
2.960651e+00 3.203169e+00 2.598629e+00 51 50 57
2.807294e+00 3.218884e+00 2.570415e+00 33 32 37
9.972395e-01 3.304713e+00 2.333676e+00 112 111 116
9.972395e-01 3.304713e+00 2.333676e+00 112 111 116
8.761836e-01 3.092813e+00 2.697754e+00 116 115 120
8.887750e-01 3.126638e+00 2.639369e+00 116 115 120
5.636448e-01 3.305557e+00 2.318021e+00 97 96 102
-2.487077e-01 3.063215e+00 2.685208e+00 251 253 252
1.488377e+00 3.119938e+00 2.691585e+00 39 38 44
1.479590e+00 3.103002e+00 2.719517e+00 39 38 44
2.473615e-01 3.081825e+00 2.700357e+00 98 100 116
3.021657e+00 3.186750e+00 2.680587e+00 42 41 47
1.903338e+00 3.201144e+00 2.593106e+00 111 109 112
-2.823591e+00 3.202768e+00 2.300012e+00 130 129 125
8.924463e-01 3.060172e+00 2.782671e+00 63 62 69
3.040154e+00 3.388669e+00 2.350433e+00 60 58 68
1.400951e+00 3.127857e+00 2.704979e+00 128 127 132
1.360265e+00 3.126093e+00 2.710387e+00 120 119 124
-1.768849e+00 3.113671e+00 2.549743e+00 113 112 118
1.923114e+00 3.220112e+00 2.593746e+00 57 56 61
-5.461253e-01 3.075508e+00 2.705877e+00 145 149 155
-5.659307e-01 3.085494e+00 2.693881e+00 129 132 142
-2.760858e+00 3.212333e+00 2.345531e+00 66 65 63
-2.760858e+00 3.212333e+00 2.345531e+00 66 65 63
3.257894e+00 3.242166e+00 2.661543e+00 95 92 113
1.318166e+00 3.149119e+00 2.716426e+00 66 66 68
-3.084251e+00 3.215131e+00 2.340499e+00 60 55 52
-3.249541e+00 3.181814e+00 2.381879e+00 109 104 110
3.048706e+00 3.450821e+00 2.318839e+00 66 65 71
-2.755148e+00 3.180651e+00 2.425255e+00 121 120 117
-2.755148e+00 3.180651e+00 2.425255e+00 121 120 117
1.317390e+00 3.134939e+00 2.766792e+00 125 124 129
-1.891183e+00 3.406412e+00 2.106547e+00 124 124 125
-1.891183e+00 3.406412e+00 2.106547e+00 124 124 125
1.299689e+00 3.248222e+00 2.579295e+00 124 123 128
2.793229e-01 3.154327e+00 2.685038e+00 253 254 255
2.020408e+00 3.443437e+00 2.309137e+00 63 62 68
1.636706e+00 3.441628e+00 2.288416e+00 114 115 119
3.010485e+00 3.306152e+00 2.597320e+00 119 119 120
-1.338754e+00 3.201907e+00 2.525996e+00 122 122 124
1.143894e+00 3.146334e+00 2.765812e+00 128 128 128
1.143894e+00 3.146334e+00 2.765812e+00 128 128 128
-1.805613e+00 3.415993e+00 2.130584e+00 68 65 72
-1.293364e+00 3.219396e+00 2.508018e+00 107 105 110
-1.293364e+00 3.219396e+00 2.508018e+00 107 105 110
-1.321162e+00 3.423912e+00 2.156029e+00 59 57 62
-3.155160e+00 3.237144e+00 2.346701e+00 54 45 46
1.273158e+00 3.212776e+00 2.675554e+00 53 50 60
-1.377872e+00 3.157520e+00 2.607575e+00 100 99 104
1.188731e+00 3.213071e+00 2.678501e+00 58 57 65
-1.955598e+00 3.117117e+00 2.644062e+00 120 119 124
-2.229993e+00 3.462955e+00 2.051116e+00 16 15 19
-2.229993e+00 3.462955e+00 2.051116e+00 16 15 19
1.326482e+00 3.182926e+00 2.748619e+00 127 125 130
-1.337125e+00 3.220619e+00 2.528923e+00 120 118 121
-3.339502e+00 3.538882e+00 1.853491e+00 96 95 94
-1.831804e+00 3.178911e+00 2.567000e+00 66 64 65
-1.868012e+00 3.158713e+00 2.600968e+00 43 41 44
-1.877682e+00 3.227313e+00 2.491113e+00 43 41 44
-3.301321e+00 3.308867e+00 2.252729e+00 110 102 127
-1.742501e+00 3.267941e+00 2.433916e+00 114 110 104
-3.342923e+00 3.222296e+00 2.397726e+00 133 125 153
1.179220e+00 3.212555e+00 2.707918e+00 125 125 126
-1.482250e+00 3.256067e+00 2.476884e+00 120 119 116
-1.515070e+00 3.173751e+00 2.610579e+00 125 121 118
-1.959895e+00 3.236160e+00 2.480974e+00 54 52 55
-1.015209e+00 3.451875e+00 2.178849e+00 114 115 120
-1.559664e+00 3.202449e+00 2.568381e+00 130 126 125
-1.677833e+00 3.234563e+00 2.504833e+00 117 112 108
-1.845856e+00 3.462619e+00 2.104897e+00 107 105 105
3.005583e+00 3.267283e+00 2.722185e+00 70 69 75
-2.234830e+00 3.174210e+00 2.569329e+00 26 23 30
-2.335798e+00 3.489786e+00 2.034593e+00 24 19 39
-2.287451e+00 3.235017e+00 2.468162e+00 24 19 39
-1.190436e+00 3.450961e+00 2.183256e+00 50 48 51
-1.418001e+00 3.209953e+00 2.575373e+00 26 23 30
-1.417606e+00 3.249778e+00 2.509320e+00 26 23 30
3.051721e+00 3.504834e+00 2.344642e+00 76 74 79
-1.495459e+00 3.172853e+00 2.632528e+00 29 24 30
1.377623e+00 3.219491e+00 2.731896e+00 60 58 64
1.509290e+00 3.245917e+00 2.696549e+00 105 106 110
-1.655507e+00 3.177791e+00 2.621065e+00 39 35 36
-2.576256e+00 3.260872e+00 2.426329e+00 38 35 38
-2.576256e+00 3.260872e+00 2.426329e+00 38 35 38
-1.738845e+00 3.228269e+00 2.541507e+00 34 30 32
-8.781423e-01 3.527184e+00 2.102905e+00 110 109 115
-1.817637e+00 3.231615e+00 2.537024e+00 53 51 49
-1.236536e+00 3.246179e+00 2.556526e+00 103 101 102
-1.237444e+00 3.206842e+00 2.621474e+00 103 101 102
-1.269434e+00 3.270212e+00 2.513387e+00 109 107 108
-1.900343e+00 3.238090e+00 2.525069e+00 51 47 46
-3.475603e+00 3.306439e+00 2.305231e+00 148 144 167
-1.506848e+00 3.249500e+00 2.543177e+00 121 118 112
-2.274914e+00 3.202960e+00 2.559898e+00 135 133 134
-2.357805e+00 3.211711e+00 2.540022e+00 105 103 106
3.172524e+00 3.371470e+00 2.622716e+00 252 254 253
-2.143985e+00 3.260659e+00 2.485887e+00 40 36 39
-2.408342e+00 3.262219e+00 2.465360e+00 114 112 115
-2.595999e+00 3.279637e+00 2.423372e+00 30 29 35
1.340525e+00 3.335821e+00 2.588490e+00 123 122 127
1.340652e+00 3.335884e+00 2.588337e+00 123 122 127
-2.296294e+00 3.234453e+00 2.521634e+00 35 33 37
-2.534197e+00 3.280163e+00 2.434867e+00 114 111 114
-3.273459e+00 3.303915e+00 2.341383e+00 133 131 132
-1.571772e+00 3.281904e+00 2.519696e+00 47 45 43
-1.069564e+00 3.237891e+00 2.626437e+00 124 125 129
-2.663173e+00 3.250883e+00 2.503715e+00 123 121 126
-2.663173e+00 3.250883e+00 2.503715e+00 123 121 126
2.477555e+00 3.324642e+00 2.706958e+00 74 74 76
-1.287977e+00 3.255688e+00 2.607028e+00 111 111 111
-1.909464e+00 3.258869e+00 2.570293e+00 41 38 44
-2.016574e+00 3.280737e+00 2.532352e+00 47 45 48
1.382682e+00 3.364231e+00 2.611426e+00 59 58 63
1.382682e+00 3.364231e+00 2.611426e+00 59 58 63
-2.049934e+00 3.274343e+00 2.540374e+00 52 50 54
3.066932e+00 3.316585e+00 2.790949e+00 129 130 135
-8.483389e-01 3.274435e+00 2.647962e+00 65 63 69
-3.433014e+00 3.329937e+00 2.382609e+00 250 250 255
-1.035266e+00 3.282391e+00 2.631247e+00 137 134 137
-1.998345e+00 3.270175e+00 2.581491e+00 100 98 103
-1.998345e+00 3.270175e+00 2.581491e+00 100 98 103
-2.044250e+00 3.279160e+00 2.568079e+00 95 93 98
-9.291361e-01 3.287638e+00 2.632615e+00 55 54 59
3.000113e+00 3.366116e+00 2.733592e+00 92 92 94
-1.009758e+00 3.276481e+00 2.654191e+00 61 59 64
-8.594510e-01 3.283704e+00 2.667182e+00 122 121 126
-3.225437e+00 3.346555e+00 2.412032e+00 124 117 150
-3.225437e+00 3.346555e+00 2.412032e+00 124 117 150
-2.779934e+00 3.339778e+00 2.455326e+00 63 62 69
-2.779934e+00 3.339778e+00 2.455326e+00 63 62 69
-1.017927e+00 3.308430e+00 2.638647e+00 116 114 115
1.362189e+00 3.377418e+00 2.674069e+00 79 78 83
3.096041e+00 3.409143e+00 2.729735e+00 124 124 129
-2.539595e+00 3.297841e+00 2.561293e+00 46 45 51
-3.208862e+00 3.359060e+00 2.421478e+00 246 248 253
-2.651121e+00 3.343635e+00 2.494998e+00 18 17 25
1.960228e+00 3.414981e+00 2.677615e+00 85 86 88
2.982453e+00 3.402407e+00 2.758155e+00 89 89 91
-2.970224e+00 3.378966e+00 2.425705e+00 63 62 67
-2.970224e+00 3.378966e+00 2.425705e+00 63 62 67
-3.043207e+00 3.370540e+00 2.451505e+00 53 53 53
-2.977734e+00 3.378803e+00 2.452605e+00 112 111 113
-2.736935e+00 3.386725e+00 2.468835e+00 49 47 52
-9.828325e-01 3.344670e+00 2.661870e+00 118 117 125
-1.939538e+00 3.372750e+00 2.558389e+00 58 56 61
-2.815846e+00 3.392529e+00 2.458851e+00 44 40 39
-2.543297e+00 3.365840e+00 2.528494e+00 42 41 54
-2.892149e+00 3.383389e+00 2.478395e+00 50 46 55
1.276487e+00 3.391474e+00 2.740457e+00 90 89 94
-3.389150e+00 3.415777e+00 2.402053e+00 143 140 161
-2.736051e+00 3.400277e+00 2.481717e+00 132 130 130
-1.130337e+00 3.373531e+00 2.639076e+00 79 78 83
-1.816525e+00 3.380661e+00 2.584276e+00 67 68 72
-2.820694e+00 3.437535e+00 2.419356e+00 119 119 111
4.170541e-01 3.402996e+00 2.697776e+00 251 253 253
-2.847757e+00 3.412496e+00 2.466399e+00 115 113 104
-2.065394e+00 3.423354e+00 2.536873e+00 16 16 18
-2.717158e+00 3.424573e+00 2.487702e+00 64 62 64
-2.597026e+00 3.432016e+00 2.488168e+00 53 50 57
-2.597026e+00 3.432016e+00 2.488168e+00 53 50 57
-2.745036e+00 3.425790e+00 2.491685e+00 46 44 47
-2.745036e+00 3.425790e+00 2.491685e+00 46 44 47
-6.521041e-01 3.418244e+00 2.657059e+00 252 254 245
-1.942866e+00 3.435278e+00 2.544383e+00 74 72 74
1.894051e+00 3.521835e+00 2.649241e+00 80 80 82
4.079590e-01 3.397079e+00 2.765975e+00 249 250 252
-2.667852e+00 3.451038e+00 2.483957e+00 41 38 49
2.872703e+00 3.530851e+00 2.716512e+00 74 72 75
-1.128676e+00 3.413984e+00 2.659745e+00 68 67 73
2.481239e+00 3.542284e+00 2.684174e+00 66 66 68
-2.975782e+00 3.486359e+00 2.429590e+00 122 120 123
1.336122e+00 3.483300e+00 2.753594e+00 84 83 87
-2.778177e+00 3.479783e+00 2.490623e+00 69 69 71
-2.746421e+00 3.517986e+00 2.453532e+00 128 128 130
-2.969156e+00 3.485384e+00 2.487487e+00 125 125 126
-3.032955e+00 3.499357e+00 2.466817e+00 92 92 92
-2.936451e+00 3.544893e+00 2.469736e+00 75 75 73
-2.963651e+00 3.526814e+00 2.509381e+00 140 140 138
-2.989731e+00 3.565095e+00 2.450590e+00 75 73 74
-1.977921e+00 3.533193e+00 2.592658e+00 71 71 71
-1.977921e+00 3.533193e+00 2.592658e+00 71 71 71
1.336481e+00 3.580974e+00 2.751173e+00 80 80 82
-6.511092e-01 3.578526e+00 2.640978e+00 254 254 244
-2.775580e+00 3.601472e+00 2.461082e+00 64 65 69
-2.488723e+00 3.576844e+00 2.532502e+00 57 58 63
-2.541679e+00 3.552411e+00 2.584672e+00 113 114 118
-1.285550e+00 3.609276e+00 2.602748e+00 123 122 119
-1.285637e+00 3.600986e+00 2.615486e+00 123 122 119
-1.271141e+00 3.554564e+00 2.719064e+00 74 72 75
2.837007e+00 3.705341e+00 2.779010e+00 100 100 102
-1.948879e+00 3.617888e+00 2.619083e+00 131 129 130
1.334685e+00 3.671608e+00 2.756238e+00 75 75 77
1.347090e+00 3.697618e+00 2.717425e+00 75 75 77
-1.858249e+00 3.682406e+00 2.558435e+00 74 75 77
1.906534e+00 3.679179e+00 2.806626e+00 75 75 77
2.412324e+00 3.683836e+00 2.833943e+00 71 70 75
-2.769544e+00 3.672835e+00 2.515284e+00 72 70 75
-2.769544e+00 3.672835e+00 2.515284e+00 72 70 75
-2.663265e+00 3.698548e+00 2.492701e+00 57 58 62
-1.266366e+00 3.688034e+00 2.617024e+00 75 74 72
-2.469068e+00 3.674457e+00 2.562530e+00 107 108 112
-2.469068e+00 3.674457e+00 2.562530e+00 107 108 112
-2.960432e+00 3.696852e+00 2.500625e+00 139 137 138
1.275892e+00 3.752093e+00 2.731993e+00 89 89 91
-2.488622e+00 3.747316e+00 2.501558e+00 59 60 64
-1.265860e+00 3.734942e+00 2.612531e+00 76 74 74
-2.512096e+00 3.736994e+00 2.579596e+00 108 107 112
-1.264534e+00 3.759304e+00 2.669864e+00 80 78 79
-3.015684e+00 3.801525e+00 2.533389e+00 104 104 106
-2.949453e+00 3.794781e+00 2.550789e+00 134 135 134
1.325930e+00 3.864228e+00 2.773225e+00 85 85 87
-1.308345e+00 3.848747e+00 2.636308e+00 70 68 72
-1.307624e+00 3.863253e+00 2.615405e+00 70 68 72
2.961083e+00 3.797228e+00 3.013138e+00 253 253 253
-3.011040e+00 3.850707e+00 2.538144e+00 96 94 97
-1.283421e+00 3.823879e+00 2.694570e+00 127 127 128
-1.933959e+00 3.882454e+00 2.582337e+00 72 70 73
2.426604e+00 3.953465e+00 2.791787e+00 65 64 69
-1.840533e+00 3.881057e+00 2.613151e+00 121 120 125
5.936184e-01 3.940358e+00 2.711090e+00 118 115 127
1.134273e+00 3.929408e+00 2.773963e+00 98 97 101
5.249144e-01 3.928230e+00 2.733611e+00 101 98 114
-1.851378e+00 3.909129e+00 2.609346e+00 66 66 68
2.416119e+00 3.981205e+00 2.811764e+00 73 72 78
-6.488127e-01 3.987952e+00 2.641660e+00 254 253 250
-8.885390e-01 4.007204e+00 2.615689e+00 101 99 104
-8.885390e-01 4.007204e+00 2.615689e+00 101 99 104
-2.941473e+00 3.958349e+00 2.565363e+00 140 140 139
2.883434e+00 3.917729e+00 3.030376e+00 71 70 76
-6.576224e-01 4.025503e+00 2.625229e+00 187 182 182
-3.103524e+00 3.939339e+00 2.613963e+00 96 96 98
-2.989744e+00 3.928607e+00 2.636909e+00 96 95 100
4.854517e-01 4.022830e+00 2.744233e+00 178 177 181
-3.131376e+00 3.989702e+00 2.594052e+00 145 147 159
-1.964594e+00 4.010362e+00 2.648829e+00 60 58 59
-2.638522e+00 4.023685e+00 2.596993e+00 56 55 60
1.278325e+00 4.128444e+00 2.710177e+00 93 92 97
4.402831e-01 4.082508e+00 2.723220e+00 191 191 190
4.402831e-01 4.082508e+00 2.723220e+00 191 191 190
-6.500904e-01 4.096860e+00 2.632774e+00 254 253 248
1.804534e+00 4.077779e+00 2.859428e+00 80 80 82
5.395194e-01 4.146176e+00 2.684033e+00 251 251 253
-1.839768e+00 4.135976e+00 2.547156e+00 128 127 132
5.595301e-01 4.152807e+00 2.688767e+00 161 161 164
5.595301e-01 4.152807e+00 2.688767e+00 161 161 164
-2.742826e+00 4.065470e+00 2.601181e+00 78 77 82
1.335681e+00 4.184270e+00 2.725323e+00 90 90 92
2.693098e+00 4.049010e+00 3.067000e+00 99 99 101
-1.965234e+00 4.150476e+00 2.593992e+00 62 60 62
-2.979147e+00 4.053052e+00 2.673666e+00 106 106 106
5.457144e-01 4.156857e+00 2.766470e+00 169 166 187
-1.278857e+00 4.146196e+00 2.666320e+00 128 126 128
-1.940761e+00 4.173889e+00 2.590225e+00 131 129 130
2.361233e+00 4.136996e+00 2.940114e+00 76 76 76
-2.703716e+00 4.142075e+00 2.644823e+00 136 137 141
-2.703716e+00 4.142075e+00 2.644823e+00 136 137 141
-2.907752e+00 4.080081e+00 2.727176e+00 137 136 138
2.796513e+00 4.119295e+00 3.110667e+00 86 85 90
2.811838e+00 4.146705e+00 3.076370e+00 86 85 90
-2.976313e+00 4.161675e+00 2.662777e+00 99 99 100
1.243776e+00 4.251051e+00 2.815274e+00 96 95 100
-2.630325e+00 4.206122e+00 2.622342e+00 52 51 57
-2.504703e+00 4.184182e+00 2.661337e+00 36 37 42
-2.508656e+00 4.207842e+00 2.628732e+00 36 37 42
-2.909175e+00 4.139964e+00 2.710010e+00 140 138 141
-2.931025e+00 4.181785e+00 2.670079e+00 74 72 75
-1.279284e+00 4.272531e+00 2.648882e+00 130 129 127
2.781325e+00 4.153104e+00 3.140037e+00 97 97 99
2.736338e+00 4.080916e+00 3.233995e+00 97 97 99
-2.728113e+00 4.220906e+00 2.666843e+00 58 59 63
1.295827e+00 4.328276e+00 2.850762e+00 90 90 92
-2.453484e+00 4.355006e+00 2.667862e+00 70 70 75
2.308439e+00 4.336698e+00 3.056812e+00 79 79 81
-1.276138e+00 4.473892e+00 2.647910e+00 137 137 137
1.870662e+00 4.349573e+00 3.048756e+00 134 132 139
2.728637e+00 4.122319e+00 3.467647e+00 254 254 254
1.879757e+00 4.353355e+00 3.073469e+00 31 26 44
-3.087648e+00 4.294239e+00 2.857978e+00 249 248 252
2.675057e+00 4.166822e+00 3.444738e+00 54 52 57
1.784098e+00 4.501848e+00 2.903111e+00 85 83 84
-1.304772e+00 4.503666e+00 2.677723e+00 70 68 70
-1.304772e+00 4.503666e+00 2.677723e+00 70 68 70
1.889987e+00 4.462596e+00 2.969596e+00 48 44 43
1.384998e+00 4.541634e+00 2.839960e+00 51 50 60
2.710301e+00 4.225679e+00 3.416622e+00 127 125 129
1.875841e+00 4.471309e+00 2.995917e+00 56 45 49
-3.081767e+00 4.321603e+00 2.883033e+00 243 247 249
-1.946910e+00 4.471412e+00 2.738749e+00 67 66 65
-1.946910e+00 4.471412e+00 2.738749e+00 67 66 65
2.306679e+00 4.394579e+00 3.154717e+00 130 129 123
1.342214e+00 4.516930e+00 2.907000e+00 59 54 61
2.126711e+00 4.441606e+00 3.079865e+00 116 115 112
-1.262370e+00 4.542315e+00 2.738125e+00 81 79 80
2.188580e+00 4.347625e+00 3.258575e+00 122 120 121
2.224470e+00 4.414640e+00 3.173270e+00 122 120 121
1.226442e+00 4.602924e+00 2.867473e+00 105 105 107
2.265687e+00 4.416450e+00 3.216186e+00 126 122 123
1.844928e+00 4.525892e+00 3.032598e+00 133 129 128
-1.904833e+00 4.540016e+00 2.764476e+00 51 49 52
-1.904833e+00 4.540016e+00 2.764476e+00 51 49 52
1.191134e+00 4.563541e+00 2.987482e+00 104 104 106
-2.909288e+00 4.368839e+00 2.981762e+00 90 90 92
7.283577e-01 4.601631e+00 2.902385e+00 112 110 115
1.580830e+00 4.627308e+00 2.950709e+00 112 107 111
2.705549e+00 4.269257e+00 3.554579e+00 59 55 70
-1.902385e+00 4.562794e+00 2.796047e+00 79 79 80
2.612790e+00 4.270615e+00 3.560630e+00 61 58 66
2.467103e+00 4.372367e+00 3.413047e+00 51 49 52
-1.984886e+00 4.596706e+00 2.776624e+00 68 64 63
-1.306209e+00 4.649830e+00 2.753864e+00 75 69 71
2.179048e+00 4.448061e+00 3.297882e+00 70 68 69
1.611058e+00 4.548229e+00 3.111785e+00 139 135 134
2.506756e+00 4.405920e+00 3.405843e+00 137 137 137
2.270502e+00 4.445943e+00 3.325603e+00 50 48 53
1.702455e+00 4.587332e+00 3.083175e+00 69 67 68
-2.473105e+00 4.552083e+00 2.847231e+00 70 69 74
2.550962e+00 4.304218e+00 3.581477e+00 141 140 138
2.159328e+00 4.468933e+00 3.315010e+00 60 58 59
1.675091e+00 4.608530e+00 3.119568e+00 75 73 74
1.675091e+00 4.608530e+00 3.119568e+00 75 73 74
-1.820927e+00 4.562097e+00 2.925880e+00 66 64 65
-1.258247e+00 4.718719e+00 2.764030e+00 90 81 83
-1.894470e+00 4.623333e+00 2.847634e+00 63 57 57
2.153442e+00 4.541613e+00 3.274018e+00 67 63 63
-1.955867e+00 4.677133e+00 2.803678e+00 115 110 106
2.496887e+00 4.321090e+00 3.620770e+00 75 73 74
-2.322026e+00 4.568379e+00 2.929865e+00 10 9 19
1.640943e+00 4.548197e+00 3.230857e+00 131 129 132
-1.764283e+00 4.662273e+00 2.840147e+00 114 108 108
-1.375350e+00 4.729736e+00 2.786331e+00 119 113 115
2.104349e+00 4.517275e+00 3.343734e+00 66 60 60
-1.354910e+00 4.677139e+00 2.875955e+00 75 69 71
-2.359917e+00 4.562390e+00 2.980011e+00 58 54 50
1.820063e+00 4.579793e+00 3.263824e+00 54 47 58
-1.087579e+00 4.683243e+00 2.908316e+00 87 77 85
6.950923e-01 4.782344e+00 2.916942e+00 137 133 148
2.066803e+00 4.527931e+00 3.369645e+00 56 51 54
1.622644e+00 4.666285e+00 3.147998e+00 63 58 62
-1.237134e+00 4.760244e+00 2.817417e+00 124 115 116
2.378898e+00 4.462436e+00 3.505114e+00 59 54 61
1.138781e+00 4.717158e+00 3.047940e+00 76 74 79
-1.259242e+00 4.769891e+00 2.810117e+00 73 64 64
-1.821378e+00 4.722060e+00 2.846081e+00 41 32 35
-1.212848e+00 4.761043e+00 2.835522e+00 84 75 78
-2.403034e+00 4.575805e+00 3.013341e+00 48 42 44
6.830782e-01 4.785677e+00 2.948266e+00 135 130 148
-1.162978e+00 4.789170e+00 2.818784e+00 73 67 71
2.029241e+00 4.550850e+00 3.376830e+00 59 54 51
-1.321901e+00 4.749479e+00 2.868769e+00 85 79 79
-2.879990e+00 4.494696e+00 3.137753e+00 79 77 80
-2.562704e+00 4.588992e+00 3.028749e+00 53 52 57
1.973699e+00 4.506479e+00 3.455570e+00 48 42 46
2.019798e+00 4.610842e+00 3.332397e+00 48 42 46
2.035325e+00 4.599034e+00 3.350992e+00 125 119 119
1.548166e+00 4.682541e+00 3.199822e+00 62 57 63
-2.028223e+00 4.721148e+00 2.902841e+00 99 96 91
-1.277859e+00 4.797299e+00 2.850324e+00 93 88 85
-2.353411e+00 4.527594e+00 3.132351e+00 103 101 104
-3.005907e+00 4.439120e+00 3.230357e+00 245 248 250
9.121711e-01 4.814416e+00 2.988820e+00 85 84 94
-1.952995e+00 4.732647e+00 2.905876e+00 60 56 53
1.930820e+00 4.580140e+00 3.403060e+00 64 56 60
1.506068e+00 4.639446e+00 3.290233e+00 139 135 136
1.509904e+00 4.748560e+00 3.161533e+00 59 53 59
-2.459386e+00 4.657478e+00 3.005311e+00 56 54 55
-1.910217e+00 4.768947e+00 2.904263e+00 68 64 64
-2.488555e+00 4.588418e+00 3.104624e+00 47 43 43
1.410258e+00 4.738437e+00 3.185253e+00 76 72 73
1.486611e+00 4.716156e+00 3.225622e+00 131 127 126
1.364672e+00 4.677067e+00 3.262208e+00 129 126 127
1.877912e+00 4.503870e+00 3.539681e+00 77 70 77
1.464863e+00 4.786686e+00 3.163651e+00 132 127 131
-1.341214e+00 4.822996e+00 2.904307e+00 73 65 63
-1.044346e+00 4.845346e+00 2.914663e+00 171 161 170
-1.359215e+00 4.833261e+00 2.936605e+00 74 65 66
-2.940007e+00 4.465828e+00 3.335705e+00 144 139 143
1.233581e+00 4.792029e+00 3.189252e+00 80 79 85
-2.354462e+00 4.629569e+00 3.153926e+00 68 67 65
-1.710237e+00 4.696258e+00 3.111830e+00 70 65 63
-2.628343e+00 4.608814e+00 3.205962e+00 85 85 88
7.792122e-01 4.783437e+00 3.200279e+00 155 154 160
8.299326e-01 4.714522e+00 3.310429e+00 161 158 165
1.961629e+00 4.643007e+00 3.533996e+00 132 128 124
-1.414803e+00 4.852895e+00 3.006745e+00 69 59 61
-1.414803e+00 4.852895e+00 3.006745e+00 69 59 61
-1.667004e+00 4.848994e+00 3.008264e+00 61 55 56
2.066436e+00 4.342747e+00 3.946943e+00 73 68 72
1.968626e+00 4.450595e+00 3.804993e+00 134 133 132
2.059075e+00 4.579051e+00 3.663505e+00 134 132 131
-1.716143e+00 4.726512e+00 3.188953e+00 72 67 71
-1.628794e+00 4.869080e+00 3.027760e+00 58 51 51
-1.941767e+00 4.777650e+00 3.124942e+00 136 128 125
-2.292200e+00 4.732718e+00 3.176295e+00 64 56 57
-2.282970e+00 4.676072e+00 3.242254e+00 64 56 57
1.461424e+00 4.663414e+00 3.527092e+00 87 85 88
-1.593400e+00 4.877676e+00 3.044212e+00 55 45 46
-1.611833e+00 4.835891e+00 3.097027e+00 127 120 119
-1.689599e+00 4.864053e+00 3.074638e+00 75 69 69
-1.701202e+00 4.699756e+00 3.271771e+00 138 135 130
6.645767e-01 4.947278e+00 3.138931e+00 254 252 255
-1.532028e+00 4.760822e+00 3.210990e+00 53 41 43
-1.969261e+00 4.777118e+00 3.183419e+00 136 131 127
-1.375189e+00 4.900911e+00 3.071272e+00 95 89 90
-1.426560e+00 4.901780e+00 3.071310e+00 83 73 73
-1.424681e+00 4.855804e+00 3.124415e+00 83 73 73
-2.004660e+00 4.814430e+00 3.193082e+00 125 117 114
-1.653259e+00 4.844863e+00 3.182449e+00 89 84 83
-1.479177e+00 4.917190e+00 3.114727e+00 130 121 122
-1.859806e+00 4.796590e+00 3.243735e+00 114 111 112
-2.168362e+00 4.768543e+00 3.274436e+00 58 49 45
-2.006698e+00 4.802949e+00 3.244629e+00 79 75 72
-1.522892e+00 4.880880e+00 3.181910e+00 126 119 119
-2.490008e+00 4.670343e+00 3.400851e+00 41 39 46
-1.452657e+00 4.878929e+00 3.192715e+00 144 140 139
1.794911e+00 4.680469e+00 3.714153e+00 133 130 133
-2.082855e+00 4.798737e+00 3.288100e+00 129 128 124
-2.206467e+00 4.762055e+00 3.329542e+00 130 122 123
1.485389e+00 4.606617e+00 3.791802e+00 140 138 141
1.447562e+00 4.751242e+00 3.625679e+00 133 131 136
-2.159093e+00 4.778812e+00 3.336191e+00 130 125 121
1.361397e+00 4.785136e+00 3.587826e+00 138 136 139
1.107541e+00 4.748172e+00 3.626379e+00 135 133 138
-9.671906e-01 4.883578e+00 3.343915e+00 129 106 132
-2.302762e+00 4.740866e+00 3.479498e+00 130 128 131
-1.083527e+00 4.953127e+00 3.285926e+00 104 89 109
-1.016740e+00 4.982660e+00 3.274491e+00 178 160 179
-1.684900e+00 4.916857e+00 3.402254e+00 75 66 71
-1.674298e+00 4.917185e+00 3.425238e+00 139 133 133
-2.052444e+00 4.795090e+00 3.594352e+00 138 137 132
1.054796e+00 -6.757093e+00 2.047018e+00 114 113 118
1.029334e+00 -6.710973e+00 1.878886e+00 130 128 131
9.976240e-01 -6.656705e+00 1.875550e+00 208 207 206
9.930832e-01 -6.649023e+00 1.826240e+00 199 197 200
1.445831e+00 -6.582502e+00 1.880754e+00 138 134 151
-4.231328e-01 -6.583135e+00 1.596374e+00 48 45 64
1.582231e+00 -6.564212e+00 1.924948e+00 155 152 166
1.582231e+00 -6.564212e+00 1.924948e+00 155 152 166
1.661895e+00 -6.534046e+00 1.962846e+00 164 163 161
-4.006719e-01 -6.547959e+00 1.578565e+00 57 55 68
-1.994512e+00 -6.389086e+00 1.660352e+00 32 34 49
1.368890e+00 -6.538408e+00 1.796659e+00 185 185 185
-1.619847e+00 -6.418909e+00 1.602394e+00 40 41 61
2.221377e+00 -7.506359e+00 -1.803575e-01 178 176 177
3.699316e+00 -6.594082e+00 2.189192e+00 205 203 204
1.593701e+00 -6.496450e+00 1.808989e+00 179 177 178
2.176509e+00 -7.436401e+00 -2.161048e-01 178 176 177
-4.441621e+00 -6.894541e+00 6.190131e-02 54 58 73
1.116537e+00 -7.359984e+00 -3.818669e-01 77 73 88
2.464447e+00 -7.276754e+00 -7.111231e-02 229 227 229
1.486034e+00 -6.724750e+00 9.916186e-01 240 239 241
1.586717e+00 -6.384964e+00 1.720228e+00 249 247 247
2.768401e+00 -6.568296e+00 1.524226e+00 151 147 147
8.533850e-01 -6.674042e+00 9.603038e-01 108 106 110
1.754504e+00 -6.375282e+00 1.757922e+00 250 249 249
1.917789e+00 -6.682633e+00 1.089950e+00 169 167 167
8.818648e-01 -6.700993e+00 8.843025e-01 185 183 188
2.629365e+00 -6.588057e+00 1.419404e+00 165 163 165
-2.328789e-01 -6.311665e+00 1.574789e+00 68 68 80
1.918824e+00 -6.671870e+00 1.070843e+00 243 242 238
2.795071e+00 -6.531605e+00 1.549615e+00 161 158 165
3.289478e+00 -7.086427e+00 3.698295e-01 161 158 165
2.639659e+00 -6.576524e+00 1.409026e+00 235 234 230
1.827920e+00 -6.684072e+00 1.017092e+00 233 232 231
1.613347e+00 -6.309600e+00 1.753078e+00 218 217 212
3.809519e+00 -6.764563e+00 1.111403e+00 229 228 227
1.854803e+00 -6.623995e+00 1.030952e+00 176 174 175
3.877402e+00 -6.707384e+00 1.250746e+00 221 220 219
1.784546e+00 -6.626498e+00 9.988096e-01 235 233 234
6.653052e-01 -6.313054e+00 1.542833e+00 116 114 119
4.011996e+00 -6.420285e+00 1.949504e+00 218 217 220
3.929453e+00 -6.646572e+00 1.272125e+00 174 172 175
7.628152e-01 -6.554894e+00 8.616094e-01 110 109 114
-4.399922e+00 -6.782954e+00 -2.968092e-01 44 43 61
2.924027e+00 -7.040332e+00 4.396011e-02 173 171 174
7.834107e-01 -6.549470e+00 8.592284e-01 179 177 182
2.421714e+00 -6.466315e+00 1.185636e+00 169 168 167
1.441966e+00 -6.481736e+00 9.681799e-01 229 227 229
1.777603e+00 -6.485259e+00 9.934390e-01 155 150 154
1.762340e+00 -6.477467e+00 9.878365e-01 231 227 227
2.034969e+00 -6.188941e+00 1.704625e+00 164 161 169
1.661126e+00 -6.190528e+00 1.640377e+00 241 238 234
2.070486e+00 -6.191077e+00 1.700272e+00 179 176 183
2.373987e+00 -6.441629e+00 1.138398e+00 138 135 143
2.342285e+00 -6.433545e+00 1.124048e+00 240 239 236
2.558038e+00 -6.406548e+00 1.185081e+00 249 247 248
1.772504e+00 -6.414671e+00 9.757361e-01 232 229 224
1.964464e+00 -6.847029e+00 -8.215256e-02 231 227 226
2.228228e+00 -6.115899e+00 1.713094e+00 195 194 192
4.123345e+00 -6.409732e+00 1.401797e+00 149 147 157
2.811291e+00 -6.790025e+00 7.736645e-02 248 247 243
2.333155e+00 -6.344323e+00 1.083859e+00 233 229 228
3.126674e-01 -6.020441e+00 1.528819e+00 130 129 137
1.118426e-01 -6.006841e+00 1.519532e+00 67 67 76
1.828030e+00 -6.705932e+00 2.957062e-02 229 226 232
1.173258e+00 -6.043142e+00 1.543575e+00 166 162 174
2.055202e+00 -6.702582e+00 4.855930e-02 215 211 210
1.643845e+00 -6.065791e+00 1.545952e+00 225 222 215
1.246650e+00 -6.258819e+00 1.020357e+00 222 220 221
2.432377e+00 -6.700287e+00 6.919816e-02 240 236 236
1.596331e+00 -6.039862e+00 1.575195e+00 164 158 168
1.844904e+00 -6.275931e+00 1.023839e+00 175 171 177
1.550164e+00 -6.270383e+00 9.896213e-01 249 247 250
1.478041e+00 -6.030710e+00 1.560794e+00 248 247 244
1.510081e+00 -6.026976e+00 1.572155e+00 251 250 249
2.098089e+00 -6.021253e+00 1.635842e+00 241 240 238
2.066972e+00 -6.018855e+00 1.636221e+00 240 239 237
1.198323e+00 -6.226836e+00 9.529638e-01 218 216 217
1.206277e+00 -6.212746e+00 9.523824e-01 142 139 134
1.252333e+00 -6.198288e+00 9.926572e-01 250 249 244
1.194351e+00 -6.167736e+00 1.024677e+00 204 202 195
1.209305e+00 -6.159901e+00 1.018235e+00 143 138 141
3.606208e+00 -5.984352e+00 1.808072e+00 166 160 164
3.153354e-01 -6.053556e+00 1.046540e+00 70 68 79
1.167200e+00 -6.111953e+00 1.010632e+00 253 250 249
2.104041e-01 -5.847536e+00 1.541809e+00 74 73 91
1.124459e+00 -6.065168e+00 1.038800e+00 253 252 250
1.044205e+00 -6.360183e+00 2.447101e-01 218 218 216
8.526931e-01 -6.031684e+00 1.062408e+00 235 233 234
7.305136e-01 -6.023819e+00 1.065565e+00 213 211 211
9.542905e-01 -5.829674e+00 1.568412e+00 229 227 228
1.578780e+00 -6.057979e+00 1.042975e+00 171 168 177
1.578780e+00 -6.057979e+00 1.042975e+00 171 168 177
1.068357e+00 -6.030785e+00 1.040114e+00 197 195 197
1.440161e+00 -5.836890e+00 1.562933e+00 240 239 237
1.562824e+00 -6.043854e+00 1.044900e+00 244 241 242
7.739789e-01 -5.943931e+00 1.195582e+00 157 155 156
3.232556e+00 -5.739643e+00 2.109355e+00 168 165 172
3.232556e+00 -5.739643e+00 2.109355e+00 168 165 172
8.998101e-01 -6.295580e+00 2.549784e-01 114 112 117
3.240473e+00 -5.778994e+00 1.926869e+00 208 202 210
7.226508e-01 -5.946186e+00 1.089005e+00 120 115 122
6.715764e-01 -5.914936e+00 1.092532e+00 203 201 203
1.559512e+00 -5.965246e+00 1.071612e+00 189 188 186
1.559512e+00 -5.965246e+00 1.071612e+00 189 188 186
7.466648e-01 -5.898484e+00 1.113860e+00 228 227 225
1.748384e+00 -6.247443e+00 3.044949e-01 193 191 194
1.538348e+00 -5.945668e+00 1.073137e+00 193 191 194
1.643082e+00 -5.698401e+00 1.566209e+00 193 188 191
1.643082e+00 -5.698401e+00 1.566209e+00 193 188 191
1.779808e+00 -5.869368e+00 1.096161e+00 189 185 186
1.779808e+00 -5.869368e+00 1.096161e+00 189 185 186
1.713436e+00 -5.816445e+00 1.095758e+00 185 183 184
1.673439e+00 -5.778569e+00 1.172961e+00 184 182 182
7.288907e-01 -5.966338e+00 5.235014e-01 230 229 229
5.290767e-01 -5.713638e+00 1.180444e+00 213 211 212
1.659858e+00 -5.772479e+00 1.134268e+00 170 168 173
1.659858e+00 -5.772479e+00 1.134268e+00 170 168 173
4.969329e-01 -5.548484e+00 1.575510e+00 163 162 160
-4.057801e+00 -5.242541e+00 1.728516e+00 69 75 90
2.108883e+00 -5.748292e+00 1.172429e+00 185 184 180
-3.873387e+00 -5.533430e+00 9.065812e-01 63 68 80
2.657311e+00 -5.572061e+00 1.653950e+00 66 64 64
2.673389e+00 -5.568012e+00 1.646718e+00 242 242 232
5.059818e-01 -5.598246e+00 1.228260e+00 227 226 224
-1.814172e+00 -5.342422e+00 1.587923e+00 95 103 108
4.360046e-01 -5.587429e+00 1.237197e+00 139 136 142
-1.843173e+00 -5.320835e+00 1.624205e+00 19 24 44
-3.522091e+00 -5.264130e+00 1.528876e+00 37 34 51
2.044925e+00 -5.681403e+00 1.165694e+00 185 184 182
-1.431390e+00 -5.326074e+00 1.628011e+00 63 69 83
1.153654e+00 -5.458627e+00 1.610371e+00 201 200 196
1.176342e+00 -5.453377e+00 1.622292e+00 207 205 206
-4.388066e+00 -5.851150e+00 -3.433622e-01 64 65 83
2.404214e+00 -5.658728e+00 1.119906e+00 226 225 229
2.471078e+00 -5.831043e+00 6.065890e-01 180 179 177
2.251738e+00 -5.603847e+00 1.231173e+00 180 179 177
2.890167e+00 -5.647765e+00 1.188480e+00 233 232 229
-2.395642e-01 -5.641973e+00 7.490215e-01 67 67 79
2.712043e+00 -5.465799e+00 1.606818e+00 245 245 237
9.658374e-01 -5.359215e+00 1.652940e+00 240 239 239
5.020404e-01 -5.458108e+00 1.301729e+00 158 155 163
5.020404e-01 -5.458108e+00 1.301729e+00 158 155 163
4.381388e-01 -5.436665e+00 1.328264e+00 231 229 233
4.239740e-01 -5.309403e+00 1.680301e+00 239 238 236
-3.194915e+00 -5.136594e+00 1.629665e+00 21 6 20
1.282708e+00 -5.350246e+00 1.649645e+00 196 195 193
1.282708e+00 -5.350246e+00 1.649645e+00 196 195 193
9.541487e-01 -5.326350e+00 1.668938e+00 245 243 244
4.006183e-01 -5.291204e+00 1.684535e+00 234 233 231
-1.806945e+00 -5.147870e+00 1.642580e+00 87 96 98
-1.786042e+00 -5.288704e+00 1.230823e+00 92 94 109
8.627572e-01 -5.523033e+00 8.659162e-01 199 197 198
7.384029e-01 -5.355310e+00 1.337909e+00 180 179 177
-1.822728e+00 -5.119310e+00 1.643703e+00 95 97 110
2.405386e+00 -5.581889e+00 7.736098e-01 182 180 180
2.405386e+00 -5.581889e+00 7.736098e-01 182 180 180
3.349397e-02 -5.150004e+00 1.720603e+00 97 96 101
3.349397e-02 -5.150004e+00 1.720603e+00 97 96 101
1.870572e+00 -5.243600e+00 1.696329e+00 238 237 234
7.005272e-01 -5.197093e+00 1.623881e+00 229 229 229
-3.844556e+00 -5.500831e+00 -1.731128e-01 18 19 31
1.834622e+00 -5.295142e+00 1.339310e+00 175 174 172
1.584477e+00 -5.109940e+00 1.786593e+00 34 25 30
4.369777e-01 -5.055066e+00 1.790704e+00 46 44 58
2.428156e-01 -4.998373e+00 1.867224e+00 20 42 40
2.054258e+00 -5.231339e+00 1.344446e+00 80 77 90
-1.796167e+00 -5.275174e+00 6.183559e-01 36 36 45
4.298929e-01 -5.024977e+00 1.757604e+00 6 7 18
2.927373e+00 -5.156083e+00 1.672658e+00 210 208 211
-1.504628e+00 -4.904524e+00 1.768598e+00 111 112 116
3.313390e-01 -4.961550e+00 1.764852e+00 4 7 24
3.179628e-01 -4.949411e+00 1.763596e+00 112 119 129
1.064736e+00 -4.964443e+00 1.783081e+00 40 71 66
2.958887e+00 -5.175247e+00 1.322541e+00 27 25 28
2.979017e+00 -5.157286e+00 1.336493e+00 21 19 22
-8.865774e-01 -4.922420e+00 1.543558e+00 2 2 12
2.246846e+00 -5.208235e+00 9.759320e-01 92 92 94
2.246846e+00 -5.208235e+00 9.759320e-01 92 92 94
2.226675e+00 -5.005056e+00 1.626494e+00 92 91 97
2.975877e+00 -5.017687e+00 1.671238e+00 44 42 45
4.151571e+00 -5.204448e+00 8.951764e-01 242 238 238
1.371267e+00 -4.812300e+00 1.783475e+00 14 5 13
-4.081032e+00 -4.587774e+00 1.630239e+00 34 49 26
-4.562751e+00 -4.559577e+00 1.660408e+00 6 18 6
-3.599501e+00 -4.720959e+00 1.121064e+00 32 42 31
-4.574396e+00 -4.513577e+00 1.696204e+00 82 96 79
-4.383300e+00 -4.682639e+00 1.036860e+00 96 115 91
-4.203546e+00 -4.522876e+00 1.571947e+00 6 17 6
6.528045e-01 -4.623986e+00 1.933904e+00 9 4 11
-4.927480e+00 -4.579501e+00 1.134834e+00 1 7 0
-4.732110e+00 -4.960213e+00 -2.829861e-01 1 6 1
-4.689938e+00 -4.593149e+00 1.087252e+00 2 13 0
-4.161921e+00 -4.450940e+00 1.650048e+00 36 46 37
-4.939068e+00 -4.566499e+00 1.133614e+00 70 90 60
-4.264134e+00 -4.610306e+00 1.048621e+00 4 11 4
-3.818891e+00 -4.604469e+00 1.102843e+00 4 13 3
1.108434e+00 -4.614953e+00 1.875050e+00 78 88 123
1.108434e+00 -4.614953e+00 1.875050e+00 78 88 123
-1.243802e+00 -4.506452e+00 1.880403e+00 4 10 2
-1.376826e+00 -4.503868e+00 1.854719e+00 36 45 28
-4.196208e+00 -4.574690e+00 1.072899e+00 101 114 96
-7.328367e-01 -4.678525e+00 1.253982e+00 4 10 2
-3.709178e+00 -4.572282e+00 1.107786e+00 41 53 41
-3.782838e+00 -4.428681e+00 1.620288e+00 12 25 1
-4.544826e+00 -4.873188e+00 -1.897674e-01 13 28 7
1.090057e+00 -4.590853e+00 1.845562e+00 22 24 31
-4.361527e+00 -4.551097e+00 1.052690e+00 72 92 63
-4.518849e+00 -4.544022e+00 1.051569e+00 14 26 5
-4.456118e+00 -4.388403e+00 1.623075e+00 54 70 32
1.411247e+00 -4.608456e+00 1.799484e+00 81 89 127
3.131336e-01 -4.536859e+00 1.854328e+00 103 109 117
3.103590e-01 -4.555834e+00 1.781763e+00 8 12 12
-1.175362e+00 -4.470863e+00 1.851503e+00 5 11 1
-4.054418e+00 -4.399458e+00 1.595453e+00 71 94 58
-3.802295e+00 -4.538836e+00 1.116553e+00 2 13 0
-4.778398e+00 -4.508860e+00 1.068687e+00 42 55 26
1.109268e+00 -4.564441e+00 1.849806e+00 93 91 129
-3.786886e+00 -4.409499e+00 1.582025e+00 9 24 0
-3.931262e+00 -4.541393e+00 1.071445e+00 9 24 0
-4.607733e+00 -4.354262e+00 1.644704e+00 61 76 27
-1.186621e+00 -4.650328e+00 1.129912e+00 60 69 44
-1.185448e+00 -4.531970e+00 1.580143e+00 60 69 44
-2.041135e-01 -4.542828e+00 1.687486e+00 55 67 37
5.453624e-01 -4.527469e+00 1.863773e+00 42 40 55
-5.417357e-01 -4.548611e+00 1.608583e+00 83 88 82
-7.980858e-01 -4.459274e+00 1.895143e+00 11 22 5
-7.980858e-01 -4.459274e+00 1.895143e+00 11 22 5
-3.660526e+00 -4.378772e+00 1.680144e+00 94 114 86
-3.660526e+00 -4.378772e+00 1.680144e+00 94 114 86
7.822561e-01 -4.548612e+00 1.805058e+00 137 136 142
1.837482e-01 -4.497214e+00 1.886932e+00 20 22 11
-3.424477e+00 -4.391854e+00 1.641457e+00 2 10 0
6.737915e-01 -4.513006e+00 1.899300e+00 30 29 47
-3.328015e-03 -4.486280e+00 1.868656e+00 149 151 116
1.104230e+00 -4.531835e+00 1.854970e+00 234 241 253
7.812074e-02 -4.486207e+00 1.865546e+00 109 115 79
-8.992586e-01 -4.425448e+00 1.937816e+00 9 15 1
-8.992586e-01 -4.425448e+00 1.937816e+00 9 15 1
1.393493e-01 -4.543636e+00 1.657420e+00 131 137 69
1.360640e+00 -4.545152e+00 1.823362e+00 87 77 118
1.073392e+00 -4.532212e+00 1.830257e+00 22 23 16
1.459614e-02 -4.509233e+00 1.735636e+00 22 25 4
-1.276116e-01 -4.462064e+00 1.879665e+00 24 29 7
-5.969433e-01 -4.495637e+00 1.674503e+00 19 24 3
-4.727046e+00 -4.785115e+00 -1.945958e-01 8 23 2
-4.416676e+00 -4.487027e+00 1.021965e+00 59 75 35
-3.962796e+00 -4.763740e+00 -2.643511e-03 19 26 12
1.861706e+00 -4.622783e+00 1.549309e+00 108 119 63
1.749950e-01 -4.460914e+00 1.905695e+00 14 16 3
-4.867484e+00 -4.450249e+00 1.077630e+00 14 29 0
-8.113368e-01 -4.570182e+00 1.319592e+00 14 27 3
-4.286385e+00 -4.471368e+00 1.076348e+00 10 23 4
1.072474e+00 -4.521484e+00 1.810270e+00 148 145 126
-4.407903e-01 -4.496296e+00 1.655060e+00 95 99 76
-1.317606e+00 -4.598787e+00 1.108330e+00 10 18 5
1.309111e+00 -4.527155e+00 1.800548e+00 92 86 122
-3.965008e-01 -4.574652e+00 1.347428e+00 29 32 5
-1.469514e+00 -4.475851e+00 1.546630e+00 55 63 47
-4.242404e+00 -4.466522e+00 1.074605e+00 129 152 102
-4.242404e+00 -4.466522e+00 1.074605e+00 129 152 102
-4.619166e+00 -4.295749e+00 1.666906e+00 24 41 0
-5.423723e-01 -4.494586e+00 1.624494e+00 14 17 0
4.846246e-02 -4.444298e+00 1.905137e+00 28 28 4
-6.445267e-02 -4.439373e+00 1.905455e+00 33 41 0
-3.093678e-01 -4.434621e+00 1.877337e+00 24 27 5
-1.036703e+00 -4.382941e+00 1.951849e+00 6 11 1
-1.488834e+00 -4.376631e+00 1.891319e+00 52 62 39
-1.504683e+00 -4.374827e+00 1.894100e+00 1 9 3
-1.497527e+00 -4.575977e+00 1.112220e+00 4 9 2
-3.808369e+00 -4.463239e+00 1.131460e+00 3 18 0
1.542751e+00 -4.522259e+00 1.816959e+00 214 221 252
1.061384e+00 -4.496684e+00 1.841655e+00 26 29 3
6.644524e-01 -4.476238e+00 1.855480e+00 44 45 68
1.012240e+00 -4.489269e+00 1.855058e+00 33 36 16
1.633305e-01 -4.488603e+00 1.722444e+00 13 22 5
-9.337747e-01 -4.468968e+00 1.614093e+00 72 82 53
-1.972510e-01 -4.475633e+00 1.689518e+00 5 12 0
2.699414e-01 -4.496098e+00 1.672504e+00 187 190 75
-3.662386e+00 -4.438809e+00 1.187250e+00 3 9 3
-3.700070e+00 -4.438627e+00 1.185217e+00 6 11 2
-4.264086e+00 -4.443184e+00 1.064379e+00 164 182 137
-1.116813e-01 -4.540740e+00 1.424705e+00 95 107 61
-1.402023e-01 -4.470697e+00 1.690784e+00 95 107 61
-8.189355e-01 -4.379525e+00 1.914931e+00 4 18 0
-8.189355e-01 -4.379525e+00 1.914931e+00 4 18 0
1.919054e+00 -4.521113e+00 1.804803e+00 180 187 135
8.693363e-01 -4.439549e+00 1.960515e+00 220 219 224
-4.844343e+00 -4.402242e+00 1.100389e+00 126 155 96
6.907917e-01 -4.464839e+00 1.807681e+00 99 101 114
-4.669132e+00 -4.410761e+00 1.083177e+00 18 37 0
1.739491e+00 -4.496084e+00 1.846292e+00 14 16 0
-4.792144e-02 -4.403725e+00 1.909568e+00 79 84 57
1.874867e+00 -4.639296e+00 1.283932e+00 154 144 118
-3.588392e+00 -4.420998e+00 1.209556e+00 85 101 57
-3.588392e+00 -4.420998e+00 1.209556e+00 85 101 57
-3.868841e+00 -4.421555e+00 1.149336e+00 55 73 31
-4.681825e+00 -4.260233e+00 1.636054e+00 65 86 25
1.968047e+00 -4.503176e+00 1.827772e+00 45 51 17
-5.524530e-01 -4.376917e+00 1.910357e+00 116 122 71
1.708553e+00 -4.487087e+00 1.839350e+00 23 21 18
9.279001e-02 -4.404676e+00 1.889729e+00 19 29 4
2.711091e-01 -4.404857e+00 1.902998e+00 14 17 1
2.715278e+00 -4.534566e+00 1.764814e+00 172 184 118
5.573130e-02 -4.441467e+00 1.708812e+00 25 36 0
-5.449109e-01 -4.429894e+00 1.660192e+00 5 10 0
1.960991e+00 -4.491339e+00 1.811020e+00 202 208 172
1.697055e-01 -4.453150e+00 1.674597e+00 119 131 57
-6.029938e-01 -4.402977e+00 1.736511e+00 49 57 3
-4.470780e+00 -4.668499e+00 -4.228127e-02 66 84 35
-4.032782e+00 -4.271864e+00 1.612195e+00 89 101 50
6.071257e-01 -4.414129e+00 1.872504e+00 103 102 113
3.296230e+00 -4.729912e+00 1.005019e+00 150 161 86
-3.455767e+00 -4.269214e+00 1.701841e+00 62 87 45
1.881935e+00 -4.524245e+00 1.605831e+00 22 28 0
-3.100143e-01 -4.451435e+00 1.554250e+00 28 42 5
-4.679642e+00 -4.227171e+00 1.644862e+00 17 35 0
1.059461e+00 -4.417742e+00 1.897858e+00 86 98 61
9.418955e-01 -4.422538e+00 1.864119e+00 219 217 136
-1.616800e-01 -4.367973e+00 1.891532e+00 27 38 4
-1.616800e-01 -4.367973e+00 1.891532e+00 27 38 4
1.084812e+00 -4.425534e+00 1.860452e+00 52 56 27
-4.571366e+00 -4.228371e+00 1.639660e+00 76 91 24
2.908789e+00 -4.588175e+00 1.469042e+00 220 222 201
-1.764553e-01 -4.499948e+00 1.337804e+00 127 136 63
1.492717e-01 -4.364956e+00 1.915008e+00 201 203 79
-4.605544e-01 -4.478619e+00 1.371645e+00 10 17 0
3.746359e+00 -4.754360e+00 9.015148e-01 128 126 112
6.713164e-01 -4.392105e+00 1.887958e+00 131 123 124
2.404789e-01 -4.370909e+00 1.902057e+00 59 60 1
-6.822956e-01 -4.356382e+00 1.800978e+00 20 32 2
-6.822956e-01 -4.356382e+00 1.800978e+00 20 32 2
3.729672e+00 -4.750115e+00 8.949705e-01 9 11 5
7.798558e-01 -4.381892e+00 1.911899e+00 180 185 205
3.124318e+00 -4.586210e+00 1.444852e+00 37 46 5
3.174918e+00 -4.584808e+00 1.449315e+00 67 72 5
9.327798e-01 -4.398743e+00 1.863601e+00 196 200 115
9.327798e-01 -4.398743e+00 1.863601e+00 196 200 115
-4.570387e-01 -4.445519e+00 1.445726e+00 93 110 66
-4.783753e-01 -4.371301e+00 1.738735e+00 93 110 66
1.887879e+00 -4.501901e+00 1.585481e+00 38 48 1
-3.635901e-01 -4.336139e+00 1.888732e+00 26 35 0
-4.178551e-01 -4.455831e+00 1.405114e+00 65 77 33
1.473148e-01 -4.393781e+00 1.734894e+00 205 202 88
-5.635650e-01 -4.462396e+00 1.343668e+00 20 28 0
-8.721460e-01 -4.317784e+00 1.863901e+00 63 71 34
1.804403e+00 -4.468162e+00 1.682313e+00 36 46 0
2.832300e-01 -4.394173e+00 1.745330e+00 190 193 86
-4.253781e+00 -4.358670e+00 1.071539e+00 69 87 49
3.041782e+00 -4.500157e+00 1.755008e+00 157 160 88
2.716933e+00 -4.479672e+00 1.775050e+00 195 202 160
1.667995e+00 -4.412469e+00 1.885681e+00 7 11 0
-1.514441e-01 -4.447349e+00 1.449569e+00 96 103 34
-6.094127e-01 -4.366010e+00 1.696019e+00 10 16 2
-6.094127e-01 -4.366010e+00 1.696019e+00 10 16 2
-1.083098e+00 -4.443251e+00 1.299582e+00 52 65 46
-1.295916e+00 -4.274595e+00 1.934940e+00 27 34 0
1.867610e+00 -4.485614e+00 1.599849e+00 154 172 70
-4.215078e+00 -4.336784e+00 1.142952e+00 31 45 16
3.066304e+00 -4.552611e+00 1.495953e+00 29 35 2
2.060054e+00 -4.491924e+00 1.585464e+00 31 39 6
8.937292e-01 -4.395248e+00 1.789653e+00 199 205 197
-2.455094e-01 -4.315321e+00 1.924764e+00 121 129 75
2.887660e-01 -4.380224e+00 1.740996e+00 76 78 1
3.779387e+00 -4.698034e+00 9.686636e-01 145 147 106
1.836078e+00 -4.459126e+00 1.658898e+00 62 73 2
-4.055499e+00 -4.212439e+00 1.616593e+00 99 115 76
3.159363e+00 -4.539552e+00 1.513082e+00 40 49 7
3.159363e+00 -4.539552e+00 1.513082e+00 40 49 7
-1.143190e-01 -4.307032e+00 1.939414e+00 113 120 46
-1.143190e-01 -4.307032e+00 1.939414e+00 113 120 46
-1.450805e-01 -4.306936e+00 1.919607e+00 155 159 126
9.961979e-01 -4.361178e+00 1.888295e+00 220 225 203
9.961979e-01 -4.361178e+00 1.888295e+00 220 225 203
-6.022177e-02 -4.308974e+00 1.919333e+00 235 234 168
1.588411e+00 -4.403159e+00 1.805461e+00 29 34 6
2.923090e+00 -4.457842e+00 1.771086e+00 40 48 1
1.327521e-01 -4.318805e+00 1.883855e+00 52 55 1
1.327521e-01 -4.318805e+00 1.883855e+00 52 55 1
-1.194525e+00 -4.315499e+00 1.676115e+00 27 32 1
1.914103e-01 -4.352107e+00 1.757225e+00 141 145 56
-3.844512e+00 -4.204067e+00 1.611804e+00 81 94 48
7.851853e-02 -4.297075e+00 1.943513e+00 164 165 58
-6.482397e-01 -4.296013e+00 1.813527e+00 19 35 0
-3.761314e+00 -4.193027e+00 1.647073e+00 3 18 1
-3.125673e-01 -4.270839e+00 1.962214e+00 23 33 1
-4.333366e+00 -4.286910e+00 1.132341e+00 25 34 12
1.090341e+00 -4.367620e+00 1.763390e+00 175 179 86
3.078467e+00 -4.591202e+00 1.133026e+00 156 166 100
9.827854e-01 -4.375608e+00 1.702873e+00 184 200 157
-2.260532e-02 -4.320180e+00 1.766084e+00 78 77 8
3.033071e+00 -4.443294e+00 1.748006e+00 190 190 80
2.767990e-01 -4.289037e+00 1.934024e+00 80 89 67
3.128126e+00 -4.498675e+00 1.497423e+00 237 244 176
2.993414e+00 -4.432137e+00 1.773719e+00 237 244 176
1.884682e+00 -4.416189e+00 1.645923e+00 65 77 0
3.632141e-01 -4.291521e+00 1.925598e+00 26 29 4
2.897995e+00 -4.426935e+00 1.774197e+00 163 179 69
1.159481e+00 -4.415400e+00 1.527485e+00 108 113 13
1.125003e-01 -4.269521e+00 1.962499e+00 59 63 3
1.125003e-01 -4.269521e+00 1.962499e+00 59 63 3
-1.040943e-01 -4.307292e+00 1.770122e+00 44 49 7
-1.905366e+00 -4.510962e+00 5.835800e-01 26 27 43
1.850096e+00 -4.401424e+00 1.667367e+00 17 24 0
8.919498e-01 -4.308223e+00 1.903760e+00 202 219 167
-9.233940e-01 -4.238176e+00 1.881495e+00 43 52 1
1.725955e+00 -4.350376e+00 1.856746e+00 36 41 0
5.253048e-02 -4.306035e+00 1.755610e+00 149 156 78
3.291206e+00 -4.589801e+00 1.060191e+00 180 196 97
8.437065e-01 -4.305055e+00 1.883204e+00 233 235 221
-4.103231e+00 -4.153633e+00 1.598168e+00 8 25 0
-4.548765e+00 -4.253766e+00 1.113419e+00 105 117 61
2.897357e+00 -4.462709e+00 1.528703e+00 155 174 82
2.773630e+00 -4.399109e+00 1.794855e+00 155 174 82
1.276263e-01 -4.259781e+00 1.940331e+00 148 157 70
-3.954261e+00 -4.147833e+00 1.634858e+00 111 127 78
-4.268102e-02 -4.250476e+00 1.930953e+00 23 30 2
-3.473546e+00 -4.152993e+00 1.694309e+00 62 79 29
7.001162e-01 -4.269043e+00 1.967568e+00 130 105 116
-8.793015e-01 -4.204407e+00 1.964725e+00 78 89 45
-1.255075e+00 -4.307758e+00 1.455227e+00 33 41 2
-4.163844e+00 -4.139366e+00 1.600440e+00 22 38 10
-4.163844e+00 -4.139366e+00 1.600440e+00 22 38 10
-4.664342e+00 -4.483176e+00 6.324313e-02 32 45 1
2.869919e-01 -4.298779e+00 1.758080e+00 41 43 3
1.021620e-01 -4.286143e+00 1.773224e+00 60 62 8
1.021620e-01 -4.286143e+00 1.773224e+00 60 62 8
-5.947610e-02 -4.328804e+00 1.577080e+00 23 28 5
-8.880253e-01 -4.250968e+00 1.759458e+00 39 47 1
2.791528e+00 -4.380174e+00 1.810126e+00 50 57 17
1.032165e+00 -4.283818e+00 1.931210e+00 62 73 10
-1.290129e+00 -4.335053e+00 1.315414e+00 21 25 1
-1.361809e+00 -4.246841e+00 1.675855e+00 17 21 2
-4.689606e+00 -4.105216e+00 1.627956e+00 26 41 2
-4.689606e+00 -4.105216e+00 1.627956e+00 26 41 2
2.885940e+00 -4.386116e+00 1.794699e+00 103 115 11
2.885940e+00 -4.386116e+00 1.794699e+00 103 115 11
1.667644e-01 -4.310021e+00 1.662530e+00 79 84 31
-1.448183e+00 -4.236420e+00 1.665968e+00 55 72 40
-3.884782e+00 -4.121792e+00 1.671248e+00 46 59 13
1.560496e+00 -4.343728e+00 1.706646e+00 75 73 8
1.560496e+00 -4.343728e+00 1.706646e+00 75 73 8
-7.800168e-01 -4.188052e+00 1.969067e+00 63 75 24
2.902058e+00 -4.428278e+00 1.548813e+00 238 242 215
2.723021e-01 -4.281185e+00 1.761717e+00 200 197 127
2.343547e-02 -4.309270e+00 1.599532e+00 5 11 0
-6.697584e-02 -4.220306e+00 1.955422e+00 24 35 12
