ply
format ascii 1.0
element face 0
property list uchar int vertex_indices
element vertex 965
property float x
property float y
property float z
property uchar diffuse_red
property uchar diffuse_green
property uchar diffuse_blue
end_header
4.339255e-01 5.312322e-01 3.143775e+00 177 171 157
4.390969e-01 5.273861e-01 3.144162e+00 58 57 56
4.528085e-01 5.143459e-01 3.147383e+00 157 144 127
4.431535e-01 5.289708e-01 3.144236e+00 159 151 135
4.423756e-01 5.394044e-01 3.145823e+00 163 161 144
4.565641e-01 5.453588e-01 3.142535e+00 165 161 149
4.610753e-01 5.521697e-01 3.140361e+00 253 255 250
4.450237e-01 5.797831e-01 3.135788e+00 146 143 126
4.449690e-01 5.794761e-01 3.136084e+00 146 143 126
5.044451e-01 5.220322e-01 3.152746e+00 135 145 147
4.208962e-01 5.056597e-01 3.146432e+00 103 87 63
4.096301e-01 5.205815e-01 3.145884e+00 91 75 54
4.439753e-01 5.033323e-01 3.148495e+00 64 51 38
4.343102e-01 5.171446e-01 3.146841e+00 155 142 115
4.105358e-01 5.436791e-01 3.142131e+00 38 26 17
4.192230e-01 5.338312e-01 3.142987e+00 50 35 22
4.315934e-01 5.297939e-01 3.143476e+00 156 142 130
4.488575e-01 5.112830e-01 3.148619e+00 160 146 128
4.364409e-01 5.263366e-01 3.144167e+00 165 157 141
4.363978e-01 5.315828e-01 3.143492e+00 62 56 54
4.477483e-01 5.196498e-01 3.146154e+00 97 80 59
4.379497e-01 5.337509e-01 3.143115e+00 31 32 24
4.577659e-01 5.357801e-01 3.144370e+00 168 161 143
4.454843e-01 5.503925e-01 3.141612e+00 162 160 141
4.446032e-01 5.563863e-01 3.139976e+00 74 68 54
4.837777e-01 5.146892e-01 3.151128e+00 152 145 134
4.568081e-01 5.474757e-01 3.142218e+00 162 157 148
4.568081e-01 5.474757e-01 3.142218e+00 162 157 148
4.810833e-01 5.251595e-01 3.148731e+00 155 149 139
4.771038e-01 5.299421e-01 3.147404e+00 72 70 67
4.785695e-01 5.311724e-01 3.147325e+00 69 64 62
4.975127e-01 5.174733e-01 3.152595e+00 124 127 126
4.570903e-01 5.617918e-01 3.139817e+00 87 70 65
4.660438e-01 5.533677e-01 3.142044e+00 252 250 252
4.588956e-01 5.623977e-01 3.139937e+00 252 252 254
4.588956e-01 5.623977e-01 3.139937e+00 252 252 254
4.056274e-01 5.205831e-01 3.146178e+00 100 84 61
4.350561e-01 5.090849e-01 3.148068e+00 70 54 43
4.350561e-01 5.090849e-01 3.148068e+00 70 54 43
4.131561e-01 5.373348e-01 3.143617e+00 89 75 53
4.137446e-01 5.405640e-01 3.142260e+00 42 26 19
4.544466e-01 4.964374e-01 3.150753e+00 187 180 167
4.540964e-01 4.989203e-01 3.150156e+00 86 81 73
4.533615e-01 4.998103e-01 3.149993e+00 90 80 74
4.526778e-01 5.006813e-01 3.149738e+00 91 80 71
4.469695e-01 5.071356e-01 3.147881e+00 78 76 69
4.129717e-01 5.467563e-01 3.141493e+00 64 57 50
4.121733e-01 5.486574e-01 3.141225e+00 132 127 114
4.352072e-01 5.306834e-01 3.143253e+00 41 37 30
4.373722e-01 5.287262e-01 3.144041e+00 44 36 29
4.373722e-01 5.287262e-01 3.144041e+00 44 36 29
4.357323e-01 5.311206e-01 3.143566e+00 179 173 161
4.357323e-01 5.311206e-01 3.143566e+00 179 173 161
4.341564e-01 5.343380e-01 3.142932e+00 41 31 22
4.360128e-01 5.334629e-01 3.143101e+00 162 155 143
4.491401e-01 5.199840e-01 3.145906e+00 82 70 53
4.362701e-01 5.347404e-01 3.142894e+00 165 148 132
4.423903e-01 5.285457e-01 3.144247e+00 165 159 141
4.748067e-01 4.930178e-01 3.154284e+00 252 253 251
4.393772e-01 5.399006e-01 3.140850e+00 165 163 155
4.689394e-01 5.134612e-01 3.149096e+00 89 81 66
4.782455e-01 5.035118e-01 3.152520e+00 118 113 107
4.748714e-01 5.125198e-01 3.150170e+00 110 103 89
4.276483e-01 5.709119e-01 3.136388e+00 171 169 157
4.868087e-01 5.080943e-01 3.152806e+00 184 181 175
4.796817e-01 5.196819e-01 3.149628e+00 76 70 70
4.796817e-01 5.196819e-01 3.149628e+00 76 70 70
4.781557e-01 5.216934e-01 3.149109e+00 77 69 67
4.737677e-01 5.268729e-01 3.147578e+00 86 78 73
4.548866e-01 5.497294e-01 3.141882e+00 158 154 150
4.548866e-01 5.497294e-01 3.141882e+00 158 154 150
4.708905e-01 5.323646e-01 3.146187e+00 179 170 159
4.379184e-01 5.791499e-01 3.135362e+00 154 145 124
4.448386e-01 5.727109e-01 3.136671e+00 120 118 105
4.989654e-01 5.192239e-01 3.152609e+00 178 177 174
5.001153e-01 5.185281e-01 3.152947e+00 167 168 167
4.557929e-01 5.666751e-01 3.139823e+00 167 162 148
4.421136e-01 5.828909e-01 3.134920e+00 45 27 19
5.029835e-01 5.180183e-01 3.153332e+00 253 253 251
4.789848e-01 5.456003e-01 3.144732e+00 117 112 98
4.642380e-01 5.628861e-01 3.140305e+00 150 146 139
4.837706e-01 5.419049e-01 3.146051e+00 103 96 92
5.072150e-01 5.261105e-01 3.152264e+00 251 251 253
5.072150e-01 5.261105e-01 3.152264e+00 251 251 253
3.925292e-01 5.274268e-01 3.147879e+00 100 78 48
4.140941e-01 5.056414e-01 3.146867e+00 83 64 44
4.140723e-01 5.058183e-01 3.147835e+00 83 64 44
4.371037e-01 4.883782e-01 3.151622e+00 77 62 43
4.135310e-01 5.303903e-01 3.144815e+00 125 122 104
4.141085e-01 5.298607e-01 3.144438e+00 142 136 118
4.022936e-01 5.471183e-01 3.142686e+00 65 49 34
4.254366e-01 5.230114e-01 3.145551e+00 163 144 126
4.230640e-01 5.262520e-01 3.145050e+00 59 44 31
4.462186e-01 5.079208e-01 3.147745e+00 97 86 78
4.393629e-01 5.197160e-01 3.146633e+00 164 148 130
4.110843e-01 5.510910e-01 3.140949e+00 91 76 58
4.518614e-01 5.057191e-01 3.150064e+00 165 153 128
4.456142e-01 5.122124e-01 3.146937e+00 163 146 128
4.106331e-01 5.552097e-01 3.140115e+00 154 145 120
4.130512e-01 5.555322e-01 3.140090e+00 151 149 127
4.262220e-01 5.415625e-01 3.141799e+00 147 136 113
4.270425e-01 5.422966e-01 3.141692e+00 137 124 101
4.437995e-01 5.240870e-01 3.144727e+00 59 46 31
4.438814e-01 5.240396e-01 3.145032e+00 59 46 31
4.543498e-01 5.153802e-01 3.147299e+00 134 126 107
4.289497e-01 5.439465e-01 3.141589e+00 75 60 42
4.406638e-01 5.322945e-01 3.143538e+00 172 165 149
4.388467e-01 5.345336e-01 3.142863e+00 178 165 150
4.400952e-01 5.331784e-01 3.143336e+00 150 138 125
4.781194e-01 5.013055e-01 3.152891e+00 133 127 120
4.781359e-01 5.013574e-01 3.152947e+00 133 127 120
4.506675e-01 5.327816e-01 3.143974e+00 119 107 90
4.723798e-01 5.158731e-01 3.149503e+00 120 112 96
4.861447e-01 5.052565e-01 3.153420e+00 147 144 139
4.564218e-01 5.388687e-01 3.144030e+00 99 92 79
4.824303e-01 5.140696e-01 3.151149e+00 168 167 159
4.338855e-01 5.705001e-01 3.136905e+00 89 79 63
4.662388e-01 5.349531e-01 3.145187e+00 75 75 67
4.586565e-01 5.433834e-01 3.143200e+00 153 162 154
4.715910e-01 5.298116e-01 3.146658e+00 163 159 150
4.825440e-01 5.188854e-01 3.150132e+00 72 72 72
4.825440e-01 5.188854e-01 3.150132e+00 72 72 72
4.472284e-01 5.587977e-01 3.139772e+00 179 178 166
4.819026e-01 5.335943e-01 3.147357e+00 59 55 54
4.924306e-01 5.252089e-01 3.150196e+00 99 90 88
4.743417e-01 5.455520e-01 3.144112e+00 108 100 89
4.997739e-01 5.179113e-01 3.152880e+00 134 136 138
4.997739e-01 5.179113e-01 3.152880e+00 134 136 138
4.708643e-01 5.497626e-01 3.143237e+00 83 84 85
4.673045e-01 5.542886e-01 3.142088e+00 77 77 80
4.617007e-01 5.608522e-01 3.140295e+00 237 231 234
4.721798e-01 5.500018e-01 3.143174e+00 158 157 154
4.680529e-01 5.553211e-01 3.141864e+00 81 85 86
4.676170e-01 5.574637e-01 3.141579e+00 153 148 146
4.616538e-01 5.697168e-01 3.138840e+00 67 67 63
4.580775e-01 5.747728e-01 3.138799e+00 81 63 48
4.869660e-01 5.442996e-01 3.146223e+00 165 165 160
4.828479e-01 5.495673e-01 3.144444e+00 108 100 94
5.073257e-01 5.250832e-01 3.152462e+00 157 163 165
3.939766e-01 5.189392e-01 3.149423e+00 115 109 88
4.188488e-01 4.969988e-01 3.148497e+00 169 152 128
4.190206e-01 5.147511e-01 3.146328e+00 139 124 101
4.076989e-01 5.344724e-01 3.143504e+00 76 60 48
4.057027e-01 5.375804e-01 3.143490e+00 67 49 35
4.375423e-01 5.014611e-01 3.149342e+00 74 58 44
4.081416e-01 5.349125e-01 3.143551e+00 71 49 33
4.353069e-01 5.046094e-01 3.148698e+00 173 162 152
4.281632e-01 5.122054e-01 3.146874e+00 180 164 144
4.409803e-01 4.977298e-01 3.150681e+00 143 134 121
4.198589e-01 5.269614e-01 3.143732e+00 153 138 120
4.186153e-01 5.287932e-01 3.143539e+00 130 127 114
4.256040e-01 5.222341e-01 3.145747e+00 155 138 112
4.130124e-01 5.357407e-01 3.143004e+00 168 151 135
4.487499e-01 4.962663e-01 3.151660e+00 106 86 69
4.461713e-01 4.992142e-01 3.150624e+00 174 162 150
4.242410e-01 5.244813e-01 3.145511e+00 145 139 126
4.503226e-01 5.005849e-01 3.150922e+00 99 81 61
4.565950e-01 4.952278e-01 3.151199e+00 183 174 157
4.518319e-01 5.007834e-01 3.149631e+00 180 171 156
4.458875e-01 5.143425e-01 3.147407e+00 181 172 154
4.368745e-01 5.240256e-01 3.144533e+00 65 60 41
4.366791e-01 5.248844e-01 3.144484e+00 67 50 37
4.489215e-01 5.127149e-01 3.147164e+00 131 116 93
4.369994e-01 5.266314e-01 3.144206e+00 155 153 142
4.125416e-01 5.550228e-01 3.140076e+00 168 161 147
4.145280e-01 5.534985e-01 3.140380e+00 161 154 138
4.693975e-01 4.932950e-01 3.153386e+00 119 116 112
4.348075e-01 5.343451e-01 3.143052e+00 179 166 148
4.396532e-01 5.294121e-01 3.143951e+00 164 150 134
4.402265e-01 5.309143e-01 3.143658e+00 55 52 42
4.713891e-01 4.960793e-01 3.153068e+00 157 150 140
4.397934e-01 5.317104e-01 3.143557e+00 168 162 150
4.704191e-01 5.058712e-01 3.150720e+00 118 110 99
4.296739e-01 5.539999e-01 3.140009e+00 113 99 78
4.617878e-01 5.218255e-01 3.147165e+00 120 104 90
4.221475e-01 5.660472e-01 3.137297e+00 109 102 85
4.312199e-01 5.597470e-01 3.138723e+00 110 99 79
4.299129e-01 5.689013e-01 3.136908e+00 94 91 78
4.534811e-01 5.442786e-01 3.142926e+00 100 89 73
4.531023e-01 5.453766e-01 3.142766e+00 140 131 117
4.433284e-01 5.627451e-01 3.138775e+00 67 60 54
4.798957e-01 5.237756e-01 3.148858e+00 135 130 126
4.761893e-01 5.337045e-01 3.146505e+00 160 154 151
4.669416e-01 5.455031e-01 3.142391e+00 219 216 220
4.697129e-01 5.468203e-01 3.143629e+00 159 153 147
4.467462e-01 5.740014e-01 3.137019e+00 89 75 69
4.890798e-01 5.291872e-01 3.149113e+00 101 90 84
4.688980e-01 5.518934e-01 3.142690e+00 224 222 228
4.688354e-01 5.519132e-01 3.142479e+00 224 222 228
4.652415e-01 5.563534e-01 3.141367e+00 237 230 229
5.015779e-01 5.174870e-01 3.153229e+00 164 160 156
4.728330e-01 5.492138e-01 3.143198e+00 87 80 73
4.616088e-01 5.612977e-01 3.140215e+00 90 71 66
5.026268e-01 5.172030e-01 3.153501e+00 174 173 177
4.550258e-01 5.685511e-01 3.138314e+00 95 81 73
4.628843e-01 5.606997e-01 3.140451e+00 101 93 85
4.462114e-01 5.792466e-01 3.135902e+00 51 55 51
4.420366e-01 5.840793e-01 3.134768e+00 4 21 23
4.561726e-01 5.731444e-01 3.138851e+00 108 87 68
4.635617e-01 5.670196e-01 3.139729e+00 80 77 69
4.574975e-01 5.740138e-01 3.137652e+00 150 128 113
4.574975e-01 5.740138e-01 3.137652e+00 150 128 113
4.481629e-01 5.860849e-01 3.134771e+00 77 68 50
5.068491e-01 5.246659e-01 3.152521e+00 252 246 245
4.746594e-01 6.093644e-01 3.126037e+00 3 2 19
5.217764e-01 5.459205e-01 3.140838e+00 115 121 120
5.145842e-01 5.600283e-01 3.137848e+00 9 16 26
4.212211e-01 5.608926e-01 3.138339e+00 103 109 107
5.251744e-01 5.757412e-01 3.140968e+00 255 255 255
4.097095e-01 5.526276e-01 3.135151e+00 123 126 130
4.577456e-01 5.370017e-01 3.145386e+00 138 140 137
4.577456e-01 5.370017e-01 3.145386e+00 138 140 137
4.807610e-01 5.423179e-01 3.148312e+00 139 142 141
5.314737e-01 5.433659e-01 3.144894e+00 62 76 77
4.224097e-01 5.255690e-01 3.151055e+00 116 116 113
4.400358e-01 5.228224e-01 3.145336e+00 112 118 115
4.190460e-01 5.571221e-01 3.136511e+00 51 51 49
4.388268e-01 5.601735e-01 3.144674e+00 61 57 54
4.665278e-01 5.290146e-01 3.149295e+00 68 69 62
4.750925e-01 5.251655e-01 3.146702e+00 114 124 123
4.597061e-01 5.207106e-01 3.174163e+00 107 116 115
5.128713e-01 5.419449e-01 3.142252e+00 104 113 110
5.087551e-01 5.691970e-01 3.139403e+00 61 64 67
5.310420e-01 5.409590e-01 3.145366e+00 255 255 251
5.274059e-01 5.484657e-01 3.144792e+00 65 69 72
4.189950e-01 5.209949e-01 3.153234e+00 120 129 132
4.450263e-01 5.195012e-01 3.154933e+00 130 136 131
4.873120e-01 6.004185e-01 3.132100e+00 101 105 102
5.234288e-01 5.616011e-01 3.141377e+00 117 131 132
4.321966e-01 5.169017e-01 3.154697e+00 22 14 13
4.180517e-01 5.771540e-01 3.063072e+00 30 35 48
4.981790e-01 5.386692e-01 3.141211e+00 89 84 81
4.308681e-01 5.073040e-01 3.156794e+00 46 46 41
4.146974e-01 5.375440e-01 3.149968e+00 78 85 87
4.294761e-01 5.202361e-01 3.153182e+00 100 95 89
4.406574e-01 5.508585e-01 3.141461e+00 119 124 127
4.644340e-01 5.309851e-01 3.149751e+00 150 156 161
4.369827e-01 5.932002e-01 3.135690e+00 140 142 147
4.432943e-01 5.881598e-01 3.134709e+00 111 115 115
4.777400e-01 5.401593e-01 3.147972e+00 77 77 74
4.978696e-01 5.223190e-01 3.152757e+00 98 104 100
4.726918e-01 6.113858e-01 3.126422e+00 88 96 92
4.726903e-01 6.153971e-01 3.128084e+00 101 113 113
5.072703e-01 5.736190e-01 3.136515e+00 251 251 250
5.241580e-01 5.607231e-01 3.141917e+00 123 132 131
4.941487e-01 6.116428e-01 3.128754e+00 53 64 67
4.905774e-01 6.100451e-01 3.132773e+00 53 64 67
4.215172e-01 5.191730e-01 3.153092e+00 10 11 11
4.255374e-01 5.338985e-01 3.144065e+00 106 110 109
4.396025e-01 5.234232e-01 3.142922e+00 123 128 129
4.422692e-01 5.272338e-01 3.141815e+00 2 2 5
4.440355e-01 5.402678e-01 3.139724e+00 135 142 137
4.224053e-01 5.700775e-01 3.136602e+00 56 56 53
4.509244e-01 5.431394e-01 3.141428e+00 98 93 90
4.512204e-01 5.458565e-01 3.142590e+00 136 136 135
4.419295e-01 5.582736e-01 3.143697e+00 147 153 158
4.460344e-01 5.836183e-01 3.134846e+00 8 9 14
4.923029e-01 5.254103e-01 3.148853e+00 113 117 116
5.139426e-01 5.453137e-01 3.138661e+00 43 55 67
4.780408e-01 6.178077e-01 3.129121e+00 114 125 126
4.275672e-01 5.207952e-01 3.152785e+00 89 84 78
4.194735e-01 5.332333e-01 3.150334e+00 76 67 62
4.185368e-01 5.345409e-01 3.149865e+00 87 83 74
4.212054e-01 5.381888e-01 3.148238e+00 42 41 44
4.353166e-01 5.194193e-01 3.152360e+00 78 79 73
4.214996e-01 5.386465e-01 3.148448e+00 124 128 122
4.184404e-01 5.422762e-01 3.148773e+00 113 114 106
4.519393e-01 5.066904e-01 3.146695e+00 35 35 34
4.075288e-01 5.671215e-01 3.142083e+00 109 119 113
4.336827e-01 5.852940e-01 3.063504e+00 10 8 10
4.143652e-01 5.693657e-01 3.135778e+00 46 45 51
4.474813e-01 5.327977e-01 3.141247e+00 133 141 143
4.473147e-01 5.358125e-01 3.140939e+00 141 146 143
4.291116e-01 5.644626e-01 3.137054e+00 111 111 106
4.462718e-01 5.440005e-01 3.139155e+00 102 94 87
4.222472e-01 5.744192e-01 3.136162e+00 36 41 46
4.731764e-01 5.103957e-01 3.151030e+00 133 140 138
4.665261e-01 5.207782e-01 3.148098e+00 125 121 109
4.753277e-01 5.204432e-01 3.149231e+00 52 50 42
4.427970e-01 5.683214e-01 3.136563e+00 99 106 100
4.762452e-01 5.421490e-01 3.147557e+00 122 124 121
4.937389e-01 5.205963e-01 3.152705e+00 114 117 120
4.555246e-01 5.772800e-01 3.138104e+00 92 93 88
4.585699e-01 5.739759e-01 3.142234e+00 95 95 93
4.893571e-01 5.369038e-01 3.147131e+00 100 100 97
4.643395e-01 6.206164e-01 3.127048e+00 94 118 123
4.871693e-01 6.118159e-01 3.130512e+00 46 53 59
5.211273e-01 5.694921e-01 3.139786e+00 46 53 54
5.247479e-01 5.655654e-01 3.140610e+00 52 62 63
5.208105e-01 5.725647e-01 3.139297e+00 35 43 46
4.860472e-01 6.306371e-01 3.124433e+00 57 106 101
4.127443e-01 5.047085e-01 3.149999e+00 86 85 78
4.153194e-01 5.052082e-01 3.152442e+00 15 11 8
3.940654e-01 5.350504e-01 3.147794e+00 87 88 81
4.153409e-01 5.070525e-01 3.151769e+00 23 22 16
4.087859e-01 5.193742e-01 3.151470e+00 86 89 82
4.326767e-01 4.913053e-01 3.157962e+00 32 25 24
4.091397e-01 5.337895e-01 3.150662e+00 103 103 105
4.202536e-01 5.271302e-01 3.150991e+00 110 109 109
4.319156e-01 5.127556e-01 3.155645e+00 108 114 110
4.375133e-01 5.074443e-01 3.154947e+00 15 14 11
4.336566e-01 5.132875e-01 3.154243e+00 29 28 24
4.158455e-01 5.530036e-01 3.136564e+00 105 106 101
4.431327e-01 5.243948e-01 3.142852e+00 113 120 122
4.109761e-01 5.687257e-01 3.136456e+00 30 34 43
4.429892e-01 5.361345e-01 3.140618e+00 127 130 139
4.664904e-01 5.028315e-01 3.150335e+00 39 36 29
4.512712e-01 5.234760e-01 3.147641e+00 55 56 56
4.518252e-01 5.217958e-01 3.152684e+00 119 122 125
4.192962e-01 5.715141e-01 3.136293e+00 51 55 58
4.265810e-01 5.633174e-01 3.136496e+00 56 60 63
4.514445e-01 5.357886e-01 3.140862e+00 96 83 77
4.324746e-01 5.604363e-01 3.139647e+00 138 142 144
4.499104e-01 5.401974e-01 3.140060e+00 17 7 9
4.674167e-01 5.146176e-01 3.148237e+00 119 122 118
4.320675e-01 5.618381e-01 3.139364e+00 37 36 41
4.220953e-01 5.769978e-01 3.134871e+00 84 92 97
4.680907e-01 5.202370e-01 3.148435e+00 121 116 105
4.689798e-01 5.198369e-01 3.148541e+00 132 127 116
4.592437e-01 5.342933e-01 3.145242e+00 125 125 125
4.398560e-01 5.602369e-01 3.143484e+00 35 29 36
4.840667e-01 5.221598e-01 3.146333e+00 99 98 103
4.385675e-01 5.891599e-01 3.133504e+00 78 86 88
4.393381e-01 5.688950e-01 3.158395e+00 107 106 107
4.876243e-01 5.266934e-01 3.146634e+00 3 3 7
4.535799e-01 5.689090e-01 3.142009e+00 115 117 116
4.692619e-01 5.559740e-01 3.141630e+00 68 65 66
4.510997e-01 5.816140e-01 3.136770e+00 50 50 45
4.778652e-01 5.423372e-01 3.147731e+00 137 135 136
4.776230e-01 5.422480e-01 3.148035e+00 137 135 136
4.778652e-01 5.423372e-01 3.147731e+00 137 135 136
4.761505e-01 5.500612e-01 3.143665e+00 73 72 70
4.952084e-01 5.268974e-01 3.148750e+00 56 57 50
4.602305e-01 5.713256e-01 3.142455e+00 41 43 45
4.929165e-01 5.317905e-01 3.148245e+00 50 46 42
4.808993e-01 5.466986e-01 3.147762e+00 38 40 34
4.869897e-01 6.092585e-01 3.130335e+00 123 133 130
5.245227e-01 5.587498e-01 3.141092e+00 118 128 127
4.149112e-01 4.999001e-01 3.155995e+00 11 11 13
4.142021e-01 5.024800e-01 3.153108e+00 92 92 82
4.054771e-01 5.163285e-01 3.149829e+00 19 14 18
3.929583e-01 5.331343e-01 3.146924e+00 20 19 24
3.878542e-01 5.401863e-01 3.145342e+00 69 76 80
4.135085e-01 5.066715e-01 3.149989e+00 68 65 58
3.923349e-01 5.361026e-01 3.146072e+00 22 17 19
4.125846e-01 5.107983e-01 3.148015e+00 61 61 52
4.145168e-01 5.079092e-01 3.150846e+00 82 78 67
4.122954e-01 5.117778e-01 3.147596e+00 57 54 46
3.917340e-01 5.389895e-01 3.145745e+00 26 25 31
4.164780e-01 5.082425e-01 3.152910e+00 42 37 32
4.165477e-01 5.100471e-01 3.152356e+00 38 38 31
4.081992e-01 5.313106e-01 3.151473e+00 98 102 99
4.346640e-01 5.014321e-01 3.158506e+00 27 36 38
4.399442e-01 4.970732e-01 3.159053e+00 18 17 12
4.143554e-01 5.320957e-01 3.150250e+00 38 38 42
4.215890e-01 5.398024e-01 3.148160e+00 115 120 128
4.514163e-01 5.138101e-01 3.147199e+00 66 65 63
4.465359e-01 5.205142e-01 3.147434e+00 137 139 136
4.230450e-01 5.574309e-01 3.136064e+00 96 91 85
4.594079e-01 5.127638e-01 3.146957e+00 91 84 76
4.590749e-01 5.128906e-01 3.147521e+00 91 84 76
4.448875e-01 5.337881e-01 3.141318e+00 143 144 148
4.549645e-01 5.282629e-01 3.146784e+00 44 44 42
4.523491e-01 5.359371e-01 3.141221e+00 32 27 26
4.266550e-01 5.695538e-01 3.137238e+00 116 115 112
4.221997e-01 5.775594e-01 3.134953e+00 14 17 32
4.423516e-01 5.496307e-01 3.141715e+00 129 130 125
4.671403e-01 5.201208e-01 3.148405e+00 65 61 50
4.680021e-01 5.198323e-01 3.148458e+00 76 64 55
4.719225e-01 5.145423e-01 3.150369e+00 126 121 116
4.691584e-01 5.192425e-01 3.148670e+00 74 66 56
4.777351e-01 5.098790e-01 3.152296e+00 87 84 88
4.790178e-01 5.309820e-01 3.140864e+00 18 22 24
4.727732e-01 5.320131e-01 3.148779e+00 131 132 136
4.758898e-01 5.320670e-01 3.144835e+00 5 4 10
4.433398e-01 5.847096e-01 3.135240e+00 130 133 134
4.742810e-01 5.452149e-01 3.143454e+00 107 106 104
4.418891e-01 5.906419e-01 3.133880e+00 101 101 101
5.046581e-01 5.845743e-01 3.070203e+00 138 139 143
4.715533e-01 5.531353e-01 3.142329e+00 129 127 132
4.862721e-01 5.365469e-01 3.146368e+00 127 130 131
4.970829e-01 5.192583e-01 3.153534e+00 122 121 130
4.815045e-01 5.441780e-01 3.147687e+00 133 132 130
4.943195e-01 5.299011e-01 3.148572e+00 53 51 46
4.957951e-01 5.335622e-01 3.148205e+00 103 106 99
4.860328e-01 5.457211e-01 3.148374e+00 131 135 139
4.867453e-01 5.465042e-01 3.148566e+00 42 49 51
4.706823e-01 5.962829e-01 3.129159e+00 105 116 120
5.265627e-01 5.594767e-01 3.141381e+00 58 62 64
4.998816e-01 5.995837e-01 3.132056e+00 249 251 253
5.016710e-01 6.315861e-01 3.109866e+00 224 235 242
5.253252e-01 5.720664e-01 3.141560e+00 241 253 252
3.905108e-01 5.456317e-01 3.146117e+00 127 127 125
4.131442e-01 5.861598e-01 3.131894e+00 255 255 255
4.220305e-01 5.840960e-01 3.138049e+00 96 95 93
4.433300e-01 5.594339e-01 3.144032e+00 91 90 85
3.916771e-01 5.690173e-01 3.132773e+00 139 144 148
3.716773e-01 5.391649e-01 3.278608e+00 66 74 93
4.328312e-01 5.075446e-01 3.156737e+00 130 129 127
4.151900e-01 5.334976e-01 3.150620e+00 139 139 141
4.134967e-01 5.363211e-01 3.149890e+00 132 133 136
4.405529e-01 5.390702e-01 3.140535e+00 59 66 76
4.463383e-01 5.349636e-01 3.141228e+00 62 68 84
5.033427e-01 5.535582e-01 3.139636e+00 53 57 66
3.945636e-01 5.598288e-01 3.143564e+00 53 53 51
4.460649e-01 5.308472e-01 3.142213e+00 145 145 140
4.468037e-01 5.365367e-01 3.140821e+00 133 133 131
3.714084e-01 5.409451e-01 3.276359e+00 15 25 17
3.718617e-01 5.405530e-01 3.276935e+00 18 29 15
3.702857e-01 5.427146e-01 3.275446e+00 17 37 10
3.936103e-01 5.570936e-01 3.144049e+00 41 40 43
4.504689e-01 4.937036e-01 3.159847e+00 48 47 45
4.394350e-01 5.067687e-01 3.156089e+00 49 48 46
4.782954e-01 5.192406e-01 3.150217e+00 137 142 145
5.085658e-01 5.399867e-01 3.141870e+00 33 35 49
4.952031e-01 6.125291e-01 3.129949e+00 148 145 154
3.699903e-01 5.420636e-01 3.276773e+00 33 57 25
3.719670e-01 5.402131e-01 3.277224e+00 14 19 13
3.710814e-01 5.413351e-01 3.276860e+00 9 14 9
3.723020e-01 5.400326e-01 3.276887e+00 25 37 27
3.719752e-01 5.405765e-01 3.275787e+00 20 29 11
4.375317e-01 5.104361e-01 3.156808e+00 53 49 48
3.974943e-01 5.585506e-01 3.143982e+00 34 34 32
4.270723e-01 5.671645e-01 3.136053e+00 135 135 128
4.562278e-01 5.817443e-01 3.137460e+00 143 144 134
4.406087e-01 5.974183e-01 3.136960e+00 121 122 124
4.407039e-01 5.975082e-01 3.136702e+00 121 122 124
4.812162e-01 6.085950e-01 3.131023e+00 81 79 81
3.700311e-01 5.425766e-01 3.276610e+00 11 27 19
3.708754e-01 5.415799e-01 3.276887e+00 5 19 7
3.711577e-01 5.412104e-01 3.276799e+00 33 59 24
3.708596e-01 5.418261e-01 3.276847e+00 71 89 40
3.710263e-01 5.416203e-01 3.276688e+00 89 113 79
4.436478e-01 5.002231e-01 3.157931e+00 132 133 128
4.413299e-01 5.029464e-01 3.157298e+00 134 131 126
4.226789e-01 5.362064e-01 3.148465e+00 102 102 102
4.500480e-01 5.280619e-01 3.142689e+00 127 121 116
4.517218e-01 5.310016e-01 3.142292e+00 132 132 122
4.446028e-01 5.444187e-01 3.139478e+00 131 127 120
4.928817e-01 5.260659e-01 3.148791e+00 128 128 124
4.385985e-01 5.891873e-01 3.133412e+00 105 106 105
4.840852e-01 5.998012e-01 3.129210e+00 137 136 134
3.695756e-01 5.418708e-01 3.277569e+00 24 24 33
3.700799e-01 5.415135e-01 3.276837e+00 121 149 152
3.700865e-01 5.416221e-01 3.276838e+00 16 27 13
3.715999e-01 5.403302e-01 3.277362e+00 32 58 19
3.702903e-01 5.420918e-01 3.276637e+00 48 74 48
3.913739e-01 5.108072e-01 3.151225e+00 54 55 57
3.927156e-01 5.596868e-01 3.144383e+00 96 97 102
3.978995e-01 5.577295e-01 3.143727e+00 35 35 35
4.314413e-01 5.326668e-01 3.141419e+00 141 142 145
4.205445e-01 5.893521e-01 3.132014e+00 153 153 160
4.386368e-01 6.023157e-01 3.129886e+00 111 109 121
5.111128e-01 5.273412e-01 3.148357e+00 124 125 146
4.521172e-01 5.955730e-01 3.128447e+00 129 135 136
4.728439e-01 6.009280e-01 3.130639e+00 107 108 112
5.269809e-01 5.519800e-01 3.144158e+00 88 89 94
3.704107e-01 5.414422e-01 3.276844e+00 50 64 40
3.700740e-01 5.424117e-01 3.276565e+00 2 12 3
3.699218e-01 5.426689e-01 3.276515e+00 37 64 40
3.700064e-01 5.425831e-01 3.276531e+00 0 9 6
3.699413e-01 5.429472e-01 3.276395e+00 33 44 27
3.705682e-01 5.421995e-01 3.276602e+00 72 94 57
3.705682e-01 5.421995e-01 3.276602e+00 72 94 57
3.710979e-01 5.416629e-01 3.276767e+00 34 42 27
3.705039e-01 5.424362e-01 3.276421e+00 33 43 27
3.716302e-01 5.410000e-01 3.276534e+00 124 143 107
4.151448e-01 4.927551e-01 3.161172e+00 136 137 139
4.351861e-01 5.031089e-01 3.157108e+00 70 68 69
4.383421e-01 5.057846e-01 3.156840e+00 70 68 69
4.724625e-01 4.882602e-01 3.155107e+00 250 254 255
4.427153e-01 5.245693e-01 3.142640e+00 51 50 64
4.455590e-01 5.250653e-01 3.143019e+00 148 150 153
4.365449e-01 5.368921e-01 3.140752e+00 39 42 48
4.645144e-01 5.115645e-01 3.149259e+00 89 92 94
4.659076e-01 5.111056e-01 3.150135e+00 97 98 100
4.264624e-01 5.602041e-01 3.138414e+00 105 107 111
4.248516e-01 5.639400e-01 3.136488e+00 64 63 61
4.261957e-01 5.684317e-01 3.136924e+00 136 133 128
4.669749e-01 5.318773e-01 3.150596e+00 89 88 86
4.868799e-01 5.307826e-01 3.148347e+00 136 137 133
4.738041e-01 5.521567e-01 3.142656e+00 75 73 78
4.951354e-01 5.335534e-01 3.149047e+00 140 141 134
4.951043e-01 5.335554e-01 3.149085e+00 140 141 134
4.410059e-01 5.929617e-01 3.136460e+00 142 143 138
4.384303e-01 6.025707e-01 3.129790e+00 108 104 119
4.590086e-01 5.898111e-01 3.131606e+00 97 101 104
4.717183e-01 5.876443e-01 3.133504e+00 104 105 104
3.703460e-01 5.418942e-01 3.276757e+00 1 14 0
3.718690e-01 5.401366e-01 3.277035e+00 42 58 45
3.698561e-01 5.428763e-01 3.276498e+00 70 86 58
3.707911e-01 5.417400e-01 3.276787e+00 82 96 68
3.700102e-01 5.428040e-01 3.276569e+00 68 93 35
3.635839e-01 5.424587e-01 3.194842e+00 138 131 138
4.150084e-01 4.922018e-01 3.160537e+00 130 131 133
4.246491e-01 5.142378e-01 3.154347e+00 138 137 142
4.446997e-01 4.902004e-01 3.160418e+00 144 143 149
4.455557e-01 5.337456e-01 3.141926e+00 169 173 174
4.438181e-01 5.380410e-01 3.140597e+00 57 57 64
4.594493e-01 5.206463e-01 3.148336e+00 97 96 92
5.061275e-01 5.201810e-01 3.150991e+00 61 59 64
3.677153e-01 5.431880e-01 3.275883e+00 41 37 61
3.701426e-01 5.416248e-01 3.276900e+00 45 58 35
3.700793e-01 5.423938e-01 3.276666e+00 93 105 92
3.706667e-01 5.419019e-01 3.276771e+00 40 63 50
3.701490e-01 5.426322e-01 3.276615e+00 110 133 105
3.702683e-01 5.424145e-01 3.276463e+00 53 63 41
3.709003e-01 5.417202e-01 3.276778e+00 77 92 68
3.710559e-01 5.416123e-01 3.276735e+00 109 131 99
3.710026e-01 5.416750e-01 3.276701e+00 106 127 103
3.721132e-01 5.404397e-01 3.275580e+00 85 98 15
3.634808e-01 5.424771e-01 3.195754e+00 91 95 102
3.659162e-01 5.446407e-01 3.218806e+00 144 135 146
3.640284e-01 5.432874e-01 3.194676e+00 60 28 50
3.640284e-01 5.432874e-01 3.194676e+00 60 28 50
4.410009e-01 4.943866e-01 3.158692e+00 52 56 60
4.641733e-01 5.249549e-01 3.148016e+00 76 75 71
3.691240e-01 5.434888e-01 3.276283e+00 14 37 8
4.198071e-01 5.858798e-01 3.134343e+00 117 116 112
4.467971e-01 5.506620e-01 3.142323e+00 144 148 149
4.780055e-01 5.203125e-01 3.149316e+00 138 147 146
4.407597e-01 5.390484e-01 3.140051e+00 51 53 66
4.509896e-01 5.370515e-01 3.141156e+00 58 61 66
4.720583e-01 5.527886e-01 3.142717e+00 73 71 72
4.333171e-01 6.007386e-01 3.129437e+00 254 254 254
3.958382e-01 5.202769e-01 3.153588e+00 124 132 140
4.571699e-01 5.102352e-01 3.147637e+00 127 126 122
4.456310e-01 5.300347e-01 3.142292e+00 146 150 136
4.096124e-01 5.820536e-01 3.129818e+00 253 255 252
4.359665e-01 5.789619e-01 3.134272e+00 131 131 133
4.667462e-01 5.605848e-01 3.141299e+00 155 156 158
4.033385e-01 5.481317e-01 3.145842e+00 123 123 123
4.034377e-01 5.481468e-01 3.145350e+00 123 123 123
4.317560e-01 5.393145e-01 3.140003e+00 50 52 68
4.204274e-01 5.172078e-01 3.154368e+00 95 91 92
4.333079e-01 5.399966e-01 3.139776e+00 134 139 142
4.657233e-01 5.157570e-01 3.148550e+00 88 89 84
4.286444e-01 5.653429e-01 3.136799e+00 69 66 54
4.565907e-01 5.425524e-01 3.144171e+00 81 81 73
4.869007e-01 5.328166e-01 3.147809e+00 66 66 65
3.955046e-01 5.165305e-01 3.151956e+00 73 72 70
4.497890e-01 4.853477e-01 3.163095e+00 140 141 145
4.648071e-01 5.026106e-01 3.149741e+00 73 72 70
4.656363e-01 5.114663e-01 3.149988e+00 137 143 140
4.543790e-01 5.274085e-01 3.147108e+00 100 100 100
4.267164e-01 5.700005e-01 3.136995e+00 85 84 81
4.846901e-01 5.261179e-01 3.146564e+00 34 35 36
4.155707e-01 5.247850e-01 3.151863e+00 131 132 137
4.410472e-01 4.949856e-01 3.159452e+00 80 81 85
4.439307e-01 4.920719e-01 3.159093e+00 63 64 68
4.485739e-01 4.940348e-01 3.160173e+00 96 96 98
4.479136e-01 5.421525e-01 3.139734e+00 39 39 37
4.850167e-01 5.336887e-01 3.147478e+00 149 148 144
4.357472e-01 4.740619e-01 3.164842e+00 103 102 107
4.176571e-01 5.143634e-01 3.153464e+00 67 64 59
4.067571e-01 5.438404e-01 3.146171e+00 130 129 127
4.500169e-01 5.393298e-01 3.140274e+00 75 79 90
5.149830e-01 5.582501e-01 3.138206e+00 52 50 63
4.661161e-01 5.843967e-01 3.131088e+00 125 125 125
5.196973e-01 5.535273e-01 3.138986e+00 49 47 61
4.694079e-01 5.871852e-01 3.131002e+00 136 135 133
3.691732e-01 5.509833e-01 3.293791e+00 113 70 61
4.861890e-01 5.354813e-01 3.146726e+00 64 60 61
5.227337e-01 5.513391e-01 3.140414e+00 132 131 126
5.309786e-01 5.424458e-01 3.147681e+00 125 123 134
4.891573e-01 6.007534e-01 3.132141e+00 108 101 109
4.798339e-01 4.971251e-01 3.153561e+00 254 255 255
4.472438e-01 5.821448e-01 3.135784e+00 144 144 141
4.455022e-01 4.905159e-01 3.160752e+00 122 120 123
4.242077e-01 5.236709e-01 3.152313e+00 126 123 122
4.481752e-01 5.811604e-01 3.135960e+00 155 152 143
4.896388e-01 6.035686e-01 3.131716e+00 100 94 98
4.400119e-01 5.865650e-01 3.134009e+00 44 42 48
4.402468e-01 5.867221e-01 3.134362e+00 158 156 156
4.936513e-01 5.355228e-01 3.148454e+00 124 121 116
4.370957e-01 6.039549e-01 3.130271e+00 251 251 252
4.433177e-01 5.969936e-01 3.136056e+00 153 152 149
4.786185e-01 6.026035e-01 3.128169e+00 147 145 149
4.325195e-01 5.398023e-01 3.139948e+00 45 43 54
4.349584e-01 5.833692e-01 3.134016e+00 150 152 151
4.352335e-01 4.746148e-01 3.164834e+00 108 107 109
3.982679e-01 5.464962e-01 3.146114e+00 136 134 135
4.196179e-01 5.180021e-01 3.150020e+00 182 185 194
4.032727e-01 5.018272e-01 3.144614e+00 129 133 136
3.974979e-01 5.140641e-01 3.147383e+00 127 126 124
4.027768e-01 5.122917e-01 3.144801e+00 86 85 81
4.023129e-01 5.162395e-01 3.147388e+00 200 199 204
4.236982e-01 4.922296e-01 3.154297e+00 103 102 105
4.086872e-01 5.328720e-01 3.150876e+00 118 127 144
3.767362e-01 5.399336e-01 3.144065e+00 121 124 131
4.174977e-01 5.207841e-01 3.154201e+00 91 94 111
4.328443e-01 5.023201e-01 3.157592e+00 165 165 175
4.370007e-01 4.725081e-01 3.165225e+00 171 183 199
3.950229e-01 5.233932e-01 3.153400e+00 116 128 144
3.805379e-01 5.412213e-01 3.144377e+00 141 140 145
4.072417e-01 5.320921e-01 3.152228e+00 138 144 158
3.930408e-01 5.621245e-01 3.142770e+00 46 45 41
4.419775e-01 5.399327e-01 3.140196e+00 136 136 135
3.990275e-01 5.564367e-01 3.143627e+00 34 34 32
4.471978e-01 5.336269e-01 3.141528e+00 129 129 129
3.944612e-01 5.214145e-01 3.153286e+00 82 83 85
4.233092e-01 5.264880e-01 3.152460e+00 100 101 96
4.006858e-01 5.637674e-01 3.142286e+00 64 62 57
4.437201e-01 5.402014e-01 3.140444e+00 121 121 122
4.430774e-01 5.328324e-01 3.142059e+00 124 124 128
4.301879e-01 5.550077e-01 3.140007e+00 93 90 85
4.566767e-01 5.434264e-01 3.110656e+00 37 34 33
4.143211e-01 4.936887e-01 3.159747e+00 56 58 59
3.944897e-01 5.565980e-01 3.144553e+00 129 132 133
4.137579e-01 5.438560e-01 3.146219e+00 111 121 120
4.439093e-01 5.295129e-01 3.142517e+00 32 39 44
4.562529e-01 5.736586e-01 3.141890e+00 79 78 74
4.113038e-01 5.188147e-01 3.151812e+00 99 95 90
4.300706e-01 5.340422e-01 3.140886e+00 97 101 104
4.855908e-01 5.354615e-01 3.146384e+00 108 108 106
4.352282e-01 5.135282e-01 3.155306e+00 37 32 32
4.564330e-01 5.347511e-01 3.144960e+00 123 120 126
4.515055e-01 5.787961e-01 3.137005e+00 160 159 164
5.111932e-01 5.615145e-01 3.138490e+00 165 165 173
5.251405e-01 5.724050e-01 3.140917e+00 70 80 105
4.570874e-01 5.998965e-01 3.127782e+00 154 160 171
3.662458e-01 5.322549e-01 3.143123e+00 82 76 83
3.682525e-01 5.269231e-01 3.139843e+00 82 77 81
3.745853e-01 5.243941e-01 3.141089e+00 164 158 162
3.911444e-01 5.069328e-01 3.146205e+00 77 71 73
4.154497e-01 4.821877e-01 3.152088e+00 66 57 58
4.353343e-01 4.732798e-01 3.165157e+00 158 156 161
4.136705e-01 5.297052e-01 3.150490e+00 148 142 145
4.236966e-01 5.201516e-01 3.153155e+00 161 155 157
4.497350e-01 5.482569e-01 3.142491e+00 178 177 183
4.879117e-01 5.331366e-01 3.147474e+00 186 185 191
4.876991e-01 5.374157e-01 3.146234e+00 155 150 156
3.906398e-01 5.082711e-01 3.148406e+00 76 67 69
4.426075e-01 5.283947e-01 3.141485e+00 58 59 64
4.165501e-01 5.697703e-01 3.136599e+00 119 116 123
4.426135e-01 5.393803e-01 3.139798e+00 46 43 52
4.517689e-01 5.394649e-01 3.140902e+00 66 57 58
4.537143e-01 5.362710e-01 3.142417e+00 83 72 78
4.529005e-01 5.394630e-01 3.141604e+00 68 59 60
4.721407e-01 5.140641e-01 3.150282e+00 171 167 168
4.940350e-01 5.308165e-01 3.148089e+00 66 61 67
4.940350e-01 5.308165e-01 3.148089e+00 66 61 67
4.956064e-01 5.336309e-01 3.148412e+00 141 138 145
5.208968e-01 5.672081e-01 3.139628e+00 178 177 185
3.795125e-01 5.306439e-01 3.141735e+00 145 135 136
4.099555e-01 5.319453e-01 3.151462e+00 173 170 179
4.242815e-01 5.167192e-01 3.153246e+00 66 57 60
4.238730e-01 5.743972e-01 3.136196e+00 113 110 117
4.325670e-01 5.993132e-01 3.130887e+00 138 155 171
4.714843e-01 5.546788e-01 3.141434e+00 74 73 79
4.947779e-01 5.235373e-01 3.147705e+00 110 111 115
4.810392e-01 6.288363e-01 3.127690e+00 72 93 125
3.729851e-01 5.330869e-01 3.141433e+00 72 67 71
4.290191e-01 5.652033e-01 3.137040e+00 138 132 134
4.707550e-01 5.173244e-01 3.149049e+00 148 142 146
4.526326e-01 5.459162e-01 3.142845e+00 156 151 157
4.524475e-01 5.466194e-01 3.142939e+00 118 113 119
4.877945e-01 5.355468e-01 3.147611e+00 158 153 157
4.646757e-01 5.731395e-01 3.142443e+00 80 79 93
4.879091e-01 5.494733e-01 3.148362e+00 117 120 130
3.255566e-01 4.742723e-01 3.077316e+00 187 17 29
4.098834e-01 5.266554e-01 3.151611e+00 178 172 176
4.557791e-01 4.894716e-01 3.158917e+00 48 38 46
4.285175e-01 4.324058e-01 3.132228e+00 20 30 40
3.861596e-01 5.537688e-01 3.146019e+00 154 151 158
4.138380e-01 5.634572e-01 3.134231e+00 58 60 72
4.266003e-01 5.624021e-01 3.137013e+00 174 172 177
4.304345e-01 5.707546e-01 3.137761e+00 188 188 196
4.529044e-01 6.126420e-01 3.126982e+00 218 237 254
4.278097e-01 4.318253e-01 3.132154e+00 90 91 96
4.272870e-01 5.438343e-01 3.147825e+00 59 59 69
5.228192e-01 5.640145e-01 3.140372e+00 168 170 185
4.680181e-01 5.578376e-01 3.140807e+00 167 166 172
4.038766e-01 4.889212e-01 3.154634e+00 44 38 42
4.327277e-01 5.397734e-01 3.139543e+00 28 26 39
4.319833e-01 5.730848e-01 3.137655e+00 69 70 75
4.354862e-01 5.738125e-01 3.164525e+00 108 108 116
5.128704e-01 5.614103e-01 3.137589e+00 19 18 25
5.278206e-01 5.549693e-01 3.143787e+00 165 167 182
4.304756e-01 4.327282e-01 3.132419e+00 134 146 170
4.315007e-01 4.329335e-01 3.132482e+00 56 61 81
4.004492e-01 5.384106e-01 3.147898e+00 191 189 194
4.150327e-01 5.691681e-01 3.136932e+00 179 178 184
4.246507e-01 5.704562e-01 3.137737e+00 86 84 89
4.256358e-01 5.703312e-01 3.138337e+00 177 176 182
4.577575e-01 5.405634e-01 3.144463e+00 148 146 151
4.346837e-01 5.938259e-01 3.136070e+00 121 121 129
4.504661e-01 5.882620e-01 3.136330e+00 168 170 185
4.762167e-01 6.169473e-01 3.128816e+00 151 151 163
4.776841e-01 6.166959e-01 3.128920e+00 157 158 176
5.308274e-01 5.553602e-01 3.142084e+00 162 162 174
4.282688e-01 4.333454e-01 3.132359e+00 116 82 107
4.298468e-01 4.329265e-01 3.132410e+00 75 87 109
3.925373e-01 5.198092e-01 3.153712e+00 174 173 181
4.111946e-01 5.281105e-01 3.151882e+00 88 90 97
4.047117e-01 5.462093e-01 3.146799e+00 176 172 179
4.408858e-01 5.238092e-01 3.142978e+00 74 75 87
4.223779e-01 5.773342e-01 3.136390e+00 71 71 78
4.519268e-01 5.451245e-01 3.143241e+00 184 183 189
5.265841e-01 5.577004e-01 3.140815e+00 68 64 78
5.377389e-01 5.585376e-01 3.142199e+00 152 153 173
3.856604e-01 5.436765e-01 3.147199e+00 188 185 190
4.186114e-01 5.151998e-01 3.154137e+00 72 61 65
4.067655e-01 5.489567e-01 3.146641e+00 91 83 89
4.367009e-01 5.612865e-01 3.139699e+00 91 90 95
5.284897e-01 5.582282e-01 3.141616e+00 127 127 139
4.238985e-01 5.685529e-01 3.138116e+00 154 152 157
4.632381e-01 5.214292e-01 3.146299e+00 158 157 163
4.226107e-01 5.712876e-01 3.136086e+00 71 71 79
4.300348e-01 5.671105e-01 3.137205e+00 69 67 71
4.244657e-01 5.691050e-01 3.138250e+00 127 125 128
4.206613e-01 4.966261e-01 3.159313e+00 110 110 115
4.281150e-01 5.081836e-01 3.156788e+00 96 94 96
4.206484e-01 5.222938e-01 3.153214e+00 98 97 100
4.206484e-01 5.222938e-01 3.153214e+00 98 97 100
4.265837e-01 5.284356e-01 3.150688e+00 131 131 134
4.323179e-01 5.722196e-01 3.136946e+00 65 60 57
4.426912e-01 6.025306e-01 3.131793e+00 111 112 116
4.379737e-01 5.534744e-01 3.144335e+00 147 148 151
4.322016e-01 5.770086e-01 3.134662e+00 112 113 117
4.823966e-01 5.429695e-01 3.147081e+00 128 127 123
4.459770e-01 5.997266e-01 3.134221e+00 138 138 138
4.685191e-01 6.251745e-01 3.124845e+00 255 255 255
3.732251e-01 5.443513e-01 3.147235e+00 99 102 109
4.357589e-01 5.096800e-01 3.156145e+00 110 105 110
4.135873e-01 5.362737e-01 3.149659e+00 105 103 104
4.344181e-01 5.510127e-01 3.146464e+00 145 145 146
4.786892e-01 5.201515e-01 3.148451e+00 112 113 117
5.062309e-01 5.206442e-01 3.151947e+00 110 110 114
5.063516e-01 5.224899e-01 3.151840e+00 238 249 251
5.062905e-01 5.225300e-01 3.151911e+00 238 249 251
4.793704e-01 6.154000e-01 3.128111e+00 146 142 141
3.722243e-01 5.401231e-01 3.277099e+00 17 20 12
3.959570e-01 5.203870e-01 3.153983e+00 94 97 106
4.436736e-01 4.914680e-01 3.160187e+00 121 123 128
3.946025e-01 5.498528e-01 3.145675e+00 105 108 113
4.001263e-01 5.544321e-01 3.145758e+00 98 94 93
4.343442e-01 5.271486e-01 3.150807e+00 127 126 129
4.343623e-01 5.271423e-01 3.150765e+00 127 126 129
4.229673e-01 5.758067e-01 3.135966e+00 106 104 105
4.804010e-01 5.190251e-01 3.150348e+00 121 121 123
4.636624e-01 5.825998e-01 3.132399e+00 102 102 102
4.795572e-01 6.141465e-01 3.127799e+00 86 82 80
3.736310e-01 5.428691e-01 3.147874e+00 43 44 45
4.234755e-01 5.156022e-01 3.154278e+00 120 120 124
4.089847e-01 5.341951e-01 3.149505e+00 46 41 44
4.281207e-01 5.201620e-01 3.153100e+00 38 32 32
4.170344e-01 5.331477e-01 3.149842e+00 42 38 39
4.311368e-01 5.175974e-01 3.154666e+00 108 100 98
4.491364e-01 5.215292e-01 3.153291e+00 79 78 83
4.271802e-01 5.483818e-01 3.146436e+00 83 82 88
4.271154e-01 5.484184e-01 3.146722e+00 83 82 88
4.389943e-01 5.395102e-01 3.140201e+00 126 127 129
4.233711e-01 5.734180e-01 3.136032e+00 40 39 37
4.162956e-01 5.794577e-01 3.138308e+00 151 152 156
4.379965e-01 5.797904e-01 3.134364e+00 14 12 18
4.472432e-01 5.788920e-01 3.135847e+00 39 34 38
4.353114e-01 6.020779e-01 3.130261e+00 99 88 95
4.839901e-01 5.462859e-01 3.148839e+00 109 109 112
4.830342e-01 5.505478e-01 3.145274e+00 55 54 60
4.492240e-01 5.879662e-01 3.135459e+00 97 97 98
4.877841e-01 6.020051e-01 3.131171e+00 147 143 144
3.724207e-01 5.400060e-01 3.276820e+00 115 128 36
4.220753e-01 4.698703e-01 3.159007e+00 19 19 21
4.111278e-01 4.844881e-01 3.159648e+00 74 75 77
3.682154e-01 5.427562e-01 3.146821e+00 84 87 92
3.529642e-01 5.660677e-01 3.028873e+00 110 107 102
3.732980e-01 5.812375e-01 2.971527e+00 133 130 137
4.098266e-01 5.323750e-01 3.150778e+00 42 42 43
4.349202e-01 5.035805e-01 3.156374e+00 80 76 77
3.963375e-01 5.560484e-01 3.142996e+00 12 10 14
4.454049e-01 4.983560e-01 3.157796e+00 107 102 106
4.078062e-01 5.451897e-01 3.146928e+00 99 95 84
4.078100e-01 5.451830e-01 3.146919e+00 99 95 84
4.308328e-01 5.191963e-01 3.153484e+00 29 20 20
4.113325e-01 5.474499e-01 3.146088e+00 37 37 45
4.181025e-01 5.657692e-01 3.135438e+00 98 91 82
4.103308e-01 5.725868e-01 3.141255e+00 65 65 70
4.274531e-01 5.635624e-01 3.137596e+00 116 114 112
4.277033e-01 5.636263e-01 3.136798e+00 116 114 112
4.766292e-01 5.142480e-01 3.150376e+00 83 73 71
4.319771e-01 5.657106e-01 3.138301e+00 140 140 138
4.294997e-01 5.692435e-01 3.137502e+00 136 136 136
4.653974e-01 5.352174e-01 3.149259e+00 130 129 136
4.305926e-01 5.761696e-01 3.136476e+00 119 120 122
4.691017e-01 5.326906e-01 3.149693e+00 141 141 143
4.964303e-01 5.226350e-01 3.151787e+00 137 136 134
4.541116e-01 5.719172e-01 3.139980e+00 74 72 75
5.054358e-01 5.189937e-01 3.152524e+00 245 255 254
4.869625e-01 5.398954e-01 3.146750e+00 123 118 106
4.824519e-01 5.457779e-01 3.148245e+00 114 109 105
4.822926e-01 5.457885e-01 3.148472e+00 114 109 105
4.487871e-01 5.858584e-01 3.135440e+00 112 107 99
4.473063e-01 5.875619e-01 3.135124e+00 118 109 101
4.515081e-01 5.834314e-01 3.136794e+00 63 56 56
5.227042e-01 5.589597e-01 3.141219e+00 131 130 133
5.231481e-01 5.589770e-01 3.140753e+00 131 130 133
4.891408e-01 6.007163e-01 3.132243e+00 83 70 83
5.397743e-01 5.534075e-01 3.144207e+00 254 254 254
4.932186e-01 6.067075e-01 3.132002e+00 80 68 80
3.750278e-01 5.368045e-01 3.277127e+00 20 21 5
3.754316e-01 5.364615e-01 3.275776e+00 21 26 4
4.041353e-01 4.923354e-01 3.153978e+00 14 12 13
4.299111e-01 4.697024e-01 3.166076e+00 111 109 114
4.353813e-01 4.705687e-01 3.165659e+00 123 123 123
4.342874e-01 4.733682e-01 3.165762e+00 32 31 36
3.921571e-01 5.279336e-01 3.147813e+00 82 77 74
3.781929e-01 5.451268e-01 3.146420e+00 60 63 72
4.277296e-01 4.851682e-01 3.153486e+00 37 32 29
3.937681e-01 5.356075e-01 3.147139e+00 41 36 33
4.447297e-01 4.894257e-01 3.161198e+00 36 35 41
4.311953e-01 5.058094e-01 3.157112e+00 54 52 57
3.924479e-01 5.539319e-01 3.144452e+00 111 112 116
4.309164e-01 5.133338e-01 3.154386e+00 44 39 43
4.265156e-01 5.184576e-01 3.153216e+00 35 29 31
4.337595e-01 5.112232e-01 3.155022e+00 32 27 32
4.337595e-01 5.112232e-01 3.155022e+00 32 27 32
4.169175e-01 5.322536e-01 3.150172e+00 88 82 82
4.200882e-01 5.386047e-01 3.148696e+00 118 117 117
4.249905e-01 5.334842e-01 3.149492e+00 74 74 76
4.232349e-01 5.358716e-01 3.148497e+00 99 98 104
4.506768e-01 5.038257e-01 3.157083e+00 127 126 124
4.126927e-01 5.485207e-01 3.146092e+00 36 34 40
4.662078e-01 5.078577e-01 3.148996e+00 109 100 91
4.074235e-01 5.720266e-01 3.140799e+00 80 81 83
4.074235e-01 5.720266e-01 3.140799e+00 80 81 83
4.691874e-01 5.170612e-01 3.148011e+00 116 109 101
4.311175e-01 5.606725e-01 3.139083e+00 66 58 55
4.311175e-01 5.606725e-01 3.139083e+00 66 58 55
4.252244e-01 5.749586e-01 3.136075e+00 74 71 64
4.629179e-01 5.331220e-01 3.149403e+00 146 146 142
4.819435e-01 5.140578e-01 3.154503e+00 40 38 43
4.738818e-01 5.267167e-01 3.147076e+00 45 44 51
4.758319e-01 5.436368e-01 3.144902e+00 58 54 55
4.889473e-01 5.304672e-01 3.147868e+00 118 114 116
4.935507e-01 5.358742e-01 3.147709e+00 49 44 51
4.847966e-01 5.453061e-01 3.148673e+00 140 139 144
4.613582e-01 5.711402e-01 3.142655e+00 123 118 117
4.599083e-01 5.729357e-01 3.141933e+00 123 117 115
4.482876e-01 5.897283e-01 3.135406e+00 22 19 31
4.551438e-01 5.876333e-01 3.132838e+00 109 109 114
4.579461e-01 5.898154e-01 3.132309e+00 133 133 135
4.596798e-01 5.912198e-01 3.132312e+00 135 135 137
4.642639e-01 5.947846e-01 3.131364e+00 132 132 134
4.676217e-01 5.974811e-01 3.131180e+00 128 132 133
5.196661e-01 5.582076e-01 3.141048e+00 83 81 86
5.272197e-01 5.514851e-01 3.143209e+00 132 132 134
5.085541e-01 5.682140e-01 3.141868e+00 152 150 153
4.864407e-01 5.976343e-01 3.132194e+00 128 119 124
5.311832e-01 5.570164e-01 3.141715e+00 121 120 116
5.218530e-01 5.677963e-01 3.139727e+00 127 126 125
5.397697e-01 5.535328e-01 3.144158e+00 254 254 252
4.798395e-01 6.174413e-01 3.128461e+00 121 121 119
5.260497e-01 5.736996e-01 3.137638e+00 254 254 252
4.789651e-01 6.210686e-01 3.128217e+00 51 47 48
3.699875e-01 5.415659e-01 3.276788e+00 6 11 16
3.701097e-01 5.413885e-01 3.276731e+00 6 6 11
3.906165e-01 5.189513e-01 3.153747e+00 97 96 99
4.121898e-01 4.930483e-01 3.159686e+00 31 29 32
3.929908e-01 5.200277e-01 3.153982e+00 93 93 103
4.145333e-01 4.941099e-01 3.159410e+00 94 92 95
4.136306e-01 5.104626e-01 3.148964e+00 29 24 20
4.292781e-01 4.943581e-01 3.159118e+00 127 122 126
4.357036e-01 4.891032e-01 3.160014e+00 49 38 36
4.339917e-01 4.930943e-01 3.158773e+00 128 128 128
3.999220e-01 5.422626e-01 3.147925e+00 37 37 47
3.889529e-01 5.572926e-01 3.145356e+00 37 37 35
4.420745e-01 4.987965e-01 3.158012e+00 100 97 92
4.420745e-01 4.987965e-01 3.158012e+00 100 97 92
3.918718e-01 5.598764e-01 3.145195e+00 120 120 121
3.979930e-01 5.548494e-01 3.144729e+00 94 93 91
4.002605e-01 5.558033e-01 3.144743e+00 85 81 80
4.512687e-01 4.993661e-01 3.157613e+00 129 131 140
4.194197e-01 5.370163e-01 3.149296e+00 116 117 122
4.003253e-01 5.597562e-01 3.142695e+00 114 115 119
4.365874e-01 5.207497e-01 3.153069e+00 95 85 88
4.308137e-01 5.325656e-01 3.141298e+00 97 96 101
4.238480e-01 5.473130e-01 3.147300e+00 110 106 105
4.040491e-01 5.717144e-01 3.141519e+00 50 50 52
4.596838e-01 5.109186e-01 3.148593e+00 54 51 48
4.332752e-01 5.421327e-01 3.139708e+00 116 115 118
4.627851e-01 5.096693e-01 3.149043e+00 58 49 49
4.393955e-01 5.387142e-01 3.140102e+00 107 108 110
4.664604e-01 5.083848e-01 3.149442e+00 65 55 49
4.180152e-01 5.648342e-01 3.134794e+00 103 94 85
4.620454e-01 5.207969e-01 3.148131e+00 69 65 59
4.718535e-01 5.094230e-01 3.152161e+00 65 64 60
4.236825e-01 5.658365e-01 3.136486e+00 37 36 34
4.235769e-01 5.658018e-01 3.136834e+00 37 36 34
4.697015e-01 5.148617e-01 3.148420e+00 48 40 39
4.721255e-01 5.114933e-01 3.150884e+00 132 123 114
4.687996e-01 5.171717e-01 3.147558e+00 48 40 38
4.519562e-01 5.372493e-01 3.140388e+00 39 36 45
4.223962e-01 5.699815e-01 3.136715e+00 55 50 44
4.316108e-01 5.595249e-01 3.139731e+00 134 130 128
4.264864e-01 5.705477e-01 3.137323e+00 129 129 129
4.556609e-01 5.400485e-01 3.144322e+00 75 73 74
4.758339e-01 5.196671e-01 3.149609e+00 65 57 49
4.758339e-01 5.196671e-01 3.149609e+00 65 57 49
4.347053e-01 5.689727e-01 3.138134e+00 61 57 54
4.331366e-01 5.706237e-01 3.138013e+00 76 71 67
4.319337e-01 5.719806e-01 3.137823e+00 67 62 59
4.385000e-01 5.648831e-01 3.139362e+00 106 102 103
4.385000e-01 5.648831e-01 3.139362e+00 106 102 103
4.677788e-01 5.308837e-01 3.150643e+00 39 37 42
4.384305e-01 5.655159e-01 3.139366e+00 49 45 46
4.848775e-01 5.266121e-01 3.146390e+00 103 103 105
4.904327e-01 5.341336e-01 3.147312e+00 130 126 115
4.673713e-01 5.600369e-01 3.140673e+00 117 120 129
4.510188e-01 5.815413e-01 3.136874e+00 62 54 51
4.874168e-01 5.988302e-01 3.132390e+00 83 65 79
4.671929e-01 6.189181e-01 3.130259e+00 134 133 128
5.311838e-01 5.574142e-01 3.142579e+00 67 65 66
4.884887e-01 6.034896e-01 3.131390e+00 141 137 137
4.823474e-01 6.119625e-01 3.129458e+00 127 127 127
4.907052e-01 6.053513e-01 3.130816e+00 143 139 139
4.722729e-01 6.214123e-01 3.130221e+00 138 137 142
3.775901e-01 5.251650e-01 3.143966e+00 77 77 79
3.778649e-01 5.262795e-01 3.143832e+00 85 85 85
4.085473e-01 4.955621e-01 3.154103e+00 79 74 71
4.130756e-01 4.905226e-01 3.160397e+00 74 73 78
4.109913e-01 4.933499e-01 3.159495e+00 98 96 99
4.103751e-01 4.963246e-01 3.153971e+00 85 81 76
4.305706e-01 4.742765e-01 3.163469e+00 33 29 26
3.937639e-01 5.194803e-01 3.153736e+00 93 94 98
3.883609e-01 5.309723e-01 3.142570e+00 82 78 77
4.142150e-01 5.000586e-01 3.154674e+00 21 15 17
4.377370e-01 4.726253e-01 3.165910e+00 59 58 64
4.065370e-01 5.154994e-01 3.148848e+00 20 16 13
3.917363e-01 5.334139e-01 3.145742e+00 71 66 63
3.893213e-01 5.398890e-01 3.145472e+00 31 27 24
4.102464e-01 5.165550e-01 3.150071e+00 20 12 14
3.924976e-01 5.380055e-01 3.146025e+00 33 29 28
4.320033e-01 4.926990e-01 3.159263e+00 48 38 36
4.054326e-01 5.358162e-01 3.148720e+00 13 13 19
4.021117e-01 5.396391e-01 3.148266e+00 10 8 14
3.976616e-01 5.448707e-01 3.147199e+00 16 16 21
3.963958e-01 5.479615e-01 3.145980e+00 12 11 16
4.291932e-01 5.110143e-01 3.155632e+00 13 9 11
4.291904e-01 5.110042e-01 3.155640e+00 13 9 11
4.153142e-01 5.321762e-01 3.150224e+00 104 101 106
4.206317e-01 5.270036e-01 3.151286e+00 39 30 32
4.410746e-01 5.048353e-01 3.156767e+00 108 100 89
4.313260e-01 5.176054e-01 3.154624e+00 105 97 95
4.337403e-01 5.200857e-01 3.153201e+00 116 116 118
4.314027e-01 5.229211e-01 3.152374e+00 124 124 127
4.251725e-01 5.303752e-01 3.150262e+00 129 132 136
4.226846e-01 5.332539e-01 3.149943e+00 120 121 126
4.226530e-01 5.332637e-01 3.150042e+00 120 121 126
4.507299e-01 5.034087e-01 3.157521e+00 36 35 43
4.184137e-01 5.425903e-01 3.147805e+00 32 28 27
4.542531e-01 5.070286e-01 3.156342e+00 128 129 136
4.575459e-01 5.101753e-01 3.148145e+00 39 35 34
4.463097e-01 5.206304e-01 3.153739e+00 106 100 88
4.331634e-01 5.400148e-01 3.140042e+00 105 106 108
4.429980e-01 5.335484e-01 3.140843e+00 30 27 30
4.425629e-01 5.343856e-01 3.141435e+00 85 82 77
4.601512e-01 5.153216e-01 3.147882e+00 51 38 34
4.597948e-01 5.161365e-01 3.147691e+00 52 39 35
4.643846e-01 5.168337e-01 3.147987e+00 53 49 48
4.643525e-01 5.168497e-01 3.148033e+00 53 49 48
4.172628e-01 5.699588e-01 3.136372e+00 113 109 106
4.617691e-01 5.213295e-01 3.148117e+00 141 137 138
4.183876e-01 5.712166e-01 3.136768e+00 61 60 59
4.253389e-01 5.648223e-01 3.136498e+00 62 61 59
