ply
format ascii 1.0
element face 0
property list uchar int vertex_indices
element vertex 942
property float x
property float y
property float z
property uchar diffuse_red
property uchar diffuse_green
property uchar diffuse_blue
end_header
6.463837e-01 4.030394e-01 3.921155e+00 178 187 186
1.399374e-01 2.526687e-01 3.830348e+00 123 123 124
-1.243806e-01 1.850149e-01 3.684544e+00 199 197 205
1.291504e-01 2.704261e-01 3.830619e+00 119 118 119
8.402909e-01 5.125177e-01 3.932856e+00 154 158 161
-2.782849e-02 2.677111e-01 3.651304e+00 70 79 100
4.932402e-01 4.171715e-01 3.875597e+00 124 125 120
3.750722e-01 4.046947e-01 3.856245e+00 147 141 134
-2.728587e-01 2.230954e-01 3.593491e+00 64 70 86
-2.307420e-01 2.472962e-01 3.617114e+00 61 59 72
1.519554e-01 3.538875e-01 3.809085e+00 138 136 139
3.878914e-01 4.279653e-01 3.857644e+00 144 135 134
3.878914e-01 4.279653e-01 3.857644e+00 144 135 134
7.712367e-01 5.471946e-01 3.919735e+00 144 146 145
7.712367e-01 5.471946e-01 3.919735e+00 144 146 145
-7.281619e-01 9.354808e-02 3.662475e+00 119 108 111
5.759800e-01 5.093884e-01 3.821911e+00 177 169 159
-3.739368e-01 2.271899e-01 3.581768e+00 135 131 130
-3.739368e-01 2.271899e-01 3.581768e+00 135 131 130
1.297986e-01 3.693801e-01 3.811509e+00 127 125 132
1.297986e-01 3.693801e-01 3.811509e+00 127 125 132
-1.209112e+00 -3.369119e-02 3.533093e+00 108 97 96
5.760422e-01 5.225004e-01 3.824468e+00 118 110 106
-1.657274e-01 3.072913e-01 3.596641e+00 64 68 82
5.032564e-01 5.099115e-01 3.851455e+00 123 114 111
5.032564e-01 5.099115e-01 3.851455e+00 123 114 111
7.218966e-01 5.792404e-01 3.889159e+00 141 143 148
3.820942e-01 4.674666e-01 3.885670e+00 198 189 179
1.026850e-01 4.085133e-01 3.790529e+00 126 125 130
-3.311266e-01 3.100230e-01 3.547174e+00 165 154 132
1.200333e-01 4.426752e-01 3.740959e+00 132 125 128
-3.246564e-01 3.165924e-01 3.558832e+00 57 56 70
-2.724486e-01 3.581715e-01 3.543322e+00 168 155 130
-1.243613e+00 3.810256e-02 3.509769e+00 117 111 113
-4.628314e-01 3.170468e-01 3.614004e+00 118 111 107
-4.665471e-01 3.562225e-01 3.609632e+00 199 191 184
-1.217346e+00 1.087732e-01 3.516569e+00 115 108 108
-7.983069e-01 2.648963e-01 3.615342e+00 155 153 154
-8.325972e-01 2.743708e-01 3.532500e+00 188 181 171
8.680751e-01 8.985524e-01 3.730472e+00 107 121 140
4.424218e-01 7.407705e-01 3.763464e+00 165 166 171
-1.190382e+00 1.903997e-01 3.492270e+00 116 116 121
2.071963e-01 6.565317e-01 3.857890e+00 118 112 111
-1.144836e+00 2.352877e-01 3.452024e+00 121 117 128
4.345838e-01 7.884462e-01 3.697271e+00 105 104 113
2.831307e-01 7.330363e-01 3.768851e+00 194 198 202
-1.088907e+00 2.797059e-01 3.450014e+00 124 119 123
-3.793178e-01 5.157992e-01 3.664033e+00 103 99 102
-9.682381e-01 3.230664e-01 3.524787e+00 201 201 201
-1.121429e-01 6.188097e-01 3.684713e+00 188 184 184
4.030208e-01 8.281139e-01 3.659747e+00 80 84 104
-1.064457e+00 3.035525e-01 3.491650e+00 199 203 209
-1.028980e+00 3.228093e-01 3.494289e+00 199 201 204
4.229073e-01 8.703081e-01 3.672726e+00 95 95 105
3.959561e-01 8.695358e-01 3.647412e+00 77 79 91
4.237206e-01 8.935961e-01 3.662730e+00 90 90 103
4.237206e-01 8.935961e-01 3.662730e+00 90 90 103
-5.782914e-01 5.149063e-01 3.601054e+00 169 173 180
-1.259381e+00 3.014111e-01 3.350770e+00 106 102 110
-5.622554e-01 -9.078090e-01 4.147008e+00 62 60 66
-3.627199e-01 -8.179902e-01 4.134483e+00 68 59 57
-3.627199e-01 -8.179902e-01 4.134483e+00 68 59 57
-4.762338e-01 -7.981439e-01 4.179329e+00 71 66 64
-9.399135e-01 -7.786878e-01 3.960782e+00 150 148 149
-3.601552e-01 -6.298274e-01 4.070655e+00 192 189 191
-1.434982e+00 -7.362287e-01 3.692795e+00 133 141 154
3.771049e-01 -3.091585e-01 4.205268e+00 100 94 97
1.011605e-01 -3.526002e-01 4.249788e+00 88 86 90
8.183048e-02 -3.559889e-01 4.243916e+00 74 78 86
-5.937905e-02 -3.881119e-01 4.184819e+00 165 170 173
-3.643333e-01 -4.500550e-01 4.105810e+00 77 85 101
-6.994433e-01 -5.076003e-01 3.998082e+00 54 56 68
-7.938598e-01 -5.284708e-01 4.001436e+00 76 75 89
-4.963483e-01 -4.562467e-01 4.084444e+00 61 60 66
-3.467876e-01 -4.208738e-01 4.052267e+00 155 152 148
-2.954116e-01 -4.075848e-01 4.090797e+00 106 95 95
-2.954116e-01 -4.075848e-01 4.090797e+00 106 95 95
-5.486359e-01 -4.617743e-01 4.049720e+00 75 65 70
-5.525596e-01 -4.646774e-01 4.023941e+00 62 59 67
-6.948377e-01 -4.947498e-01 4.020016e+00 98 106 117
-5.138576e-01 -4.518329e-01 4.053729e+00 180 188 196
-7.905898e-01 -5.136820e-01 4.008456e+00 177 185 192
-6.155620e-01 -4.670589e-01 4.066333e+00 182 189 198
5.728857e-01 -1.784544e-01 4.213247e+00 188 184 182
-1.274523e+00 -6.040705e-01 3.892462e+00 160 167 171
-1.197460e+00 -5.769017e-01 3.897587e+00 54 49 61
1.593354e-01 -2.513755e-01 4.288145e+00 140 139 146
2.718170e-01 -2.187620e-01 4.268741e+00 122 128 128
2.646533e-01 -2.267047e-01 4.196193e+00 177 174 172
1.124160e-01 -2.598066e-01 4.153866e+00 97 92 93
-1.302134e+00 -5.804446e-01 3.858773e+00 168 168 167
-1.386482e+00 -5.946665e-01 3.847981e+00 171 177 183
-2.729415e-01 -3.233360e-01 4.055554e+00 174 169 163
-6.452811e-01 -4.019402e-01 4.047896e+00 182 177 174
-8.715391e-01 -4.311852e-01 3.897930e+00 107 100 102
-8.990039e-01 -4.358945e-01 3.955197e+00 107 100 102
-5.554562e-01 -3.478665e-01 3.955143e+00 57 48 59
-8.781469e-01 -4.247602e-01 3.940806e+00 162 165 163
-1.233243e+00 -4.908980e-01 3.833459e+00 177 181 182
-2.843678e-01 -2.475351e-01 4.092674e+00 170 166 162
-7.877055e-01 -3.721279e-01 3.908026e+00 141 140 140
4.874496e-01 -3.407553e-02 4.225911e+00 104 112 121
1.524239e-01 -9.730750e-02 4.096437e+00 177 177 180
8.145532e-01 7.787063e-02 4.174197e+00 133 132 139
-2.769863e-01 -1.694233e-01 3.985197e+00 198 198 204
2.738795e-01 -2.358573e-02 4.164756e+00 112 109 106
-4.299354e-01 -1.948654e-01 3.946550e+00 193 197 200
-4.299354e-01 -1.948654e-01 3.946550e+00 193 197 200
1.691187e-01 -3.684797e-02 4.071378e+00 106 106 107
1.387005e-01 -4.129536e-02 4.063479e+00 106 105 105
1.387005e-01 -4.129536e-02 4.063479e+00 106 105 105
1.093825e-01 -4.640228e-02 4.054005e+00 104 102 100
-5.433459e-01 -2.158079e-01 3.960173e+00 189 192 195
-5.180854e-01 -2.087976e-01 3.919706e+00 189 192 195
6.613287e-02 -5.444055e-02 4.059960e+00 96 97 98
2.297575e-01 -9.457648e-03 4.165128e+00 173 173 176
5.287704e-03 -6.437993e-02 4.043818e+00 96 89 86
-7.952120e-01 -2.639138e-01 3.837765e+00 178 183 187
2.462911e-02 -4.064026e-02 4.059935e+00 176 181 182
-4.351726e-01 -1.411630e-01 3.954967e+00 101 96 92
-1.151599e+00 -3.190832e-01 3.769951e+00 62 73 98
-1.215152e+00 -3.355495e-01 3.742588e+00 184 187 195
-1.242017e+00 -3.397262e-01 3.724505e+00 183 186 191
-7.154791e-01 -1.918377e-01 3.822440e+00 86 77 78
-6.733802e-01 -1.716076e-01 3.825612e+00 105 104 108
-5.893469e-01 -1.441324e-01 3.880421e+00 94 91 104
-3.468869e-01 -5.539730e-02 3.705190e+00 67 73 95
-3.328760e-01 -4.485374e-02 3.709176e+00 65 73 94
-1.317314e+00 -2.862031e-01 3.762736e+00 79 82 98
-1.360292e+00 -2.850654e-01 3.746447e+00 168 168 177
-1.868665e-01 1.070173e-01 3.681218e+00 187 186 190
2.497945e-01 2.224308e-01 4.016436e+00 138 141 142
2.497945e-01 2.224308e-01 4.016436e+00 138 141 142
2.183369e-01 2.274675e-01 4.030317e+00 156 161 167
6.451535e-01 3.854526e-01 3.925451e+00 134 138 152
-1.003799e+00 -9.859151e-02 3.702064e+00 125 119 129
-3.749877e-01 1.099326e-01 3.599829e+00 170 176 180
-3.749877e-01 1.099326e-01 3.599829e+00 170 176 180
-7.497093e-01 -4.725206e-03 3.612375e+00 93 88 88
6.176146e-01 4.017468e-01 3.902146e+00 194 193 189
8.647975e-01 4.805396e-01 3.952716e+00 148 153 157
-6.951270e-01 3.077910e-02 3.636283e+00 95 93 101
-1.214205e+00 -1.254450e-01 3.560377e+00 178 175 173
-7.030136e-01 3.274993e-02 3.633638e+00 176 179 182
-3.437134e-01 1.113903e-01 4.016396e+00 189 189 194
-1.260461e+00 -1.298071e-01 3.536529e+00 179 174 171
-7.370080e-01 3.027473e-02 3.628914e+00 111 103 94
2.303140e-03 2.615784e-01 3.658974e+00 78 83 105
5.460021e-01 4.269088e-01 3.895095e+00 160 159 155
-7.216943e-01 4.975620e-02 3.687000e+00 113 104 104
-6.910124e-01 5.639869e-02 3.629967e+00 113 104 104
-9.384462e-01 2.989880e-03 3.534625e+00 105 92 91
-2.794594e-01 2.107401e-01 3.598382e+00 198 195 199
3.659200e-01 4.273624e-01 3.865073e+00 200 196 193
7.481679e-01 5.556512e-01 3.913672e+00 156 155 155
7.251258e-01 5.632650e-01 3.912215e+00 151 154 152
5.166616e-01 5.088681e-01 3.871956e+00 171 162 148
-8.308280e-01 1.127685e-01 3.521547e+00 99 84 77
4.377969e-01 4.948289e-01 3.867398e+00 142 132 122
-1.190921e+00 1.641618e-03 3.524849e+00 105 94 92
-1.128414e-01 3.677171e-01 3.600698e+00 68 71 81
7.913501e-01 6.478015e-01 3.875847e+00 140 140 140
5.122836e-01 5.609560e-01 3.849559e+00 199 190 178
4.313501e-01 5.289259e-01 3.892068e+00 136 132 133
-9.343477e-01 1.152015e-01 3.548431e+00 123 124 135
-1.059203e+00 8.722064e-02 3.477600e+00 108 103 106
3.446698e-01 5.277903e-01 3.808645e+00 133 127 127
-9.433596e-01 1.307140e-01 3.500909e+00 123 122 127
-8.976682e-01 1.557311e-01 3.532296e+00 127 126 133
-1.233283e+00 7.136274e-02 3.520171e+00 185 177 167
-9.734854e-01 1.766182e-01 3.511462e+00 173 173 171
-1.075898e+00 1.599656e-01 3.472245e+00 126 121 127
4.786541e-01 6.808659e-01 3.825618e+00 130 126 120
-5.035332e-01 4.021103e-01 3.604153e+00 104 99 101
-1.475424e+00 7.711941e-02 3.440833e+00 152 150 161
-3.531509e-01 4.590723e-01 3.612592e+00 191 181 175
-5.578631e-01 3.952326e-01 3.601584e+00 148 143 147
-9.605461e-02 5.591812e-01 3.711701e+00 165 157 144
-5.275470e-01 4.395944e-01 3.612074e+00 105 102 106
4.475068e-01 8.071622e-01 3.666518e+00 175 170 172
1.134061e-01 6.542255e-01 3.822520e+00 151 145 138
-1.204634e+00 2.276854e-01 3.477364e+00 106 100 104
-1.340354e+00 1.695438e-01 3.523939e+00 187 194 211
-1.269000e+00 2.321248e-01 3.447754e+00 115 113 127
-4.436396e-01 5.157428e-01 3.589865e+00 106 98 103
6.745406e-01 9.592347e-01 3.649573e+00 79 76 91
-4.975352e-01 -9.216655e-01 4.149911e+00 76 70 72
-4.975352e-01 -9.216655e-01 4.149911e+00 76 70 72
-3.977989e-01 -8.912847e-01 4.130878e+00 154 155 152
-3.977989e-01 -8.912847e-01 4.130878e+00 154 155 152
-5.647473e-01 -8.800349e-01 4.150665e+00 170 173 185
-5.571563e-01 -8.658233e-01 4.158816e+00 101 104 112
-3.518907e-01 -7.698967e-01 4.125983e+00 74 67 61
-4.475384e-01 -7.408468e-01 4.165624e+00 68 62 64
4.567927e-01 -5.215755e-01 4.396479e+00 111 99 93
-8.363866e-01 -7.482682e-01 4.077975e+00 132 131 135
-4.146680e-02 -5.919195e-01 4.231756e+00 151 147 140
-1.136712e+00 -7.632549e-01 3.980419e+00 177 177 175
-2.019548e-01 -4.326694e-01 4.131919e+00 165 163 162
-1.128576e-01 -3.943210e-01 4.124548e+00 101 91 93
5.873187e-01 -2.381745e-01 4.230457e+00 164 155 148
-1.951241e-01 -4.049452e-01 4.127155e+00 78 75 76
-4.041055e-01 -4.417499e-01 4.097217e+00 166 166 168
-3.980130e-01 -4.413265e-01 4.088874e+00 166 166 168
5.006206e-01 -2.342477e-01 4.195579e+00 166 153 151
-4.724815e-01 -4.496745e-01 4.070367e+00 104 91 90
-5.577207e-01 -4.670920e-01 4.047106e+00 187 188 194
-1.103630e+00 -5.816935e-01 3.890007e+00 87 91 106
-6.720624e-01 -4.765118e-01 4.063815e+00 197 197 204
-9.763273e-01 -5.469471e-01 3.915446e+00 163 165 169
-9.524916e-01 -5.346975e-01 3.951913e+00 69 68 78
-1.198937e+00 -5.844465e-01 3.890548e+00 139 148 163
-1.118463e+00 -5.577775e-01 3.938209e+00 177 176 180
6.488871e-01 -1.423936e-01 4.238545e+00 166 162 158
-1.271268e+00 -5.905440e-01 3.862741e+00 55 54 69
-1.699886e-02 -2.902774e-01 4.142763e+00 158 151 156
6.151784e-01 -1.433159e-01 4.211092e+00 116 112 118
5.084051e-01 -1.628275e-01 4.298569e+00 116 112 118
-2.652002e-01 -3.093152e-01 4.055553e+00 165 162 161
-5.262601e-01 -3.586502e-01 4.005489e+00 173 171 170
-1.123939e+00 -4.808083e-01 3.893123e+00 126 126 125
-1.123861e+00 -4.684145e-01 3.887588e+00 145 146 146
3.408615e-02 -1.725839e-01 4.098946e+00 166 153 144
2.164733e-01 -1.168346e-01 4.266967e+00 120 120 122
-1.125199e+00 -4.535110e-01 3.887261e+00 139 141 144
2.138012e-01 -1.127295e-01 4.276448e+00 161 176 184
5.024328e-01 -3.717450e-02 4.175277e+00 184 188 191
1.273970e-01 -1.125775e-01 4.184988e+00 174 188 201
-1.389263e+00 -4.934713e-01 3.831176e+00 103 99 106
-8.311101e-01 -3.430873e-01 3.879887e+00 57 53 53
1.351107e-01 -9.473051e-02 4.090773e+00 118 126 136
-5.681789e-01 -2.456504e-01 3.965484e+00 104 97 109
2.451323e-01 -2.673056e-02 4.158540e+00 130 122 119
3.039144e-01 -5.691244e-03 4.109297e+00 176 173 171
-7.004052e-01 -2.548634e-01 3.919453e+00 170 186 198
-9.205855e-01 -3.109138e-01 3.847192e+00 84 86 100
2.065397e-01 -1.118958e-02 4.176391e+00 114 114 121
-6.028067e-01 -1.910758e-01 3.922392e+00 121 109 109
-1.334215e+00 -3.840631e-01 3.810173e+00 91 86 96
-5.717655e-01 -1.753581e-01 3.934027e+00 114 109 112
-1.311057e+00 -3.614334e-01 3.799059e+00 128 131 143
-3.281881e-01 -9.310014e-02 3.902101e+00 65 74 94
-6.511027e-01 -1.676540e-01 3.881782e+00 122 113 103
7.425488e-02 6.941902e-02 3.751087e+00 79 81 97
-3.828712e-01 -2.348111e-02 3.666994e+00 131 129 136
-2.564634e-01 2.232684e-02 3.890650e+00 135 129 133
-1.215576e+00 -1.659199e-01 3.559502e+00 149 147 148
5.868794e-01 3.577065e-01 3.955093e+00 127 134 140
-1.190752e-01 1.654190e-01 3.666643e+00 76 78 80
-7.229838e-01 1.130653e-02 3.602481e+00 92 94 98
-7.162386e-01 3.233059e-02 3.591120e+00 182 173 166
-1.387264e-01 2.306022e-01 3.666328e+00 71 77 91
-5.103503e-01 1.536212e-01 3.649497e+00 119 115 117
-1.211354e+00 -4.261680e-02 3.535837e+00 162 152 143
-1.523802e-01 3.029995e-01 3.621063e+00 78 78 92
3.809471e-01 4.816568e-01 3.883470e+00 139 138 134
8.141661e-01 6.296059e-01 3.881681e+00 143 147 150
8.802488e-01 6.703240e-01 3.878935e+00 146 146 152
-9.361860e-01 1.014802e-01 3.578710e+00 204 204 207
-1.043415e+00 7.004802e-02 3.536815e+00 193 193 191
3.400451e-01 5.252678e-01 3.840094e+00 139 134 135
-1.263970e+00 4.084697e-02 3.483723e+00 121 117 118
3.938987e-01 5.989233e-01 3.806407e+00 144 146 145
-1.070924e+00 1.312241e-01 3.508544e+00 182 178 176
-1.064898e+00 1.365402e-01 3.490482e+00 182 178 176
-1.065155e+00 1.432163e-01 3.468599e+00 115 117 124
-5.129558e-01 3.610608e-01 3.600595e+00 143 144 146
7.445764e-04 5.618660e-01 3.736168e+00 176 167 160
-7.471858e-01 3.152314e-01 3.581735e+00 105 95 94
-7.290336e-01 3.183140e-01 3.547780e+00 105 95 94
-1.233778e+00 1.798021e-01 3.506577e+00 153 147 153
-9.061899e-01 3.216824e-01 3.536287e+00 138 133 139
-9.088667e-01 3.201399e-01 3.541618e+00 138 133 139
-2.178932e-01 5.593441e-01 3.676734e+00 172 163 164
-2.178932e-01 5.593441e-01 3.676734e+00 172 163 164
-1.197939e+00 2.309014e-01 3.482124e+00 187 178 179
-1.206619e+00 2.371859e-01 3.471626e+00 161 162 167
-4.612492e-01 4.955875e-01 3.631132e+00 167 157 147
-5.014675e-01 5.102345e-01 3.610842e+00 157 154 151
7.682308e-01 9.874138e-01 3.684786e+00 128 134 143
-5.740535e-01 4.979663e-01 3.593062e+00 147 141 145
3.548705e-01 8.534181e-01 3.662565e+00 107 105 110
-1.469917e+00 2.057359e-01 3.375367e+00 163 163 174
4.957407e-01 2.015189e+00 3.082622e+00 67 71 70
-3.075965e-01 1.006908e+00 3.416131e+00 138 131 126
-1.193924e+00 1.594503e+00 2.924369e+00 8 11 16
-6.489257e-01 -8.023520e-02 3.844672e+00 118 123 133
2.158853e-01 5.705174e-01 3.801013e+00 196 190 195
5.519390e-01 9.260046e-01 3.698708e+00 183 175 162
1.210189e-01 2.247487e+00 3.124889e+00 109 91 81
5.128334e-01 4.101552e-01 3.788391e+00 176 166 157
4.984338e-01 6.117546e-01 3.788929e+00 192 181 177
-7.000430e-01 7.551355e-01 3.513847e+00 122 117 118
5.319372e-01 1.931171e+00 3.196101e+00 143 138 134
4.550065e-01 2.196347e+00 3.194366e+00 186 176 175
-1.003739e+00 4.659725e-02 3.624088e+00 54 54 62
-7.686854e-01 7.863518e-01 3.417692e+00 45 37 37
1.117813e+00 1.339736e+00 3.697901e+00 210 202 196
-1.336564e+00 -1.393006e-01 3.677448e+00 84 99 115
7.407279e-01 6.419288e-01 3.817431e+00 221 214 208
3.424334e-01 6.694481e-01 3.720150e+00 125 110 91
7.323790e-01 -1.192355e-01 4.247423e+00 173 164 152
6.974786e-01 -4.081821e-04 4.211163e+00 153 152 148
-6.155990e-01 -7.818335e-03 3.841798e+00 124 127 139
-6.085504e-01 -7.262093e-03 3.819519e+00 124 127 139
-1.303254e+00 2.451328e-01 3.474432e+00 30 31 34
3.733378e-01 7.244635e-01 3.715280e+00 167 163 161
7.528043e-01 8.053605e-01 3.793507e+00 206 200 196
4.199571e-01 9.304027e-01 3.590799e+00 68 66 65
8.153137e-01 1.209649e+00 3.644629e+00 135 125 112
6.534760e-01 1.174440e+00 3.624799e+00 115 105 92
-5.587561e-01 9.335026e-01 3.439335e+00 114 109 105
-1.461788e+00 7.727661e-01 3.311333e+00 114 109 106
2.295781e-01 1.580284e+00 2.618366e+00 252 254 253
-6.760245e-01 -4.843900e-01 3.990224e+00 64 71 77
-6.481332e-01 -5.043775e-01 3.892345e+00 64 71 77
-5.859223e-01 -1.262353e-01 3.840951e+00 108 113 117
-6.643413e-01 1.392611e-01 3.765780e+00 47 45 49
-6.256836e-01 3.372095e-01 3.682480e+00 147 151 165
-1.537519e+00 4.669844e-01 3.327028e+00 82 96 132
-4.229339e-01 8.397489e-01 3.434129e+00 252 254 252
-7.912596e-01 1.024340e+00 3.442340e+00 89 89 92
4.802226e-01 1.709195e+00 3.227801e+00 70 65 62
-1.305975e+00 1.926127e+00 2.872342e+00 36 37 58
-5.131184e-01 -4.360726e-01 4.024618e+00 13 13 13
-3.068326e-01 1.529665e-01 3.679496e+00 112 119 123
-1.343617e+00 2.007894e-01 3.538167e+00 119 132 151
-2.231527e-01 3.960376e-01 3.722772e+00 64 46 34
-1.440375e+00 3.319626e-01 3.475163e+00 26 25 25
2.488060e-01 6.435140e-01 3.749751e+00 195 189 189
1.793127e-01 1.004593e+00 3.653903e+00 120 110 101
-1.123073e+00 9.729807e-01 3.289062e+00 13 15 24
-6.546014e-01 1.071155e+00 3.454384e+00 118 113 118
2.905964e-01 1.910520e+00 3.191002e+00 149 141 133
-1.434844e+00 1.810635e+00 2.908075e+00 92 83 89
7.285086e-02 2.319923e+00 3.045657e+00 117 117 145
-1.019161e+00 -5.340698e-01 3.888050e+00 4 8 9
-4.766690e-01 -4.299464e-01 4.020117e+00 12 13 8
-4.744915e-01 -4.358612e-01 4.012692e+00 12 13 8
1.037516e+00 -2.251481e-01 4.058299e+00 185 171 151
-6.383129e-01 -3.025523e-01 3.940541e+00 54 53 50
5.370690e-01 -1.072893e-01 4.197644e+00 149 134 112
7.214915e-01 -7.472775e-02 4.243812e+00 177 164 139
7.214915e-01 -7.472775e-02 4.243812e+00 177 164 139
-2.700286e-01 4.941151e-01 3.626069e+00 118 107 102
-6.296816e-01 4.410052e-01 3.655077e+00 144 143 155
-6.337432e-01 4.717528e-01 3.640586e+00 147 148 153
-7.395748e-01 5.396279e-01 3.601451e+00 123 124 136
4.721316e-01 7.735658e-01 3.685506e+00 184 174 167
-1.516817e+00 4.928228e-01 3.324431e+00 109 120 142
-1.519798e+00 5.358959e-01 3.283417e+00 109 127 150
-6.206480e-01 8.005038e-01 3.474638e+00 60 52 49
-6.692723e-01 8.294971e-01 3.516470e+00 64 57 53
-1.365887e+00 6.967153e-01 3.391468e+00 103 95 96
-8.511800e-01 8.289103e-01 3.399710e+00 108 104 102
9.523518e-01 1.214449e+00 3.787354e+00 186 177 169
-1.092278e+00 1.123275e+00 3.149430e+00 77 76 81
-8.498932e-01 1.394576e+00 3.108860e+00 96 95 98
-1.556078e+00 1.353005e+00 3.002146e+00 190 235 253
8.045304e-01 -2.458772e-01 4.340442e+00 144 134 128
-1.092873e+00 -4.413926e-01 3.838224e+00 45 45 44
-1.092873e+00 -4.413926e-01 3.838224e+00 45 45 44
5.879546e-01 -1.383138e-01 4.219431e+00 148 140 119
-1.110521e+00 -2.616712e-01 3.773207e+00 59 55 46
-1.110521e+00 -2.616712e-01 3.773207e+00 59 55 46
7.940241e-01 1.363793e-02 4.098277e+00 109 106 104
5.618781e-01 2.772496e-02 4.065204e+00 170 161 137
-5.504600e-01 -6.974444e-02 3.770661e+00 56 53 55
-3.057404e-01 2.834386e-02 3.730133e+00 20 20 12
-2.594938e-01 2.418896e-01 3.660715e+00 101 102 100
-2.544773e-01 2.338846e-01 3.641865e+00 101 102 100
-1.064800e+00 1.748403e-01 3.567467e+00 22 18 16
-6.101374e-02 3.856260e-01 3.615219e+00 31 26 18
7.459674e-01 5.262472e-01 3.801087e+00 190 178 160
-1.726106e-01 3.813568e-01 3.608497e+00 113 105 94
7.117604e-01 5.375362e-01 3.783643e+00 139 122 106
9.480349e-01 5.853082e-01 4.025632e+00 195 186 177
9.480349e-01 5.853082e-01 4.025632e+00 195 186 177
6.523871e-01 5.514597e-01 3.769753e+00 192 176 151
-2.083727e-01 4.160073e-01 3.710848e+00 105 86 71
-8.741416e-01 4.676417e-01 3.526803e+00 104 110 123
4.756459e-01 7.351079e-01 3.698168e+00 186 184 186
-1.181472e+00 6.575949e-01 3.362819e+00 80 80 81
-9.783043e-01 9.018920e-01 3.368595e+00 87 72 64
-1.163573e+00 9.148963e-01 3.320462e+00 13 12 17
-1.163573e+00 9.148963e-01 3.320462e+00 13 12 17
-1.134316e+00 9.258857e-01 3.304575e+00 16 12 16
5.997766e-01 -3.242568e-01 4.068815e+00 129 126 113
-8.540864e-01 -3.834934e-01 3.912791e+00 49 46 42
9.382459e-01 -1.743408e-01 4.081817e+00 163 153 137
-4.007580e-01 -1.489288e-01 3.910062e+00 40 36 35
6.179915e-01 4.383995e-02 4.122531e+00 134 121 96
-3.776174e-01 -2.303148e-02 3.733651e+00 20 15 20
-8.489893e-01 1.113421e-01 4.909837e+00 94 94 92
-9.195170e-01 1.206855e-01 3.614734e+00 107 106 111
-1.234645e+00 1.295290e-01 3.519625e+00 32 29 33
-1.087456e+00 3.166259e-01 3.500779e+00 67 61 62
-3.814254e-01 5.289601e-01 3.619701e+00 53 40 39
2.519643e-01 6.468246e-01 3.819747e+00 203 187 174
-9.190066e-01 8.214730e-01 3.378313e+00 60 54 54
1.770505e-01 1.035954e+00 3.657665e+00 166 157 148
7.000906e-01 1.154087e+00 3.663867e+00 132 127 123
1.387931e-01 1.028199e+00 3.657109e+00 149 142 133
-4.841362e-01 9.498838e-01 3.452390e+00 47 43 41
5.319274e-01 1.162069e+00 3.611035e+00 190 184 169
3.337142e-01 1.128894e+00 3.614870e+00 140 129 117
-1.401413e+00 7.887131e-01 3.347391e+00 105 100 96
-1.059633e+00 1.129296e+00 3.198945e+00 100 109 114
4.621283e-01 1.792976e+00 3.261983e+00 161 155 154
-7.277201e-01 1.709315e+00 3.169341e+00 126 125 134
-1.037766e+00 1.764675e+00 2.863683e+00 37 38 44
-8.907706e-01 1.786721e+00 3.005299e+00 51 49 48
-9.184020e-01 1.878404e+00 2.983190e+00 50 47 57
-8.370632e-01 1.938666e+00 3.034200e+00 44 37 46
9.261852e-01 2.539707e+00 3.206243e+00 194 204 219
8.838755e-01 2.532709e+00 3.199078e+00 249 253 255
-8.534102e-01 2.083719e+00 2.914777e+00 219 226 233
-8.613565e-01 -3.915491e-01 3.907720e+00 15 14 12
-1.067113e+00 2.753756e-01 3.522101e+00 85 74 68
-6.351027e-01 4.536340e-01 3.658528e+00 94 94 96
-1.111441e+00 6.903896e-01 3.378296e+00 74 71 72
-9.203807e-01 8.034068e-01 3.400789e+00 98 97 95
-1.458872e-01 9.899758e-01 3.514855e+00 81 71 70
-4.208542e-01 9.997612e-01 3.465533e+00 62 54 47
9.941902e-01 1.445853e+00 3.755906e+00 251 250 254
2.461260e-02 1.397132e+00 3.411409e+00 99 91 89
-1.305572e+00 1.252477e+00 3.091393e+00 34 33 41
3.211215e-01 2.187148e+00 3.158661e+00 101 88 79
-1.408198e+00 5.946529e-01 3.368451e+00 125 129 130
-6.048866e-01 2.024983e+00 2.957786e+00 173 199 222
-9.687601e-01 6.790183e-01 3.418270e+00 82 84 85
-6.812695e-01 -3.121638e-01 3.894960e+00 77 77 75
2.429719e-01 2.300824e+00 3.185896e+00 87 96 115
3.896537e-01 -2.896398e-01 4.175363e+00 104 106 106
-5.554933e-01 -9.613726e-01 4.203658e+00 40 38 39
-2.423098e-01 -8.150821e-01 4.045128e+00 25 18 15
-1.011745e+00 -7.595360e-01 3.945674e+00 23 15 12
2.706964e-01 -3.232836e-01 4.137794e+00 47 47 48
-3.564212e-01 -2.739194e-01 3.971077e+00 106 101 96
-1.300047e+00 -4.147724e-01 3.781668e+00 7 6 1
2.521165e-01 -1.416577e-01 4.144037e+00 126 122 119
-1.417114e+00 3.339542e-01 3.487043e+00 63 64 67
6.740534e-01 8.348706e-01 3.728790e+00 104 113 120
-8.519213e-01 8.022714e-01 3.394084e+00 17 12 12
5.939192e-01 1.170197e+00 3.575237e+00 105 108 115
5.687666e-01 2.422382e+00 3.165467e+00 91 104 120
-3.148597e-01 -4.119311e-01 4.022549e+00 13 13 13
-5.761602e-01 -4.118601e-01 3.986805e+00 104 101 102
-1.053365e+00 -3.703779e-01 3.839406e+00 14 5 3
1.772915e-01 -2.646334e-02 4.028536e+00 132 133 134
5.529895e-01 4.128723e-02 4.122602e+00 144 144 144
-7.374505e-02 3.928463e-01 3.615123e+00 125 119 111
4.609279e-01 8.554320e-01 3.692855e+00 91 94 100
-1.397571e+00 8.745012e-01 3.343261e+00 119 119 121
-6.062035e-01 -9.825688e-01 4.203961e+00 24 22 24
-7.559653e-01 -8.289644e-01 4.069581e+00 59 58 63
2.224775e-01 -2.390041e-01 4.095067e+00 18 19 21
-1.234625e+00 7.756348e-02 3.539945e+00 48 45 47
-1.017237e-01 3.890443e-01 3.605258e+00 133 128 123
-1.005299e+00 4.078162e-01 3.504830e+00 44 43 40
-4.057012e-01 1.074169e+00 3.431235e+00 96 103 111
-8.977703e-01 -5.414638e-01 3.930943e+00 14 14 17
6.465567e-01 -1.600944e-01 4.222087e+00 136 135 139
-5.365759e-02 -2.684471e-01 4.049096e+00 27 26 24
-5.525037e-02 -2.635617e-01 4.055884e+00 27 26 24
2.277401e-01 1.046216e+00 3.685054e+00 147 148 149
5.450286e-01 -2.965293e-01 4.217046e+00 29 34 39
-9.814942e-01 -3.436111e-01 3.848320e+00 75 72 63
-1.810032e-01 1.487230e-01 3.677384e+00 7 6 11
-1.518863e-01 1.518163e-01 3.913716e+00 7 6 21
-4.688493e-01 3.637565e-01 3.630637e+00 132 131 131
4.143584e-01 6.029837e-01 3.741439e+00 110 108 109
3.743504e-01 7.821817e-01 3.708453e+00 66 74 83
5.109724e-01 9.326749e-01 3.623478e+00 139 139 141
-1.015753e+00 7.849514e-01 3.373698e+00 132 131 126
-5.651670e-01 9.004533e-01 3.443403e+00 120 120 118
-8.877405e-01 8.711903e-01 3.389186e+00 55 47 44
-1.340452e+00 -2.343994e-01 3.552271e+00 130 134 135
2.916883e-01 8.204370e-01 3.863600e+00 93 96 101
-6.320061e-02 2.152178e+00 3.125927e+00 255 255 255
4.225382e-01 1.426167e+00 3.391945e+00 32 35 47
8.948991e-01 7.471239e-01 4.011967e+00 149 154 158
1.336267e-01 6.459888e-01 3.758065e+00 69 67 65
-6.027860e-01 1.837437e+00 2.944412e+00 108 112 115
1.006291e+00 2.433261e+00 3.221079e+00 254 255 253
-2.056016e-01 -2.843481e-01 4.068684e+00 92 93 88
-1.999507e-01 -2.866264e-01 4.060409e+00 92 93 88
8.921581e-01 2.976384e-02 3.987124e+00 56 63 64
-7.696318e-01 -2.185389e+00 1.545899e+00 95 103 107
-7.696318e-01 -2.185389e+00 1.545899e+00 95 103 107
-9.311772e-01 -1.761946e+00 2.227240e+00 91 99 101
2.715447e-01 -1.971574e-01 4.126749e+00 114 114 112
-2.435344e-01 -5.985558e-02 3.938574e+00 27 30 35
-1.349146e+00 3.060035e-01 3.437430e+00 144 146 145
-1.350281e+00 3.058930e-01 3.441909e+00 144 146 145
1.041824e+00 1.450186e+00 3.732742e+00 251 255 249
-5.736439e-01 1.706855e+00 3.097542e+00 255 255 255
9.700564e-01 2.290940e+00 3.283372e+00 123 127 131
2.800013e-01 -7.819097e-01 4.421571e+00 111 115 115
1.356973e+00 -2.640259e-01 3.822915e+00 92 91 84
1.575670e-01 -2.203021e-01 4.123360e+00 112 114 109
-1.365424e+00 -4.632594e-01 3.766594e+00 39 35 32
-1.180535e+00 -2.430298e-01 3.729678e+00 101 107 106
-2.722308e-01 -8.005023e-02 3.838374e+00 26 29 38
-1.808401e-01 -3.198246e-02 3.872103e+00 117 117 113
-4.067521e-01 1.959879e-01 3.651526e+00 37 43 48
2.700944e-02 3.255127e-01 3.711977e+00 45 48 57
-3.285283e-01 3.057782e-01 3.618026e+00 38 38 43
-2.138821e-01 3.710618e-01 3.632219e+00 39 46 57
1.244084e+00 8.097653e-01 3.867024e+00 254 252 248
-4.183409e-01 8.405973e-01 3.424311e+00 250 252 251
1.217439e-02 9.663535e-01 3.530465e+00 55 53 56
1.217439e-02 9.663535e-01 3.530465e+00 55 53 56
5.629208e-01 -8.626034e-01 4.609585e+00 63 60 55
3.269421e-01 -7.609557e-01 4.434389e+00 110 112 107
2.467860e-01 -4.547241e-01 4.195113e+00 130 130 130
-7.838199e-01 -4.861258e-01 4.030296e+00 106 114 116
-7.051076e-01 -3.093461e-01 3.970657e+00 95 93 91
3.261687e-01 -1.526449e-01 4.110065e+00 98 95 88
-1.957786e-01 -7.221269e-02 3.921621e+00 87 93 93
-2.513455e-01 -5.700678e-02 3.863250e+00 141 142 138
-2.513455e-01 -5.700678e-02 3.863250e+00 141 142 138
-2.699973e-01 -1.287837e-02 3.903746e+00 142 144 143
-2.682618e-01 -1.385200e-02 3.900665e+00 142 144 143
-1.281041e-01 9.021144e-01 3.481945e+00 254 251 254
6.770836e-01 1.191805e+00 3.719736e+00 50 49 56
-4.052765e-01 9.548466e-01 3.443293e+00 51 49 50
-3.697518e-01 1.588140e+00 2.611224e+00 255 255 255
-8.333194e-01 1.775348e+00 3.064297e+00 64 73 80
-5.837687e-01 -9.957815e-01 4.281130e+00 50 49 49
3.198960e-01 -7.943205e-01 4.414004e+00 60 61 57
7.191635e-02 -5.810905e-01 4.188009e+00 67 62 57
-5.648143e-01 -2.944052e-01 4.002900e+00 94 94 93
1.098337e+00 -1.015583e-01 4.030644e+00 51 48 45
-8.285728e-02 -2.072399e-01 4.086064e+00 99 92 85
2.912294e-01 -1.486901e-01 4.108951e+00 38 34 33
7.122613e-01 -1.098516e-01 4.065595e+00 48 43 40
-8.813237e-01 -2.145174e-01 3.843331e+00 97 96 91
7.124661e-01 6.424449e-02 4.106447e+00 92 93 96
-3.001726e-01 -9.548081e-03 3.906913e+00 34 35 37
-1.547538e+00 -1.926889e-01 3.547013e+00 151 158 164
6.264120e-01 3.021461e-01 3.863280e+00 75 73 70
4.681855e-01 9.245836e-01 3.653269e+00 40 39 49
4.681855e-01 9.245836e-01 3.653269e+00 40 39 49
-1.033582e+00 7.299105e-01 3.341825e+00 137 137 135
-1.524003e+00 8.611903e-01 3.220181e+00 99 100 100
5.077585e-02 1.971781e+00 3.241616e+00 80 81 89
-8.173198e-01 1.740714e+00 3.116399e+00 83 86 90
9.045025e-01 2.569914e+00 3.124255e+00 117 133 147
8.080183e-01 -8.765980e-01 4.691735e+00 72 73 72
7.917228e-01 -8.458893e-01 4.725684e+00 31 29 30
2.030027e-01 -8.994620e-01 4.489117e+00 52 50 51
2.608933e-01 -8.004124e-01 4.414818e+00 53 53 53
-4.336219e-01 -8.957960e-01 4.217247e+00 49 44 40
-4.350981e-01 -7.900417e-01 4.183833e+00 41 39 34
1.099094e-01 -2.556317e-01 4.103484e+00 47 44 41
-1.624325e-01 -2.603333e-01 4.068070e+00 107 104 99
3.004399e-01 -1.787823e-01 4.158411e+00 113 108 108
-6.581281e-01 -2.828715e-01 3.977432e+00 45 39 33
-8.940347e-01 -2.257383e-01 3.843458e+00 40 39 41
7.768312e-01 5.306857e-02 4.104271e+00 45 44 49
9.828762e-02 1.308796e-01 3.795347e+00 100 102 100
1.422015e+00 4.009910e-01 3.878181e+00 252 251 255
-7.139953e-01 1.031154e-01 3.726665e+00 84 83 81
-6.824321e-01 3.946848e-01 4.009402e+00 72 71 69
-1.363082e+00 2.956358e-01 3.966961e+00 79 78 75
7.271960e-01 1.021882e+00 3.698491e+00 39 43 47
-4.262040e-01 8.543905e-01 3.436339e+00 252 254 253
1.165037e+00 1.216742e+00 3.778918e+00 251 252 252
-3.067077e-01 9.787817e-01 3.491512e+00 132 127 131
-1.600996e+00 7.261320e-01 3.103769e+00 130 139 146
-5.217756e-01 1.382034e+00 3.103770e+00 143 135 138
-6.260332e-01 1.867533e+00 3.071262e+00 139 138 143
8.329756e-01 -8.431493e-01 4.687215e+00 70 70 68
2.089353e-01 -9.230424e-01 4.469283e+00 98 98 98
-5.514891e-01 -1.009756e+00 4.291237e+00 40 39 38
3.184269e-01 -9.349702e-01 4.390366e+00 55 53 54
1.909747e+00 -9.843261e-01 3.581920e+00 54 53 53
-3.618053e-01 -6.182659e-01 4.154306e+00 54 47 41
-1.390910e+00 -5.920091e-01 3.845367e+00 56 56 56
-7.503413e-01 -4.796289e-01 3.986851e+00 28 28 30
1.914360e-01 -3.277323e-01 4.148057e+00 84 83 81
2.693799e-01 -2.782768e-01 4.119079e+00 106 105 103
8.935649e-01 -2.237144e-01 3.970709e+00 61 58 54
9.492637e-02 -2.639912e-01 4.111925e+00 119 115 112
5.560695e-01 -2.015708e-01 4.062191e+00 114 109 105
-1.977923e-01 -2.487564e-01 4.060508e+00 56 48 45
-1.493935e+00 -4.471163e-01 3.639891e+00 66 71 75
-5.171816e-01 -1.432266e-01 3.937145e+00 128 127 122
-4.265466e-01 -1.265749e-01 3.958854e+00 127 123 120
7.070599e-01 3.406611e-02 4.048061e+00 53 49 54
6.906578e-01 3.590497e-02 4.069876e+00 53 49 54
7.118545e-01 4.102546e-02 4.087964e+00 48 48 49
5.740179e-01 5.021373e-02 4.152067e+00 134 131 124
-2.867803e-01 -8.574359e-02 3.777804e+00 105 110 114
3.155347e-02 -2.612270e-02 3.810442e+00 26 29 36
-3.229123e-01 -7.674796e-02 3.775766e+00 25 30 36
-3.048211e-01 1.445575e-01 3.699109e+00 39 35 34
-2.464138e-02 2.495633e-01 3.662453e+00 128 129 130
6.567811e-02 3.010218e-01 3.744273e+00 105 100 94
1.307303e+00 5.876234e-01 3.759669e+00 102 102 103
1.203328e+00 6.191496e-01 3.839411e+00 83 83 79
7.025819e-01 5.389624e-01 3.875463e+00 76 75 70
-9.939276e-01 2.442022e-01 3.497444e+00 124 120 111
-8.787521e-01 5.064279e-01 3.514067e+00 128 132 131
2.646175e-01 8.257812e-01 3.915927e+00 107 111 114
6.354128e-01 9.950080e-01 3.688815e+00 108 108 109
3.771016e-01 9.742571e-01 3.643119e+00 97 97 94
-2.200765e-01 9.957304e-01 3.481805e+00 131 129 130
-3.329365e-01 9.922349e-01 3.479847e+00 137 136 135
3.065993e-01 1.206905e+00 3.629601e+00 62 60 61
1.123169e+00 1.464151e+00 3.654410e+00 251 249 251
2.273533e-01 1.799914e+00 2.574813e+00 253 252 255
1.510564e-02 2.052622e+00 3.121589e+00 234 239 244
-1.461443e+00 1.950263e+00 2.728902e+00 247 250 254
-6.063701e-01 -9.199704e-01 4.249150e+00 52 55 59
9.664937e-01 -5.978086e-01 4.635761e+00 104 109 110
-6.606818e-01 -4.659198e-01 4.032524e+00 120 119 119
2.552980e-01 -3.331779e-01 4.137541e+00 118 121 123
-1.722773e-01 -3.232051e-01 4.089736e+00 48 44 41
-1.144495e+00 -4.359901e-01 3.809848e+00 92 92 92
5.741108e-02 1.886028e-02 3.819636e+00 106 116 121
-1.211469e+00 -5.210209e-02 3.547338e+00 75 76 71
-1.206905e+00 -3.305685e-02 3.530702e+00 78 72 66
6.006145e-01 4.661016e-01 3.843824e+00 82 81 77
8.253521e-01 5.420708e-01 3.928871e+00 90 90 88
5.360210e-01 5.372338e-01 3.835816e+00 80 73 65
-3.828349e-01 4.548666e-01 3.620664e+00 84 84 82
6.164400e-02 5.753364e-01 3.722311e+00 78 77 72
-3.233056e-01 5.041915e-01 3.634547e+00 131 130 126
5.856369e-01 7.877263e-01 3.816125e+00 105 106 110
3.793236e-01 8.840031e-01 3.658315e+00 34 33 41
3.760524e-01 9.071980e-01 3.651196e+00 38 37 45
2.764806e-01 8.859518e-01 3.785965e+00 132 132 132
3.828597e-01 1.032065e+00 3.614668e+00 70 68 73
-4.235781e-01 8.839030e-01 3.434473e+00 251 249 252
-4.235781e-01 8.839030e-01 3.434473e+00 251 249 252
-7.186080e-01 8.134426e-01 3.507439e+00 79 78 74
-1.275799e+00 7.154801e-01 3.334840e+00 114 116 115
-1.035098e+00 8.347609e-01 3.284796e+00 103 104 98
1.904938e-01 1.684570e+00 2.680588e+00 112 111 123
-5.926267e-01 1.616857e+00 3.066671e+00 105 106 110
-1.356544e+00 2.215031e+00 2.455964e+00 163 163 163
-6.311929e-01 -9.288953e-01 4.222628e+00 45 48 51
3.791686e-01 -7.402935e-01 4.404984e+00 66 60 53
-4.391477e-01 -8.015037e-01 4.126231e+00 54 51 46
5.231166e-01 -5.722353e-01 4.284416e+00 65 57 44
6.696775e-01 -5.232617e-01 4.184066e+00 69 59 50
-1.028783e+00 -5.427898e-01 3.943216e+00 124 126 130
-1.074857e+00 -5.436773e-01 3.918843e+00 34 33 38
-1.071858e+00 -5.549165e-01 3.868215e+00 103 115 115
-1.370000e-01 -3.813889e-01 4.121195e+00 39 39 37
1.989078e-01 -3.461204e-01 4.121699e+00 50 50 53
-1.294375e+00 -5.177510e-01 3.838469e+00 75 73 70
2.004005e-01 -2.624463e-01 4.117013e+00 87 87 87
1.187043e+00 -2.090590e-01 3.881181e+00 119 118 116
-9.536052e-01 -4.151576e-01 3.907444e+00 84 80 77
-5.359687e-01 -3.352089e-01 3.997653e+00 97 93 90
9.857374e-01 -1.475053e-01 4.053524e+00 118 120 117
-2.800783e-01 -8.309457e-02 3.796436e+00 28 33 37
6.668716e-01 1.561624e-01 3.901581e+00 119 121 119
-1.526622e-01 1.773163e-01 3.723228e+00 41 38 33
-1.850779e-01 3.134505e-01 3.674038e+00 111 111 111
-9.876609e-01 3.131084e-01 3.533820e+00 86 81 77
7.133528e-01 9.518453e-01 3.725063e+00 31 31 34
-1.421940e+00 5.597371e-01 3.410001e+00 101 101 99
-1.088294e+00 7.318399e-01 3.325515e+00 68 69 66
-1.167646e+00 7.353909e-01 3.288086e+00 76 78 75
-8.460019e-01 9.979314e-01 3.321571e+00 113 114 118
-1.599060e+00 8.341688e-01 3.083068e+00 133 137 138
-1.386556e-01 2.715480e-01 3.681841e+00 24 27 19
-1.386556e-01 2.715480e-01 3.681841e+00 24 27 19
-1.287959e-01 -6.639403e-01 4.139977e+00 53 49 41
2.365687e-01 7.956718e-02 3.972184e+00 156 158 144
-5.326163e-01 -8.851617e-02 3.758677e+00 143 145 134
9.524496e-02 2.266517e+00 3.184877e+00 63 73 69
-1.229559e-01 -9.460906e-01 4.264665e+00 98 95 76
1.083440e+00 1.541537e+00 3.678674e+00 191 215 225
1.023775e+00 2.247507e-01 4.150745e+00 167 169 164
4.907360e-01 8.295606e-01 3.619212e+00 119 124 118
7.093794e-01 1.611930e+00 3.375335e+00 28 35 43
-4.902621e-01 -1.223906e+00 4.328839e+00 83 78 67
3.210377e+00 -1.249325e+00 3.657050e+00 101 103 94
1.155289e+00 -6.574394e-01 4.506380e+00 71 72 64
1.029277e+00 2.543088e-02 4.308908e+00 60 60 50
1.788188e-01 -1.086983e-01 3.800711e+00 112 110 95
2.793944e-01 1.071070e+00 3.503766e+00 146 146 137
1.311151e-01 1.654926e+00 2.967492e+00 57 67 68
3.213015e+00 -1.240612e+00 3.348259e+00 77 79 73
5.946381e-01 -4.458096e-02 4.242247e+00 70 67 55
-5.017633e-02 -1.621615e-01 4.085018e+00 60 52 45
-3.705364e-01 -3.927235e-02 3.682214e+00 132 134 124
6.241231e-01 2.465324e+00 3.120707e+00 93 94 96
3.886174e-01 3.767863e-03 4.150262e+00 68 71 67
-6.624587e-01 -7.791883e-02 3.556663e+00 125 121 108
3.109824e-01 1.103641e+00 3.625690e+00 57 58 51
7.838941e-01 1.374689e+00 3.659935e+00 81 86 80
1.096131e+00 1.470611e+00 3.641983e+00 198 217 224
1.096131e+00 1.470611e+00 3.641983e+00 198 217 224
1.020310e-01 1.230594e+00 3.297401e+00 81 82 77
-1.578507e+00 9.144998e-01 3.337130e+00 107 112 107
2.792280e-01 1.388100e+00 3.498029e+00 134 139 132
-1.270316e+00 1.074330e+00 3.311262e+00 19 24 24
7.394457e-01 1.836672e+00 3.367752e+00 128 128 124
5.575099e-01 1.927098e+00 3.343092e+00 32 42 45
3.690861e-01 1.880847e+00 3.324060e+00 26 39 43
-1.033583e+00 2.006070e+00 3.193582e+00 90 99 97
8.185749e-01 -1.225515e+00 4.194490e+00 104 100 80
-5.581786e-01 -1.188239e+00 4.334030e+00 147 149 141
-2.830961e-01 -2.877507e-01 4.017698e+00 137 135 121
4.622457e-01 1.581528e-02 4.157735e+00 59 62 61
-1.216758e+00 -2.219412e-01 3.789474e+00 137 138 127
-3.118488e-01 -6.168235e-02 3.789923e+00 43 48 51
2.539224e-01 2.394342e-01 3.832533e+00 154 155 147
2.789827e-01 4.370984e-01 3.695520e+00 163 164 158
-1.319443e+00 1.154887e+00 3.292747e+00 122 129 122
-1.349591e+00 1.609878e+00 2.941027e+00 128 129 121
-1.547471e+00 1.671402e+00 2.869643e+00 122 131 131
2.686194e-01 -1.064446e+00 4.425526e+00 71 67 56
4.809611e-01 -9.527903e-01 4.428379e+00 60 56 44
-1.039161e+00 -1.161352e+00 4.172004e+00 95 91 76
3.017495e-01 -3.011849e-01 4.213025e+00 146 147 140
-6.709638e-01 -5.148563e-01 3.921808e+00 144 146 135
7.053933e-01 5.549953e-02 3.813611e+00 55 57 53
2.717712e-01 8.765620e-02 4.075759e+00 171 171 162
-1.415430e+00 -1.729825e-01 3.580069e+00 153 154 146
-7.273202e-01 1.158381e-02 3.623417e+00 118 121 104
3.286650e-02 1.990949e-01 3.658092e+00 145 144 128
2.414881e-01 5.593109e-01 3.618287e+00 94 95 90
-1.542889e+00 5.804174e-01 3.272317e+00 91 95 89
1.087554e+00 1.189059e+00 3.749535e+00 140 143 135
5.835202e-01 1.099952e+00 3.621618e+00 142 145 134
-1.593529e+00 1.353708e+00 3.131683e+00 121 124 121
6.049446e-02 2.282960e+00 3.119290e+00 136 138 136
-1.577455e+00 1.860116e+00 2.861840e+00 188 207 212
7.979704e-01 2.542543e+00 3.275601e+00 74 97 100
3.285150e+00 -1.495482e+00 3.290344e+00 31 32 28
1.177709e+00 -7.647859e-01 4.486800e+00 76 76 68
-1.454579e+00 -1.002723e+00 4.119897e+00 58 57 51
3.110005e+00 -9.660883e-01 3.525425e+00 78 82 82
-9.377679e-01 -7.374003e-01 3.965241e+00 122 119 106
-4.464374e-01 -4.544895e-01 4.022737e+00 123 124 109
-4.123865e-01 -4.324155e-01 4.043333e+00 136 138 129
-1.097609e+00 -2.815511e-01 3.605080e+00 49 54 54
8.141201e-01 8.809162e-01 3.777467e+00 50 57 58
8.440483e-01 8.771542e-01 3.737001e+00 50 57 58
-1.533605e+00 5.381308e-01 3.245518e+00 154 157 151
1.278428e-01 9.609698e-01 3.605641e+00 60 61 55
1.171242e+00 1.289435e+00 3.648022e+00 134 139 134
1.723026e-01 1.205445e+00 3.528946e+00 56 61 54
5.468856e-01 1.883460e+00 3.433360e+00 56 69 77
-1.558430e+00 1.433750e+00 2.916002e+00 190 206 206
-1.206497e+00 1.867258e+00 3.024396e+00 106 110 109
9.201139e-01 2.434154e+00 3.187024e+00 50 75 79
-1.374809e+00 1.911441e+00 2.925809e+00 127 132 133
-1.004859e+00 2.023974e+00 3.017903e+00 68 78 75
-8.781710e-01 2.107560e+00 3.026725e+00 68 86 84
-1.499647e+00 1.973507e+00 2.829494e+00 186 207 209
-9.674330e-01 -1.163210e+00 4.173003e+00 58 49 40
-1.206020e+00 -1.024880e+00 3.968974e+00 76 70 54
-2.751015e-01 -8.846295e-01 4.110360e+00 61 54 37
1.069325e+00 -6.040509e-01 4.549936e+00 93 94 90
1.515592e-01 -6.728094e-01 4.293404e+00 90 86 75
-8.286290e-01 -4.168060e-01 3.900698e+00 62 62 53
-3.152358e-01 -3.312963e-01 3.976009e+00 68 65 52
-1.293168e+00 -2.198590e-01 4.448714e+00 56 56 47
9.725829e-01 6.742507e-01 3.841542e+00 84 89 83
9.588807e-01 7.023875e-01 3.845783e+00 86 89 82
4.579399e-01 9.663760e-01 3.638869e+00 39 41 36
-1.012822e+00 8.978156e-01 3.362958e+00 101 103 93
-1.406713e+00 8.430528e-01 3.208660e+00 129 130 121
-1.526289e+00 1.706974e+00 2.824856e+00 110 123 130
2.931331e-01 7.147974e-01 3.697064e+00 99 95 92
3.955829e-01 1.005026e+00 3.611656e+00 49 58 70
2.421453e-01 1.107137e+00 3.642003e+00 145 149 148
1.147278e+00 1.444812e+00 3.641885e+00 118 125 133
-1.187533e+00 1.075286e+00 3.037902e+00 34 48 57
-1.098377e+00 -5.642052e-01 3.917874e+00 109 120 128
-4.000575e-01 -2.594090e-01 4.028925e+00 42 42 40
-5.956207e-01 4.747117e-01 3.647314e+00 68 74 70
6.173552e-01 1.139559e+00 3.678062e+00 62 70 75
4.499942e-01 1.095620e+00 3.664487e+00 63 66 73
-5.853272e-01 8.995009e-01 3.510357e+00 124 127 125
-5.853272e-01 8.995009e-01 3.510357e+00 124 127 125
-2.440174e-01 -4.890608e-02 3.886775e+00 131 136 139
-2.924050e-01 8.453782e-02 3.654912e+00 132 139 132
-1.600301e-02 2.018579e-01 3.690461e+00 129 133 130
-5.716957e-01 3.057897e-01 3.697604e+00 136 141 144
2.908578e-01 1.054796e+00 3.660411e+00 60 64 69
-3.631013e-01 8.290849e-01 3.478763e+00 252 252 251
-3.631013e-01 8.290849e-01 3.478763e+00 252 252 251
-1.241467e+00 1.260907e+00 2.999916e+00 107 114 117
-6.100126e-01 -3.370112e-01 3.986227e+00 38 41 43
5.602447e-01 1.582777e-02 4.218398e+00 72 77 80
-5.670194e-01 -1.832149e-01 3.948275e+00 111 119 124
-1.317239e-02 2.416749e-01 3.674063e+00 120 122 124
2.054107e-01 2.960710e-01 3.982609e+00 95 98 102
-5.008557e-02 2.580122e-01 3.654478e+00 132 141 141
1.500670e-01 4.947992e-01 3.860196e+00 158 170 179
-1.185851e+00 2.166516e-01 3.465632e+00 131 137 138
-1.186213e+00 7.890511e-01 3.309941e+00 35 43 56
-1.237633e+00 1.172496e+00 3.033913e+00 109 119 127
1.581897e-01 -3.205525e-01 4.264205e+00 55 60 65
-7.848367e-01 -5.103847e-01 3.973355e+00 38 42 47
-4.626384e-01 -1.639216e-01 3.944233e+00 106 116 121
-4.826833e-01 -1.644692e-01 3.947438e+00 64 64 66
-5.010024e-01 -1.670623e-01 3.949615e+00 110 122 121
-4.053497e-01 3.620267e-02 3.646107e+00 120 125 128
6.802095e-01 5.624418e-01 3.952131e+00 152 157 151
-8.070075e-01 5.440492e-01 3.477055e+00 119 121 124
-1.278981e-01 1.016278e+00 3.511675e+00 74 75 77
-9.585560e-01 9.805150e-01 3.358688e+00 114 116 110
-1.135867e+00 1.829848e+00 2.951257e+00 139 144 140
4.346956e-01 -2.845700e-01 4.309139e+00 59 67 72
-1.012340e-01 -3.913673e-01 4.157256e+00 57 64 70
-6.387227e-02 -3.813039e-01 4.204523e+00 60 62 59
-5.338687e-01 -4.755740e-01 4.072849e+00 46 53 62
-6.024587e-01 -4.160195e-01 4.041107e+00 98 101 94
7.297114e-01 6.010601e-02 4.255569e+00 130 132 127
-5.276657e-02 2.562029e-01 3.639181e+00 44 48 53
-2.987792e-01 3.334062e-01 3.587556e+00 109 110 104
-1.008228e+00 1.746319e-01 3.487227e+00 78 77 82
-9.473027e-01 2.653563e-01 3.562480e+00 78 75 70
-7.514511e-02 6.621036e-01 3.621518e+00 131 139 140
-8.904639e-02 9.736341e-01 3.505412e+00 149 157 160
3.920337e-01 1.154504e+00 3.644478e+00 95 95 95
-3.566537e-01 9.414040e-01 3.439100e+00 74 75 77
9.494369e-01 1.476982e+00 3.663728e+00 116 140 174
1.759082e-01 1.138907e+00 3.679534e+00 76 77 81
-3.439218e-01 9.867835e-01 3.457977e+00 144 148 149
-7.766072e-01 8.422441e-01 3.413702e+00 120 122 119
-9.551161e-01 9.744986e-01 3.313258e+00 109 114 107
-9.397652e-01 9.838449e-01 3.314108e+00 54 58 68
-1.166014e+00 9.304067e-01 3.270395e+00 112 118 119
-1.182863e+00 9.272854e-01 3.273275e+00 50 60 71
-1.427025e+00 9.207959e-01 3.317303e+00 66 75 81
2.346697e-01 2.171290e+00 3.206806e+00 92 99 105
-1.057270e+00 1.658223e+00 2.943116e+00 140 140 136
-1.130096e+00 1.794261e+00 2.978978e+00 87 94 105
-1.321443e+00 1.749357e+00 2.935738e+00 80 88 98
-1.403986e+00 1.612449e+00 3.109292e+00 76 83 98
-1.296634e+00 1.768566e+00 2.945395e+00 77 85 92
-1.335203e-01 -4.028647e-01 4.158027e+00 99 111 117
-6.050671e-02 -3.880917e-01 4.186094e+00 101 111 110
1.890396e-01 -3.276504e-01 4.285201e+00 73 73 74
-7.877154e-01 -5.282537e-01 3.988173e+00 44 53 60
-4.645364e-01 -4.551516e-01 4.088831e+00 104 109 112
-3.670769e-01 -4.318154e-01 4.089815e+00 50 52 54
-6.867710e-01 -4.897709e-01 4.074991e+00 56 58 67
-5.193503e-01 -4.511079e-01 4.098510e+00 103 117 118
-9.283256e-01 -5.277517e-01 3.920972e+00 101 111 117
-9.400525e-01 -4.862500e-01 3.915264e+00 48 50 49
-1.048400e+00 -4.378152e-01 3.875995e+00 100 107 109
-4.333071e-01 -1.405433e-01 3.951672e+00 63 63 64
2.496061e-01 1.110859e-01 4.095135e+00 129 130 131
-4.009595e-01 -1.200763e-02 3.679631e+00 113 125 133
-1.259971e-01 6.045660e-02 3.947797e+00 52 51 57
-2.450942e-01 4.363591e-02 3.697647e+00 118 128 125
-3.904738e-01 4.178296e-02 3.655424e+00 106 115 117
7.914751e-01 4.304564e-01 4.036785e+00 103 106 111
-4.299553e-01 1.235477e-01 3.598418e+00 114 118 119
6.657945e-01 5.221535e-01 3.987052e+00 105 108 105
-1.239371e+00 4.182655e-02 3.491676e+00 75 78 76
7.387013e-01 7.926060e-01 3.863297e+00 73 86 99
-1.474312e-01 5.624068e-01 3.687927e+00 67 66 64
-5.715166e-01 4.866811e-01 3.607767e+00 66 69 66
-5.715166e-01 4.866811e-01 3.607767e+00 66 69 66
-8.401437e-01 4.748129e-01 3.507011e+00 117 126 129
-1.086724e+00 4.356579e-01 3.430086e+00 127 134 142
6.621905e-01 1.125436e+00 3.703083e+00 80 87 95
5.416393e-01 1.090650e+00 3.687414e+00 148 152 150
-1.129179e+00 5.027799e-01 3.338499e+00 98 108 117
3.734602e-01 1.070892e+00 3.629629e+00 73 78 82
3.776014e-01 1.153868e+00 3.637803e+00 87 87 89
-1.075052e+00 2.759780e-01 4.849598e+00 85 89 89
-8.923780e-01 8.545425e-01 3.343371e+00 128 133 136
-1.159104e+00 7.636054e-01 3.292358e+00 81 82 84
-1.158989e+00 7.584481e-01 3.332539e+00 132 133 127
4.711928e-01 2.116321e+00 3.285956e+00 149 153 156
4.236201e-01 2.146043e+00 3.187120e+00 143 150 153
5.438186e-01 2.217982e+00 3.224733e+00 146 145 150
-8.853542e-01 1.861359e+00 3.017182e+00 90 95 104
-9.117126e-01 1.868276e+00 3.012879e+00 88 91 96
-1.048689e+00 1.817039e+00 3.010469e+00 93 98 102
-1.160168e+00 1.800071e+00 2.977183e+00 90 94 99
-5.294757e-01 -7.972973e-01 4.207399e+00 56 56 54
-3.785156e-01 -6.657971e-01 4.075539e+00 55 55 52
-2.746276e-01 -4.846087e-01 4.197507e+00 105 108 101
-7.651321e-01 -5.188477e-01 4.019221e+00 87 95 102
-8.681415e-01 -5.317788e-01 3.963477e+00 47 52 56
-2.769539e-01 -9.179652e-02 3.962995e+00 100 106 112
5.418649e-01 3.414273e-01 3.969609e+00 91 98 104
-3.191305e-01 1.556710e-01 3.624567e+00 120 128 133
5.259317e-02 5.210039e-01 3.701232e+00 112 113 116
-1.209390e+00 2.080881e-01 3.486251e+00 81 85 88
-6.366986e-01 4.514635e-01 3.663376e+00 122 125 126
-1.315925e+00 2.606853e-01 3.463847e+00 70 77 86
4.180773e-01 1.117780e+00 3.626238e+00 89 97 100
-1.427166e-01 9.905446e-01 3.472995e+00 55 59 67
-3.732354e-01 9.336045e-01 3.440029e+00 137 142 146
-4.436812e-01 9.172380e-01 3.460311e+00 136 137 139
1.971043e-01 1.253808e+00 3.651029e+00 81 91 94
-1.190564e+00 7.668303e-01 3.306717e+00 123 125 124
-9.534509e-01 8.572595e-01 3.423507e+00 116 115 110
-1.152388e+00 8.461989e-01 3.289335e+00 116 115 110
-9.561406e-01 9.930789e-01 3.308043e+00 75 77 76
-1.164269e+00 9.403437e-01 3.261304e+00 105 114 116
-9.836226e-01 1.062964e+00 3.158092e+00 68 74 79
-1.192799e+00 9.350582e-01 3.250074e+00 114 118 118
-1.166710e+00 9.549858e-01 3.264896e+00 106 108 103
-1.076951e+00 1.628749e+00 2.915312e+00 81 82 80
-1.299706e+00 1.496842e+00 2.941264e+00 84 89 93
-1.063373e+00 1.658099e+00 2.925710e+00 87 84 83
-9.031559e-01 1.882281e+00 3.010737e+00 130 131 131
-8.398048e-01 2.007821e+00 3.057947e+00 89 85 86
-3.613048e-01 -2.680120e-02 3.929805e+00 31 36 37
6.529882e-01 2.576025e+00 3.241896e+00 169 177 186
2.973674e-01 1.019298e+00 3.591863e+00 85 85 83
-2.067642e-01 3.824013e-02 3.911099e+00 109 118 124
1.107058e+00 2.529842e-01 3.961378e+00 186 192 189
-4.480516e-02 2.386364e-01 3.562109e+00 42 45 47
4.666656e-01 1.792978e+00 3.293970e+00 141 146 143
-1.257791e+00 -5.918490e-01 3.872482e+00 47 55 66
-8.425146e-01 -5.247464e-01 3.950561e+00 51 58 68
-4.070714e-01 3.099168e-01 4.247891e+00 86 88 83
-4.070714e-01 3.099168e-01 4.247891e+00 86 88 83
-8.608482e-01 8.019003e-01 3.412203e+00 31 33 32
-8.779507e-01 8.534681e-01 3.319103e+00 28 30 30
-1.489130e+00 1.972816e+00 2.803477e+00 176 227 247
1.011957e+00 -1.013784e-01 4.012529e+00 130 131 118
-1.206624e+00 1.594760e-01 3.451105e+00 84 95 110
-3.977928e-01 6.163244e-01 3.675239e+00 95 106 111
-1.585970e+00 8.499006e-01 3.016674e+00 203 241 253
3.081374e-01 1.205950e+00 3.621321e+00 85 90 85
-8.358640e-01 1.958217e+00 3.055097e+00 103 112 119
1.082992e-01 -2.388924e-01 4.351611e+00 53 54 49
-5.919553e-01 -3.536698e-01 4.017483e+00 28 27 27
6.838984e-01 8.199217e-01 3.759883e+00 157 163 161
8.087414e-01 8.488640e-01 3.832779e+00 168 176 171
6.160991e-01 9.887550e-01 3.742132e+00 100 105 109
-9.242523e-01 8.362848e-01 3.421789e+00 83 86 92
6.114393e-01 1.117157e+00 3.689177e+00 159 164 158
