ply
format ascii 1.0
element face 0
property list uchar int vertex_indices
element vertex 952
property float x
property float y
property float z
property uchar diffuse_red
property uchar diffuse_green
property uchar diffuse_blue
end_header
4.493795e-01 5.115432e-01 3.145236e+00 185 184 178
4.412399e-01 5.200250e-01 3.143533e+00 97 92 94
4.246817e-01 5.365135e-01 3.139910e+00 180 190 200
4.294235e-01 5.323084e-01 3.140309e+00 125 124 129
4.366262e-01 5.256317e-01 3.143428e+00 93 83 82
4.366262e-01 5.256317e-01 3.143428e+00 93 83 82
4.493768e-01 5.134383e-01 3.145901e+00 200 199 197
4.225852e-01 5.411414e-01 3.136217e+00 82 83 95
4.358817e-01 5.277213e-01 3.141487e+00 157 152 140
4.296959e-01 5.339491e-01 3.139950e+00 113 107 110
4.323011e-01 5.318132e-01 3.140192e+00 73 72 76
4.279168e-01 5.358556e-01 3.139737e+00 110 104 108
4.331898e-01 5.307197e-01 3.141344e+00 157 152 141
4.331898e-01 5.307197e-01 3.141344e+00 157 152 141
4.309468e-01 5.333951e-01 3.140445e+00 200 199 191
4.300410e-01 5.343854e-01 3.140449e+00 202 198 188
4.295151e-01 5.352340e-01 3.139785e+00 198 197 191
4.281554e-01 5.370618e-01 3.138980e+00 196 198 187
4.279290e-01 5.371136e-01 3.139338e+00 196 198 187
4.271818e-01 5.380316e-01 3.139066e+00 193 191 187
4.272417e-01 5.380166e-01 3.138966e+00 193 191 187
4.230552e-01 5.428368e-01 3.137146e+00 186 186 178
4.200213e-01 5.466626e-01 3.136104e+00 153 150 142
4.178460e-01 5.494172e-01 3.135036e+00 155 147 141
4.157138e-01 5.516255e-01 3.134435e+00 76 65 65
4.157138e-01 5.516255e-01 3.134435e+00 76 65 65
4.171952e-01 5.503621e-01 3.134639e+00 149 144 133
4.157098e-01 5.522069e-01 3.133928e+00 153 146 135
4.145921e-01 5.531446e-01 3.134266e+00 182 180 165
4.145921e-01 5.531446e-01 3.134266e+00 182 180 165
4.141500e-01 5.545055e-01 3.131992e+00 69 67 77
4.086443e-01 5.592605e-01 3.132428e+00 96 87 95
4.086443e-01 5.592605e-01 3.132428e+00 96 87 95
4.408433e-01 5.326512e-01 3.130921e+00 190 199 201
4.727668e-01 5.010804e-01 3.141211e+00 192 193 195
4.418889e-01 5.331761e-01 3.129831e+00 194 199 199
4.746560e-01 5.005753e-01 3.142431e+00 144 146 151
4.532388e-01 5.244583e-01 3.132388e+00 64 70 83
4.659840e-01 5.127697e-01 3.137490e+00 155 148 135
4.545766e-01 5.257773e-01 3.132896e+00 171 168 160
4.670376e-01 5.130608e-01 3.138660e+00 129 129 132
4.201715e-01 5.553199e-01 3.134269e+00 194 195 204
4.696884e-01 5.126543e-01 3.138324e+00 147 151 162
4.332734e-01 5.433563e-01 3.137790e+00 86 80 92
4.536697e-01 5.307223e-01 3.130523e+00 191 189 179
4.540463e-01 5.312798e-01 3.129808e+00 64 64 80
4.467446e-01 5.396176e-01 3.127406e+00 61 64 82
4.545744e-01 5.337685e-01 3.129614e+00 193 187 187
4.548575e-01 5.342459e-01 3.128586e+00 60 64 76
4.713684e-01 5.171763e-01 3.137460e+00 120 121 115
4.524653e-01 5.368152e-01 3.130493e+00 194 190 184
4.734278e-01 5.171472e-01 3.136946e+00 119 113 114
4.141717e-01 5.679193e-01 3.132741e+00 126 131 146
4.847941e-01 5.094194e-01 3.141585e+00 106 117 129
4.847941e-01 5.094194e-01 3.141585e+00 106 117 129
4.506436e-01 5.432417e-01 3.128895e+00 58 56 66
4.590567e-01 5.396007e-01 3.126674e+00 183 172 155
4.228174e-01 5.691704e-01 3.128034e+00 139 131 127
4.297720e-01 5.652507e-01 3.125933e+00 87 81 91
4.297720e-01 5.652507e-01 3.125933e+00 87 81 91
4.490274e-01 5.520728e-01 3.130295e+00 99 89 99
4.386515e-01 5.616923e-01 3.128958e+00 204 203 206
4.379271e-01 5.650803e-01 3.128277e+00 208 209 210
4.430141e-01 5.614889e-01 3.129195e+00 197 193 190
4.054401e-01 5.165521e-01 3.141088e+00 64 54 56
4.230836e-01 5.003772e-01 3.147390e+00 169 170 167
4.112809e-01 5.158096e-01 3.141153e+00 60 56 55
4.100874e-01 5.176648e-01 3.140923e+00 70 61 61
4.236722e-01 5.027903e-01 3.146981e+00 104 103 103
4.135216e-01 5.164405e-01 3.140266e+00 60 55 53
4.129245e-01 5.168447e-01 3.141431e+00 60 55 53
4.119801e-01 5.180588e-01 3.141954e+00 62 53 53
4.123661e-01 5.178038e-01 3.141193e+00 62 53 53
4.125689e-01 5.176750e-01 3.140741e+00 62 53 53
4.127573e-01 5.190232e-01 3.141659e+00 67 56 61
4.141740e-01 5.179690e-01 3.142243e+00 63 58 55
4.149258e-01 5.174935e-01 3.140772e+00 63 58 55
4.163321e-01 5.176103e-01 3.142733e+00 66 58 52
4.238841e-01 5.145002e-01 3.143272e+00 155 149 133
4.344090e-01 5.066201e-01 3.148343e+00 126 121 112
4.295172e-01 5.124883e-01 3.145430e+00 112 102 98
4.364915e-01 5.064387e-01 3.147749e+00 173 177 183
4.256923e-01 5.181560e-01 3.143866e+00 83 90 106
4.313301e-01 5.126057e-01 3.145904e+00 184 187 192
4.254915e-01 5.195512e-01 3.143834e+00 90 81 78
4.254915e-01 5.195512e-01 3.143834e+00 90 81 78
4.218262e-01 5.244413e-01 3.141589e+00 78 63 65
4.213038e-01 5.246829e-01 3.142469e+00 78 63 65
4.084488e-01 5.389772e-01 3.138104e+00 167 179 189
4.130120e-01 5.350853e-01 3.137774e+00 84 75 78
4.105629e-01 5.376918e-01 3.137698e+00 87 76 75
4.141740e-01 5.334035e-01 3.141006e+00 93 88 102
4.056068e-01 5.434762e-01 3.136556e+00 56 55 68
4.476432e-01 4.995781e-01 3.148526e+00 92 90 95
4.476432e-01 4.995781e-01 3.148526e+00 92 90 95
4.039075e-01 5.456383e-01 3.136047e+00 75 69 74
4.347680e-01 5.159710e-01 3.144431e+00 103 95 98
4.313810e-01 5.194678e-01 3.145330e+00 178 178 179
4.285260e-01 5.237434e-01 3.142046e+00 89 84 88
4.085089e-01 5.454084e-01 3.135771e+00 175 177 182
4.061704e-01 5.479414e-01 3.135849e+00 182 184 190
4.377024e-01 5.160746e-01 3.144512e+00 82 77 82
4.043510e-01 5.508434e-01 3.135199e+00 161 165 166
4.110695e-01 5.451665e-01 3.136390e+00 76 69 70
4.107246e-01 5.456248e-01 3.136745e+00 164 166 165
4.074080e-01 5.494022e-01 3.134507e+00 48 43 55
4.000036e-01 5.565215e-01 3.134469e+00 160 168 172
4.277729e-01 5.299910e-01 3.141074e+00 142 132 121
4.600612e-01 4.987584e-01 3.148512e+00 196 192 187
4.567926e-01 5.021382e-01 3.148170e+00 121 119 121
4.288124e-01 5.319366e-01 3.140985e+00 191 194 199
4.483193e-01 5.131817e-01 3.145648e+00 169 169 162
4.209489e-01 5.412906e-01 3.137755e+00 185 188 193
4.256089e-01 5.368098e-01 3.138969e+00 137 133 140
4.200703e-01 5.422938e-01 3.137629e+00 183 182 188
4.338033e-01 5.297536e-01 3.141886e+00 159 154 135
4.304512e-01 5.345360e-01 3.138865e+00 93 91 91
4.304512e-01 5.345360e-01 3.138865e+00 93 91 91
4.270460e-01 5.372794e-01 3.139183e+00 178 181 181
4.035730e-01 5.597290e-01 3.135885e+00 94 92 103
4.323551e-01 5.333262e-01 3.139389e+00 72 73 82
4.263907e-01 5.389584e-01 3.138995e+00 161 160 148
4.235273e-01 5.423202e-01 3.137002e+00 94 89 89
4.064935e-01 5.591536e-01 3.132309e+00 188 188 192
4.225776e-01 5.438221e-01 3.136494e+00 157 150 140
4.216677e-01 5.448069e-01 3.136512e+00 154 153 140
4.150304e-01 5.526256e-01 3.134288e+00 80 74 76
4.638076e-01 5.102120e-01 3.137890e+00 118 117 120
4.420565e-01 5.325901e-01 3.130010e+00 74 80 106
4.163595e-01 5.529627e-01 3.133444e+00 183 189 195
4.074849e-01 5.605911e-01 3.134590e+00 144 140 138
4.742923e-01 5.010938e-01 3.141295e+00 141 143 149
4.659137e-01 5.113313e-01 3.138367e+00 121 115 115
4.382738e-01 5.392823e-01 3.129291e+00 174 177 182
4.668670e-01 5.124111e-01 3.138894e+00 134 133 135
4.149507e-01 5.626803e-01 3.127225e+00 178 178 177
4.563363e-01 5.241396e-01 3.136383e+00 116 117 122
4.735024e-01 5.103939e-01 3.137968e+00 178 187 186
4.571805e-01 5.247233e-01 3.136035e+00 123 123 124
4.499533e-01 5.333226e-01 3.130807e+00 199 197 205
4.581184e-01 5.253069e-01 3.135561e+00 119 118 119
4.702683e-01 5.162911e-01 3.137608e+00 124 125 120
4.342621e-01 5.513426e-01 3.130681e+00 119 108 111
4.610991e-01 5.276749e-01 3.136238e+00 127 125 132
4.537200e-01 5.381599e-01 3.128486e+00 64 68 82
4.703586e-01 5.206079e-01 3.138034e+00 198 189 179
4.621393e-01 5.306649e-01 3.135829e+00 132 125 128
4.512887e-01 5.439302e-01 3.126988e+00 57 56 70
4.211735e-01 5.688069e-01 3.127035e+00 117 111 113
4.242671e-01 5.694695e-01 3.127536e+00 115 108 108
4.387221e-01 5.579035e-01 3.130688e+00 155 153 154
4.773334e-01 5.307760e-01 3.136804e+00 194 198 202
4.566744e-01 5.489493e-01 3.132691e+00 103 99 102
4.359278e-01 5.681205e-01 3.127717e+00 199 201 204
4.098632e-01 4.965556e-01 3.137885e+00 96 98 96
4.120889e-01 4.988590e-01 3.137841e+00 129 129 122
4.071532e-01 5.061813e-01 3.136139e+00 103 97 99
4.015280e-01 5.198907e-01 3.141393e+00 62 60 66
4.176839e-01 5.049034e-01 3.141542e+00 151 157 153
4.090168e-01 5.154585e-01 3.140672e+00 68 59 57
4.090168e-01 5.154585e-01 3.140672e+00 68 59 57
4.075877e-01 5.185849e-01 3.141635e+00 71 66 64
4.088339e-01 5.205423e-01 3.142131e+00 182 186 187
4.224676e-01 5.092139e-01 3.142936e+00 143 140 131
3.983164e-01 5.365560e-01 3.136755e+00 150 148 149
4.234095e-01 5.109438e-01 3.143817e+00 140 135 128
4.231401e-01 5.147535e-01 3.142941e+00 147 142 139
4.386971e-01 5.013457e-01 3.148567e+00 122 117 114
3.900969e-01 5.563688e-01 3.127595e+00 133 141 154
4.341727e-01 5.090580e-01 3.146907e+00 88 86 90
4.336931e-01 5.096443e-01 3.146688e+00 74 78 86
4.298560e-01 5.140682e-01 3.144706e+00 165 170 173
4.216349e-01 5.232798e-01 3.142142e+00 77 85 101
4.122346e-01 5.342293e-01 3.140013e+00 54 56 68
4.103104e-01 5.364978e-01 3.138408e+00 76 75 89
4.187410e-01 5.275742e-01 3.141556e+00 61 60 66
4.222261e-01 5.243704e-01 3.142003e+00 155 152 148
4.235615e-01 5.226516e-01 3.143425e+00 106 95 95
4.235615e-01 5.226516e-01 3.143425e+00 106 95 95
4.176076e-01 5.294904e-01 3.140285e+00 75 65 70
4.166062e-01 5.302185e-01 3.141072e+00 62 59 67
4.126150e-01 5.341468e-01 3.141036e+00 98 106 117
4.176872e-01 5.289734e-01 3.142252e+00 180 188 196
4.108328e-01 5.366396e-01 3.138832e+00 177 185 192
4.160423e-01 5.313261e-01 3.140791e+00 182 189 198
3.973507e-01 5.518397e-01 3.135620e+00 160 167 171
4.000296e-01 5.498295e-01 3.135630e+00 54 49 61
4.386430e-01 5.088934e-01 3.148957e+00 140 139 146
4.422724e-01 5.061677e-01 3.148010e+00 122 128 128
3.976138e-01 5.536135e-01 3.134833e+00 168 168 167
3.952143e-01 5.562005e-01 3.134808e+00 171 177 183
4.267195e-01 5.241474e-01 3.143125e+00 174 169 163
4.113825e-01 5.424121e-01 3.137637e+00 107 100 102
4.112307e-01 5.424339e-01 3.137954e+00 107 100 102
4.204607e-01 5.335294e-01 3.139920e+00 57 48 59
4.123095e-01 5.421239e-01 3.137021e+00 162 165 163
4.023214e-01 5.535490e-01 3.134283e+00 177 181 182
4.300894e-01 5.251531e-01 3.143273e+00 170 166 162
4.149854e-01 5.408862e-01 3.138502e+00 141 140 140
4.533666e-01 5.035033e-01 3.147007e+00 104 112 121
4.317347e-01 5.282459e-01 3.142188e+00 198 198 204
4.492386e-01 5.112377e-01 3.145833e+00 112 109 106
4.279081e-01 5.329072e-01 3.140953e+00 193 197 200
4.279081e-01 5.329072e-01 3.140953e+00 193 197 200
4.262362e-01 5.355205e-01 3.139229e+00 189 192 195
4.257463e-01 5.356664e-01 3.140053e+00 189 192 195
4.487137e-01 5.129554e-01 3.146201e+00 173 173 176
4.186238e-01 5.441360e-01 3.136961e+00 178 183 187
4.310376e-01 5.336712e-01 3.139430e+00 101 96 92
4.275774e-01 5.375104e-01 3.139047e+00 103 95 97
4.097316e-01 5.552013e-01 3.134237e+00 62 73 98
4.079347e-01 5.572184e-01 3.133176e+00 184 187 195
4.073020e-01 5.582024e-01 3.132482e+00 183 186 191
4.227109e-01 5.432606e-01 3.136870e+00 86 77 78
4.268621e-01 5.395960e-01 3.138736e+00 94 91 104
4.370051e-01 5.352107e-01 3.130263e+00 67 73 95
4.075040e-01 5.615242e-01 3.134046e+00 79 82 98
4.065986e-01 5.631360e-01 3.133718e+00 168 168 177
4.753957e-01 5.027645e-01 3.142609e+00 149 150 150
4.396785e-01 5.391077e-01 3.129753e+00 185 189 197
4.666651e-01 5.129677e-01 3.137597e+00 114 107 105
4.206682e-01 5.558036e-01 3.133006e+00 125 119 129
4.305038e-01 5.504326e-01 3.128270e+00 93 88 88
4.161875e-01 5.637421e-01 3.127205e+00 178 175 173
4.318913e-01 5.505984e-01 3.129169e+00 111 103 94
4.724255e-01 5.143546e-01 3.137429e+00 160 159 155
4.327777e-01 5.499184e-01 3.131269e+00 113 104 104
4.747422e-01 5.172568e-01 3.137332e+00 171 162 148
4.718468e-01 5.197567e-01 3.138094e+00 142 132 122
4.211623e-01 5.661256e-01 3.126873e+00 105 94 92
4.735231e-01 5.202323e-01 3.138595e+00 136 132 133
4.225922e-01 5.691289e-01 3.127472e+00 185 177 167
4.321310e-01 5.628707e-01 3.126834e+00 173 173 171
4.177895e-01 5.783531e-01 3.125119e+00 152 150 161
4.641702e-01 5.400040e-01 3.133777e+00 165 157 144
4.506003e-01 5.527348e-01 3.131163e+00 105 102 106
4.287216e-01 5.720606e-01 3.127111e+00 106 100 104
4.274672e-01 5.746005e-01 3.126440e+00 115 113 127
4.119915e-01 4.905610e-01 3.147909e+00 87 85 87
4.101259e-01 4.967653e-01 3.138242e+00 75 77 76
4.155930e-01 4.923348e-01 3.150839e+00 80 80 84
4.086216e-01 5.008918e-01 3.137517e+00 99 97 94
3.976894e-01 5.199697e-01 3.142899e+00 125 126 133
4.088288e-01 5.083796e-01 3.135690e+00 128 125 117
4.092403e-01 5.091670e-01 3.135488e+00 91 87 75
4.136357e-01 5.043033e-01 3.136907e+00 133 130 121
4.024193e-01 5.175753e-01 3.141302e+00 76 70 72
4.024193e-01 5.175753e-01 3.141302e+00 76 70 72
4.057451e-01 5.151819e-01 3.140305e+00 154 155 152
4.057451e-01 5.151819e-01 3.140305e+00 154 155 152
4.024233e-01 5.204666e-01 3.141637e+00 170 173 185
4.185521e-01 5.071996e-01 3.138415e+00 112 110 104
4.193851e-01 5.061381e-01 3.139883e+00 123 118 108
4.114529e-01 5.157879e-01 3.139549e+00 74 67 61
4.102923e-01 5.189621e-01 3.141287e+00 68 62 64
4.358480e-01 4.926006e-01 3.149204e+00 111 99 93
4.018686e-01 5.322772e-01 3.138929e+00 132 131 135
4.233170e-01 5.087676e-01 3.144615e+00 151 147 140
3.948814e-01 5.428955e-01 3.136564e+00 177 177 175
4.201740e-01 5.159206e-01 3.141597e+00 133 128 122
4.248521e-01 5.152086e-01 3.144022e+00 184 180 177
4.283075e-01 5.116939e-01 3.145120e+00 186 179 176
4.379948e-01 5.021210e-01 3.148588e+00 126 118 114
4.268229e-01 5.144425e-01 3.144545e+00 161 157 153
4.121518e-01 5.314724e-01 3.141076e+00 182 180 179
4.166251e-01 5.272061e-01 3.141216e+00 160 159 155
4.276694e-01 5.168881e-01 3.144245e+00 101 91 93
4.266575e-01 5.186175e-01 3.142826e+00 78 75 76
4.211178e-01 5.248051e-01 3.141965e+00 166 166 168
4.203145e-01 5.251891e-01 3.143350e+00 166 166 168
4.196118e-01 5.270699e-01 3.140880e+00 104 91 90
4.163090e-01 5.301000e-01 3.141949e+00 187 188 194
4.014931e-01 5.467755e-01 3.136456e+00 87 91 106
4.053399e-01 5.431283e-01 3.137283e+00 163 165 169
4.067737e-01 5.420854e-01 3.137036e+00 69 68 78
3.997528e-01 5.497838e-01 3.135347e+00 139 148 163
4.023831e-01 5.472058e-01 3.136738e+00 177 176 180
4.326748e-01 5.160270e-01 3.145945e+00 158 151 156
4.499566e-01 4.989664e-01 3.147666e+00 116 112 118
4.273170e-01 5.242042e-01 3.143256e+00 165 162 161
4.204811e-01 5.318800e-01 3.141670e+00 173 171 170
4.049653e-01 5.495353e-01 3.135969e+00 126 126 125
4.054441e-01 5.498624e-01 3.135765e+00 145 146 146
4.384662e-01 5.169279e-01 3.144342e+00 166 153 144
4.445503e-01 5.100279e-01 3.148969e+00 120 120 122
4.059146e-01 5.502348e-01 3.135898e+00 139 141 144
4.445776e-01 5.101050e-01 3.149386e+00 161 176 184
4.429366e-01 5.138964e-01 3.146521e+00 174 188 201
3.985972e-01 5.586689e-01 3.135142e+00 103 99 106
4.329270e-01 5.249144e-01 3.142722e+00 143 131 132
4.151247e-01 5.431798e-01 3.137842e+00 57 53 53
4.261278e-01 5.325857e-01 3.140689e+00 110 92 92
4.247272e-01 5.342574e-01 3.140290e+00 107 97 92
4.485448e-01 5.121529e-01 3.145684e+00 130 122 119
4.204749e-01 5.404824e-01 3.140033e+00 170 186 198
4.144663e-01 5.470692e-01 3.137028e+00 84 86 100
4.481163e-01 5.135399e-01 3.146692e+00 114 114 121
4.245321e-01 5.386979e-01 3.140557e+00 121 109 109
4.036227e-01 5.594511e-01 3.135058e+00 91 86 96
4.270858e-01 5.375808e-01 3.138693e+00 114 109 112
4.049634e-01 5.592939e-01 3.134724e+00 128 131 143
4.334934e-01 5.322731e-01 3.139950e+00 65 74 94
4.635693e-01 5.089308e-01 3.137639e+00 170 166 162
4.502826e-01 5.237257e-01 3.131291e+00 79 81 97
4.147430e-01 5.628935e-01 3.126950e+00 149 147 148
4.705326e-01 5.110087e-01 3.139100e+00 127 134 140
4.517479e-01 5.348786e-01 3.129915e+00 71 77 91
4.191265e-01 5.657103e-01 3.127053e+00 162 152 143
4.542186e-01 5.373328e-01 3.128723e+00 78 78 92
4.708537e-01 5.209617e-01 3.138054e+00 139 138 134
4.302281e-01 5.593027e-01 3.128413e+00 204 204 207
4.708907e-01 5.238398e-01 3.137726e+00 139 134 135
4.283583e-01 5.651420e-01 3.126825e+00 182 178 176
4.486931e-01 5.506876e-01 3.129413e+00 143 144 146
4.662870e-01 5.366094e-01 3.134334e+00 176 167 160
4.418712e-01 5.576750e-01 3.129413e+00 105 95 94
4.263834e-01 5.717102e-01 3.127790e+00 153 147 153
4.291307e-01 5.719293e-01 3.126982e+00 187 178 179
4.290141e-01 5.723937e-01 3.127004e+00 161 162 167
4.227467e-01 5.818435e-01 3.123376e+00 163 163 174
4.318817e-01 5.433482e-01 3.137366e+00 124 127 139
4.363113e-01 5.489032e-01 3.135814e+00 47 45 49
4.427046e-01 5.797452e-01 3.123503e+00 72 72 78
4.186102e-01 5.292237e-01 3.140751e+00 13 13 13
4.449716e-01 5.388850e-01 3.129999e+00 112 119 123
4.195926e-01 5.282052e-01 3.140255e+00 12 13 8
4.489209e-01 5.563190e-01 3.133790e+00 147 148 153
4.540535e-01 5.060926e-01 3.146746e+00 170 161 137
4.552977e-01 5.883260e-01 3.125147e+00 13 12 17
4.552977e-01 5.883260e-01 3.125147e+00 13 12 17
4.419254e-01 4.999722e-01 3.148333e+00 129 126 113
4.137941e-01 5.424824e-01 3.136900e+00 49 46 42
4.519081e-01 4.939081e-01 3.151184e+00 163 153 137
4.349946e-01 5.701161e-01 3.127091e+00 67 61 62
4.534231e-01 5.481079e-01 3.132136e+00 57 51 48
4.825104e-01 5.429938e-01 3.137904e+00 149 142 133
4.453854e-01 5.934577e-01 3.125954e+00 105 100 96
4.876691e-01 6.062814e-01 3.119706e+00 37 38 44
4.929506e-01 6.012554e-01 3.121075e+00 51 49 48
5.471206e-01 5.533185e-01 3.134052e+00 194 204 219
4.134150e-01 5.426150e-01 3.136496e+00 15 14 12
4.560035e-01 5.763542e-01 3.126971e+00 98 97 95
5.011188e-01 5.256867e-01 3.139458e+00 192 180 158
4.035965e-01 5.579821e-01 3.133233e+00 7 6 1
4.284745e-01 5.820683e-01 3.127406e+00 63 64 67
5.413529e-01 5.638566e-01 3.130056e+00 91 104 120
3.985156e-01 5.172354e-01 3.142437e+00 33 32 33
4.228110e-01 5.238458e-01 3.142596e+00 13 13 13
4.210947e-01 5.273093e-01 3.140534e+00 72 72 73
4.180302e-01 5.323184e-01 3.140392e+00 104 101 102
4.073929e-01 5.495866e-01 3.134969e+00 8 6 7
4.236349e-01 5.307871e-01 3.140065e+00 97 96 94
4.550004e-01 5.050536e-01 3.146431e+00 144 144 144
4.575413e-01 5.373576e-01 3.130637e+00 125 119 111
4.127791e-01 4.976139e-01 3.137994e+00 24 24 22
4.103899e-01 5.317197e-01 3.140576e+00 70 71 76
4.237091e-01 5.695555e-01 3.126134e+00 48 45 47
4.120558e-01 4.982013e-01 3.138015e+00 23 23 19
3.986333e-01 5.195225e-01 3.143190e+00 24 24 26
4.050859e-01 5.158830e-01 3.140726e+00 85 82 80
4.070773e-01 5.180119e-01 3.141176e+00 77 76 73
4.090715e-01 5.173559e-01 3.140490e+00 35 30 26
4.191733e-01 5.270098e-01 3.140905e+00 106 106 111
4.196300e-01 5.269565e-01 3.140858e+00 37 36 34
4.151248e-01 5.325521e-01 3.140398e+00 17 11 12
3.958257e-01 5.169192e-01 3.143146e+00 72 68 74
3.979245e-01 5.144789e-01 3.141694e+00 91 83 80
3.996690e-01 5.125063e-01 3.140440e+00 33 29 26
4.124237e-01 4.994747e-01 3.138173e+00 61 61 58
4.038256e-01 5.138731e-01 3.139468e+00 77 77 69
4.032788e-01 5.156639e-01 3.140912e+00 78 69 62
3.993278e-01 5.204824e-01 3.142728e+00 84 85 88
4.063182e-01 5.138271e-01 3.138719e+00 26 23 16
4.077123e-01 5.184566e-01 3.141401e+00 25 19 19
4.227384e-01 5.013476e-01 3.145267e+00 97 90 87
4.141684e-01 5.143736e-01 3.138885e+00 22 16 17
4.138566e-01 5.186064e-01 3.141944e+00 86 85 82
4.189962e-01 5.136838e-01 3.139395e+00 68 63 58
4.188180e-01 5.164912e-01 3.141510e+00 75 72 68
4.225899e-01 5.127256e-01 3.142243e+00 32 28 20
4.200418e-01 5.170947e-01 3.142071e+00 76 72 70
4.231590e-01 5.152620e-01 3.142476e+00 82 77 73
4.202193e-01 5.313696e-01 3.140603e+00 38 38 38
4.319284e-01 5.190486e-01 3.143821e+00 82 80 81
4.342854e-01 5.179884e-01 3.143739e+00 90 87 82
4.124917e-01 5.482520e-01 3.136157e+00 75 72 63
4.392765e-01 5.323650e-01 3.139511e+00 52 50 51
4.455049e-01 5.314375e-01 3.141571e+00 7 6 21
4.485318e-01 5.489546e-01 3.131957e+00 132 131 131
4.727644e-01 5.247252e-01 3.137235e+00 110 108 109
4.931160e-01 5.257662e-01 3.136361e+00 114 114 119
4.659687e-01 5.657791e-01 3.129361e+00 120 120 118
5.292523e-01 5.738912e-01 3.123628e+00 63 73 69
4.278761e-01 4.724250e-01 3.141935e+00 14 14 14
4.851563e-01 4.989023e-01 3.140128e+00 157 158 152
4.728618e-01 6.210245e-01 3.118308e+00 94 97 97
3.941890e-01 5.113464e-01 3.141424e+00 60 60 46
4.854850e-01 5.381617e-01 3.136587e+00 66 67 61
4.433686e-01 4.986145e-01 3.145623e+00 144 146 137
4.098289e-01 5.700274e-01 3.131045e+00 153 154 146
4.806530e-01 5.062574e-01 3.146298e+00 175 177 172
4.522069e-01 5.020120e-01 3.146004e+00 82 79 70
4.461282e-01 5.092837e-01 3.146200e+00 81 77 74
4.457127e-01 5.071282e-01 3.144305e+00 115 115 100
5.429303e-01 5.454348e-01 3.132529e+00 188 212 220
3.971198e-01 5.120248e-01 3.140043e+00 147 139 95
4.658560e-01 5.675116e-01 3.133115e+00 184 171 156
5.114692e-01 5.586496e-01 3.085131e+00 85 81 95
4.652826e-01 5.694877e-01 3.132013e+00 215 229 225
3.929939e-01 5.092177e-01 3.141970e+00 173 164 139
4.226053e-01 5.229604e-01 3.142414e+00 227 232 226
4.306366e-01 5.248889e-01 3.142367e+00 236 232 219
4.629380e-01 5.699362e-01 3.132344e+00 192 199 181
4.410274e-01 5.360043e-01 3.130794e+00 244 245 228
4.005606e-01 5.087954e-01 3.137004e+00 182 168 159
4.057958e-01 5.112366e-01 3.137539e+00 216 203 164
4.092663e-01 5.126206e-01 3.137278e+00 213 192 145
4.132525e-01 5.120912e-01 3.136453e+00 117 105 79
4.143605e-01 5.133669e-01 3.137576e+00 117 103 74
4.386428e-01 5.397114e-01 3.129832e+00 244 241 229
4.464142e-01 5.355059e-01 3.130724e+00 252 251 240
4.474815e-01 5.357523e-01 3.130643e+00 250 249 231
4.625329e-01 5.683650e-01 3.132529e+00 230 230 225
4.040794e-01 5.109670e-01 3.137744e+00 111 94 86
4.089926e-01 5.103058e-01 3.134975e+00 215 208 179
4.045889e-01 5.156899e-01 3.139835e+00 165 150 126
4.188623e-01 5.027318e-01 3.140408e+00 166 172 151
4.182105e-01 5.051182e-01 3.138409e+00 100 94 82
4.177894e-01 5.071468e-01 3.136628e+00 91 90 70
4.177894e-01 5.071468e-01 3.136628e+00 91 90 70
4.159146e-01 5.100662e-01 3.135706e+00 179 169 138
4.196020e-01 5.090005e-01 3.139048e+00 129 123 107
4.200964e-01 5.096922e-01 3.138856e+00 160 160 136
4.241285e-01 5.208060e-01 3.142388e+00 81 82 76
4.119097e-01 5.329339e-01 3.140825e+00 235 235 225
4.432225e-01 5.183431e-01 3.142919e+00 201 219 216
4.528743e-01 5.315136e-01 3.131403e+00 41 42 46
4.720423e-01 5.573862e-01 3.130940e+00 203 208 198
3.990853e-01 5.092413e-01 3.139117e+00 196 175 123
4.038440e-01 5.073886e-01 3.136292e+00 209 204 180
4.017207e-01 5.112756e-01 3.139453e+00 170 149 129
4.036600e-01 5.128206e-01 3.138654e+00 232 220 177
4.171850e-01 5.011718e-01 3.139165e+00 158 164 144
4.172497e-01 5.010923e-01 3.138903e+00 158 164 144
4.176512e-01 5.024483e-01 3.139338e+00 170 175 155
4.099416e-01 5.125242e-01 3.137086e+00 206 181 124
4.108274e-01 5.126580e-01 3.137016e+00 202 183 125
4.104115e-01 5.132367e-01 3.137628e+00 196 183 149
4.200665e-01 5.047481e-01 3.140607e+00 180 179 159
4.130812e-01 5.128384e-01 3.137301e+00 209 188 143
4.141060e-01 5.126961e-01 3.137048e+00 199 185 142
4.151316e-01 5.120941e-01 3.137072e+00 134 116 94
4.219349e-01 5.120286e-01 3.141153e+00 147 148 115
4.220002e-01 5.124344e-01 3.141856e+00 79 66 55
4.346014e-01 5.129764e-01 3.144890e+00 244 251 241
4.397994e-01 5.099528e-01 3.143917e+00 73 75 75
4.272471e-01 5.239150e-01 3.142242e+00 250 243 215
4.241642e-01 5.271645e-01 3.141161e+00 236 245 242
4.251900e-01 5.430508e-01 3.137827e+00 248 248 245
4.524006e-01 5.241360e-01 3.132926e+00 203 208 196
4.550116e-01 5.263086e-01 3.132892e+00 41 47 52
4.391562e-01 5.394115e-01 3.129785e+00 243 245 222
4.389750e-01 5.404601e-01 3.129481e+00 244 244 222
4.514491e-01 5.353608e-01 3.130510e+00 238 235 225
4.524844e-01 5.439958e-01 3.129659e+00 168 151 113
4.726758e-01 5.628853e-01 3.130288e+00 136 134 123
4.693829e-01 5.666031e-01 3.129683e+00 117 102 102
4.557502e-01 5.761958e-01 3.128104e+00 138 144 137
3.954604e-01 5.097164e-01 3.141578e+00 200 198 175
3.987765e-01 5.096408e-01 3.139222e+00 53 39 12
3.979103e-01 5.113371e-01 3.140026e+00 65 47 36
3.991907e-01 5.136293e-01 3.141035e+00 155 144 114
4.044260e-01 5.103031e-01 3.137191e+00 218 204 154
4.063758e-01 5.113365e-01 3.137102e+00 228 215 170
4.030893e-01 5.149586e-01 3.140400e+00 228 217 156
4.096147e-01 5.101571e-01 3.135746e+00 190 192 182
4.174827e-01 5.031640e-01 3.138570e+00 162 158 129
4.178357e-01 5.030193e-01 3.139292e+00 170 169 148
4.182986e-01 5.029567e-01 3.139856e+00 183 188 179
4.123944e-01 5.093188e-01 3.136337e+00 121 114 96
4.102665e-01 5.121506e-01 3.136946e+00 80 59 38
4.103602e-01 5.120805e-01 3.136593e+00 80 59 38
4.144908e-01 5.084969e-01 3.136066e+00 140 147 140
4.159648e-01 5.073658e-01 3.136557e+00 119 125 115
4.148103e-01 5.091501e-01 3.135191e+00 116 122 110
4.172774e-01 5.071500e-01 3.136732e+00 121 116 96
4.122165e-01 5.128031e-01 3.137376e+00 201 181 133
4.122165e-01 5.128031e-01 3.137376e+00 201 181 133
4.152733e-01 5.126199e-01 3.137672e+00 183 167 121
4.214974e-01 5.111998e-01 3.141153e+00 194 195 175
4.207582e-01 5.128369e-01 3.140586e+00 116 108 94
4.200711e-01 5.146261e-01 3.140527e+00 207 200 173
4.194489e-01 5.163832e-01 3.141366e+00 94 76 63
4.193939e-01 5.167886e-01 3.141467e+00 210 186 145
4.306608e-01 5.249789e-01 3.142244e+00 246 244 231
4.386279e-01 5.287847e-01 3.140267e+00 242 241 236
4.547006e-01 5.438590e-01 3.130527e+00 127 114 84
4.705945e-01 5.345517e-01 3.135592e+00 196 208 212
4.585420e-01 5.451753e-01 3.133081e+00 227 225 211
4.585420e-01 5.451753e-01 3.133081e+00 227 225 211
4.768446e-01 5.515637e-01 3.132292e+00 220 228 230
4.787236e-01 5.531451e-01 3.131974e+00 103 105 90
4.726440e-01 5.574094e-01 3.130952e+00 217 219 212
4.551312e-01 5.704914e-01 3.127719e+00 134 146 162
4.785516e-01 5.553558e-01 3.131798e+00 141 137 128
4.662524e-01 5.647179e-01 3.129723e+00 235 238 225
4.657686e-01 5.713149e-01 3.131863e+00 111 106 102
3.909975e-01 5.076851e-01 3.143295e+00 205 189 156
3.963280e-01 5.029918e-01 3.137889e+00 135 130 106
3.923266e-01 5.092646e-01 3.142183e+00 82 68 65
3.963109e-01 5.109211e-01 3.141011e+00 107 99 85
4.054700e-01 5.012612e-01 3.136844e+00 136 135 127
4.053682e-01 5.023271e-01 3.136384e+00 29 27 41
3.985957e-01 5.102668e-01 3.139636e+00 77 50 20
3.990200e-01 5.109338e-01 3.140151e+00 118 105 91
4.043392e-01 5.069024e-01 3.136356e+00 207 207 177
3.985884e-01 5.139758e-01 3.141695e+00 243 235 186
3.996935e-01 5.128214e-01 3.141058e+00 239 232 189
4.017447e-01 5.108284e-01 3.138820e+00 220 207 159
4.042096e-01 5.083980e-01 3.136641e+00 119 106 95
4.010616e-01 5.120294e-01 3.139667e+00 216 204 166
4.143165e-01 4.985355e-01 3.139603e+00 177 175 161
4.144645e-01 5.005544e-01 3.137583e+00 194 192 172
4.040480e-01 5.127059e-01 3.138611e+00 162 147 114
4.023634e-01 5.149420e-01 3.140702e+00 157 142 119
4.130209e-01 5.044851e-01 3.137045e+00 174 178 157
4.102302e-01 5.078472e-01 3.136950e+00 198 197 172
4.135200e-01 5.044517e-01 3.137425e+00 198 198 176
4.137543e-01 5.053150e-01 3.137032e+00 102 101 84
4.174253e-01 5.017530e-01 3.139036e+00 177 181 169
4.079233e-01 5.118146e-01 3.136774e+00 232 216 166
4.055221e-01 5.144866e-01 3.139637e+00 234 219 170
4.160876e-01 5.052091e-01 3.136880e+00 86 85 91
4.160692e-01 5.052307e-01 3.136959e+00 86 85 91
4.162156e-01 5.051910e-01 3.137386e+00 181 183 171
4.191061e-01 5.030683e-01 3.141260e+00 110 107 98
4.161341e-01 5.066371e-01 3.136852e+00 188 189 174
4.134587e-01 5.104499e-01 3.136196e+00 131 124 100
4.134587e-01 5.104499e-01 3.136196e+00 131 124 100
4.191186e-01 5.054296e-01 3.139079e+00 111 96 65
4.177859e-01 5.071661e-01 3.136855e+00 92 91 73
4.178171e-01 5.071328e-01 3.136730e+00 92 91 73
4.106890e-01 5.159839e-01 3.139456e+00 246 233 189
4.151826e-01 5.117846e-01 3.136615e+00 101 84 54
4.209572e-01 5.069241e-01 3.140757e+00 167 171 146
4.193140e-01 5.095237e-01 3.138230e+00 142 135 117
4.179704e-01 5.115662e-01 3.137547e+00 80 66 65
4.205098e-01 5.091595e-01 3.140652e+00 172 173 153
4.145263e-01 5.162838e-01 3.139735e+00 148 135 107
4.180738e-01 5.139445e-01 3.139547e+00 212 207 187
4.223445e-01 5.100555e-01 3.142355e+00 96 87 70
4.215798e-01 5.124254e-01 3.141062e+00 119 111 102
4.173535e-01 5.170877e-01 3.140918e+00 86 67 57
4.214795e-01 5.135372e-01 3.140517e+00 94 98 81
4.210101e-01 5.184799e-01 3.142528e+00 137 114 77
4.233168e-01 5.187530e-01 3.143258e+00 240 234 210
4.199774e-01 5.228027e-01 3.142162e+00 241 233 215
4.178573e-01 5.253190e-01 3.141593e+00 232 226 204
4.204076e-01 5.232136e-01 3.142450e+00 156 153 132
4.231353e-01 5.215908e-01 3.142182e+00 204 211 194
4.140542e-01 5.305001e-01 3.141727e+00 237 236 217
4.216680e-01 5.241304e-01 3.141215e+00 234 240 231
4.321973e-01 5.189375e-01 3.143918e+00 254 245 238
4.328463e-01 5.249407e-01 3.142881e+00 209 196 167
4.328463e-01 5.249407e-01 3.142881e+00 209 196 167
4.479181e-01 5.501514e-01 3.131819e+00 238 236 225
4.476133e-01 5.505602e-01 3.131460e+00 241 240 223
4.466920e-01 5.615704e-01 3.130010e+00 187 204 201
4.466920e-01 5.615704e-01 3.130010e+00 187 204 201
4.837942e-01 5.435779e-01 3.137437e+00 250 251 239
4.773771e-01 5.532313e-01 3.131851e+00 129 131 122
4.721840e-01 5.572283e-01 3.130647e+00 232 230 208
4.721840e-01 5.572283e-01 3.130647e+00 232 230 208
4.717162e-01 5.590266e-01 3.130204e+00 57 53 86
4.637438e-01 5.639737e-01 3.129883e+00 146 138 126
4.684153e-01 5.622206e-01 3.129675e+00 237 236 251
4.765921e-01 5.570501e-01 3.131289e+00 225 229 213
4.696189e-01 5.625446e-01 3.130058e+00 196 200 177
4.878559e-01 5.492613e-01 3.137506e+00 243 245 234
4.615274e-01 5.670252e-01 3.132796e+00 133 141 137
4.615274e-01 5.670252e-01 3.132796e+00 133 141 137
4.610959e-01 5.685676e-01 3.132051e+00 231 241 229
4.598333e-01 5.704556e-01 3.132040e+00 245 236 221
3.915359e-01 5.067361e-01 3.142461e+00 120 103 77
3.921811e-01 5.089049e-01 3.143444e+00 244 228 200
3.928554e-01 5.082416e-01 3.142747e+00 139 139 123
4.077600e-01 4.927815e-01 3.137566e+00 83 88 82
3.997705e-01 5.037031e-01 3.136352e+00 111 98 90
3.977123e-01 5.120920e-01 3.141776e+00 190 176 163
4.051370e-01 5.038114e-01 3.136467e+00 205 203 188
3.974695e-01 5.135715e-01 3.141770e+00 214 213 189
4.059866e-01 5.049537e-01 3.136904e+00 195 197 166
4.004677e-01 5.121503e-01 3.139900e+00 207 205 152
4.054121e-01 5.067977e-01 3.136077e+00 124 120 115
4.062636e-01 5.061516e-01 3.136788e+00 216 209 191
4.029366e-01 5.101706e-01 3.138086e+00 131 127 101
4.112406e-01 5.025830e-01 3.137197e+00 103 105 92
4.138169e-01 5.002694e-01 3.137978e+00 133 129 110
4.038733e-01 5.119537e-01 3.138472e+00 184 160 122
4.048105e-01 5.114618e-01 3.137776e+00 206 187 144
4.169755e-01 4.998565e-01 3.140693e+00 163 160 151
4.079796e-01 5.099735e-01 3.135940e+00 105 98 78
4.163823e-01 5.009950e-01 3.139500e+00 187 180 164
4.163494e-01 5.013201e-01 3.139442e+00 170 172 159
4.206781e-01 4.965652e-01 3.147556e+00 90 94 95
4.022755e-01 5.163920e-01 3.141494e+00 155 140 115
4.052812e-01 5.133300e-01 3.138558e+00 92 75 47
4.083531e-01 5.102394e-01 3.135729e+00 140 129 109
4.054023e-01 5.134679e-01 3.138072e+00 244 228 193
4.123495e-01 5.062563e-01 3.136897e+00 207 202 179
4.173799e-01 5.010392e-01 3.139722e+00 117 116 118
4.009116e-01 5.191534e-01 3.143233e+00 108 96 100
4.169832e-01 5.026501e-01 3.138545e+00 98 95 88
4.057667e-01 5.144056e-01 3.139523e+00 114 98 72
4.184078e-01 5.022783e-01 3.140342e+00 115 111 108
4.102591e-01 5.118035e-01 3.136768e+00 199 177 144
4.186036e-01 5.031531e-01 3.140097e+00 152 154 128
4.136851e-01 5.090707e-01 3.136825e+00 99 106 99
4.021384e-01 5.206001e-01 3.143160e+00 240 246 232
4.016680e-01 5.215349e-01 3.143547e+00 212 214 200
4.192018e-01 5.044866e-01 3.140014e+00 106 108 100
4.169645e-01 5.072190e-01 3.136565e+00 185 186 165
4.144192e-01 5.103689e-01 3.136172e+00 200 185 153
4.126410e-01 5.123431e-01 3.136992e+00 188 171 127
4.147305e-01 5.104270e-01 3.136392e+00 204 192 168
4.180789e-01 5.069056e-01 3.138137e+00 87 74 57
4.181330e-01 5.068744e-01 3.137957e+00 87 74 57
4.202232e-01 5.046058e-01 3.141309e+00 99 103 87
4.200066e-01 5.049635e-01 3.140889e+00 182 181 159
4.178195e-01 5.074507e-01 3.136984e+00 96 91 70
4.192216e-01 5.064350e-01 3.139656e+00 172 176 154
4.183048e-01 5.082176e-01 3.138013e+00 152 137 113
4.208921e-01 5.052944e-01 3.142009e+00 166 168 152
4.207894e-01 5.054905e-01 3.140859e+00 174 180 166
4.215970e-01 5.045859e-01 3.142318e+00 160 165 151
4.210768e-01 5.054620e-01 3.142192e+00 133 135 119
4.155842e-01 5.117943e-01 3.136929e+00 180 165 132
4.210973e-01 5.079886e-01 3.140442e+00 163 166 147
4.190725e-01 5.102485e-01 3.138819e+00 114 105 90
4.204561e-01 5.092965e-01 3.139588e+00 85 84 69
4.237788e-01 5.055456e-01 3.144325e+00 140 142 122
4.162337e-01 5.145118e-01 3.139210e+00 232 223 196
4.234493e-01 5.072240e-01 3.144051e+00 128 128 126
4.250739e-01 5.064746e-01 3.145199e+00 188 176 167
4.181346e-01 5.142547e-01 3.139192e+00 129 112 87
4.235495e-01 5.094795e-01 3.143993e+00 229 220 197
4.212240e-01 5.140768e-01 3.140700e+00 90 86 66
4.199644e-01 5.157895e-01 3.141453e+00 166 144 107
4.204108e-01 5.154862e-01 3.141322e+00 128 114 89
4.241732e-01 5.170721e-01 3.143585e+00 121 116 104
4.249341e-01 5.173083e-01 3.143687e+00 231 225 203
4.201188e-01 5.226106e-01 3.142284e+00 240 239 218
4.216826e-01 5.355472e-01 3.140324e+00 250 252 235
4.358534e-01 5.298638e-01 3.139922e+00 180 180 176
4.320383e-01 5.328619e-01 3.139913e+00 215 208 186
4.556819e-01 5.227490e-01 3.136851e+00 202 205 196
4.498534e-01 5.344029e-01 3.130881e+00 90 93 84
4.642705e-01 5.386800e-01 3.134233e+00 240 238 219
4.692324e-01 5.347797e-01 3.135621e+00 210 219 214
4.627854e-01 5.409234e-01 3.133849e+00 147 146 126
4.479434e-01 5.527083e-01 3.131331e+00 179 172 154
4.523371e-01 5.531808e-01 3.131369e+00 145 138 119
4.511898e-01 5.541996e-01 3.131022e+00 229 217 205
4.691447e-01 5.621972e-01 3.129672e+00 226 214 234
4.750302e-01 5.590501e-01 3.130747e+00 240 239 221
4.620449e-01 5.670219e-01 3.132795e+00 227 231 231
4.700029e-01 5.647779e-01 3.129825e+00 240 240 225
4.613543e-01 5.690852e-01 3.131851e+00 244 246 234
4.608061e-01 5.762603e-01 3.127672e+00 175 176 171
4.694433e-01 5.807368e-01 3.120495e+00 78 76 92
4.692868e-01 5.727290e-01 3.132175e+00 89 85 96
3.879267e-01 5.110315e-01 3.166900e+00 208 194 193
3.979067e-01 5.094164e-01 3.140254e+00 221 212 173
4.014324e-01 5.052735e-01 3.136212e+00 119 108 92
3.976838e-01 5.099942e-01 3.140574e+00 98 97 77
4.056756e-01 5.023971e-01 3.136800e+00 76 72 73
3.992705e-01 5.098519e-01 3.140113e+00 154 134 125
4.031631e-01 5.053342e-01 3.136193e+00 92 81 75
4.056448e-01 5.037296e-01 3.136934e+00 203 202 183
3.979232e-01 5.132027e-01 3.142218e+00 228 228 204
3.986964e-01 5.123612e-01 3.141268e+00 127 118 87
4.044829e-01 5.061268e-01 3.136269e+00 90 80 75
4.021829e-01 5.098597e-01 3.138325e+00 144 131 102
4.009428e-01 5.117052e-01 3.139784e+00 150 135 114
4.061355e-01 5.059883e-01 3.136681e+00 161 154 140
4.122784e-01 5.001681e-01 3.137367e+00 200 207 187
4.052405e-01 5.087816e-01 3.135379e+00 128 116 91
4.158320e-01 4.988990e-01 3.140658e+00 171 161 147
4.045939e-01 5.114662e-01 3.137914e+00 105 92 68
4.123264e-01 5.038627e-01 3.137341e+00 189 188 168
4.105447e-01 5.058637e-01 3.136539e+00 104 102 90
4.024932e-01 5.151149e-01 3.140776e+00 168 154 127
4.086421e-01 5.087389e-01 3.136024e+00 133 126 107
4.121810e-01 5.049483e-01 3.137510e+00 122 121 101
4.066908e-01 5.112838e-01 3.136727e+00 230 216 171
4.081842e-01 5.099488e-01 3.136290e+00 222 209 183
4.133276e-01 5.046528e-01 3.137384e+00 192 191 173
4.133276e-01 5.046528e-01 3.137384e+00 192 191 173
4.102259e-01 5.080289e-01 3.136582e+00 127 128 111
4.132525e-01 5.050831e-01 3.137613e+00 202 197 182
4.046197e-01 5.143024e-01 3.139521e+00 232 216 190
4.171045e-01 5.018628e-01 3.138561e+00 95 94 66
4.030878e-01 5.166069e-01 3.141335e+00 206 200 189
4.072681e-01 5.123761e-01 3.137903e+00 230 214 181
4.170370e-01 5.021717e-01 3.138858e+00 160 154 132
4.071565e-01 5.126916e-01 3.138263e+00 97 82 62
4.081693e-01 5.117609e-01 3.136897e+00 83 75 43
4.078129e-01 5.124212e-01 3.137348e+00 251 244 220
4.190164e-01 5.008301e-01 3.141824e+00 176 182 172
4.184426e-01 5.019092e-01 3.140034e+00 115 115 104
4.187552e-01 5.016002e-01 3.141155e+00 117 114 107
4.191033e-01 5.020549e-01 3.141578e+00 185 183 163
4.075510e-01 5.143063e-01 3.138556e+00 101 83 42
4.075666e-01 5.143013e-01 3.138517e+00 101 83 42
4.163491e-01 5.055589e-01 3.136684e+00 122 116 119
4.118763e-01 5.102887e-01 3.136521e+00 210 197 160
4.136805e-01 5.090467e-01 3.136126e+00 194 191 159
4.193107e-01 5.031239e-01 3.141227e+00 183 182 170
4.023329e-01 5.209017e-01 3.143136e+00 207 208 187
4.031783e-01 5.201595e-01 3.143348e+00 133 132 130
4.114940e-01 5.121249e-01 3.136609e+00 184 168 133
4.104557e-01 5.136044e-01 3.137626e+00 122 103 71
4.065772e-01 5.175197e-01 3.141016e+00 186 168 144
4.077750e-01 5.168413e-01 3.140233e+00 110 103 56
4.198860e-01 5.046591e-01 3.140972e+00 183 184 169
4.168965e-01 5.080085e-01 3.137347e+00 121 123 110
4.185239e-01 5.065585e-01 3.137264e+00 148 135 112
4.118583e-01 5.137753e-01 3.137735e+00 108 89 56
4.111037e-01 5.147001e-01 3.139012e+00 234 223 195
4.206566e-01 5.058486e-01 3.141204e+00 174 179 170
4.152485e-01 5.117750e-01 3.137057e+00 209 192 161
4.191720e-01 5.077837e-01 3.139254e+00 94 88 66
4.125099e-01 5.146458e-01 3.138940e+00 99 90 71
4.109977e-01 5.161126e-01 3.139485e+00 123 107 82
4.212358e-01 5.056953e-01 3.142122e+00 203 204 196
4.090313e-01 5.185735e-01 3.141470e+00 102 95 86
4.162510e-01 5.120439e-01 3.137803e+00 184 173 145
4.138124e-01 5.146986e-01 3.138997e+00 239 223 204
4.223152e-01 5.059012e-01 3.143203e+00 195 191 173
4.190366e-01 5.097579e-01 3.138398e+00 96 86 75
4.182075e-01 5.107129e-01 3.137490e+00 145 133 118
4.182075e-01 5.107129e-01 3.137490e+00 145 133 118
4.192901e-01 5.097170e-01 3.138890e+00 157 149 128
4.174220e-01 5.117001e-01 3.137597e+00 71 61 31
4.192431e-01 5.101012e-01 3.138848e+00 164 156 134
4.212806e-01 5.081245e-01 3.141592e+00 111 109 97
4.228058e-01 5.065863e-01 3.143197e+00 114 116 102
4.190859e-01 5.111879e-01 3.138653e+00 156 147 123
4.161290e-01 5.141417e-01 3.139177e+00 243 223 190
4.205245e-01 5.105819e-01 3.140424e+00 84 78 59
4.233939e-01 5.074519e-01 3.144040e+00 171 177 171
4.222748e-01 5.091782e-01 3.142302e+00 170 167 150
4.203079e-01 5.114058e-01 3.139983e+00 189 190 161
4.225906e-01 5.092069e-01 3.142884e+00 201 200 182
4.172239e-01 5.153113e-01 3.139877e+00 141 125 94
4.151173e-01 5.172621e-01 3.140858e+00 235 222 204
4.223907e-01 5.103608e-01 3.141998e+00 74 66 60
4.172300e-01 5.158910e-01 3.140066e+00 154 136 108
4.183442e-01 5.150443e-01 3.140154e+00 225 218 187
4.184780e-01 5.149257e-01 3.140419e+00 202 191 162
4.235162e-01 5.098531e-01 3.143477e+00 106 106 104
4.148705e-01 5.188844e-01 3.141507e+00 153 145 112
4.195481e-01 5.149591e-01 3.140783e+00 204 196 164
4.194653e-01 5.151671e-01 3.140380e+00 141 126 96
4.220299e-01 5.130606e-01 3.141911e+00 118 110 99
4.255408e-01 5.095271e-01 3.144526e+00 131 126 127
4.217350e-01 5.136562e-01 3.141730e+00 173 172 151
4.184561e-01 5.170176e-01 3.141060e+00 227 203 165
4.232466e-01 5.124790e-01 3.143011e+00 72 70 56
4.230749e-01 5.126309e-01 3.143027e+00 175 170 154
4.180774e-01 5.183736e-01 3.142102e+00 230 217 191
4.176542e-01 5.196350e-01 3.142432e+00 231 207 167
4.245204e-01 5.148859e-01 3.144037e+00 220 213 198
4.233925e-01 5.176629e-01 3.143665e+00 109 98 70
4.285170e-01 5.135660e-01 3.144664e+00 200 192 154
4.224061e-01 5.204844e-01 3.142897e+00 237 226 207
4.221900e-01 5.210056e-01 3.142992e+00 211 193 169
4.223107e-01 5.213960e-01 3.143184e+00 119 109 103
4.203976e-01 5.236204e-01 3.142716e+00 143 140 129
4.163037e-01 5.283159e-01 3.141397e+00 238 230 207
4.147710e-01 5.305891e-01 3.141669e+00 151 152 138
4.402857e-01 5.108831e-01 3.145169e+00 190 193 190
4.326114e-01 5.221768e-01 3.143080e+00 145 132 114
4.373223e-01 5.190136e-01 3.143851e+00 227 213 186
4.346287e-01 5.221330e-01 3.142960e+00 106 91 72
4.284968e-01 5.292760e-01 3.141237e+00 228 216 181
4.243258e-01 5.337635e-01 3.140146e+00 237 222 188
4.224119e-01 5.362674e-01 3.140021e+00 232 214 174
4.194301e-01 5.388099e-01 3.139693e+00 244 232 206
4.194301e-01 5.388099e-01 3.139693e+00 244 232 206
4.619710e-01 5.413812e-01 3.133826e+00 230 225 218
4.503482e-01 5.528750e-01 3.131264e+00 95 88 74
4.554569e-01 5.490404e-01 3.132321e+00 236 229 212
4.536090e-01 5.511822e-01 3.131925e+00 234 225 218
4.747819e-01 5.527458e-01 3.131640e+00 155 154 158
4.860083e-01 5.436284e-01 3.137347e+00 154 155 124
4.740136e-01 5.545688e-01 3.131215e+00 138 135 125
4.875594e-01 5.442618e-01 3.137409e+00 149 140 132
4.709805e-01 5.590015e-01 3.130326e+00 127 128 140
4.725444e-01 5.600771e-01 3.130406e+00 149 155 117
4.612385e-01 5.665983e-01 3.132798e+00 123 134 114
4.583556e-01 5.690487e-01 3.131912e+00 226 227 219
4.609176e-01 5.688049e-01 3.132123e+00 146 146 144
4.643167e-01 5.709561e-01 3.131959e+00 153 156 150
4.643167e-01 5.709561e-01 3.131959e+00 153 156 150
4.651783e-01 5.710905e-01 3.131913e+00 223 221 208
4.649891e-01 5.712432e-01 3.131969e+00 224 222 208
4.649071e-01 5.714696e-01 3.131815e+00 220 218 205
4.641282e-01 5.726819e-01 3.131803e+00 208 199 187
4.585872e-01 5.789905e-01 3.127047e+00 108 110 104
3.976326e-01 5.112795e-01 3.140592e+00 199 183 115
3.988765e-01 5.123161e-01 3.141229e+00 205 195 183
3.995167e-01 5.137819e-01 3.141757e+00 221 209 179
3.994002e-01 5.143624e-01 3.141575e+00 236 222 222
4.048955e-01 5.087102e-01 3.136433e+00 210 207 182
4.032105e-01 5.107211e-01 3.138057e+00 203 192 154
4.044229e-01 5.106822e-01 3.137640e+00 142 126 94
4.044229e-01 5.106822e-01 3.137640e+00 142 126 94
4.077056e-01 5.074153e-01 3.136085e+00 135 126 93
4.146706e-01 5.009500e-01 3.137570e+00 191 185 161
4.053061e-01 5.114744e-01 3.138018e+00 241 217 192
4.054035e-01 5.117713e-01 3.138108e+00 215 204 184
4.153214e-01 5.014888e-01 3.138430e+00 173 172 156
4.150430e-01 5.018478e-01 3.137559e+00 190 183 165
4.142799e-01 5.026691e-01 3.137752e+00 118 117 97
4.078633e-01 5.103027e-01 3.136573e+00 226 217 178
4.110283e-01 5.071594e-01 3.136701e+00 119 119 112
4.210176e-01 4.963028e-01 3.146489e+00 154 159 154
4.054919e-01 5.130289e-01 3.138692e+00 230 208 167
4.212839e-01 4.967182e-01 3.146601e+00 113 119 112
4.212839e-01 4.967182e-01 3.146601e+00 113 119 112
4.027956e-01 5.165718e-01 3.141077e+00 213 203 149
4.172138e-01 5.023457e-01 3.139369e+00 121 118 107
4.185591e-01 5.011459e-01 3.141690e+00 74 71 62
4.047410e-01 5.156731e-01 3.140459e+00 222 212 177
4.155740e-01 5.045625e-01 3.137416e+00 121 117 92
4.039695e-01 5.167831e-01 3.140962e+00 173 171 162
4.142811e-01 5.064014e-01 3.137462e+00 115 103 82
4.174344e-01 5.038469e-01 3.138807e+00 137 122 104
4.115776e-01 5.101381e-01 3.136418e+00 127 112 82
4.059633e-01 5.159679e-01 3.140223e+00 101 78 56
4.186902e-01 5.034933e-01 3.139518e+00 135 123 107
4.136578e-01 5.090611e-01 3.136684e+00 91 96 82
4.196304e-01 5.033581e-01 3.141277e+00 71 74 45
4.178559e-01 5.053894e-01 3.138287e+00 68 63 43
4.194393e-01 5.036606e-01 3.141218e+00 174 170 167
4.116513e-01 5.119814e-01 3.136935e+00 221 203 174
4.093797e-01 5.146842e-01 3.138353e+00 151 137 100
4.084840e-01 5.155468e-01 3.139429e+00 215 203 168
4.193136e-01 5.046722e-01 3.140073e+00 114 115 107
4.122304e-01 5.131707e-01 3.137818e+00 132 109 78
4.182864e-01 5.070881e-01 3.138484e+00 109 102 92
4.086360e-01 5.171347e-01 3.140316e+00 202 190 158
4.199549e-01 5.056979e-01 3.140922e+00 191 179 167
4.108521e-01 5.158325e-01 3.139407e+00 85 69 34
4.152442e-01 5.118372e-01 3.136718e+00 96 79 54
4.211498e-01 5.059513e-01 3.141957e+00 191 192 175
4.218378e-01 5.051558e-01 3.143259e+00 161 168 151
4.211585e-01 5.063438e-01 3.141592e+00 108 101 78
4.181686e-01 5.105554e-01 3.137263e+00 79 66 57
4.211436e-01 5.073157e-01 3.141372e+00 173 170 156
4.222966e-01 5.071963e-01 3.143178e+00 223 224 226
4.203939e-01 5.094181e-01 3.140311e+00 178 173 161
4.234944e-01 5.062509e-01 3.144310e+00 72 71 53
4.232599e-01 5.065566e-01 3.143980e+00 186 184 171
4.232599e-01 5.065566e-01 3.143980e+00 186 184 171
4.160246e-01 5.143505e-01 3.139373e+00 132 117 89
4.149618e-01 5.156048e-01 3.139624e+00 135 109 91
4.100490e-01 5.202244e-01 3.141865e+00 165 146 112
4.202200e-01 5.106262e-01 3.140054e+00 158 149 140
4.202437e-01 5.107348e-01 3.139859e+00 65 57 46
4.202470e-01 5.107299e-01 3.139890e+00 65 57 46
4.204056e-01 5.108313e-01 3.140218e+00 143 136 119
4.207659e-01 5.108515e-01 3.140198e+00 126 123 106
4.224642e-01 5.092187e-01 3.142592e+00 208 205 196
4.236364e-01 5.082731e-01 3.143855e+00 212 203 193
4.116588e-01 5.203567e-01 3.141886e+00 123 100 68
4.196070e-01 5.132688e-01 3.139440e+00 102 88 72
4.243263e-01 5.084746e-01 3.143844e+00 190 191 185
4.097404e-01 5.230526e-01 3.141486e+00 138 130 117
4.097264e-01 5.230371e-01 3.141509e+00 138 130 117
4.185043e-01 5.150723e-01 3.140218e+00 113 99 91
4.184815e-01 5.150895e-01 3.140299e+00 113 99 91
4.251687e-01 5.082476e-01 3.144512e+00 135 134 114
4.252716e-01 5.081737e-01 3.144801e+00 174 173 152
4.208506e-01 5.131579e-01 3.140459e+00 175 166 163
4.209049e-01 5.132298e-01 3.140100e+00 92 82 71
4.206374e-01 5.140433e-01 3.140508e+00 173 161 146
4.223211e-01 5.123187e-01 3.142109e+00 128 123 117
4.235033e-01 5.112329e-01 3.143705e+00 103 92 71
4.231038e-01 5.123520e-01 3.143257e+00 171 170 152
4.232318e-01 5.132061e-01 3.143277e+00 214 196 187
4.198015e-01 5.171271e-01 3.142078e+00 212 197 185
4.250866e-01 5.118023e-01 3.144726e+00 238 228 226
4.215188e-01 5.166382e-01 3.142587e+00 231 211 187
4.184624e-01 5.197640e-01 3.142651e+00 179 167 136
4.247955e-01 5.138673e-01 3.144299e+00 228 219 211
4.199125e-01 5.189741e-01 3.142848e+00 232 209 170
4.216805e-01 5.186418e-01 3.143505e+00 197 179 155
4.221910e-01 5.181736e-01 3.143626e+00 216 200 184
4.343364e-01 5.208122e-01 3.143284e+00 103 94 64
4.223655e-01 5.361827e-01 3.140477e+00 149 133 96
4.223655e-01 5.361827e-01 3.140477e+00 149 133 96
4.326225e-01 5.373559e-01 3.138481e+00 203 200 191
4.540123e-01 5.506922e-01 3.132056e+00 239 232 214
4.529554e-01 5.521413e-01 3.131544e+00 229 220 213
4.707929e-01 5.588543e-01 3.130331e+00 223 229 217
4.710590e-01 5.606697e-01 3.130430e+00 244 230 253
4.838344e-01 5.612424e-01 3.121646e+00 155 154 135
4.720602e-01 5.628726e-01 3.130238e+00 207 204 190
4.695302e-01 5.650503e-01 3.129382e+00 227 217 216
4.764803e-01 5.638603e-01 3.130458e+00 221 220 235
4.577551e-01 5.793056e-01 3.127102e+00 153 153 145
4.004697e-01 5.149368e-01 3.141458e+00 123 115 77
4.051316e-01 5.104973e-01 3.137283e+00 207 199 178
4.150981e-01 5.028610e-01 3.137436e+00 193 186 168
4.046723e-01 5.141080e-01 3.139701e+00 241 220 192
4.099414e-01 5.094821e-01 3.136052e+00 182 167 138
4.121842e-01 5.100893e-01 3.136586e+00 205 197 175
4.190076e-01 5.034495e-01 3.140077e+00 113 109 106
4.193303e-01 5.038516e-01 3.141227e+00 175 172 159
4.127472e-01 5.126930e-01 3.137250e+00 199 181 133
4.128961e-01 5.130514e-01 3.137312e+00 218 197 148
4.142679e-01 5.125699e-01 3.137127e+00 214 203 165
4.185362e-01 5.085493e-01 3.138360e+00 84 83 65
4.149738e-01 5.123738e-01 3.137091e+00 146 132 101
4.220228e-01 5.051308e-01 3.143360e+00 127 123 116
4.152995e-01 5.130289e-01 3.137802e+00 174 149 117
4.192133e-01 5.097388e-01 3.138524e+00 144 138 115
4.213981e-01 5.080002e-01 3.141574e+00 189 186 179
4.224359e-01 5.072833e-01 3.143102e+00 148 150 139
4.227406e-01 5.071276e-01 3.142954e+00 181 187 177
4.203797e-01 5.105750e-01 3.140142e+00 87 80 62
4.203797e-01 5.105750e-01 3.140142e+00 87 80 62
4.184903e-01 5.135639e-01 3.139531e+00 129 118 73
4.227694e-01 5.095177e-01 3.142751e+00 194 199 183
4.210446e-01 5.119645e-01 3.140847e+00 175 162 155
4.224107e-01 5.115226e-01 3.142573e+00 190 190 164
4.173384e-01 5.166203e-01 3.141036e+00 219 198 178
4.150435e-01 5.203198e-01 3.142274e+00 168 148 105
4.252594e-01 5.107545e-01 3.144811e+00 178 171 169
4.213993e-01 5.151310e-01 3.141624e+00 118 111 83
4.214468e-01 5.153629e-01 3.141706e+00 121 108 99
4.227761e-01 5.147180e-01 3.142955e+00 123 115 104
4.196604e-01 5.192143e-01 3.143025e+00 124 106 80
4.230726e-01 5.161561e-01 3.142858e+00 192 183 174
4.246669e-01 5.147511e-01 3.144209e+00 160 151 145
4.244339e-01 5.152389e-01 3.144047e+00 172 165 147
4.205541e-01 5.190951e-01 3.143259e+00 178 167 140
5.288250e-01 5.770407e-01 3.126188e+00 120 133 137
4.759206e-01 5.310095e-01 3.135195e+00 99 95 92
4.884532e-01 5.346800e-01 3.133966e+00 49 58 70
