ply
format ascii 1.0
element face 0
property list uchar int vertex_indices
element vertex 968
property float x
property float y
property float z
property uchar diffuse_red
property uchar diffuse_green
property uchar diffuse_blue
end_header
4.165581e-01 5.064655e-01 2.919216e+00 59 77 52
4.453350e-01 4.964736e-01 2.838741e+00 72 95 67
4.363380e-01 5.019034e-01 2.874622e+00 41 67 20
4.231482e-01 5.063905e-01 2.909929e+00 105 127 81
3.718916e-01 4.955234e-01 2.920116e+00 110 126 78
3.585759e-01 4.897407e-01 2.909147e+00 120 145 90
4.380550e-01 5.015770e-01 2.868935e+00 103 120 83
4.217397e-01 5.066074e-01 2.911743e+00 112 138 93
3.654631e-01 4.939399e-01 2.915565e+00 26 47 14
3.630468e-01 4.930493e-01 2.914409e+00 116 134 88
3.532366e-01 4.887124e-01 2.905907e+00 81 106 67
3.532366e-01 4.887124e-01 2.905907e+00 81 106 67
4.489007e-01 4.962304e-01 2.826308e+00 26 49 23
4.193295e-01 5.084914e-01 2.918562e+00 103 127 91
3.582336e-01 4.911779e-01 2.910152e+00 24 49 15
3.582336e-01 4.911779e-01 2.910152e+00 24 49 15
3.392783e-01 4.826625e-01 2.892339e+00 93 121 73
4.354973e-01 5.051171e-01 2.881657e+00 28 51 28
3.199703e-01 4.736860e-01 2.871999e+00 65 88 36
4.412756e-01 5.022147e-01 2.860839e+00 29 44 24
4.304248e-01 5.071050e-01 2.896894e+00 35 55 43
4.488138e-01 4.979597e-01 2.830777e+00 75 98 70
4.476162e-01 4.995854e-01 2.837295e+00 26 45 25
3.985208e-01 5.074248e-01 2.933344e+00 35 61 14
3.961628e-01 5.070323e-01 2.933494e+00 33 53 26
3.755385e-01 4.998851e-01 2.924239e+00 81 110 66
4.310271e-01 5.078925e-01 2.895554e+00 32 44 34
3.994667e-01 5.079190e-01 2.933474e+00 73 95 59
3.538507e-01 4.911197e-01 2.907592e+00 19 36 18
3.830739e-01 5.034132e-01 2.930394e+00 34 53 31
4.229673e-01 5.107566e-01 2.916133e+00 88 103 82
3.488073e-01 4.896058e-01 2.904596e+00 21 39 16
3.934598e-01 5.070623e-01 2.933201e+00 78 101 81
3.859491e-01 5.049307e-01 2.931738e+00 16 37 20
3.859491e-01 5.049307e-01 2.931738e+00 16 37 20
4.447100e-01 5.047443e-01 2.855807e+00 91 114 68
4.004717e-01 5.104522e-01 2.935579e+00 84 106 66
4.021684e-01 5.110510e-01 2.935562e+00 21 36 10
4.293501e-01 5.123122e-01 2.906946e+00 91 117 80
3.530697e-01 4.936704e-01 2.909215e+00 92 120 79
3.587965e-01 4.969251e-01 2.916012e+00 39 68 21
3.677906e-01 5.008098e-01 2.923581e+00 23 48 8
3.677906e-01 5.008098e-01 2.923581e+00 23 48 8
3.651637e-01 5.005322e-01 2.922632e+00 35 57 20
3.299198e-01 4.850732e-01 2.889981e+00 122 147 92
3.056677e-01 4.738184e-01 2.863974e+00 72 93 75
4.310162e-01 5.141389e-01 2.905560e+00 45 71 23
3.741343e-01 5.059581e-01 2.930546e+00 106 131 83
4.139031e-01 5.167395e-01 2.934117e+00 26 49 6
3.033515e-01 4.750126e-01 2.862884e+00 128 142 169
3.569303e-01 4.994879e-01 2.917975e+00 37 66 16
3.456474e-01 4.942995e-01 2.906514e+00 62 90 42
4.043366e-01 5.155663e-01 2.938906e+00 25 52 2
4.043366e-01 5.155663e-01 2.938906e+00 25 52 2
4.066995e-01 5.162168e-01 2.938127e+00 43 69 22
4.312657e-01 5.177116e-01 2.910276e+00 144 159 103
4.475122e-01 5.121142e-01 2.859698e+00 20 32 23
4.413718e-01 5.153612e-01 2.884152e+00 101 127 82
3.888752e-01 5.131366e-01 2.938755e+00 133 157 98
3.390882e-01 4.939315e-01 2.903509e+00 138 146 148
4.507853e-01 5.115315e-01 2.850073e+00 17 19 32
4.462001e-01 5.141584e-01 2.868476e+00 15 38 25
4.346237e-01 5.178098e-01 2.902212e+00 85 105 71
4.346237e-01 5.178098e-01 2.902212e+00 85 105 71
4.516771e-01 5.123169e-01 2.850656e+00 97 93 122
4.516771e-01 5.123169e-01 2.850656e+00 97 93 122
3.911472e-01 5.151797e-01 2.941094e+00 92 119 66
3.769762e-01 5.112677e-01 2.935464e+00 130 147 157
3.144838e-01 4.853852e-01 2.880495e+00 20 21 42
4.232473e-01 5.213801e-01 2.928470e+00 160 155 136
4.232473e-01 5.213801e-01 2.928470e+00 160 155 136
4.202057e-01 5.213393e-01 2.931968e+00 58 66 57
4.183092e-01 5.213389e-01 2.934734e+00 56 66 58
3.890106e-01 5.152494e-01 2.940230e+00 134 148 160
4.005705e-01 5.188122e-01 2.943119e+00 35 44 28
4.454233e-01 5.170405e-01 2.875492e+00 22 21 29
4.432593e-01 5.178751e-01 2.882542e+00 97 101 113
4.275108e-01 5.214626e-01 2.921918e+00 47 53 62
4.012972e-01 5.190236e-01 2.942510e+00 148 158 157
3.986280e-01 5.186482e-01 2.944378e+00 138 148 158
3.048261e-01 4.820036e-01 2.871267e+00 134 128 146
4.150892e-01 5.221519e-01 2.938440e+00 49 59 75
4.150892e-01 5.221519e-01 2.938440e+00 49 59 75
3.135390e-01 4.862988e-01 2.880721e+00 121 123 144
3.070436e-01 4.834113e-01 2.874268e+00 62 64 85
3.002772e-01 4.801485e-01 2.865522e+00 122 122 132
4.443608e-01 5.184307e-01 2.880638e+00 21 32 50
3.525975e-01 5.033904e-01 2.919673e+00 123 111 125
3.525975e-01 5.033904e-01 2.919673e+00 123 111 125
4.153006e-01 5.222328e-01 2.936719e+00 127 138 160
3.341633e-01 4.961168e-01 2.903302e+00 125 126 138
4.137335e-01 5.226704e-01 2.939531e+00 131 139 162
4.137335e-01 5.226704e-01 2.939531e+00 131 139 162
4.527379e-01 5.165162e-01 2.855350e+00 32 24 37
3.463763e-01 5.017994e-01 2.915160e+00 17 25 46
4.487564e-01 5.179439e-01 2.867034e+00 59 13 41
4.196838e-01 5.238388e-01 2.935499e+00 89 93 106
4.196838e-01 5.238388e-01 2.935499e+00 89 93 106
3.606785e-01 5.079855e-01 2.927507e+00 28 21 36
4.473222e-01 5.197176e-01 2.875721e+00 79 65 90
4.473222e-01 5.197176e-01 2.875721e+00 79 65 90
4.478479e-01 5.194421e-01 2.872986e+00 46 16 43
4.436672e-01 5.211378e-01 2.885920e+00 198 204 226
4.431969e-01 5.215170e-01 2.888859e+00 40 47 67
3.519913e-01 5.053369e-01 2.921725e+00 117 130 146
3.509864e-01 5.056896e-01 2.921149e+00 19 31 55
3.600438e-01 5.096837e-01 2.928673e+00 122 123 143
3.064454e-01 4.874495e-01 2.878568e+00 67 62 85
2.965037e-01 4.831825e-01 2.868411e+00 29 20 44
4.134590e-01 5.253191e-01 2.942563e+00 121 129 142
4.134590e-01 5.253191e-01 2.942563e+00 121 129 142
3.980597e-01 5.223753e-01 2.946454e+00 122 130 153
4.439429e-01 5.238480e-01 2.892036e+00 27 33 52
4.493724e-01 5.220592e-01 2.873461e+00 142 128 137
3.006557e-01 4.860650e-01 2.874025e+00 144 124 144
4.319215e-01 5.263256e-01 2.919765e+00 33 31 53
4.230593e-01 5.269662e-01 2.935100e+00 45 51 75
4.224064e-01 5.270412e-01 2.935605e+00 224 231 250
4.224064e-01 5.270412e-01 2.935605e+00 224 231 250
3.635456e-01 5.126360e-01 2.933948e+00 33 25 49
4.475195e-01 5.235788e-01 2.881254e+00 37 30 50
4.475195e-01 5.235788e-01 2.881254e+00 37 30 50
4.320125e-01 5.275265e-01 2.921951e+00 35 38 74
4.249045e-01 5.282219e-01 2.933706e+00 211 211 223
4.249045e-01 5.282219e-01 2.933706e+00 211 211 223
4.223372e-01 5.279601e-01 2.936277e+00 35 34 52
3.710151e-01 5.160538e-01 2.938036e+00 31 36 55
3.864673e-01 5.212745e-01 2.945401e+00 59 17 57
3.864673e-01 5.212745e-01 2.945401e+00 59 17 57
4.254134e-01 5.285975e-01 2.933026e+00 65 65 75
4.560545e-01 5.221456e-01 2.854856e+00 90 90 116
4.104598e-01 5.273854e-01 2.945417e+00 47 53 69
3.640122e-01 5.142023e-01 2.933996e+00 80 66 79
3.515362e-01 5.094832e-01 2.924463e+00 114 120 138
3.515362e-01 5.094832e-01 2.924463e+00 114 120 138
4.550144e-01 5.232704e-01 2.859773e+00 167 156 173
4.359844e-01 5.284201e-01 2.915126e+00 57 73 99
4.323449e-01 5.290848e-01 2.923409e+00 81 113 165
3.226926e-01 4.983702e-01 2.898840e+00 133 115 137
3.226926e-01 4.983702e-01 2.898840e+00 133 115 137
4.007399e-01 5.264478e-01 2.948717e+00 226 224 235
3.036803e-01 4.912838e-01 2.881142e+00 155 154 170
3.622232e-01 5.148095e-01 2.933539e+00 121 111 120
3.338260e-01 5.040966e-01 2.911261e+00 34 25 41
3.229672e-01 4.996908e-01 2.900738e+00 91 91 105
4.436632e-01 5.282175e-01 2.897530e+00 66 72 84
4.211825e-01 5.301158e-01 2.938918e+00 150 143 151
3.291363e-01 5.024413e-01 2.906999e+00 79 78 96
3.996457e-01 5.268129e-01 2.948850e+00 49 45 59
3.369736e-01 5.056762e-01 2.913974e+00 37 29 42
3.971066e-01 5.262062e-01 2.947644e+00 128 126 131
3.716003e-01 5.189237e-01 2.940572e+00 48 47 61
3.619511e-01 5.157614e-01 2.934957e+00 55 48 55
3.120842e-01 4.964794e-01 2.891409e+00 31 26 48
4.333748e-01 5.317365e-01 2.924209e+00 166 160 172
4.272010e-01 5.332991e-01 2.934805e+00 77 60 66
3.646303e-01 5.176319e-01 2.930435e+00 158 153 157
4.576168e-01 5.280987e-01 2.859908e+00 40 44 60
4.030708e-01 5.305281e-01 2.949511e+00 135 125 124
3.080540e-01 4.985802e-01 2.891249e+00 135 141 153
3.451429e-01 5.134692e-01 2.925501e+00 130 124 128
2.885330e-01 4.918890e-01 2.873438e+00 31 18 38
3.462225e-01 5.146281e-01 2.926459e+00 64 53 60
3.327471e-01 5.103950e-01 2.916477e+00 79 77 80
3.790446e-01 5.270710e-01 2.947200e+00 88 82 86
4.342034e-01 5.371751e-01 2.929087e+00 70 70 72
3.815872e-01 5.287730e-01 2.949433e+00 131 122 127
4.082951e-01 5.370710e-01 2.951015e+00 144 135 138
4.313903e-01 5.404484e-01 2.937369e+00 61 54 62
4.219818e-01 5.397966e-01 2.946647e+00 73 67 71
4.315753e-01 5.409844e-01 2.935992e+00 144 138 142
3.078840e-01 5.070813e-01 2.900861e+00 64 63 68
3.533848e-01 5.222523e-01 2.929716e+00 121 118 117
4.317836e-01 5.423014e-01 2.937926e+00 141 136 140
4.236997e-01 5.462186e-01 2.974936e+00 139 133 138
4.494785e-01 5.418624e-01 2.905033e+00 40 39 45
4.593737e-01 5.406262e-01 2.880854e+00 43 40 52
4.312458e-01 5.409629e-01 2.924379e+00 157 151 161
3.867182e-01 5.351275e-01 2.950506e+00 155 146 151
3.743187e-01 5.314475e-01 2.945214e+00 158 157 165
4.404608e-01 5.480620e-01 2.931699e+00 184 183 188
4.500946e-01 5.500834e-01 2.919708e+00 116 123 131
4.298698e-01 5.501316e-01 2.946529e+00 89 85 86
3.419760e-01 5.304722e-01 2.943086e+00 168 166 169
4.010268e-01 5.619299e-01 2.971192e+00 71 67 64
3.972867e-01 5.695939e-01 2.968461e+00 71 69 74
3.547704e-01 5.664560e-01 2.974411e+00 37 32 38
3.916429e-01 4.325894e-01 2.833721e+00 183 152 168
3.982744e-01 4.351676e-01 2.831793e+00 202 26 47
3.716302e-01 4.308755e-01 2.840542e+00 165 26 60
3.842493e-01 4.375485e-01 2.849448e+00 165 133 133
3.883150e-01 4.366645e-01 2.842497e+00 181 145 161
4.028044e-01 4.375014e-01 2.830343e+00 139 111 76
3.973008e-01 4.400385e-01 2.840792e+00 163 125 81
4.030641e-01 4.401795e-01 2.834483e+00 147 113 85
3.981023e-01 4.411498e-01 2.841619e+00 255 235 197
3.925848e-01 4.412701e-01 2.846840e+00 255 236 202
3.702752e-01 4.353017e-01 2.846797e+00 255 239 202
3.880881e-01 4.414214e-01 2.850018e+00 255 235 204
3.974399e-01 4.431799e-01 2.845712e+00 255 206 172
3.882051e-01 4.428334e-01 2.852276e+00 123 97 68
3.824814e-01 4.413988e-01 2.852795e+00 116 72 43
4.018894e-01 4.447902e-01 2.843942e+00 157 103 73
3.988018e-01 4.448561e-01 2.847233e+00 158 92 71
3.900752e-01 4.440472e-01 2.852783e+00 140 38 57
3.938641e-01 4.452165e-01 2.852048e+00 255 232 200
3.890616e-01 4.445321e-01 2.854423e+00 255 237 203
3.730657e-01 4.395165e-01 2.852850e+00 164 93 84
3.828171e-01 4.435092e-01 2.855265e+00 255 229 198
3.783104e-01 4.420106e-01 2.854656e+00 254 227 203
3.783104e-01 4.420106e-01 2.854656e+00 254 227 203
3.740322e-01 4.406544e-01 2.853838e+00 255 233 211
4.056776e-01 4.462446e-01 2.841554e+00 169 34 45
4.056776e-01 4.462446e-01 2.841554e+00 169 34 45
3.661162e-01 4.377082e-01 2.850375e+00 164 125 122
3.837664e-01 4.451456e-01 2.857462e+00 139 104 70
3.837664e-01 4.451456e-01 2.857462e+00 139 104 70
3.931630e-01 4.474397e-01 2.855917e+00 149 71 58
4.036023e-01 4.475852e-01 2.846045e+00 135 90 85
3.918516e-01 4.471222e-01 2.855835e+00 163 12 46
3.760971e-01 4.431013e-01 2.856967e+00 155 15 28
3.847149e-01 4.461321e-01 2.858501e+00 255 232 200
3.715271e-01 4.418868e-01 2.855819e+00 253 191 153
3.755198e-01 4.437996e-01 2.858121e+00 255 208 177
4.072091e-01 4.484150e-01 2.842759e+00 128 81 71
4.067834e-01 4.488510e-01 2.844492e+00 176 143 143
4.067834e-01 4.488510e-01 2.844492e+00 176 143 143
4.061765e-01 4.489061e-01 2.845137e+00 126 87 77
3.672524e-01 4.410284e-01 2.854505e+00 172 139 146
3.644685e-01 4.399068e-01 2.853107e+00 165 92 68
3.644685e-01 4.399068e-01 2.853107e+00 165 92 68
4.029724e-01 4.503228e-01 2.851377e+00 135 95 79
3.661660e-01 4.408052e-01 2.854050e+00 150 89 69
3.723276e-01 4.442943e-01 2.858819e+00 255 230 194
3.657461e-01 4.415935e-01 2.855336e+00 249 218 188
3.764297e-01 4.464585e-01 2.861510e+00 251 217 189
3.903661e-01 4.507236e-01 2.862253e+00 139 99 79
3.903661e-01 4.507236e-01 2.862253e+00 139 99 79
3.822877e-01 4.494332e-01 2.864446e+00 160 91 66
4.051599e-01 4.525428e-01 2.852887e+00 133 81 78
3.920381e-01 4.518899e-01 2.863029e+00 163 76 62
3.655868e-01 4.424910e-01 2.856478e+00 135 95 65
3.931690e-01 4.523821e-01 2.863138e+00 223 27 43
3.785122e-01 4.487406e-01 2.864603e+00 125 68 47
4.058420e-01 4.528258e-01 2.852059e+00 255 220 183
4.037994e-01 4.535998e-01 2.856250e+00 138 42 45
3.707178e-01 4.456551e-01 2.860584e+00 147 78 57
3.641636e-01 4.427526e-01 2.856340e+00 170 34 51
3.641636e-01 4.427526e-01 2.856340e+00 170 34 51
3.850471e-01 4.517704e-01 2.866867e+00 139 88 61
3.618800e-01 4.424598e-01 2.856046e+00 255 224 195
3.941173e-01 4.550143e-01 2.866825e+00 171 80 55
3.941173e-01 4.550143e-01 2.866825e+00 171 80 55
3.987069e-01 4.559735e-01 2.865591e+00 249 190 162
3.714390e-01 4.475675e-01 2.862506e+00 149 101 74
3.603920e-01 4.427001e-01 2.856143e+00 255 190 159
4.041840e-01 4.558361e-01 2.858989e+00 142 91 92
4.041840e-01 4.558361e-01 2.858989e+00 142 91 92
3.951424e-01 4.558231e-01 2.867687e+00 254 190 161
4.028719e-01 4.561704e-01 2.860902e+00 189 85 66
3.985025e-01 4.573185e-01 2.867589e+00 159 83 73
3.974965e-01 4.572847e-01 2.868135e+00 194 66 67
3.974965e-01 4.572847e-01 2.868135e+00 194 66 67
4.028745e-01 4.576923e-01 2.863695e+00 255 244 205
3.934824e-01 4.572789e-01 2.870801e+00 135 79 60
3.990384e-01 4.580532e-01 2.867911e+00 251 215 201
3.919423e-01 4.571674e-01 2.871437e+00 172 76 52
3.919423e-01 4.571674e-01 2.871437e+00 172 76 52
3.894279e-01 4.568446e-01 2.872280e+00 166 88 76
3.882307e-01 4.565596e-01 2.872639e+00 223 36 58
3.651726e-01 4.473666e-01 2.862860e+00 165 162 158
4.081905e-01 4.580241e-01 2.857651e+00 115 98 89
4.081905e-01 4.580241e-01 2.857651e+00 115 98 89
4.071060e-01 4.584425e-01 2.859925e+00 143 95 91
3.804914e-01 4.543346e-01 2.871164e+00 162 159 153
4.005839e-01 4.589199e-01 2.867427e+00 166 100 95
3.979958e-01 4.594868e-01 2.870874e+00 169 92 72
4.020430e-01 4.598337e-01 2.867868e+00 179 160 170
3.748194e-01 4.531509e-01 2.870879e+00 253 201 179
3.955817e-01 4.600945e-01 2.874161e+00 136 89 75
3.872077e-01 4.580646e-01 2.874678e+00 170 98 77
3.837675e-01 4.572408e-01 2.874863e+00 156 88 77
3.932872e-01 4.596682e-01 2.873946e+00 169 159 175
3.932872e-01 4.596682e-01 2.873946e+00 169 159 175
3.696619e-01 4.516616e-01 2.868450e+00 140 92 93
3.696619e-01 4.516616e-01 2.868450e+00 140 92 93
3.678985e-01 4.509495e-01 2.867654e+00 138 98 97
3.581383e-01 4.458605e-01 2.859403e+00 153 99 92
3.756871e-01 4.546429e-01 2.872521e+00 116 90 80
3.756871e-01 4.546429e-01 2.872521e+00 116 90 80
3.737846e-01 4.537646e-01 2.871366e+00 122 93 89
3.737846e-01 4.537646e-01 2.871366e+00 122 93 89
3.630924e-01 4.488468e-01 2.864386e+00 132 87 83
3.630924e-01 4.488468e-01 2.864386e+00 132 87 83
3.806558e-01 4.567524e-01 2.874917e+00 123 93 87
3.980215e-01 4.612533e-01 2.873519e+00 92 76 86
3.652315e-01 4.501054e-01 2.866247e+00 127 92 81
3.652315e-01 4.501054e-01 2.866247e+00 127 92 81
4.177498e-01 4.620636e-01 2.848139e+00 141 138 149
4.177498e-01 4.620636e-01 2.848139e+00 141 138 149
4.247316e-01 4.667723e-01 2.841731e+00 100 105 102
4.132124e-01 4.748744e-01 2.877888e+00 95 95 87
4.169428e-01 4.742453e-01 2.870543e+00 105 96 91
4.108019e-01 4.756530e-01 2.881915e+00 100 96 84
4.128529e-01 4.757306e-01 2.879819e+00 89 87 74
3.425150e-01 4.534733e-01 2.862967e+00 84 85 79
4.323356e-01 4.682937e-01 2.825325e+00 63 65 52
4.310593e-01 4.719615e-01 2.835153e+00 100 108 95
3.345682e-01 4.531703e-01 2.858800e+00 87 105 91
3.493797e-01 4.614119e-01 2.874827e+00 68 76 55
4.240705e-01 4.796438e-01 2.865247e+00 105 102 109
4.321102e-01 4.748603e-01 2.837521e+00 35 46 30
4.233322e-01 4.807303e-01 2.869777e+00 120 120 125
3.314983e-01 4.530938e-01 2.857140e+00 46 60 37
3.872412e-01 4.801060e-01 2.904164e+00 119 122 105
4.238813e-01 4.818948e-01 2.871358e+00 204 203 208
4.322697e-01 4.762954e-01 2.839644e+00 102 111 90
3.490910e-01 4.634479e-01 2.877050e+00 45 61 24
3.490910e-01 4.634479e-01 2.877050e+00 45 61 24
3.416177e-01 4.593439e-01 2.868883e+00 47 61 35
4.254215e-01 4.808927e-01 2.865035e+00 163 168 146
3.890239e-01 4.812522e-01 2.905294e+00 140 144 129
3.890239e-01 4.812522e-01 2.905294e+00 140 144 129
4.409363e-01 4.698861e-01 2.802839e+00 39 58 13
4.409415e-01 4.698965e-01 2.802873e+00 39 58 13
4.274113e-01 4.805195e-01 2.860231e+00 61 75 48
3.733098e-01 4.755664e-01 2.897987e+00 114 126 78
4.011145e-01 4.857386e-01 2.906186e+00 62 71 34
4.190687e-01 4.856336e-01 2.886323e+00 80 79 84
4.190687e-01 4.856336e-01 2.886323e+00 80 79 84
4.378493e-01 4.738937e-01 2.817438e+00 58 70 30
4.334427e-01 4.783654e-01 2.840206e+00 116 132 105
4.300002e-01 4.809821e-01 2.854438e+00 119 136 93
4.300002e-01 4.809821e-01 2.854438e+00 119 136 93
3.372411e-01 4.599760e-01 2.867644e+00 114 126 86
3.801113e-01 4.806205e-01 2.904718e+00 128 137 95
4.248009e-01 4.848189e-01 2.872915e+00 129 130 135
4.242102e-01 4.853831e-01 2.875690e+00 135 137 142
4.237045e-01 4.854836e-01 2.876465e+00 139 140 145
4.302745e-01 4.823709e-01 2.856008e+00 58 77 31
4.345425e-01 4.792587e-01 2.838577e+00 64 79 43
4.208477e-01 4.872689e-01 2.885810e+00 140 141 145
4.201320e-01 4.871408e-01 2.886033e+00 151 151 155
4.195646e-01 4.874347e-01 2.887594e+00 143 142 147
4.192203e-01 4.880604e-01 2.890287e+00 148 145 152
3.906901e-01 4.853652e-01 2.910156e+00 117 127 68
4.177153e-01 4.880357e-01 2.891589e+00 142 139 146
4.171560e-01 4.885049e-01 2.893764e+00 145 140 145
4.273820e-01 4.849779e-01 2.867838e+00 51 53 49
3.611754e-01 4.736770e-01 2.892997e+00 44 54 19
3.611754e-01 4.736770e-01 2.892997e+00 44 54 19
4.225784e-01 4.876649e-01 2.883079e+00 68 68 70
4.225784e-01 4.876649e-01 2.883079e+00 68 68 70
4.209901e-01 4.880879e-01 2.885998e+00 57 58 63
3.292412e-01 4.578053e-01 2.860759e+00 56 67 36
3.292412e-01 4.578053e-01 2.860759e+00 56 67 36
3.474403e-01 4.672317e-01 2.879441e+00 106 121 82
4.373365e-01 4.802083e-01 2.832587e+00 105 118 100
4.410260e-01 4.770236e-01 2.815058e+00 60 69 49
3.392723e-01 4.644201e-01 2.873160e+00 99 110 78
3.514648e-01 4.710238e-01 2.886161e+00 55 58 32
4.421572e-01 4.774418e-01 2.812566e+00 56 71 48
3.528004e-01 4.721113e-01 2.887902e+00 107 108 83
4.314019e-01 4.862997e-01 2.859595e+00 60 65 58
4.352316e-01 4.843969e-01 2.846397e+00 62 68 53
4.138752e-01 4.927403e-01 2.905073e+00 62 60 61
4.336212e-01 4.866055e-01 2.854625e+00 71 79 43
4.104093e-01 4.936488e-01 2.909175e+00 132 134 129
4.160992e-01 4.935889e-01 2.901807e+00 199 198 203
4.160992e-01 4.935889e-01 2.901807e+00 199 198 203
3.578731e-01 4.766715e-01 2.895084e+00 50 64 38
3.578731e-01 4.766715e-01 2.895084e+00 50 64 38
4.376341e-01 4.839546e-01 2.837126e+00 42 44 30
4.326772e-01 4.887953e-01 2.861095e+00 74 81 74
4.077527e-01 4.958034e-01 2.917347e+00 65 78 58
3.939133e-01 4.925613e-01 2.918044e+00 58 72 36
4.148270e-01 4.956999e-01 2.907665e+00 145 135 136
3.851586e-01 4.901775e-01 2.916308e+00 45 59 34
4.289731e-01 4.926951e-01 2.877403e+00 151 150 158
4.283713e-01 4.928411e-01 2.878711e+00 157 156 164
4.061143e-01 4.957178e-01 2.915568e+00 28 31 14
4.096863e-01 4.963558e-01 2.913935e+00 77 81 64
4.183742e-01 4.960241e-01 2.902614e+00 90 88 93
4.163182e-01 4.963661e-01 2.906439e+00 99 97 100
4.151548e-01 4.963896e-01 2.907507e+00 97 91 97
3.373054e-01 4.694530e-01 2.877659e+00 107 121 86
3.707109e-01 4.856277e-01 2.909249e+00 120 130 92
4.303505e-01 4.937168e-01 2.876066e+00 127 129 144
4.087678e-01 4.975090e-01 2.916416e+00 76 85 67
4.087678e-01 4.975090e-01 2.916416e+00 76 85 67
4.024830e-01 4.969301e-01 2.920474e+00 37 48 14
3.988531e-01 4.961263e-01 2.920632e+00 81 98 46
3.827441e-01 4.912371e-01 2.917385e+00 46 57 14
4.209402e-01 4.977135e-01 2.900846e+00 113 115 127
4.373119e-01 4.909937e-01 2.852504e+00 83 102 66
4.377839e-01 4.907390e-01 2.850502e+00 33 58 18
4.377839e-01 4.907390e-01 2.850502e+00 33 58 18
3.909136e-01 4.949596e-01 2.921805e+00 108 125 71
3.723574e-01 4.880872e-01 2.912237e+00 44 65 19
3.723574e-01 4.880872e-01 2.912237e+00 44 65 19
3.723574e-01 4.880872e-01 2.912237e+00 44 65 19
4.449434e-01 4.856680e-01 2.818857e+00 55 67 31
3.470436e-01 4.766599e-01 2.890549e+00 119 136 104
3.470436e-01 4.766599e-01 2.890549e+00 119 136 104
3.790102e-01 4.914089e-01 2.917272e+00 56 76 27
4.352593e-01 4.938357e-01 2.863654e+00 56 68 30
3.395050e-01 4.732466e-01 2.882592e+00 54 78 28
3.951825e-01 4.972355e-01 2.923354e+00 118 136 96
3.412526e-01 4.745345e-01 2.884920e+00 113 137 91
3.412526e-01 4.745345e-01 2.884920e+00 113 137 91
3.632206e-01 4.852604e-01 2.906539e+00 107 136 82
4.049465e-01 4.996021e-01 2.921866e+00 92 109 71
4.049465e-01 4.996021e-01 2.921866e+00 92 109 71
4.422108e-01 4.899623e-01 2.835859e+00 48 75 19
3.622698e-01 4.851184e-01 2.905926e+00 38 65 14
3.641794e-01 4.860802e-01 2.907651e+00 55 84 26
3.641794e-01 4.860802e-01 2.907651e+00 55 84 26
3.094234e-01 4.587615e-01 2.849846e+00 20 47 6
4.457579e-01 4.876087e-01 2.820633e+00 28 41 11
3.957615e-01 4.982790e-01 2.924153e+00 39 61 19
3.957615e-01 4.982790e-01 2.924153e+00 39 61 19
3.797344e-01 4.932851e-01 2.919284e+00 44 65 7
3.133478e-01 4.621973e-01 2.855745e+00 38 61 15
3.720757e-01 4.907901e-01 2.915020e+00 111 132 78
4.354609e-01 4.965583e-01 2.867334e+00 101 120 74
3.640510e-01 4.883293e-01 2.909930e+00 32 55 1
3.640510e-01 4.883293e-01 2.909930e+00 32 55 1
4.323400e-01 4.993559e-01 2.880218e+00 43 59 30
4.410940e-01 4.946343e-01 2.847855e+00 31 55 3
4.410940e-01 4.946343e-01 2.847855e+00 31 55 3
3.799992e-01 4.957940e-01 2.921891e+00 135 148 95
3.332956e-01 4.748853e-01 2.880833e+00 67 90 33
3.290487e-01 4.729136e-01 2.876458e+00 51 73 11
4.065629e-01 5.038838e-01 2.926070e+00 76 90 48
3.878797e-01 4.990259e-01 2.925799e+00 38 54 6
3.463729e-01 4.816961e-01 2.895203e+00 105 125 62
4.101028e-01 5.043440e-01 2.923365e+00 115 132 100
4.328330e-01 5.011232e-01 2.881514e+00 53 84 24
3.784907e-01 4.963556e-01 2.922372e+00 55 78 26
4.476084e-01 4.929193e-01 2.825352e+00 31 54 22
4.476084e-01 4.929193e-01 2.825352e+00 31 54 22
3.526646e-01 4.855478e-01 2.902056e+00 110 132 84
4.361066e-01 5.005076e-01 2.872460e+00 97 125 64
4.279907e-01 5.039379e-01 2.897724e+00 69 87 63
4.460006e-01 4.942057e-01 2.831681e+00 103 126 85
3.210494e-01 4.709634e-01 2.871240e+00 112 136 74
4.224819e-01 5.052636e-01 2.908564e+00 68 85 51
3.730874e-01 4.950186e-01 2.919467e+00 118 135 81
4.204118e-01 5.059598e-01 2.913829e+00 83 104 69
4.427429e-01 4.975996e-01 2.848473e+00 109 139 77
4.275986e-01 5.045371e-01 2.897640e+00 114 131 99
4.417468e-01 4.995174e-01 2.855804e+00 28 44 9
4.330878e-01 5.037174e-01 2.885584e+00 97 126 80
4.243445e-01 5.064025e-01 2.908108e+00 87 107 80
4.243445e-01 5.064025e-01 2.908108e+00 87 107 80
3.511853e-01 4.864867e-01 2.902289e+00 29 52 6
4.394062e-01 5.005404e-01 2.862285e+00 34 52 28
4.394062e-01 5.005404e-01 2.862285e+00 34 52 28
3.500674e-01 4.862391e-01 2.901218e+00 42 70 21
4.239627e-01 5.068482e-01 2.908832e+00 23 48 18
3.433284e-01 4.832964e-01 2.895180e+00 25 61 13
3.433284e-01 4.832964e-01 2.895180e+00 25 61 13
3.757161e-01 4.976714e-01 2.923074e+00 32 51 7
4.333624e-01 5.046104e-01 2.886409e+00 41 65 32
4.174879e-01 5.078410e-01 2.920323e+00 101 120 88
3.586321e-01 4.907604e-01 2.910215e+00 28 55 14
3.448958e-01 4.844066e-01 2.896901e+00 26 57 13
3.553424e-01 4.892859e-01 2.906924e+00 6 35 1
4.313174e-01 5.061915e-01 2.894000e+00 61 78 46
4.313174e-01 5.061915e-01 2.894000e+00 61 78 46
3.872680e-01 5.027330e-01 2.929926e+00 130 147 110
3.872680e-01 5.027330e-01 2.929926e+00 130 147 110
3.638013e-01 4.934680e-01 2.914460e+00 45 56 21
3.567523e-01 4.904054e-01 2.908718e+00 74 100 63
3.567523e-01 4.904054e-01 2.908718e+00 74 100 63
3.709883e-01 4.968217e-01 2.920815e+00 23 39 3
4.320182e-01 5.061868e-01 2.891645e+00 22 40 16
3.826043e-01 5.014162e-01 2.927840e+00 28 49 16
4.309729e-01 5.069042e-01 2.895716e+00 141 154 134
4.309729e-01 5.069042e-01 2.895716e+00 141 154 134
4.039989e-01 5.076538e-01 2.931408e+00 91 122 81
4.422415e-01 5.016392e-01 2.857318e+00 102 118 91
4.266385e-01 5.083063e-01 2.906351e+00 90 110 82
4.231318e-01 5.088805e-01 2.913174e+00 125 147 111
4.026488e-01 5.078264e-01 2.932517e+00 105 137 90
3.575921e-01 4.919172e-01 2.910950e+00 22 46 15
4.368607e-01 5.051294e-01 2.878264e+00 90 107 88
4.368607e-01 5.051294e-01 2.878264e+00 90 107 88
4.244783e-01 5.089855e-01 2.911199e+00 27 49 22
4.141105e-01 5.095278e-01 2.925623e+00 101 123 74
3.414981e-01 4.847600e-01 2.895428e+00 88 117 71
4.442922e-01 5.016197e-01 2.851632e+00 92 113 98
4.442922e-01 5.016197e-01 2.851632e+00 92 113 98
3.248714e-01 4.770261e-01 2.878032e+00 84 116 67
4.329341e-01 5.073886e-01 2.891545e+00 16 32 27
4.138518e-01 5.100581e-01 2.926886e+00 8 34 0
4.138518e-01 5.100581e-01 2.926886e+00 8 34 0
4.315837e-01 5.077818e-01 2.894870e+00 48 61 44
3.123275e-01 4.712251e-01 2.864633e+00 38 63 23
4.404483e-01 5.044656e-01 2.867449e+00 83 100 84
4.296032e-01 5.089547e-01 2.901722e+00 21 37 28
4.296032e-01 5.089547e-01 2.901722e+00 21 37 28
3.998724e-01 5.078462e-01 2.932320e+00 41 58 22
4.076555e-01 5.097672e-01 2.931386e+00 36 61 21
4.011589e-01 5.085426e-01 2.933311e+00 37 48 16
3.893857e-01 5.055349e-01 2.932678e+00 26 49 13
3.792527e-01 5.021173e-01 2.927887e+00 42 61 31
3.792527e-01 5.021173e-01 2.927887e+00 42 61 31
4.212999e-01 5.109042e-01 2.919011e+00 16 37 18
3.975187e-01 5.083975e-01 2.934669e+00 92 112 84
3.671014e-01 4.977694e-01 2.920145e+00 15 41 2
4.023908e-01 5.098375e-01 2.934497e+00 32 47 26
4.048644e-01 5.104473e-01 2.933901e+00 92 117 75
3.982584e-01 5.090458e-01 2.934890e+00 22 38 12
3.965928e-01 5.086370e-01 2.934942e+00 28 47 19
3.424480e-01 4.871848e-01 2.898105e+00 21 49 8
3.424480e-01 4.871848e-01 2.898105e+00 21 49 8
4.000847e-01 5.095902e-01 2.935104e+00 26 45 15
3.877163e-01 5.061985e-01 2.933242e+00 37 57 30
4.386682e-01 5.074591e-01 2.877343e+00 30 55 25
3.504552e-01 4.919022e-01 2.907661e+00 20 37 19
3.702246e-01 5.003343e-01 2.923822e+00 37 55 29
4.162056e-01 5.127881e-01 2.927635e+00 27 47 19
4.042747e-01 5.113358e-01 2.935202e+00 13 33 5
4.073366e-01 5.120917e-01 2.934188e+00 96 121 81
3.711901e-01 5.011575e-01 2.925150e+00 30 49 21
3.064737e-01 4.717540e-01 2.861652e+00 54 86 21
4.416070e-01 5.076623e-01 2.870271e+00 88 114 69
4.027248e-01 5.114773e-01 2.935716e+00 32 52 24
4.027248e-01 5.114773e-01 2.935716e+00 32 52 24
3.986012e-01 5.109318e-01 2.936144e+00 48 64 28
4.239231e-01 5.142784e-01 2.919238e+00 129 154 96
3.426649e-01 4.909111e-01 2.902298e+00 105 128 82
4.458566e-01 5.079018e-01 2.858213e+00 27 57 16
3.594760e-01 4.982752e-01 2.917542e+00 98 127 73
4.098241e-01 5.144856e-01 2.934680e+00 110 143 88
3.512191e-01 4.951755e-01 2.910958e+00 106 134 85
3.375445e-01 4.893471e-01 2.898205e+00 110 137 85
4.322957e-01 5.144680e-01 2.903430e+00 128 153 96
3.844272e-01 5.090609e-01 2.935580e+00 51 80 22
3.844272e-01 5.090609e-01 2.935580e+00 51 80 22
3.594198e-01 4.995349e-01 2.918933e+00 53 82 22
4.069834e-01 5.153639e-01 2.937619e+00 101 130 74
3.757202e-01 5.064896e-01 2.931183e+00 49 75 27
4.281206e-01 5.166961e-01 2.915135e+00 51 80 27
4.031742e-01 5.152413e-01 2.939095e+00 37 61 14
3.571892e-01 4.997115e-01 2.918611e+00 36 66 16
4.022264e-01 5.152288e-01 2.939357e+00 30 55 15
4.022264e-01 5.152288e-01 2.939357e+00 30 55 15
4.241589e-01 5.176196e-01 2.923380e+00 130 155 100
4.059508e-01 5.162648e-01 2.939316e+00 65 93 42
4.187897e-01 5.177813e-01 2.930043e+00 62 87 30
3.300556e-01 4.885814e-01 2.893029e+00 137 150 154
4.389113e-01 5.150359e-01 2.889040e+00 52 82 28
3.484189e-01 4.969242e-01 2.911085e+00 132 158 121
4.198103e-01 5.183141e-01 2.929561e+00 139 158 103
3.294902e-01 4.887900e-01 2.893329e+00 56 68 84
3.741564e-01 5.075899e-01 2.931883e+00 135 159 109
3.741564e-01 5.075899e-01 2.931883e+00 135 159 109
3.741564e-01 5.075899e-01 2.931883e+00 135 159 109
3.374397e-01 4.925597e-01 2.901408e+00 49 61 58
3.723998e-01 5.075708e-01 2.931213e+00 55 75 25
3.723998e-01 5.075708e-01 2.931213e+00 55 75 25
3.432322e-01 4.959307e-01 2.907440e+00 153 165 161
3.285056e-01 4.895447e-01 2.892961e+00 126 140 166
3.847357e-01 5.123491e-01 2.938481e+00 64 90 34
4.265655e-01 5.198903e-01 2.922342e+00 73 92 48
3.572594e-01 5.024316e-01 2.920769e+00 47 67 67
3.836024e-01 5.128651e-01 2.938532e+00 85 110 76
3.581740e-01 5.034237e-01 2.922066e+00 200 216 241
3.581740e-01 5.034237e-01 2.922066e+00 200 216 241
3.567201e-01 5.029403e-01 2.920906e+00 212 229 248
3.567201e-01 5.029403e-01 2.920906e+00 212 229 248
4.302569e-01 5.201342e-01 2.915307e+00 21 34 14
3.061438e-01 4.811431e-01 2.871486e+00 56 62 88
4.294787e-01 5.205305e-01 2.917225e+00 41 55 31
3.591411e-01 5.051148e-01 2.924159e+00 207 222 249
3.591411e-01 5.051148e-01 2.924159e+00 207 222 249
4.226693e-01 5.219939e-01 2.929855e+00 115 121 133
3.311394e-01 4.936837e-01 2.899023e+00 137 149 161
4.500058e-01 5.156600e-01 2.859784e+00 157 166 183
4.410339e-01 5.191215e-01 2.889612e+00 19 24 44
4.083891e-01 5.210538e-01 2.941843e+00 159 132 126
4.050431e-01 5.204722e-01 2.943195e+00 31 47 46
3.420428e-01 4.988553e-01 2.909804e+00 113 106 118
3.041144e-01 4.822246e-01 2.871516e+00 64 64 76
4.399263e-01 5.196601e-01 2.892165e+00 142 144 159
3.537269e-01 5.038999e-01 2.920178e+00 42 46 72
4.143113e-01 5.224486e-01 2.939177e+00 37 45 68
4.143113e-01 5.224486e-01 2.939177e+00 37 45 68
3.918033e-01 5.176885e-01 2.943245e+00 132 138 160
4.533021e-01 5.152296e-01 2.849784e+00 20 12 25
3.851010e-01 5.157856e-01 2.941192e+00 130 122 137
4.337514e-01 5.220295e-01 2.910884e+00 27 32 54
4.337514e-01 5.220295e-01 2.910884e+00 27 32 54
3.154550e-01 4.885545e-01 2.884924e+00 114 116 131
3.154550e-01 4.885545e-01 2.884924e+00 114 116 131
4.525911e-01 5.165196e-01 2.854897e+00 38 27 41
3.463916e-01 5.018136e-01 2.915139e+00 20 28 49
4.440103e-01 5.205558e-01 2.885960e+00 39 45 71
4.134680e-01 5.233922e-01 2.940823e+00 59 65 91
4.485039e-01 5.189728e-01 2.870274e+00 152 102 127
4.295739e-01 5.239625e-01 2.921651e+00 144 148 160
4.129132e-01 5.234902e-01 2.941076e+00 125 130 152
4.098833e-01 5.230153e-01 2.942342e+00 126 132 148
3.594554e-01 5.078263e-01 2.926350e+00 113 109 123
3.110233e-01 4.879077e-01 2.881549e+00 119 123 135
3.307969e-01 4.964385e-01 2.901291e+00 80 95 119
3.416158e-01 5.017506e-01 2.913214e+00 22 30 55
4.285070e-01 5.251762e-01 2.925260e+00 81 86 106
3.028899e-01 4.851021e-01 2.873722e+00 57 60 79
4.460819e-01 5.215544e-01 2.881530e+00 118 114 128
4.357105e-01 5.244571e-01 2.910481e+00 22 24 45
4.357105e-01 5.244571e-01 2.910481e+00 22 24 45
4.434493e-01 5.228059e-01 2.890684e+00 202 208 232
4.434493e-01 5.228059e-01 2.890684e+00 202 208 232
4.506050e-01 5.206006e-01 2.866297e+00 115 104 115
3.857408e-01 5.191457e-01 2.943849e+00 37 29 53
3.343468e-01 5.006737e-01 2.909967e+00 194 204 231
4.185014e-01 5.265194e-01 2.939045e+00 60 65 84
4.113822e-01 5.258489e-01 2.944114e+00 53 51 65
3.785705e-01 5.172080e-01 2.940099e+00 71 72 90
4.050431e-01 5.235180e-01 2.938718e+00 72 77 96
4.452621e-01 5.240294e-01 2.887782e+00 147 133 156
4.442629e-01 5.245102e-01 2.891390e+00 224 211 232
3.622882e-01 5.119229e-01 2.931517e+00 33 23 55
4.234441e-01 5.272324e-01 2.934013e+00 212 219 238
4.234441e-01 5.272324e-01 2.934013e+00 212 219 238
3.263011e-01 4.978211e-01 2.900277e+00 178 188 215
3.263011e-01 4.978211e-01 2.900277e+00 178 188 215
4.422076e-01 5.256680e-01 2.897628e+00 125 124 138
4.375203e-01 5.268124e-01 2.909881e+00 39 51 76
3.730477e-01 5.165695e-01 2.938983e+00 148 155 174
3.646947e-01 5.138214e-01 2.934571e+00 173 161 172
3.395989e-01 5.039944e-01 2.913397e+00 23 25 40
4.002041e-01 5.249456e-01 2.948081e+00 128 130 143
3.010306e-01 4.880636e-01 2.876170e+00 171 152 176
3.709960e-01 5.160757e-01 2.937981e+00 28 33 52
4.366747e-01 5.275546e-01 2.912870e+00 29 41 65
4.159578e-01 5.279037e-01 2.942771e+00 47 48 67
4.437109e-01 5.262461e-01 2.895561e+00 56 58 73
2.924110e-01 4.849943e-01 2.867698e+00 91 81 98
4.350489e-01 5.279839e-01 2.915696e+00 68 73 92
4.555314e-01 5.225469e-01 2.856915e+00 42 40 56
3.266141e-01 4.996859e-01 2.902549e+00 214 211 234
3.030628e-01 4.899111e-01 2.879424e+00 40 28 48
4.348455e-01 5.286149e-01 2.917942e+00 189 192 207
4.232364e-01 5.290131e-01 2.935739e+00 47 48 69
4.185834e-01 5.288961e-01 2.941128e+00 57 60 69
4.055696e-01 5.261394e-01 2.941398e+00 69 67 72
4.429270e-01 5.276380e-01 2.898933e+00 125 123 137
4.105367e-01 5.280433e-01 2.945251e+00 195 201 213
4.105367e-01 5.280433e-01 2.945251e+00 195 201 213
3.499062e-01 5.098836e-01 2.924300e+00 50 57 67
4.552132e-01 5.240731e-01 2.860449e+00 37 34 51
4.114680e-01 5.285766e-01 2.945770e+00 38 40 52
4.235867e-01 5.299534e-01 2.936580e+00 173 166 188
3.872258e-01 5.230353e-01 2.946868e+00 73 54 73
3.872258e-01 5.230353e-01 2.946868e+00 73 54 73
3.193081e-01 4.979999e-01 2.897369e+00 39 33 43
3.193081e-01 4.979999e-01 2.897369e+00 39 33 43
3.261866e-01 5.008928e-01 2.903634e+00 59 65 89
4.245111e-01 5.303388e-01 2.935975e+00 55 52 73
4.361426e-01 5.300154e-01 2.917300e+00 54 59 78
3.279615e-01 5.022312e-01 2.906464e+00 197 200 221
3.279615e-01 5.022312e-01 2.906464e+00 197 200 221
3.028470e-01 4.917576e-01 2.881073e+00 91 93 106
3.028470e-01 4.917576e-01 2.881073e+00 91 93 106
4.150910e-01 5.301470e-01 2.945162e+00 132 124 132
3.201587e-01 4.996130e-01 2.899357e+00 27 24 33
4.374317e-01 5.305971e-01 2.915430e+00 36 41 60
4.306329e-01 5.307464e-01 2.925870e+00 53 44 56
3.361818e-01 5.059886e-01 2.913334e+00 138 131 143
4.127980e-01 5.301769e-01 2.945822e+00 40 38 58
4.146361e-01 5.308018e-01 2.945509e+00 47 44 53
3.725774e-01 5.201465e-01 2.941484e+00 134 132 146
4.155913e-01 5.310268e-01 2.944876e+00 37 30 37
4.391544e-01 5.286941e-01 2.899040e+00 156 158 173
3.671016e-01 5.189224e-01 2.939827e+00 130 121 121
3.623288e-01 5.173433e-01 2.936375e+00 63 56 62
3.188059e-01 5.011940e-01 2.899957e+00 28 26 40
4.568648e-01 5.278651e-01 2.862599e+00 89 97 110
4.525490e-01 5.304130e-01 2.879867e+00 114 117 134
3.637074e-01 5.180147e-01 2.929922e+00 99 93 95
4.564418e-01 5.300792e-01 2.866902e+00 35 38 53
3.697506e-01 5.224763e-01 2.942598e+00 129 126 135
3.563879e-01 5.180965e-01 2.934733e+00 113 108 114
3.402743e-01 5.122318e-01 2.921921e+00 148 146 151
4.177325e-01 5.321593e-01 2.931195e+00 127 116 120
3.072658e-01 5.004893e-01 2.894417e+00 171 175 187
4.465430e-01 5.346337e-01 2.902087e+00 96 100 112
3.437536e-01 5.146429e-01 2.925736e+00 112 107 113
4.135878e-01 5.351790e-01 2.949008e+00 195 193 206
4.052950e-01 5.354548e-01 2.952103e+00 130 124 128
4.516355e-01 5.372811e-01 2.893753e+00 89 91 103
4.510342e-01 5.375427e-01 2.896305e+00 88 86 97
4.470246e-01 5.383491e-01 2.905682e+00 50 53 65
4.021386e-01 5.350005e-01 2.949701e+00 128 123 123
4.569325e-01 5.368055e-01 2.879469e+00 43 41 57
4.024236e-01 5.362586e-01 2.952666e+00 64 58 60
4.195089e-01 5.394107e-01 2.946954e+00 162 155 162
4.520606e-01 5.391835e-01 2.895605e+00 24 27 36
4.256630e-01 5.411911e-01 2.942706e+00 59 53 55
3.401872e-01 5.185885e-01 2.924645e+00 162 153 154
4.490762e-01 5.415727e-01 2.908497e+00 54 61 69
3.010657e-01 5.066106e-01 2.896563e+00 84 81 92
3.365081e-01 5.194975e-01 2.926519e+00 141 136 143
4.172822e-01 5.417437e-01 2.949109e+00 171 165 167
3.132327e-01 5.125393e-01 2.910106e+00 109 107 118
4.023786e-01 5.401378e-01 2.953219e+00 129 118 122
3.254301e-01 5.180813e-01 2.924644e+00 92 92 103
4.171618e-01 5.431305e-01 2.950240e+00 142 133 134
4.601017e-01 5.434594e-01 2.882370e+00 33 31 45
3.159348e-01 5.155683e-01 2.915879e+00 113 112 125
4.053285e-01 5.414298e-01 2.952334e+00 144 138 142
4.622011e-01 5.449012e-01 2.880784e+00 120 122 134
4.228076e-01 5.466454e-01 2.951143e+00 35 29 33
3.421562e-01 5.268153e-01 2.937846e+00 119 114 120
3.421562e-01 5.268153e-01 2.937846e+00 119 114 120
4.396415e-01 5.491451e-01 2.935901e+00 100 99 106
4.404627e-01 5.491186e-01 2.934233e+00 102 102 110
4.384121e-01 5.481336e-01 2.928486e+00 182 181 189
3.921396e-01 5.456462e-01 2.977124e+00 162 152 150
4.283365e-01 5.698042e-01 2.969623e+00 80 72 73
3.549817e-01 5.598551e-01 2.975773e+00 21 19 32
3.637760e-01 5.668384e-01 2.972890e+00 35 33 36
4.112309e-01 5.911147e-01 2.957821e+00 141 140 145
4.121203e-01 6.019986e-01 2.954177e+00 153 148 152
3.749766e-01 4.281086e-01 2.835499e+00 185 155 168
3.912917e-01 4.329569e-01 2.834692e+00 202 27 46
3.874508e-01 4.335294e-01 2.838769e+00 187 144 166
3.751260e-01 4.333533e-01 2.843541e+00 255 244 205
3.818211e-01 4.387658e-01 2.849281e+00 145 97 57
3.782769e-01 4.380721e-01 2.849302e+00 138 15 32
3.767791e-01 4.382396e-01 2.849922e+00 255 235 202
3.713157e-01 4.368939e-01 2.849145e+00 140 106 78
3.887055e-01 4.427493e-01 2.851754e+00 135 104 75
3.812738e-01 4.409688e-01 2.852492e+00 187 103 94
3.812738e-01 4.409688e-01 2.852492e+00 187 103 94
3.755563e-01 4.391216e-01 2.851576e+00 165 114 108
3.742073e-01 4.388450e-01 2.851113e+00 210 127 124
4.044315e-01 4.438405e-01 2.838431e+00 253 232 183
3.949518e-01 4.448612e-01 2.850255e+00 134 35 52
3.875354e-01 4.440147e-01 2.854213e+00 145 63 72
3.685093e-01 4.375110e-01 2.849914e+00 175 89 68
4.070555e-01 4.445297e-01 2.836326e+00 253 233 194
3.958900e-01 4.462190e-01 2.852400e+00 169 125 133
4.038452e-01 4.458147e-01 2.843096e+00 238 177 155
3.853513e-01 4.444721e-01 2.856109e+00 209 104 97
3.938155e-01 4.463642e-01 2.853836e+00 135 93 59
4.060555e-01 4.457891e-01 2.839983e+00 168 131 133
3.888254e-01 4.456760e-01 2.856094e+00 135 98 72
3.888254e-01 4.456760e-01 2.856094e+00 135 98 72
3.999282e-01 4.475394e-01 2.850282e+00 198 126 138
4.051992e-01 4.475386e-01 2.844955e+00 148 95 70
3.730991e-01 4.415792e-01 2.855470e+00 167 109 106
3.706555e-01 4.404785e-01 2.854117e+00 163 26 33
3.999443e-01 4.487312e-01 2.852779e+00 166 71 73
3.829486e-01 4.455861e-01 2.858248e+00 190 114 100
3.895453e-01 4.475740e-01 2.858418e+00 255 236 212
4.008326e-01 4.495927e-01 2.852638e+00 177 16 35
3.928754e-01 4.490265e-01 2.858482e+00 157 8 27
3.847979e-01 4.473954e-01 2.860540e+00 130 92 65
3.847979e-01 4.473954e-01 2.860540e+00 130 92 65
4.079444e-01 4.486825e-01 2.841999e+00 255 233 203
4.003928e-01 4.498162e-01 2.853162e+00 202 140 130
3.839250e-01 4.473510e-01 2.860840e+00 141 80 62
3.622281e-01 4.379128e-01 2.849379e+00 169 32 55
3.866292e-01 4.487687e-01 2.861959e+00 253 203 169
3.758364e-01 4.452801e-01 2.860350e+00 166 90 68
3.758364e-01 4.452801e-01 2.860350e+00 166 90 68
3.847276e-01 4.484434e-01 2.862171e+00 255 234 202
3.847276e-01 4.484434e-01 2.862171e+00 255 234 202
3.794698e-01 4.468176e-01 2.861255e+00 255 226 202
4.025373e-01 4.512615e-01 2.853470e+00 255 231 205
4.058171e-01 4.507140e-01 2.848117e+00 90 53 37
3.995902e-01 4.514029e-01 2.856701e+00 255 227 203
3.896218e-01 4.507169e-01 2.862903e+00 165 107 96
3.796476e-01 4.480803e-01 2.863460e+00 132 88 66
3.709892e-01 4.445320e-01 2.859416e+00 226 154 132
3.998839e-01 4.522691e-01 2.857461e+00 120 83 57
3.616013e-01 4.403095e-01 2.852971e+00 195 127 100
4.091544e-01 4.515432e-01 2.845242e+00 255 227 205
3.871952e-01 4.512033e-01 2.865224e+00 246 206 180
3.871952e-01 4.512033e-01 2.865224e+00 246 206 180
3.608394e-01 4.405597e-01 2.853422e+00 144 93 64
3.915922e-01 4.527017e-01 2.865065e+00 255 235 210
3.832140e-01 4.506206e-01 2.865692e+00 255 221 192
4.089831e-01 4.530713e-01 2.848084e+00 143 103 91
3.862077e-01 4.522578e-01 2.867191e+00 137 87 61
3.795649e-01 4.498400e-01 2.865506e+00 255 228 200
3.633829e-01 4.431466e-01 2.857890e+00 148 87 74
3.640087e-01 4.433708e-01 2.857827e+00 180 132 143
3.831176e-01 4.514349e-01 2.866896e+00 111 78 63
3.967568e-01 4.545430e-01 2.864060e+00 137 99 76
3.839247e-01 4.519257e-01 2.867586e+00 125 68 57
3.978910e-01 4.552690e-01 2.864589e+00 154 76 58
3.748448e-01 4.492061e-01 2.865513e+00 191 99 82
3.897278e-01 4.546022e-01 2.869021e+00 156 89 63
3.863960e-01 4.540015e-01 2.869401e+00 108 71 44
3.935400e-01 4.558381e-01 2.868512e+00 255 213 189
3.935400e-01 4.558381e-01 2.868512e+00 255 213 189
3.989267e-01 4.568087e-01 2.865781e+00 171 95 75
3.989267e-01 4.568087e-01 2.865781e+00 171 95 75
4.014387e-01 4.573342e-01 2.864764e+00 158 93 72
4.003846e-01 4.573121e-01 2.865670e+00 150 83 56
3.808253e-01 4.529450e-01 2.869396e+00 255 235 210
3.864281e-01 4.551008e-01 2.871099e+00 253 222 196
3.718021e-01 4.494364e-01 2.865724e+00 255 228 212
3.718021e-01 4.494364e-01 2.865724e+00 255 228 212
3.614209e-01 4.443680e-01 2.858288e+00 167 100 73
3.610538e-01 4.449025e-01 2.858787e+00 254 220 202
3.868993e-01 4.560975e-01 2.872224e+00 127 76 56
3.944789e-01 4.586565e-01 2.872487e+00 251 199 171
3.944789e-01 4.586565e-01 2.872487e+00 251 199 171
3.671675e-01 4.488551e-01 2.864880e+00 125 90 73
3.904751e-01 4.577481e-01 2.872983e+00 253 231 207
3.904751e-01 4.577481e-01 2.872983e+00 253 231 207
3.861671e-01 4.566079e-01 2.873343e+00 255 195 163
3.861671e-01 4.566079e-01 2.873343e+00 255 195 163
3.778718e-01 4.535987e-01 2.870819e+00 106 51 55
3.534450e-01 4.420578e-01 2.853831e+00 116 96 97
3.986042e-01 4.597423e-01 2.870791e+00 173 160 170
3.912663e-01 4.590226e-01 2.875041e+00 138 98 81
3.858374e-01 4.571823e-01 2.873538e+00 181 104 78
3.858374e-01 4.571823e-01 2.873538e+00 181 104 78
3.795736e-01 4.560135e-01 2.873903e+00 156 111 97
3.833343e-01 4.579163e-01 2.875992e+00 247 227 217
3.645610e-01 4.503902e-01 2.866509e+00 251 229 218
3.837883e-01 4.587208e-01 2.876687e+00 111 98 107
4.316993e-01 4.589334e-01 2.808374e+00 182 184 179
4.260891e-01 4.651256e-01 2.835495e+00 111 114 117
4.260030e-01 4.661281e-01 2.837532e+00 141 142 137
4.034193e-01 4.741005e-01 2.888228e+00 216 209 216
4.015750e-01 4.742899e-01 2.890312e+00 209 206 213
3.981335e-01 4.737527e-01 2.891951e+00 216 214 217
3.981335e-01 4.737527e-01 2.891951e+00 216 214 217
3.955335e-01 4.734152e-01 2.892924e+00 210 205 211
3.948770e-01 4.733355e-01 2.892997e+00 214 209 215
4.193414e-01 4.721636e-01 2.862759e+00 207 209 206
3.979779e-01 4.744815e-01 2.892864e+00 145 141 142
3.679746e-01 4.639076e-01 2.883715e+00 202 201 209
3.679746e-01 4.639076e-01 2.883715e+00 202 201 209
3.679746e-01 4.639076e-01 2.883715e+00 202 201 209
4.196122e-01 4.724033e-01 2.862169e+00 102 101 99
4.362237e-01 4.601946e-01 2.797401e+00 68 73 67
3.537382e-01 4.589615e-01 2.873810e+00 109 108 105
4.367838e-01 4.622952e-01 2.799598e+00 69 78 51
4.275213e-01 4.711087e-01 2.842766e+00 73 78 74
3.444241e-01 4.542864e-01 2.864647e+00 167 167 157
4.370683e-01 4.626976e-01 2.798944e+00 124 135 103
4.189966e-01 4.767887e-01 2.871583e+00 148 148 148
4.290794e-01 4.715745e-01 2.839900e+00 109 118 100
4.135559e-01 4.789512e-01 2.884136e+00 157 159 154
4.193429e-01 4.773735e-01 2.871712e+00 107 103 102
4.193429e-01 4.773735e-01 2.871712e+00 107 103 102
3.641681e-01 4.660855e-01 2.885720e+00 146 143 138
4.127099e-01 4.791160e-01 2.885234e+00 140 141 137
4.305147e-01 4.718965e-01 2.836521e+00 38 43 36
4.305147e-01 4.718965e-01 2.836521e+00 38 43 36
3.552268e-01 4.622548e-01 2.878063e+00 70 62 60
3.790521e-01 4.734205e-01 2.896077e+00 84 79 73
4.080263e-01 4.807642e-01 2.893635e+00 77 81 67
3.552536e-01 4.629909e-01 2.878975e+00 143 138 135
3.552536e-01 4.629909e-01 2.878975e+00 143 138 135
4.300464e-01 4.734975e-01 2.840816e+00 63 77 62
4.119724e-01 4.813119e-01 2.889848e+00 140 139 134
4.119724e-01 4.813119e-01 2.889848e+00 140 139 134
3.767344e-01 4.739810e-01 2.897249e+00 136 137 132
4.364415e-01 4.687232e-01 2.813264e+00 108 126 87
3.558694e-01 4.640621e-01 2.880185e+00 75 72 63
4.398761e-01 4.665658e-01 2.798189e+00 45 68 22
4.275904e-01 4.771662e-01 2.853451e+00 124 133 104
3.634142e-01 4.694484e-01 2.889170e+00 111 120 100
4.254801e-01 4.797250e-01 2.863001e+00 79 88 59
4.207758e-01 4.818484e-01 2.876219e+00 125 124 129
4.395671e-01 4.687286e-01 2.802593e+00 55 78 32
3.783868e-01 4.769609e-01 2.900885e+00 103 114 72
3.171177e-01 4.454297e-01 2.840218e+00 86 95 74
3.171177e-01 4.454297e-01 2.840218e+00 86 95 74
3.261705e-01 4.510520e-01 2.851924e+00 48 59 42
3.477962e-01 4.629708e-01 2.875768e+00 96 111 78
3.930396e-01 4.829378e-01 2.906484e+00 116 122 96
3.930396e-01 4.829378e-01 2.906484e+00 116 122 96
3.622995e-01 4.708110e-01 2.890554e+00 52 62 27
4.254457e-01 4.820716e-01 2.867099e+00 80 82 77
3.786433e-01 4.786267e-01 2.902843e+00 103 122 69
3.786433e-01 4.786267e-01 2.902843e+00 103 122 69
4.306086e-01 4.795134e-01 2.850074e+00 53 61 37
4.030229e-01 4.860676e-01 2.906090e+00 65 73 35
4.226762e-01 4.842190e-01 2.877603e+00 98 96 101
4.103315e-01 4.869322e-01 2.899860e+00 68 83 42
3.922942e-01 4.840758e-01 2.907150e+00 73 78 55
3.922942e-01 4.840758e-01 2.907150e+00 73 78 55
4.044789e-01 4.873425e-01 2.906327e+00 63 67 43
4.044789e-01 4.873425e-01 2.906327e+00 63 67 43
4.017569e-01 4.868940e-01 2.907416e+00 60 67 32
4.017569e-01 4.868940e-01 2.907416e+00 60 67 32
4.209293e-01 4.861581e-01 2.883302e+00 97 98 102
4.209293e-01 4.861581e-01 2.883302e+00 97 98 102
3.811084e-01 4.811807e-01 2.906013e+00 71 79 38
4.191233e-01 4.868088e-01 2.887397e+00 82 81 87
4.172941e-01 4.874317e-01 2.891456e+00 96 95 101
3.265198e-01 4.546393e-01 2.855746e+00 102 114 84
3.819557e-01 4.823925e-01 2.907340e+00 65 71 33
3.804369e-01 4.819702e-01 2.906674e+00 65 71 35
3.536366e-01 4.696826e-01 2.885553e+00 63 70 37
3.265380e-01 4.554886e-01 2.856864e+00 51 62 28
4.337420e-01 4.810201e-01 2.844598e+00 105 123 90
4.304032e-01 4.835485e-01 2.857573e+00 121 137 95
4.028121e-01 4.892254e-01 2.910545e+00 62 65 46
4.028121e-01 4.892254e-01 2.910545e+00 62 65 46
4.114093e-01 4.898646e-01 2.902826e+00 123 125 112
3.757373e-01 4.809511e-01 2.904997e+00 101 121 70
3.631158e-01 4.753600e-01 2.895582e+00 62 73 39
4.225472e-01 4.884184e-01 2.883906e+00 140 140 142
3.604215e-01 4.745653e-01 2.894164e+00 56 67 21
3.464841e-01 4.676930e-01 2.880222e+00 53 62 33
4.302048e-01 4.854546e-01 2.861581e+00 70 82 68
3.346637e-01 4.617367e-01 2.867987e+00 52 57 33
3.156775e-01 4.516256e-01 2.845951e+00 123 134 91
4.343442e-01 4.832736e-01 2.846641e+00 132 142 115
3.586444e-01 4.744526e-01 2.892873e+00 105 116 73
4.307626e-01 4.861276e-01 2.861554e+00 124 132 121
4.307626e-01 4.861276e-01 2.861554e+00 124 132 121
4.218886e-01 4.899602e-01 2.887417e+00 140 143 150
4.218886e-01 4.899602e-01 2.887417e+00 140 143 150
3.611020e-01 4.759341e-01 2.895693e+00 42 54 6
4.080280e-01 4.918898e-01 2.909389e+00 57 67 32
3.464217e-01 4.693605e-01 2.882589e+00 55 58 37
4.196659e-01 4.910244e-01 2.892317e+00 77 74 81
4.196659e-01 4.910244e-01 2.892317e+00 77 74 81
4.145873e-01 4.923585e-01 2.903160e+00 141 141 143
3.884211e-01 4.880960e-01 2.914134e+00 118 134 88
3.884211e-01 4.880960e-01 2.914134e+00 118 134 88
4.360745e-01 4.839385e-01 2.843305e+00 102 108 98
4.431169e-01 4.782590e-01 2.810928e+00 115 123 98
4.426597e-01 4.792688e-01 2.815462e+00 98 107 86
4.106201e-01 4.929125e-01 2.908098e+00 50 55 50
4.097754e-01 4.929628e-01 2.909056e+00 50 58 46
4.097754e-01 4.929628e-01 2.909056e+00 50 58 46
3.698731e-01 4.813924e-01 2.904446e+00 57 69 44
3.120371e-01 4.517235e-01 2.844168e+00 36 46 20
4.380716e-01 4.830288e-01 2.835711e+00 117 121 104
4.380716e-01 4.830288e-01 2.835711e+00 117 121 104
4.375795e-01 4.830349e-01 2.836096e+00 47 49 36
4.348946e-01 4.853030e-01 2.848660e+00 152 162 103
4.059335e-01 4.932185e-01 2.913042e+00 70 84 60
3.222675e-01 4.576966e-01 2.856432e+00 73 83 58
3.877822e-01 4.893201e-01 2.915375e+00 54 69 38
4.409561e-01 4.818362e-01 2.824557e+00 30 44 18
4.363907e-01 4.855058e-01 2.845070e+00 43 45 32
3.651441e-01 4.803979e-01 2.902126e+00 56 72 40
3.892335e-01 4.903633e-01 2.916608e+00 114 126 106
3.937310e-01 4.916889e-01 2.917077e+00 121 132 100
3.937310e-01 4.916889e-01 2.917077e+00 121 132 100
4.059642e-01 4.943541e-01 2.914051e+00 42 50 39
4.049488e-01 4.941219e-01 2.914355e+00 50 55 41
3.491919e-01 4.731458e-01 2.887463e+00 114 124 107
3.780566e-01 4.865951e-01 2.911832e+00 131 136 107
4.321769e-01 4.894078e-01 2.863368e+00 63 68 66
4.057014e-01 4.946885e-01 2.915138e+00 102 107 99
4.305791e-01 4.903325e-01 2.868750e+00 74 75 74
3.322598e-01 4.650864e-01 2.870181e+00 71 74 57
3.778324e-01 4.870429e-01 2.912539e+00 63 69 36
3.589209e-01 4.788391e-01 2.898065e+00 111 124 98
4.274565e-01 4.933909e-01 2.882047e+00 157 154 161
3.936893e-01 4.931572e-01 2.918482e+00 117 134 90
