ply
format ascii 1.0
element face 0
property list uchar int vertex_indices
element vertex 949
property float x
property float y
property float z
property uchar diffuse_red
property uchar diffuse_green
property uchar diffuse_blue
end_header
8.806134e-01 -1.110816e-01 2.921560e+00 129 125 124
8.871820e-01 -1.076897e-01 2.927692e+00 125 123 124
8.255498e-01 -1.212195e-01 2.913414e+00 28 23 20
8.726403e-01 -9.941668e-02 2.953341e+00 56 56 53
7.295536e-01 -8.026765e-02 2.992885e+00 90 90 92
7.805247e-01 -4.747602e-02 2.983914e+00 68 63 65
8.219274e-01 -4.352758e-02 2.971715e+00 135 137 136
8.011723e-01 -3.812530e-02 2.991525e+00 132 131 129
7.256495e-01 -3.868611e-02 3.010854e+00 100 97 104
8.687621e-01 -1.731150e-02 2.998499e+00 160 171 175
7.730963e-01 -1.682654e-02 2.995737e+00 78 74 70
7.416069e-01 -1.467640e-02 3.013910e+00 23 21 19
8.314653e-01 -2.740801e-03 3.009142e+00 131 131 133
8.224426e-01 1.873885e-03 2.997783e+00 115 113 116
7.244953e-01 4.008582e-02 3.038064e+00 113 119 121
9.018304e-01 -2.229671e-01 2.827279e+00 49 45 44
7.536495e-01 -1.438045e-01 2.924725e+00 4 4 3
8.972857e-01 -1.279755e-01 2.913437e+00 36 39 40
9.023489e-01 -1.398255e-01 2.873736e+00 17 21 24
7.882396e-01 -1.369522e-01 2.906754e+00 102 98 89
7.882396e-01 -1.369522e-01 2.906754e+00 102 98 89
7.706988e-01 -1.312787e-01 2.925543e+00 14 13 11
8.861599e-01 -1.065776e-01 2.949816e+00 65 65 67
7.455922e-01 -1.306326e-01 2.933064e+00 78 76 78
8.776805e-01 -1.036998e-01 2.953977e+00 120 119 118
7.158488e-01 -1.096899e-01 2.985674e+00 18 13 17
7.469849e-01 -1.252956e-01 2.934604e+00 10 5 2
8.606806e-01 -8.240991e-02 2.975432e+00 128 128 129
8.211632e-01 -8.105241e-02 2.964252e+00 10 8 13
7.874688e-01 -7.588259e-02 2.984973e+00 128 127 131
8.003773e-01 -6.744061e-02 2.990761e+00 4 7 8
7.206108e-01 -6.894777e-02 3.008102e+00 106 107 111
7.270753e-01 -6.325930e-02 2.993680e+00 53 47 48
8.622629e-01 -4.485563e-02 2.986879e+00 106 107 109
7.956459e-01 -4.715395e-02 3.001449e+00 109 102 101
7.417409e-01 -4.519860e-02 2.998529e+00 136 133 134
7.358358e-01 -1.461391e-02 3.013355e+00 132 131 131
7.524833e-01 -6.047363e-03 3.015636e+00 129 122 120
8.197844e-01 6.354509e-03 2.999149e+00 128 127 126
8.197844e-01 6.354509e-03 2.999149e+00 128 127 126
8.164583e-01 6.721824e-03 2.998858e+00 79 79 79
9.115778e-01 -2.378289e-01 2.819463e+00 27 29 31
9.040487e-01 -2.106896e-01 2.835195e+00 118 118 120
7.974178e-01 -1.813730e-01 2.868680e+00 122 125 130
7.812529e-01 -1.589608e-01 2.890195e+00 114 110 112
7.356065e-01 -1.243569e-01 2.972613e+00 24 24 24
7.313494e-01 -1.383386e-01 2.936753e+00 73 73 75
7.455932e-01 -1.307061e-01 2.932829e+00 79 77 79
7.891382e-01 -1.091147e-01 2.930686e+00 35 33 37
7.976977e-01 -1.077071e-01 2.927158e+00 139 138 136
8.671648e-01 -8.876061e-02 2.953228e+00 54 53 53
7.944181e-01 -8.286371e-02 2.989765e+00 5 4 12
7.964456e-01 -7.739140e-02 2.983448e+00 13 11 16
7.896025e-01 -8.177003e-02 2.969658e+00 135 134 139
8.209734e-01 -7.297963e-02 2.968079e+00 130 130 132
8.189031e-01 -6.586640e-02 2.990382e+00 15 16 18
7.954003e-01 -7.038835e-02 2.977873e+00 142 142 144
7.335535e-01 -6.900886e-02 3.002122e+00 37 30 24
7.951232e-01 -6.762182e-02 2.974076e+00 15 16 20
7.942475e-01 -5.978673e-02 2.997256e+00 130 134 138
8.568679e-01 -4.647320e-02 2.987895e+00 111 112 112
7.284020e-01 -5.578974e-02 3.004932e+00 125 123 123
8.036432e-01 -4.634738e-02 2.997212e+00 13 8 5
8.052813e-01 -4.923941e-02 2.985737e+00 13 8 5
8.004222e-01 -4.171549e-02 2.992322e+00 68 61 55
7.605168e-01 -4.592284e-02 2.991780e+00 31 30 28
7.742809e-01 -3.556283e-02 2.993618e+00 104 110 116
7.276013e-01 -1.936808e-02 3.022371e+00 4 2 8
7.299749e-01 -1.342558e-02 3.020257e+00 71 67 68
7.984664e-01 -5.672032e-03 3.006239e+00 158 157 161
8.356829e-01 -3.623921e-04 3.008938e+00 152 152 155
8.453788e-01 1.016047e-03 3.008271e+00 157 160 162
8.451758e-01 1.362388e-03 3.009236e+00 157 160 162
7.801894e-01 -5.532820e-03 3.010874e+00 137 136 141
8.380587e-01 1.756123e-03 3.010808e+00 142 142 144
8.343109e-01 1.555345e-03 3.010006e+00 148 147 150
7.770745e-01 -7.680672e-03 2.996725e+00 126 124 125
8.191115e-01 1.159128e-03 3.002544e+00 150 150 152
7.793893e-01 -1.226343e-03 3.010198e+00 120 118 119
8.132861e-01 4.258589e-03 3.006178e+00 73 76 79
7.658531e-01 3.935505e-05 3.007136e+00 115 108 105
7.658531e-01 3.935505e-05 3.007136e+00 115 108 105
8.313444e-01 8.380715e-03 3.003977e+00 139 139 141
7.665470e-01 2.484891e-03 3.009208e+00 130 129 135
6.949054e-01 1.334182e-01 3.574781e+00 35 39 47
8.048675e-01 -1.945401e-01 2.879614e+00 23 19 16
7.984430e-01 -1.517148e-01 2.895754e+00 111 111 117
7.574152e-01 -1.462003e-01 2.922420e+00 108 106 111
8.647097e-01 -1.301355e-01 2.926182e+00 8 9 15
8.972555e-01 -1.288814e-01 2.914696e+00 30 41 42
8.910937e-01 -1.264155e-01 2.920991e+00 16 19 24
8.874282e-01 -1.262035e-01 2.922734e+00 131 132 137
7.507489e-01 -1.328449e-01 2.933749e+00 94 92 91
8.393248e-01 -1.259114e-01 2.905494e+00 36 32 26
8.653966e-01 -1.120285e-01 2.927296e+00 37 32 29
7.873296e-01 -1.151132e-01 2.926366e+00 118 119 124
7.830862e-01 -1.156653e-01 2.925072e+00 115 116 120
7.173165e-01 -9.431490e-02 2.999519e+00 77 76 81
8.027436e-01 -1.048892e-01 2.932397e+00 110 106 109
7.949262e-01 -8.610070e-02 2.980325e+00 114 113 119
7.946686e-01 -8.546992e-02 2.982297e+00 114 113 119
7.938491e-01 -8.545943e-02 2.979848e+00 119 120 124
7.938491e-01 -8.545943e-02 2.979848e+00 119 120 124
7.981711e-01 -9.032245e-02 2.961531e+00 105 104 112
8.245799e-01 -7.687939e-02 2.989540e+00 14 15 20
8.254604e-01 -7.537021e-02 2.988202e+00 121 120 125
7.895600e-01 -7.845708e-02 2.974259e+00 116 116 123
7.226113e-01 -7.892306e-02 2.986557e+00 43 38 42
8.140399e-01 -6.163768e-02 2.992492e+00 28 31 33
7.371160e-01 -6.134658e-02 2.997910e+00 18 18 16
7.409010e-01 -5.521981e-02 2.996671e+00 41 34 28
7.330784e-01 -5.581337e-02 2.998455e+00 52 48 42
7.963060e-01 -4.625479e-02 2.996065e+00 43 38 35
8.031790e-01 -4.495931e-02 2.995830e+00 66 55 52
7.479636e-01 -5.174083e-02 2.991001e+00 33 30 32
7.549859e-01 -4.780728e-02 2.988201e+00 138 138 138
8.089085e-01 -3.659273e-02 2.989897e+00 148 144 143
7.809052e-01 -3.759874e-02 2.990344e+00 51 46 50
8.687049e-01 -1.623429e-02 2.996205e+00 163 173 181
8.403957e-01 -1.677564e-02 2.998880e+00 147 148 152
8.592607e-01 -7.177183e-03 3.006654e+00 124 124 134
7.204610e-01 -1.505343e-02 3.023115e+00 25 22 23
8.032251e-01 -6.098447e-03 3.005103e+00 66 70 73
8.030414e-01 -7.313099e-03 2.994904e+00 149 148 155
8.278413e-01 4.947205e-03 2.997604e+00 144 144 146
7.305978e-01 -1.448907e-03 3.024538e+00 121 118 121
8.320642e-01 1.014240e-02 3.006764e+00 126 129 131
9.022180e-01 -1.682870e-01 2.886709e+00 51 45 39
7.516154e-01 -1.463331e-01 2.924150e+00 90 90 90
8.006450e-01 -6.718459e-02 2.991847e+00 3 4 8
8.061278e-01 -6.384784e-02 2.992476e+00 14 11 9
8.025193e-01 -6.222390e-02 2.992551e+00 26 26 29
7.253368e-01 -6.336455e-02 2.999134e+00 50 47 46
7.259374e-01 -5.679624e-02 3.006079e+00 34 35 35
8.571365e-01 -4.432441e-02 2.985541e+00 106 106 106
7.798668e-01 -5.441604e-02 2.983962e+00 129 127 127
8.280457e-01 -4.782542e-02 2.970908e+00 128 128 130
7.934012e-01 -4.032973e-02 2.989825e+00 134 130 129
7.139623e-01 -4.306345e-02 2.998304e+00 100 100 100
8.392481e-01 -1.730245e-02 3.003497e+00 87 91 94
8.027314e-01 -2.280365e-04 3.012677e+00 50 50 52
8.027314e-01 -2.280365e-04 3.012677e+00 50 50 52
8.314172e-01 4.072352e-03 3.011784e+00 98 98 100
8.698296e-01 -7.844186e-02 2.929792e+00 33 40 50
7.748136e-01 -9.614737e-02 2.945031e+00 120 126 127
8.619971e-01 -9.230569e-02 2.914694e+00 138 148 148
8.477516e-01 -6.133079e-02 2.943644e+00 138 142 145
7.689397e-01 -4.673381e-02 2.978222e+00 150 151 155
8.370465e-01 -3.816841e-02 2.973068e+00 149 157 164
8.609721e-01 -1.566998e-02 2.985743e+00 111 115 118
7.421424e-01 -7.171307e-02 2.987476e+00 103 109 107
8.552558e-01 -4.994600e-02 2.978906e+00 126 126 124
7.505100e-01 -4.891295e-02 2.989570e+00 133 134 132
8.543724e-01 -3.594446e-02 2.976999e+00 136 137 132
7.411928e-01 -9.613162e-02 3.000306e+00 123 126 130
8.689308e-01 -5.683691e-02 2.975684e+00 134 136 139
7.918401e-01 -1.511319e-01 2.906242e+00 50 52 51
8.558957e-01 -4.854160e-02 2.973357e+00 135 141 137
8.180710e-01 -3.815987e-02 2.983902e+00 138 140 137
8.180710e-01 -3.815987e-02 2.983902e+00 138 140 137
7.616659e-01 -1.702232e-02 2.997310e+00 132 134 135
8.441273e-01 -7.781963e-03 3.002269e+00 119 127 126
8.109948e-01 -1.008909e-03 3.011711e+00 137 137 139
8.430759e-01 5.545976e-02 3.056911e+00 62 76 77
7.463849e-01 -1.259934e-01 2.962284e+00 102 104 105
8.393957e-01 -1.396900e-01 2.883493e+00 117 113 112
9.003234e-01 -1.292256e-01 2.890876e+00 102 99 96
8.470113e-01 -1.334060e-01 2.885924e+00 124 124 122
7.448556e-01 -7.749364e-02 2.995934e+00 51 51 49
7.704541e-01 -7.830992e-02 2.950922e+00 135 142 148
7.696499e-01 -7.221467e-02 2.956385e+00 144 155 161
8.588004e-01 -5.592574e-02 2.974260e+00 66 61 54
7.739115e-01 -5.710901e-02 2.962464e+00 144 151 154
7.631240e-01 -4.615260e-02 2.970689e+00 61 57 54
8.420630e-01 -3.263220e-02 2.973821e+00 68 69 62
8.583613e-01 -2.355477e-02 2.984698e+00 122 127 130
8.949688e-01 -5.719889e-02 2.839842e+00 107 116 115
8.241787e-01 -7.930604e-03 2.995002e+00 136 142 148
7.685931e-01 -7.107039e-03 3.011037e+00 53 51 52
8.372326e-01 3.553249e-02 3.042168e+00 104 113 110
7.989870e-01 4.848140e-02 3.052764e+00 61 64 67
8.358740e-01 5.486252e-02 3.051715e+00 65 69 72
8.701591e-01 -1.279261e-01 2.872262e+00 111 110 102
7.471299e-01 -8.002533e-02 2.996136e+00 109 109 109
8.650328e-01 -9.246735e-02 2.916019e+00 150 161 165
8.290397e-01 -7.703853e-02 2.968317e+00 26 34 40
7.777914e-01 -7.780841e-02 2.952531e+00 133 141 145
7.749461e-01 -6.379247e-02 2.959152e+00 141 149 155
8.283819e-01 -3.236723e-02 2.984021e+00 37 33 32
7.707104e-01 -3.447735e-02 2.981131e+00 127 136 140
8.168389e-01 -7.440867e-03 3.001884e+00 120 116 115
7.960643e-01 -3.740872e-03 3.012878e+00 46 41 48
8.057000e-01 -2.097303e-03 3.013275e+00 37 32 39
8.489548e-01 4.555228e-03 3.010053e+00 15 15 14
8.445990e-01 -1.667404e-01 2.864502e+00 48 46 41
8.008727e-01 -1.270361e-01 2.906050e+00 26 17 17
8.219935e-01 -1.276444e-01 2.896529e+00 105 105 98
7.275025e-01 -7.645198e-02 3.010786e+00 81 86 84
7.445558e-01 -6.953057e-02 2.989729e+00 126 129 132
8.633274e-01 -5.451293e-02 2.976406e+00 141 146 148
7.777465e-01 -5.159546e-02 2.986333e+00 129 133 136
8.468537e-01 -4.135520e-02 2.980509e+00 128 128 127
8.269688e-01 -4.397944e-02 2.975473e+00 132 128 120
8.511591e-01 -4.019646e-02 2.979683e+00 140 141 135
8.513687e-01 -4.059871e-02 2.977879e+00 140 141 135
7.812942e-01 -4.644447e-02 2.979667e+00 129 129 128
7.526685e-01 -2.407363e-02 3.010366e+00 2 3 8
7.526685e-01 -2.407363e-02 3.010366e+00 2 3 8
8.585928e-01 -1.725348e-02 2.986883e+00 11 11 21
8.585928e-01 -1.725348e-02 2.986883e+00 11 11 21
7.516849e-01 -1.270291e-02 3.016351e+00 30 28 30
7.637063e-01 -1.323767e-02 2.999934e+00 104 102 105
8.240671e-01 -4.592823e-04 2.995594e+00 136 140 141
8.152088e-01 -1.727569e-01 2.882073e+00 44 43 39
7.520082e-01 -1.297208e-01 2.953666e+00 34 28 32
8.820607e-01 -1.430426e-01 2.873294e+00 53 52 48
9.093370e-01 -1.390223e-01 2.870834e+00 51 50 47
7.309599e-01 -1.120002e-01 2.981519e+00 16 16 14
7.654710e-01 -1.602593e-01 2.834234e+00 38 38 35
9.033719e-01 -1.243003e-01 2.900789e+00 65 61 57
8.945821e-01 -1.283385e-01 2.884568e+00 55 52 46
8.449236e-01 -1.280289e-01 2.888503e+00 113 114 106
8.407587e-01 -1.275106e-01 2.888771e+00 100 95 89
9.000704e-01 -1.097717e-01 2.912893e+00 105 106 100
9.012146e-01 -1.051019e-01 2.895695e+00 30 33 40
7.447010e-01 -5.957487e-02 3.000180e+00 121 121 118
7.482185e-01 -5.482371e-02 2.994613e+00 122 122 114
7.828281e-01 -5.590900e-02 2.971920e+00 114 114 111
7.796812e-01 -5.478008e-02 2.974117e+00 119 124 127
7.848335e-01 -5.310991e-02 2.972397e+00 112 115 109
7.244323e-01 -4.562268e-02 3.015329e+00 59 63 64
7.214904e-01 -4.772817e-02 3.010031e+00 51 53 55
7.603379e-01 -4.613505e-02 2.990949e+00 53 49 45
7.511312e-01 -4.454157e-02 2.993439e+00 136 138 137
8.437018e-01 -3.711472e-02 2.981721e+00 121 111 100
8.385074e-01 -3.490295e-02 2.966869e+00 150 156 161
7.472780e-01 -3.026190e-02 3.009186e+00 130 133 129
8.427781e-01 -2.517151e-02 2.991051e+00 88 96 101
8.504513e-01 -2.661623e-02 2.980539e+00 89 103 106
8.474569e-01 -2.252342e-02 2.983650e+00 36 37 33
7.535507e-01 -2.429396e-02 3.001425e+00 119 118 114
8.557277e-01 -1.162141e-02 2.993311e+00 5 5 12
8.404292e-01 -9.703715e-03 3.005430e+00 7 7 12
7.718448e-01 -1.400820e-02 2.994106e+00 92 87 87
7.260350e-01 -1.195569e-02 3.019727e+00 111 115 115
8.284939e-01 -4.450932e-03 2.993119e+00 77 77 74
8.339364e-01 3.555328e-03 3.013371e+00 12 11 16
8.222071e-01 -7.066791e-04 2.996612e+00 130 130 129
8.239583e-01 2.325837e-03 2.999509e+00 86 85 78
7.228064e-01 3.325124e-02 3.038156e+00 101 113 113
7.428391e-01 4.788686e-02 3.029315e+00 53 64 67
8.546131e-01 -1.481675e-01 2.872521e+00 39 40 30
7.493672e-01 -1.196359e-01 2.959893e+00 87 85 78
7.236794e-01 -1.077340e-01 2.989877e+00 9 6 17
7.965723e-01 -1.344194e-01 2.901363e+00 100 97 92
8.859258e-01 -1.296957e-01 2.877811e+00 111 118 123
8.295032e-01 -9.114529e-02 2.954033e+00 123 128 129
8.215330e-01 -7.461071e-02 2.970757e+00 4 3 8
7.206457e-01 -6.287066e-02 3.014962e+00 110 115 118
8.000050e-01 -6.160818e-02 2.975857e+00 135 142 137
7.422917e-01 -6.216247e-02 2.988367e+00 34 36 31
7.280636e-01 -6.388223e-02 2.985042e+00 60 60 58
7.471182e-01 -5.997940e-02 2.992361e+00 108 111 108
7.360004e-01 -5.651571e-02 3.006341e+00 34 33 29
7.910436e-01 -5.444196e-02 2.978584e+00 94 89 86
7.989906e-01 -5.279072e-02 2.980373e+00 109 99 97
7.491681e-01 -5.491497e-02 2.987966e+00 56 52 49
8.570888e-01 -4.362454e-02 2.986850e+00 52 48 43
8.588797e-01 -4.254565e-02 2.981454e+00 42 42 32
8.615373e-01 -4.426396e-02 2.969845e+00 97 96 92
7.994682e-01 -4.248776e-02 2.994080e+00 98 93 90
7.994682e-01 -4.248776e-02 2.994080e+00 98 93 90
7.422118e-01 -4.530052e-02 3.000590e+00 78 77 76
8.247698e-01 -4.200594e-02 2.977861e+00 55 52 47
8.450007e-01 -3.437102e-02 2.982943e+00 125 125 125
7.693126e-01 -4.394740e-02 2.972650e+00 147 153 158
8.455779e-01 -2.257357e-02 2.990323e+00 124 129 137
7.306946e-01 -2.767320e-02 3.013050e+00 104 112 109
8.433199e-01 -2.175084e-02 2.990699e+00 98 106 108
8.413399e-01 -1.702004e-02 2.993688e+00 110 114 112
7.288519e-01 -2.094223e-02 3.016195e+00 101 108 108
7.623477e-01 -1.413625e-02 3.000820e+00 123 123 123
7.656381e-01 -1.515980e-02 2.994257e+00 136 137 135
7.653666e-01 -1.391905e-02 2.999469e+00 136 137 135
8.579409e-01 -3.267796e-03 3.001498e+00 134 137 139
8.245576e-01 -6.439888e-03 2.993109e+00 130 133 131
8.245576e-01 -6.439888e-03 2.993109e+00 130 133 131
8.586592e-01 3.042190e-03 3.007431e+00 113 117 116
8.263335e-01 -1.964659e-03 2.992932e+00 85 82 77
7.348088e-01 4.373881e-02 3.034404e+00 97 104 111
8.644176e-01 -1.850329e-01 2.852847e+00 90 90 85
9.121145e-01 -1.737985e-01 2.856675e+00 117 121 125
8.301068e-01 -1.677379e-01 2.876576e+00 82 82 76
7.284146e-01 -1.263515e-01 2.982812e+00 84 88 90
8.596463e-01 -1.470210e-01 2.877892e+00 45 41 38
8.834134e-01 -1.477621e-01 2.864367e+00 123 129 127
8.973178e-01 -1.444257e-01 2.868338e+00 92 103 97
7.575513e-01 -1.216721e-01 2.951072e+00 96 97 87
8.310458e-01 -1.327846e-01 2.891273e+00 39 35 32
8.405736e-01 -1.327249e-01 2.887836e+00 37 36 32
8.371157e-01 -1.309212e-01 2.888801e+00 89 84 78
7.964571e-01 -1.239723e-01 2.911560e+00 76 67 62
7.919806e-01 -1.229097e-01 2.915790e+00 87 83 74
8.462447e-01 -1.131501e-01 2.902418e+00 78 79 73
7.807538e-01 -1.075971e-01 2.931666e+00 115 117 112
8.697012e-01 -8.228572e-02 2.969115e+00 35 35 34
8.318878e-01 -7.516784e-02 2.964442e+00 108 108 100
7.204724e-01 -6.606327e-02 3.015422e+00 46 45 51
8.145377e-01 -7.274431e-02 2.967009e+00 6 5 13
8.210818e-01 -7.176844e-02 2.967509e+00 9 9 7
7.793282e-01 -7.085677e-02 2.975424e+00 96 102 102
8.721493e-01 -6.719067e-02 2.954644e+00 47 46 42
7.796777e-01 -6.756989e-02 2.980716e+00 61 61 61
7.947040e-01 -6.233672e-02 2.992653e+00 5 5 9
7.382828e-01 -6.627566e-02 2.988291e+00 42 46 50
8.168104e-01 -6.424434e-02 2.971633e+00 133 141 143
7.342051e-01 -6.544081e-02 2.986602e+00 126 140 138
7.405602e-01 -6.040139e-02 3.001700e+00 37 34 35
7.474048e-01 -6.179587e-02 2.990412e+00 51 47 49
8.112248e-01 -6.116017e-02 2.973137e+00 141 146 143
8.061094e-01 -5.823384e-02 2.981482e+00 140 142 144
8.049877e-01 -6.064927e-02 2.974711e+00 138 135 134
7.735761e-01 -6.518359e-02 2.959577e+00 114 118 121
7.735761e-01 -6.518359e-02 2.959577e+00 114 118 121
7.234887e-01 -6.077948e-02 2.986817e+00 90 94 97
8.506418e-01 -5.460832e-02 2.966003e+00 115 117 112
7.300888e-01 -5.846913e-02 2.989303e+00 120 119 119
7.946042e-01 -5.509014e-02 2.980100e+00 108 99 90
7.534408e-01 -5.562766e-02 2.988347e+00 122 124 113
7.952147e-01 -5.356580e-02 2.981033e+00 102 94 87
7.591811e-01 -5.633939e-02 2.982565e+00 95 95 93
7.962721e-01 -5.327301e-02 2.981229e+00 7 4 5
7.322460e-01 -5.346700e-02 2.998256e+00 46 51 52
7.505070e-01 -5.362698e-02 2.990668e+00 126 126 121
7.446811e-01 -5.053615e-02 2.996414e+00 126 125 120
8.632668e-01 -4.339214e-02 2.971592e+00 41 37 28
8.534779e-01 -3.943061e-02 2.983940e+00 125 121 109
8.534779e-01 -3.943061e-02 2.983940e+00 125 121 109
8.189045e-01 -4.283984e-02 2.969979e+00 138 139 142
7.526918e-01 -3.205410e-02 3.001333e+00 99 106 100
8.720532e-01 -1.874479e-02 2.990895e+00 21 28 38
8.388195e-01 -1.894494e-02 2.991080e+00 120 123 127
7.488153e-01 -1.241467e-02 3.012915e+00 126 130 128
7.491009e-01 -1.377661e-02 3.007732e+00 126 130 128
8.362630e-01 -4.949506e-03 3.000620e+00 5 7 4
7.089281e-01 -1.241384e-02 3.026813e+00 123 128 129
8.031403e-01 -3.738047e-03 3.011294e+00 49 44 48
8.247551e-01 -5.737484e-03 2.989429e+00 122 124 121
7.915430e-01 -6.815087e-03 2.998145e+00 128 127 134
8.149671e-01 -2.070978e-03 3.007531e+00 110 112 109
7.581397e-01 -8.227281e-03 3.004526e+00 72 76 77
8.093130e-01 -2.438501e-03 3.006155e+00 74 74 76
7.128005e-01 -8.007038e-03 3.023929e+00 48 52 53
7.525234e-01 -7.153073e-03 3.003626e+00 92 93 88
7.609150e-01 -5.123924e-03 2.991197e+00 95 95 93
7.381806e-01 4.470884e-02 3.033513e+00 46 53 59
7.192051e-01 5.017611e-02 3.047112e+00 57 106 101
8.223072e-01 -1.730576e-01 2.879380e+00 88 85 81
8.639885e-01 -1.777575e-01 2.852654e+00 112 121 123
9.126702e-01 -1.676952e-01 2.863866e+00 115 124 123
8.474881e-01 -1.718967e-01 2.866041e+00 86 87 82
7.246871e-01 -1.596599e-01 2.899744e+00 26 33 51
8.802280e-01 -1.459734e-01 2.870898e+00 44 42 42
8.756580e-01 -1.405647e-01 2.873199e+00 103 104 99
8.365189e-01 -1.376994e-01 2.890348e+00 120 120 118
8.121641e-01 -1.346671e-01 2.899194e+00 110 109 109
7.323793e-01 -1.097905e-01 2.979029e+00 92 88 85
8.624512e-01 -1.325254e-01 2.883622e+00 108 114 110
7.552874e-01 -1.156408e-01 2.952392e+00 91 88 82
8.779356e-01 -1.256848e-01 2.891967e+00 15 14 11
8.616704e-01 -1.284001e-01 2.887145e+00 29 28 24
7.917785e-01 -8.376295e-02 2.985044e+00 126 135 138
7.930690e-01 -8.192026e-02 2.989367e+00 12 20 31
9.035459e-01 -9.977194e-02 2.899242e+00 98 98 98
7.894748e-01 -8.105114e-02 2.985052e+00 32 31 36
8.301379e-01 -8.264898e-02 2.959225e+00 113 120 122
8.268804e-01 -7.531176e-02 2.981291e+00 13 26 27
7.173881e-01 -7.101744e-02 3.015810e+00 30 34 43
7.219630e-01 -7.378467e-02 2.997388e+00 51 54 63
8.402786e-01 -6.551259e-02 2.962702e+00 55 56 56
8.565442e-01 -5.732622e-02 2.976284e+00 42 36 31
8.520415e-01 -7.048302e-02 2.933774e+00 119 122 125
7.228707e-01 -5.737760e-02 3.013060e+00 51 55 58
7.438211e-01 -6.016421e-02 2.995982e+00 56 60 63
7.249942e-01 -5.632454e-02 3.011840e+00 121 121 119
7.264791e-01 -5.474363e-02 3.011236e+00 121 125 121
7.457849e-01 -5.448265e-02 2.998760e+00 102 99 91
7.320615e-01 -5.345995e-02 3.006618e+00 56 57 52
8.142674e-01 -5.384855e-02 2.977894e+00 96 83 77
7.302443e-01 -5.233130e-02 3.008238e+00 122 123 119
8.670741e-01 -5.102662e-02 2.963513e+00 115 117 117
7.545945e-01 -5.474958e-02 2.987215e+00 138 142 144
8.324776e-01 -5.266693e-02 2.967420e+00 49 48 44
7.518504e-01 -5.352526e-02 2.989453e+00 37 36 41
7.184752e-01 -4.730518e-02 3.020183e+00 84 92 97
8.296660e-01 -4.909492e-02 2.975709e+00 57 56 54
8.086635e-01 -4.540772e-02 2.994870e+00 51 46 40
8.512582e-01 -4.585677e-02 2.976977e+00 130 131 126
8.066454e-01 -4.538816e-02 2.993779e+00 47 38 32
8.055776e-01 -4.491122e-02 2.995492e+00 48 43 39
7.396347e-01 -4.914250e-02 3.000838e+00 117 114 107
8.531047e-01 -4.365073e-02 2.972802e+00 56 55 52
7.857985e-01 -5.010047e-02 2.973062e+00 59 61 63
8.466910e-01 -4.388601e-02 2.973424e+00 82 82 80
8.465917e-01 -4.132740e-02 2.974960e+00 55 56 50
8.550962e-01 -3.671943e-02 2.986778e+00 121 116 105
8.858857e-01 -3.471901e-02 2.970831e+00 19 21 18
7.990175e-01 -4.186266e-02 2.973198e+00 125 126 130
8.435172e-01 -3.446121e-02 2.981828e+00 120 119 114
8.467532e-01 -3.334625e-02 2.984040e+00 134 131 127
8.393086e-01 -3.007796e-02 2.971035e+00 44 45 40
7.541714e-01 -2.648424e-02 3.007482e+00 122 122 120
8.584414e-01 -1.274342e-02 3.001568e+00 99 98 103
7.328778e-01 -1.726415e-02 3.015451e+00 92 92 93
7.201378e-01 -1.638184e-02 3.024774e+00 78 86 88
8.538111e-01 -3.968005e-03 3.006057e+00 75 74 78
8.148449e-01 -7.817246e-03 3.002527e+00 64 63 61
7.621558e-01 -1.274735e-02 3.002246e+00 115 117 116
7.412617e-01 -1.218090e-02 3.010952e+00 78 79 74
7.462270e-01 -1.106635e-02 3.011119e+00 80 81 80
8.053743e-01 -4.489975e-03 3.007548e+00 147 147 154
7.268741e-01 -9.503331e-03 3.018851e+00 44 46 45
7.959880e-01 -7.026558e-03 2.994655e+00 68 65 66
7.769954e-01 -8.763988e-03 2.996312e+00 60 61 60
7.980149e-01 -4.894084e-03 2.995876e+00 69 68 73
8.254239e-01 -3.019820e-03 2.991358e+00 137 135 136
8.251523e-01 -2.592669e-03 2.993412e+00 137 135 136
8.254239e-01 -3.019820e-03 2.991358e+00 137 135 136
8.222641e-01 -2.922111e-03 2.994434e+00 121 121 118
8.215733e-01 -2.266617e-02 2.908034e+00 59 57 62
8.557094e-01 3.169248e-03 3.005723e+00 122 119 119
8.543674e-01 3.132207e-03 3.005764e+00 126 130 124
7.793934e-01 -1.741607e-03 3.012762e+00 69 67 67
8.103492e-01 -1.316063e-03 2.997200e+00 73 72 70
8.418298e-01 2.724538e-03 3.001848e+00 56 58 52
7.663683e-01 -5.394109e-03 2.989811e+00 41 43 45
8.433072e-01 5.286165e-03 3.001980e+00 111 105 101
8.273035e-01 3.953326e-03 2.996742e+00 116 118 113
8.273035e-01 3.953326e-03 2.996742e+00 116 118 113
8.206391e-01 4.793200e-03 2.993854e+00 38 40 34
9.126532e-01 -1.774691e-01 2.859067e+00 28 25 22
8.669310e-01 -1.803790e-01 2.850211e+00 117 124 122
9.138100e-01 -1.691153e-01 2.861518e+00 57 61 70
7.738784e-01 -1.576462e-01 2.890532e+00 92 100 103
8.609862e-01 -1.504987e-01 2.871647e+00 109 118 117
8.984787e-01 -1.479347e-01 2.861712e+00 27 36 38
9.121665e-01 -1.388691e-01 2.870678e+00 18 17 12
7.925070e-01 -1.364938e-01 2.909567e+00 38 38 42
8.900795e-01 -1.180079e-01 2.898602e+00 86 83 76
8.588566e-01 -7.787489e-02 2.956691e+00 66 65 63
7.198346e-01 -6.976938e-02 3.015532e+00 48 51 56
8.752078e-01 -6.773024e-02 2.949646e+00 138 144 143
7.251398e-01 -6.482205e-02 2.987093e+00 126 127 126
7.803531e-01 -5.376418e-02 2.983131e+00 126 127 122
7.178075e-01 -4.649687e-02 3.020509e+00 14 17 32
8.479057e-01 -4.404978e-02 2.976079e+00 77 81 80
8.549852e-01 -3.868744e-02 2.984914e+00 65 61 50
8.556890e-01 -3.718459e-02 2.986943e+00 76 64 55
7.916208e-01 -4.041109e-02 2.989664e+00 56 55 61
8.749430e-01 -3.485677e-02 2.966628e+00 52 46 50
8.390356e-01 -1.857936e-02 2.988347e+00 131 132 136
8.369507e-01 -1.542005e-02 3.001447e+00 5 4 10
8.505623e-01 -3.037904e-02 2.930788e+00 5 4 10
8.554452e-01 -1.212450e-02 2.991884e+00 10 9 16
7.304681e-01 -1.500893e-02 3.016214e+00 130 133 134
7.304681e-01 -1.500893e-02 3.016214e+00 130 133 134
8.160166e-01 -7.742314e-03 2.997356e+00 107 106 104
7.518746e-01 -1.345815e-02 3.002763e+00 69 70 66
7.467413e-01 -1.315909e-02 3.006454e+00 123 123 124
7.215995e-01 -1.137806e-02 3.023727e+00 101 101 101
7.505048e-01 -8.996935e-03 3.009260e+00 122 119 118
8.431683e-01 -1.342874e-03 2.998559e+00 130 132 130
7.896602e-01 -6.881724e-03 2.995373e+00 68 66 70
8.604342e-01 3.520087e-03 3.006977e+00 114 117 119
8.249304e-01 3.445522e-03 2.994526e+00 133 132 130
8.242074e-01 1.353073e-02 3.001192e+00 42 49 51
8.694031e-01 2.112159e-02 3.010995e+00 249 253 254
7.414179e-01 1.999532e-02 3.031944e+00 105 116 120
7.904580e-01 1.639803e-02 3.046583e+00 252 254 254
7.688932e-01 -4.653965e-02 2.979263e+00 147 144 145
8.137129e-01 5.929895e-03 3.015419e+00 61 54 45
7.515384e-01 -5.965475e-02 2.989512e+00 100 95 93
7.616135e-01 -4.108990e-02 2.986001e+00 37 36 32
7.272714e-01 -5.977191e-02 3.002900e+00 52 45 43
7.848723e-01 -4.213632e-02 2.985837e+00 123 121 128
9.035764e-01 -1.138301e-01 2.936051e+00 181 172 158
8.534140e-01 -7.562858e-02 2.934993e+00 176 168 164
8.500628e-01 -6.621433e-02 2.940741e+00 115 108 98
7.942757e-01 -4.945667e-02 2.999837e+00 25 27 26
8.389074e-01 -2.432354e-02 2.999117e+00 167 163 161
8.331184e-01 -8.742776e-03 3.019269e+00 68 66 65
7.593511e-01 -5.305248e-03 3.005221e+00 124 119 116
8.266496e-01 2.092819e-02 3.044731e+00 149 144 141
7.180621e-01 -1.260548e-01 2.917393e+00 11 12 17
8.388530e-01 -6.060578e-02 2.963315e+00 119 116 117
7.216749e-01 -5.478870e-02 2.988778e+00 71 67 70
7.645967e-01 -4.218977e-02 2.983010e+00 136 131 126
8.385138e-01 -2.055089e-02 3.006911e+00 80 77 78
7.933009e-01 -8.568183e-03 3.023461e+00 252 254 252
7.541114e-01 -1.329351e-02 3.008315e+00 91 90 84
8.520597e-01 3.530535e-03 3.031369e+00 157 144 135
7.713003e-01 -8.618812e-03 3.012816e+00 121 117 124
7.187709e-01 -9.780363e-02 2.946801e+00 20 17 15
7.664197e-01 -6.908456e-02 2.977781e+00 44 45 40
8.709168e-01 -5.387097e-02 2.982197e+00 151 132 105
8.614096e-01 -1.734795e-02 3.007461e+00 202 194 187
7.769494e-01 -1.264217e-02 3.021184e+00 124 123 136
7.769494e-01 -1.264217e-02 3.021184e+00 124 123 136
7.953625e-01 -9.496480e-03 3.025376e+00 78 71 86
8.472945e-01 1.323176e-03 3.023536e+00 180 168 153
8.396981e-01 8.646687e-04 3.024136e+00 116 109 100
8.437645e-01 2.054067e-03 3.027789e+00 132 124 113
7.382736e-01 -1.054745e-02 3.016913e+00 13 12 15
8.195373e-01 1.015377e-02 3.014666e+00 80 74 64
7.253842e-01 -1.386804e-01 2.907148e+00 42 41 39
7.775127e-01 -4.838367e-02 2.981561e+00 39 33 27
8.244527e-01 -4.208094e-02 2.978043e+00 71 62 53
8.117407e-01 -3.818429e-02 2.981427e+00 151 147 144
8.103823e-01 -3.621037e-02 2.991844e+00 151 147 144
8.659915e-01 -1.406793e-02 3.010886e+00 158 147 141
7.833021e-01 -6.359539e-03 3.090251e+00 249 251 249
7.826918e-01 -6.773541e-03 3.083337e+00 118 105 109
7.467715e-01 -2.477061e-02 3.007344e+00 86 87 94
8.121601e-01 -8.883180e-03 3.013615e+00 151 144 136
8.387116e-01 -3.136245e-04 3.020133e+00 169 161 146
8.523047e-01 5.323974e-03 3.033502e+00 200 189 176
8.611813e-01 6.472595e-03 3.027185e+00 209 203 191
7.161270e-01 -1.215307e-01 2.918448e+00 75 75 83
9.167139e-01 -8.531406e-02 2.935782e+00 215 207 197
7.611936e-01 -6.457511e-02 2.982791e+00 52 46 42
8.494524e-01 -4.648068e-02 2.983984e+00 135 119 103
7.256225e-01 -6.321952e-02 2.977373e+00 97 105 115
7.986477e-01 -4.965698e-02 2.986195e+00 84 67 53
8.038656e-01 -4.892226e-02 2.985748e+00 112 96 82
7.240170e-01 -4.948467e-02 3.011907e+00 42 38 39
7.557384e-01 -4.750968e-02 2.988008e+00 44 37 36
8.767753e-01 -2.777707e-02 3.001140e+00 172 166 159
7.872358e-01 -1.146725e-02 3.084553e+00 68 59 61
8.530239e-01 -8.272060e-03 3.017918e+00 186 175 162
8.302205e-01 -2.982675e-03 3.023369e+00 70 63 55
8.250182e-01 1.213031e-02 3.029643e+00 68 59 55
8.993365e-01 -1.199695e-01 2.898468e+00 106 96 86
8.911890e-01 -9.505034e-02 2.920570e+00 134 121 96
8.911890e-01 -9.505034e-02 2.920570e+00 134 121 96
7.452233e-01 -7.047903e-02 2.979599e+00 40 42 54
8.615072e-01 -5.276323e-02 2.986293e+00 193 186 180
8.615072e-01 -5.276323e-02 2.986293e+00 193 186 180
7.224313e-01 -7.113716e-02 2.973041e+00 32 29 28
7.224313e-01 -7.113716e-02 2.973041e+00 32 29 28
7.163600e-01 -7.419347e-02 2.960039e+00 33 35 47
7.349732e-01 -6.519912e-02 2.982149e+00 31 28 31
7.240985e-01 -6.704137e-02 2.978083e+00 32 29 33
7.564992e-01 -5.744559e-02 2.982580e+00 35 34 33
8.501954e-01 -4.553328e-02 2.980045e+00 185 171 160
7.521672e-01 -5.465731e-02 2.984062e+00 35 30 28
8.536158e-01 -3.839928e-02 2.996800e+00 131 119 97
8.650286e-01 -3.473062e-02 2.988374e+00 165 153 138
8.727302e-01 -1.970091e-02 3.001046e+00 207 201 189
8.379744e-01 -2.366987e-02 2.996966e+00 128 127 122
8.689898e-01 -1.624638e-02 3.010207e+00 157 155 150
8.512932e-01 -2.363962e-03 3.021907e+00 123 112 99
8.504863e-01 -8.487442e-04 3.025333e+00 152 139 130
8.485639e-01 -3.387748e-03 2.999070e+00 132 122 114
7.365908e-01 -1.239561e-02 3.016946e+00 55 47 43
8.259870e-01 -4.820772e-03 2.983473e+00 152 144 132
8.491944e-01 4.875693e-03 3.024732e+00 132 127 123
7.923976e-01 -1.602280e-03 3.020455e+00 115 112 112
7.937512e-01 -4.644997e-04 3.019874e+00 153 148 148
8.079641e-01 5.358632e-05 2.995815e+00 77 62 59
8.865544e-01 -6.339552e-02 2.969902e+00 151 143 124
7.490821e-01 -6.633414e-02 2.979888e+00 46 45 50
8.496365e-01 -5.437313e-02 2.973491e+00 115 103 90
8.501084e-01 -5.273470e-02 2.973356e+00 120 102 91
7.792072e-01 -5.517035e-02 2.981368e+00 56 45 39
8.258076e-01 -4.585748e-02 2.978871e+00 73 66 58
7.974261e-01 -5.411364e-03 3.079863e+00 214 213 217
8.485844e-01 -6.161581e-03 3.020013e+00 113 101 89
8.483257e-01 -4.302777e-03 3.018890e+00 170 159 143
8.064884e-01 -6.330945e-03 3.017007e+00 139 131 128
7.789587e-01 -8.713817e-03 3.023982e+00 33 36 56
7.789587e-01 -8.713817e-03 3.023982e+00 33 36 56
7.403643e-01 -1.558554e-02 3.013388e+00 22 24 28
7.971329e-01 -4.825135e-03 3.027389e+00 232 228 228
7.781717e-01 -7.685909e-03 3.023078e+00 37 33 45
8.422584e-01 3.602861e-03 3.024458e+00 192 183 166
7.467462e-01 -9.635738e-03 3.013164e+00 37 34 37
7.500551e-01 -8.804629e-03 3.010878e+00 95 81 80
8.130902e-01 1.156700e-02 3.020141e+00 156 151 148
7.499297e-01 -6.572280e-02 2.987970e+00 130 131 130
7.652533e-01 -5.136938e-03 3.000722e+00 140 142 141
8.742359e-01 -1.247623e-01 2.892833e+00 43 42 41
7.255648e-01 -1.173807e-01 2.962807e+00 34 34 32
8.163376e-01 -6.205916e-02 2.980177e+00 116 118 116
7.157898e-01 -1.023897e-01 2.975313e+00 64 62 57
8.109039e-01 -6.726170e-02 2.977179e+00 36 38 43
8.499996e-01 -6.611726e-02 2.940267e+00 86 88 87
8.641789e-01 -1.444738e-01 2.880978e+00 26 26 26
8.070808e-01 -6.549322e-02 2.978907e+00 126 128 131
8.270716e-01 -8.076139e-02 2.894657e+00 128 129 130
7.659005e-01 -1.140143e-01 2.938474e+00 111 121 120
7.572391e-01 -5.756787e-03 3.002804e+00 79 78 74
8.504444e-01 -1.681604e-01 2.865125e+00 66 59 56
8.415174e-01 1.314663e-03 2.995682e+00 108 108 106
7.952616e-01 -3.422435e-03 3.001958e+00 87 86 84
7.432525e-01 3.605978e-02 3.057482e+00 34 46 60
7.386125e-01 -1.528524e-02 3.004358e+00 129 137 136
7.279281e-01 -1.707936e-02 3.004015e+00 117 123 123
7.219923e-01 -1.522952e-02 3.004192e+00 35 45 51
7.281880e-01 -5.577311e-02 2.994949e+00 130 135 133
7.304000e-01 -1.802571e-02 3.004052e+00 42 48 55
7.314904e-01 -1.629129e-02 3.016454e+00 42 48 55
7.251558e-01 -1.791870e-02 3.008914e+00 41 50 56
7.330162e-01 -1.379098e-02 3.007074e+00 39 46 56
7.463660e-01 3.859655e-02 3.052797e+00 117 119 116
7.262061e-01 -5.006432e-02 3.003867e+00 128 129 128
7.267415e-01 -2.783752e-02 3.007300e+00 32 40 52
7.352176e-01 4.293063e-02 3.054403e+00 78 79 89
7.240886e-01 -4.835854e-02 3.004129e+00 129 137 140
7.240886e-01 -4.835854e-02 3.004129e+00 129 137 140
7.256487e-01 -3.336118e-02 3.005423e+00 114 122 126
7.348777e-01 -1.457230e-02 3.004402e+00 128 129 124
7.417375e-01 4.461540e-02 3.056837e+00 67 73 79
7.156050e-01 -4.527003e-02 2.993519e+00 83 85 84
8.179020e-01 9.987515e-03 3.035324e+00 121 119 113
7.388186e-01 -1.473910e-02 3.010460e+00 130 137 135
7.418449e-01 -6.318802e-03 3.011730e+00 123 119 111
7.391894e-01 -6.737611e-03 3.011910e+00 115 115 103
7.469049e-01 4.420999e-02 3.054078e+00 144 146 142
7.269971e-01 -7.139540e-02 3.011532e+00 68 68 66
7.223449e-01 -7.361602e-02 3.000319e+00 77 80 79
7.263532e-01 -5.881188e-02 2.991110e+00 131 138 144
7.422280e-01 -4.257770e-02 2.993511e+00 78 78 77
8.559677e-01 1.261478e-02 3.065945e+00 109 116 124
8.281096e-01 1.003491e-02 3.050674e+00 95 95 95
7.363512e-01 -1.385837e-02 3.005664e+00 94 96 93
7.466042e-01 -9.754221e-03 3.010416e+00 127 128 130
7.264536e-01 -1.693394e-02 3.004091e+00 89 89 92
7.445086e-01 -7.519960e-03 3.010077e+00 69 71 68
7.443123e-01 -7.469647e-03 3.006544e+00 69 71 68
7.415922e-01 -7.918445e-03 3.006268e+00 76 77 76
7.418975e-01 -7.676599e-03 3.011541e+00 76 77 76
7.392342e-01 -7.320280e-03 3.013299e+00 82 82 80
7.391824e-01 -7.785441e-03 3.012931e+00 82 82 80
7.431528e-01 -6.307697e-03 3.007286e+00 117 114 102
7.347276e-01 3.632185e-02 3.052982e+00 75 74 79
7.501544e-01 5.112187e-02 3.058480e+00 84 84 92
8.168758e-01 -2.239016e-01 2.811862e+00 43 43 41
7.267931e-01 -7.251902e-02 3.013152e+00 74 74 73
7.238967e-01 -6.233443e-02 2.995850e+00 77 80 83
7.370505e-01 -5.390670e-02 2.986866e+00 119 119 109
7.290014e-01 -4.275817e-02 2.999795e+00 69 70 73
8.284134e-01 2.635034e-03 3.042751e+00 87 92 96
8.297256e-01 6.070531e-03 3.046195e+00 137 141 142
7.332933e-01 -2.028263e-02 3.003527e+00 113 117 113
7.237223e-01 -2.058028e-02 3.018574e+00 125 134 133
7.235167e-01 -1.932412e-02 3.021484e+00 125 134 133
7.302395e-01 -1.516568e-02 3.018167e+00 123 131 132
7.281842e-01 -1.027396e-02 3.019567e+00 96 98 91
7.246362e-01 -1.081846e-02 3.017858e+00 120 121 117
7.326034e-01 3.208833e-02 3.049300e+00 125 127 126
7.424699e-01 4.591634e-02 3.057069e+00 147 148 144
7.406442e-01 4.498586e-02 3.052341e+00 141 146 143
7.367398e-01 4.527073e-02 3.055902e+00 90 97 103
7.284715e-01 -5.955164e-02 2.993619e+00 77 78 80
7.453433e-01 -5.158666e-02 2.983869e+00 143 148 148
7.432780e-01 -5.214791e-02 2.983609e+00 73 74 73
8.537682e-01 2.512634e-02 3.075582e+00 248 252 255
7.210254e-01 -1.800011e-02 3.001938e+00 111 109 110
7.314712e-01 -1.218408e-02 3.017717e+00 73 78 78
7.808042e-01 5.319076e-02 3.233127e+00 128 128 139
7.262157e-01 -3.467894e-03 3.006715e+00 108 110 104
7.250814e-01 3.355750e-02 3.057781e+00 105 111 110
7.438748e-01 4.435899e-02 3.048024e+00 139 141 138
7.417410e-01 4.737651e-02 3.053190e+00 78 84 90
7.416176e-01 4.778243e-02 3.055149e+00 78 84 90
7.414781e-01 5.367916e-02 3.069769e+00 119 117 120
7.980265e-01 4.836802e-02 3.039708e+00 123 126 130
8.121236e-01 4.676043e-02 3.056382e+00 41 59 73
7.954963e-01 -2.124989e-01 2.863815e+00 36 38 41
7.139946e-01 -6.821561e-02 2.991558e+00 127 130 137
7.599465e-01 4.317186e-02 3.047743e+00 62 66 77
7.190865e-01 3.752867e-02 3.055367e+00 45 50 54
7.158121e-01 3.552741e-02 3.054378e+00 124 128 131
8.046230e-01 4.746990e-02 3.037343e+00 126 129 134
7.973256e-01 5.313865e-02 3.042767e+00 102 101 114
8.545304e-01 -1.176550e-01 2.927509e+00 103 106 108
7.169318e-01 -1.118473e-01 2.967025e+00 104 107 114
7.160439e-01 -4.502200e-02 3.005631e+00 136 138 141
7.896204e-01 3.741115e-02 3.084921e+00 193 214 237
7.552482e-01 -1.473751e-01 2.918907e+00 93 93 101
7.176832e-01 -1.121205e-01 2.957033e+00 112 115 119
7.215689e-01 3.967301e-02 3.059540e+00 104 105 109
7.211277e-01 4.358181e-02 3.061709e+00 120 120 123
7.702748e-01 -1.735698e-01 2.897840e+00 112 117 121
7.237719e-01 -1.456980e-01 2.935512e+00 89 98 99
7.314319e-01 -1.461872e-01 2.931197e+00 98 105 112
8.009607e-01 4.853226e-02 3.036760e+00 40 43 52
7.999844e-01 -2.155659e-01 2.865229e+00 30 30 32
7.999844e-01 -2.155659e-01 2.865229e+00 30 30 32
7.454644e-01 -1.916894e-01 2.928163e+00 72 74 73
7.955326e-01 -2.120209e-01 2.867869e+00 89 92 96
8.053222e-01 -1.209127e-01 2.927750e+00 106 101 96
7.197405e-01 -1.228389e-01 2.949896e+00 7 6 1
8.648019e-01 -1.144866e-01 2.916522e+00 126 122 119
8.567972e-01 -1.745916e-02 2.999980e+00 104 113 120
8.424804e-01 5.546544e-03 3.016990e+00 105 108 115
7.389865e-01 3.800966e-02 3.056704e+00 107 106 111
8.150125e-01 4.827998e-02 3.055554e+00 102 109 111
7.378681e-01 4.400621e-02 3.056782e+00 131 131 133
8.212215e-01 5.263363e-02 3.036828e+00 78 78 85
8.093759e-01 5.975145e-02 3.044409e+00 131 132 137
8.164795e-01 6.040082e-02 3.043039e+00 118 121 128
7.256816e-01 -1.437440e-01 2.935335e+00 35 35 37
8.868457e-01 -1.068617e-01 2.954512e+00 122 122 124
8.868457e-01 -1.068617e-01 2.954512e+00 122 122 124
8.509334e-01 -1.182284e-01 2.924645e+00 110 108 108
8.509334e-01 -1.182284e-01 2.924645e+00 110 108 108
8.495130e-01 -9.668982e-02 2.936947e+00 132 133 134
7.860588e-01 -7.305734e-02 2.994591e+00 128 127 131
8.517515e-01 -7.947443e-03 3.011229e+00 100 105 111
7.918841e-01 2.689799e-02 3.068446e+00 212 227 248
7.170971e-01 1.808387e-02 3.042875e+00 104 108 115
7.982628e-01 4.688220e-02 3.039109e+00 116 119 128
7.496504e-01 -1.449467e-01 2.928867e+00 100 102 104
7.363189e-01 -1.419878e-01 2.939797e+00 6 7 11
7.215183e-01 -1.239536e-01 2.947340e+00 14 15 16
8.719724e-01 -1.111249e-01 2.923195e+00 131 126 122
8.473412e-01 2.894502e-03 3.006498e+00 111 112 116
8.315076e-01 4.523592e-03 3.011852e+00 148 146 149
7.914000e-01 4.483942e-02 3.058080e+00 71 82 105
8.103230e-01 5.702539e-02 3.042296e+00 126 129 132
8.229191e-01 5.973108e-02 3.047099e+00 84 85 90
8.269980e-01 6.149075e-02 3.041675e+00 77 81 92
8.653244e-01 -2.353128e-01 2.426550e+00 105 104 109
7.998500e-01 -6.447738e-02 2.996875e+00 131 130 135
7.897519e-01 2.635005e-02 3.085757e+00 217 224 247
7.896720e-01 2.580440e-02 3.080831e+00 93 105 119
7.916254e-01 2.393854e-02 3.069926e+00 93 105 119
7.357335e-01 2.626810e-02 3.046078e+00 118 120 123
7.219532e-01 2.859217e-02 3.053483e+00 44 49 55
7.219532e-01 2.859217e-02 3.053483e+00 44 49 55
7.940742e-01 4.444211e-02 3.038410e+00 201 228 245
7.612466e-01 4.053965e-02 3.045345e+00 122 122 132
7.307016e-01 4.290927e-02 3.057391e+00 132 134 133
7.389518e-01 4.438239e-02 3.055232e+00 138 139 141
8.301480e-01 5.707938e-02 3.050907e+00 89 97 100
8.121173e-01 5.421393e-02 3.041074e+00 140 144 145
8.308997e-01 5.636317e-02 3.038598e+00 93 97 101
8.425196e-01 5.688093e-02 3.031146e+00 101 115 121
7.564863e-01 5.502585e-02 3.058351e+00 183 207 225
8.257133e-01 6.258197e-02 3.042605e+00 86 87 98
7.199514e-01 5.744217e-02 3.075000e+00 69 84 104
7.259510e-01 -1.457876e-01 2.935551e+00 23 25 28
9.028614e-01 -3.980251e-02 2.796480e+00 108 112 115
7.897207e-01 3.502965e-02 3.081293e+00 114 132 147
7.345217e-01 2.225036e-02 3.045655e+00 34 35 36
7.564326e-01 2.199127e-02 3.027072e+00 69 73 76
7.581423e-01 3.143655e-02 3.032637e+00 95 100 103
7.936717e-01 4.338289e-02 3.048286e+00 206 216 248
7.277100e-01 4.302715e-02 3.059364e+00 38 41 36
7.290361e-01 4.344451e-02 3.058633e+00 122 124 122
7.454921e-01 4.587184e-02 3.053796e+00 132 133 135
7.275096e-01 4.576101e-02 3.059855e+00 44 43 48
7.350920e-01 5.095786e-02 3.059726e+00 128 129 134
7.118305e-01 4.983954e-02 3.066440e+00 51 86 109
8.253232e-01 6.322514e-02 3.043057e+00 124 131 140
7.957307e-01 6.203042e-02 3.050103e+00 69 88 105
8.460341e-01 -9.076626e-03 3.012591e+00 115 115 113
8.672887e-01 -3.130995e-02 2.987040e+00 137 139 134
8.478687e-01 -2.029370e-02 3.002298e+00 114 124 123
7.387453e-01 -1.589035e-01 2.895640e+00 109 122 130
7.970514e-01 -1.273820e-01 2.931630e+00 119 120 113
8.348140e-01 -1.319056e-01 2.886815e+00 46 44 39
8.653313e-01 -2.308830e-02 3.005431e+00 141 141 131
8.313396e-01 -9.408608e-04 3.008507e+00 94 96 94
8.412885e-01 5.304096e-05 3.006706e+00 77 79 74
8.493623e-01 2.661420e-03 3.013402e+00 93 99 95
8.582949e-01 4.752433e-03 3.015288e+00 76 81 77
8.520365e-01 6.111183e-03 3.021766e+00 135 137 133
8.392208e-01 3.919083e-03 3.011557e+00 17 16 15
8.482642e-01 6.014904e-03 3.014142e+00 15 15 14
7.225751e-01 -5.140683e-02 3.128288e+00 30 35 48
8.725257e-01 -5.071337e-02 2.979636e+00 133 137 134
8.371404e-01 -3.253359e-03 3.006097e+00 91 93 90
8.155384e-01 5.235555e-02 3.048346e+00 67 69 71
8.118733e-01 5.516175e-02 3.049744e+00 101 104 105
8.517293e-01 -1.220440e-01 2.900380e+00 121 122 117
7.802671e-01 -4.697894e-02 2.985293e+00 69 67 72
8.707289e-01 -3.247369e-02 2.994857e+00 143 142 140
8.741005e-01 -2.946292e-02 3.000317e+00 66 61 58
7.257370e-01 3.426016e-02 3.061314e+00 88 96 92
7.488160e-01 4.212623e-02 3.056136e+00 125 129 128
7.488160e-01 4.212623e-02 3.056136e+00 125 129 128
7.920016e-01 4.769825e-02 3.055828e+00 251 251 250
7.414320e-01 5.390283e-02 3.067203e+00 53 64 67
7.624539e-01 2.559170e-02 2.870795e+00 67 100 105
7.672825e-01 -1.453747e-02 2.999162e+00 143 147 148
8.471410e-01 -3.377754e-03 3.006709e+00 142 145 144
8.708551e-01 6.872047e-03 2.990561e+00 89 91 90
7.169345e-01 3.808719e-02 3.056343e+00 69 82 85
7.445129e-01 4.688870e-02 3.060337e+00 60 66 67
7.455146e-01 -3.667282e-02 3.169214e+00 79 80 79
8.262166e-01 -7.814831e-02 2.983674e+00 13 19 21
7.254862e-01 -3.376795e-02 3.126963e+00 10 8 10
8.727544e-01 -3.276191e-02 3.003259e+00 133 140 138
8.678270e-01 -3.196282e-02 2.999382e+00 49 49 44
8.571888e-01 -2.248750e-02 3.000480e+00 52 50 42
8.375580e-01 1.440406e-03 3.006827e+00 34 36 32
8.467855e-01 7.647200e-03 3.013368e+00 114 111 108
8.365194e-01 1.062388e-02 3.017746e+00 100 100 97
7.097559e-01 3.255106e-02 3.059564e+00 94 118 123
7.403177e-01 5.009077e-02 3.062808e+00 37 48 52
8.818454e-01 -5.183277e-02 2.999280e+00 39 36 29
8.701443e-01 -4.827245e-02 2.988322e+00 133 135 133
8.820463e-01 -4.314279e-02 3.001285e+00 124 126 123
8.805725e-01 -4.132971e-02 3.001890e+00 125 125 124
8.614385e-01 -4.404675e-02 2.987183e+00 115 117 117
8.629083e-01 -4.219716e-02 2.991742e+00 119 122 118
8.753490e-01 -3.668239e-02 3.001517e+00 125 124 118
8.727196e-01 -3.604200e-02 3.000782e+00 59 57 52
8.746244e-01 -3.503382e-02 3.002122e+00 52 52 47
8.706449e-01 -3.396550e-02 3.000706e+00 131 126 120
8.706449e-01 -3.396550e-02 3.000706e+00 131 126 120
8.691859e-01 -3.339603e-02 2.999813e+00 134 128 120
8.704943e-01 -3.291231e-02 3.000961e+00 61 61 56
8.560280e-01 -3.525760e-02 2.988789e+00 132 127 116
8.673375e-01 -3.092158e-02 3.000041e+00 144 145 147
8.640738e-01 -3.212496e-02 2.996874e+00 123 119 113
8.626628e-01 -3.211029e-02 2.995675e+00 118 118 109
8.612621e-01 -3.224794e-02 2.993882e+00 124 119 112
8.619932e-01 -3.069064e-02 2.994936e+00 146 148 151
8.734300e-01 -2.090152e-02 3.018049e+00 25 26 25
8.482006e-01 9.077327e-03 3.028936e+00 28 29 23
8.439192e-01 9.548419e-03 3.024973e+00 39 41 36
8.505844e-01 1.423236e-02 3.035616e+00 97 103 96
8.339918e-01 8.349096e-03 3.014688e+00 54 55 49
8.445671e-01 1.352145e-02 3.027598e+00 50 46 42
8.445671e-01 1.352145e-02 3.027598e+00 50 46 42
8.481099e-01 1.547665e-02 3.033258e+00 44 43 39
7.353248e-01 3.588353e-02 3.050210e+00 112 113 115
7.505200e-01 4.145140e-02 3.055506e+00 110 112 111
8.213298e-01 4.718323e-02 3.043477e+00 134 134 134
8.173773e-01 5.255376e-02 3.047392e+00 119 124 127
7.307354e-01 4.658758e-02 3.064791e+00 121 129 131
8.340680e-01 5.606023e-02 3.044929e+00 15 23 25
8.700619e-01 -5.521082e-02 2.985705e+00 38 30 24
8.643561e-01 -3.466330e-02 2.997168e+00 118 111 101
8.570803e-01 -3.531812e-02 2.989418e+00 74 66 56
8.554300e-01 5.339563e-03 3.032211e+00 125 128 127
8.370921e-01 3.668938e-03 3.007060e+00 127 130 131
8.472944e-01 1.476005e-02 3.032073e+00 53 51 46
8.429465e-01 1.866540e-02 3.031264e+00 103 106 99
8.251666e-01 1.190742e-02 3.001011e+00 131 135 139
8.104423e-01 5.525815e-02 3.050777e+00 84 88 89
7.574241e-01 5.404027e-02 3.065382e+00 249 251 253
7.239808e-01 5.234856e-02 3.071215e+00 216 230 241
7.254128e-01 5.257892e-02 3.070843e+00 229 235 245
7.450276e-01 5.573944e-02 3.067222e+00 226 232 246
8.116695e-01 4.677441e-02 3.078669e+00 67 71 70
7.805906e-01 2.627553e-02 3.036524e+00 245 251 254
7.855240e-01 -6.327581e-04 3.024652e+00 138 131 126
7.183900e-01 4.909428e-02 3.062813e+00 42 37 42
7.292082e-01 6.299600e-03 3.030036e+00 11 14 21
7.288768e-01 3.436936e-02 3.059230e+00 8 11 16
8.362923e-01 -3.785347e-02 2.976579e+00 196 190 195
8.455100e-01 -9.881650e-03 3.012904e+00 183 175 162
7.971999e-01 6.044549e-02 3.072837e+00 109 91 81
8.530502e-01 -4.932455e-02 2.984713e+00 176 166 157
8.509786e-01 -3.383365e-02 2.989984e+00 192 181 177
7.642200e-01 -1.825287e-02 2.996211e+00 122 117 118
8.174347e-01 4.413885e-02 3.070410e+00 143 138 134
7.108074e-01 3.526183e-02 3.056471e+00 45 42 50
8.134931e-01 5.667976e-02 3.073011e+00 186 176 175
7.427212e-01 -7.577152e-02 2.973112e+00 54 54 62
7.112138e-01 -4.919901e-02 2.973950e+00 35 30 29
7.682880e-01 -3.873950e-02 2.978116e+00 44 35 33
7.572752e-01 -1.434242e-02 3.011083e+00 45 37 37
8.175455e-01 -3.812937e-03 3.013870e+00 79 70 61
9.067947e-01 -1.233043e-01 2.895742e+00 166 164 149
7.148369e-01 -1.026907e-01 2.930858e+00 84 99 115
7.105474e-01 -9.469999e-02 2.938866e+00 86 93 109
8.654771e-01 -3.203041e-02 2.994110e+00 221 214 208
7.086299e-01 -5.297458e-02 2.974808e+00 115 119 145
8.382612e-01 -2.877570e-02 2.992885e+00 125 110 91
8.603958e-01 1.172638e-02 3.025725e+00 222 217 214
7.069059e-01 -6.751177e-03 3.023785e+00 23 23 33
8.133928e-01 4.245594e-02 3.068178e+00 64 64 65
9.237262e-01 -1.092344e-01 2.918018e+00 190 183 172
9.097771e-01 -1.141541e-01 2.908800e+00 173 164 152
9.029132e-01 -1.007599e-01 2.916590e+00 153 152 148
7.857046e-01 -6.890636e-02 3.001207e+00 18 19 24
7.100772e-01 -9.087674e-02 2.938527e+00 41 42 47
7.124399e-01 -7.129653e-02 2.953905e+00 21 22 29
7.124399e-01 -7.129653e-02 2.953905e+00 21 22 29
7.188425e-01 -5.677294e-02 2.981121e+00 30 31 34
8.382376e-01 -2.382550e-02 3.001410e+00 167 163 161
8.627586e-01 -1.968208e-02 3.003151e+00 206 200 196
8.331124e-01 -8.744477e-03 3.019248e+00 68 66 65
8.353450e-01 -8.066603e-04 3.024355e+00 115 101 92
8.377847e-01 1.065683e-03 3.022087e+00 115 106 99
7.537223e-01 -9.758323e-03 3.012265e+00 16 14 15
8.535832e-01 7.301491e-03 3.029124e+00 135 125 112
8.452420e-01 5.858621e-03 3.026396e+00 115 105 92
7.714215e-01 -5.069615e-03 3.013586e+00 114 109 105
7.095218e-01 -1.437108e-02 3.000719e+00 114 109 106
7.017440e-01 -8.924068e-03 3.015688e+00 57 60 76
8.653762e-01 1.917094e-02 3.044256e+00 216 208 204
7.875154e-01 2.556394e-02 3.103290e+00 252 254 253
7.981505e-01 4.796934e-02 3.061571e+00 74 69 65
8.217635e-01 6.982997e-02 3.077273e+00 184 181 194
9.076670e-01 -1.364360e-01 2.885065e+00 170 162 154
9.206381e-01 -1.289433e-01 2.900298e+00 189 184 181
9.206381e-01 -1.289433e-01 2.900298e+00 189 184 181
9.338136e-01 -1.216871e-01 2.912319e+00 189 182 176
9.317020e-01 -1.215212e-01 2.908606e+00 141 129 118
9.230262e-01 -1.043391e-01 2.924356e+00 143 128 117
9.250195e-01 -1.021939e-01 2.921121e+00 195 187 174
7.733124e-01 -7.366605e-02 2.953634e+00 47 45 49
7.733124e-01 -7.366605e-02 2.953634e+00 47 45 49
7.752391e-01 -6.340710e-02 2.959719e+00 140 144 156
7.257142e-01 -5.865253e-02 2.980040e+00 48 43 47
7.735641e-01 -5.393156e-02 2.970970e+00 147 151 165
7.535577e-01 -3.209857e-02 3.002966e+00 14 14 17
7.491345e-01 -3.331439e-02 3.001188e+00 14 12 17
7.317394e-01 -2.797536e-02 3.005606e+00 12 10 13
7.028770e-01 -2.645692e-02 3.006519e+00 38 36 46
7.790936e-01 -1.118972e-02 3.019574e+00 252 254 252
8.360816e-01 -1.027965e-03 3.020092e+00 112 98 90
7.281327e-01 -1.329756e-02 3.009547e+00 12 13 15
7.572519e-01 1.275049e-03 3.004444e+00 89 89 92
8.170551e-01 3.423746e-02 3.064355e+00 70 65 62
8.125627e-01 4.565763e-02 3.069364e+00 63 60 62
7.628072e-01 3.958179e-02 3.067754e+00 230 249 252
8.260933e-01 5.026527e-02 3.065366e+00 182 169 156
7.264428e-01 4.321483e-02 3.058773e+00 116 107 104
7.123982e-01 4.631013e-02 3.061018e+00 55 47 53
7.244398e-01 5.061380e-02 3.063963e+00 36 37 58
9.003999e-01 -1.397041e-01 2.879219e+00 147 147 139
9.035936e-01 -9.957651e-02 2.958688e+00 187 180 171
7.077725e-01 -6.553428e-02 2.963123e+00 121 128 146
7.077935e-01 -6.463606e-02 2.966658e+00 121 128 146
7.154857e-01 -6.407608e-02 2.963817e+00 119 132 151
8.349534e-01 -4.250118e-02 2.972614e+00 194 197 204
7.083680e-01 -5.161314e-02 2.970925e+00 26 25 25
8.352759e-01 -3.167647e-02 2.983576e+00 195 189 189
7.490428e-01 -1.570985e-02 3.005543e+00 82 77 74
8.236990e-01 -3.644531e-03 3.006154e+00 120 110 101
7.123676e-01 -1.771511e-02 2.998963e+00 114 112 115
7.038674e-01 -8.448427e-03 3.016975e+00 59 61 86
