ply
format ascii 1.0
element face 0
property list uchar int vertex_indices
element vertex 970
property float x
property float y
property float z
property uchar diffuse_red
property uchar diffuse_green
property uchar diffuse_blue
end_header
4.020731e-01 4.489053e-01 3.124728e+00 48 61 44
3.395074e-01 5.209834e-01 3.112505e+00 38 63 23
4.112846e-01 4.391009e-01 3.124064e+00 83 100 84
4.000080e-01 4.514812e-01 3.124931e+00 21 37 28
4.000080e-01 4.514812e-01 3.124931e+00 21 37 28
3.750664e-01 4.794287e-01 3.123364e+00 41 58 22
3.835186e-01 4.700343e-01 3.124503e+00 69 85 49
3.805571e-01 4.733817e-01 3.124190e+00 36 61 21
3.758509e-01 4.787540e-01 3.123551e+00 37 48 16
3.683448e-01 4.875180e-01 3.122209e+00 26 49 13
3.630689e-01 4.938794e-01 3.120895e+00 42 61 31
3.630689e-01 4.938794e-01 3.120895e+00 42 61 31
3.921785e-01 4.607464e-01 3.125039e+00 16 37 18
3.735743e-01 4.820804e-01 3.123233e+00 92 112 84
3.330808e-01 5.300012e-01 3.109292e+00 68 91 37
3.330808e-01 5.300012e-01 3.109292e+00 68 91 37
3.576171e-01 5.007668e-01 3.119318e+00 15 41 2
3.770607e-01 4.784681e-01 3.123790e+00 32 47 26
4.247555e-01 4.258078e-01 3.122477e+00 74 108 75
3.789315e-01 4.765067e-01 3.124047e+00 92 117 75
3.743770e-01 4.817928e-01 3.123350e+00 22 38 12
3.732634e-01 4.830679e-01 3.123173e+00 28 47 19
3.486243e-01 5.117701e-01 3.116148e+00 21 49 8
3.486243e-01 5.117701e-01 3.116148e+00 21 49 8
3.755776e-01 4.804734e-01 3.123578e+00 26 45 15
3.679599e-01 4.894076e-01 3.122093e+00 37 57 30
4.101099e-01 4.421840e-01 3.124513e+00 30 55 25
4.253628e-01 4.259408e-01 3.122568e+00 21 54 11
4.253628e-01 4.259408e-01 3.122568e+00 21 54 11
3.514369e-01 5.093646e-01 3.117242e+00 20 37 19
3.594867e-01 5.000257e-01 3.119841e+00 37 55 29
3.884384e-01 4.669433e-01 3.125019e+00 27 47 19
3.789385e-01 4.776512e-01 3.124093e+00 13 33 5
3.813716e-01 4.751854e-01 3.124390e+00 96 121 81
3.600189e-01 4.998372e-01 3.120012e+00 30 49 21
3.390391e-01 5.247786e-01 3.112064e+00 54 86 21
4.135140e-01 4.396698e-01 3.124416e+00 88 114 69
3.781659e-01 4.791809e-01 3.123957e+00 32 52 24
3.781659e-01 4.791809e-01 3.123957e+00 32 52 24
3.756750e-01 4.826448e-01 3.123531e+00 48 64 28
3.961887e-01 4.601644e-01 3.125457e+00 129 154 96
3.498549e-01 5.140954e-01 3.116432e+00 105 128 82
4.295079e-01 4.243803e-01 3.122570e+00 43 62 77
4.187239e-01 4.361007e-01 3.124210e+00 27 57 16
3.560076e-01 5.068931e-01 3.118592e+00 98 127 73
3.844164e-01 4.742663e-01 3.124780e+00 110 143 88
3.529543e-01 5.109188e-01 3.117557e+00 106 134 85
3.483784e-01 5.165835e-01 3.115849e+00 110 137 85
4.052817e-01 4.519606e-01 3.125494e+00 128 153 96
3.680324e-01 4.941357e-01 3.121997e+00 51 80 22
3.680324e-01 4.941357e-01 3.121997e+00 51 80 22
3.564293e-01 5.078031e-01 3.118687e+00 53 82 22
3.827788e-01 4.776255e-01 3.124658e+00 101 130 74
3.351959e-01 5.335956e-01 3.109944e+00 91 79 101
3.351959e-01 5.335956e-01 3.109944e+00 91 79 101
3.638942e-01 4.996794e-01 3.120891e+00 49 75 27
4.015524e-01 4.574020e-01 3.125769e+00 51 80 27
3.803637e-01 4.811884e-01 3.124329e+00 37 61 14
3.558029e-01 5.096607e-01 3.118491e+00 36 66 16
3.798193e-01 4.820725e-01 3.124239e+00 30 55 15
3.798193e-01 4.820725e-01 3.124239e+00 30 55 15
3.977832e-01 4.619760e-01 3.125829e+00 130 155 100
3.824542e-01 4.792381e-01 3.124650e+00 65 93 42
3.931295e-01 4.674505e-01 3.125620e+00 62 87 30
3.470903e-01 5.209807e-01 3.115114e+00 137 150 154
3.373436e-01 5.328058e-01 3.110861e+00 114 105 122
4.130087e-01 4.459331e-01 3.125415e+00 52 82 28
3.531790e-01 5.140369e-01 3.117406e+00 132 158 121
3.942407e-01 4.667654e-01 3.125735e+00 139 158 103
3.469164e-01 5.215567e-01 3.115079e+00 56 68 84
4.308094e-01 4.267952e-01 3.123311e+00 34 97 175
3.638683e-01 5.017087e-01 3.120822e+00 135 159 109
3.638683e-01 5.017087e-01 3.120822e+00 135 159 109
3.638683e-01 5.017087e-01 3.120822e+00 135 159 109
3.494884e-01 5.187730e-01 3.116060e+00 49 61 58
4.329541e-01 4.246841e-01 3.123045e+00 15 29 58
3.342137e-01 5.373053e-01 3.109554e+00 122 127 147
3.363243e-01 5.350469e-01 3.110336e+00 113 124 152
3.633805e-01 5.030957e-01 3.120634e+00 55 75 25
3.633805e-01 5.030957e-01 3.120634e+00 55 75 25
3.518626e-01 5.169970e-01 3.116837e+00 153 165 161
3.472624e-01 5.225861e-01 3.115036e+00 126 140 166
3.698205e-01 4.960503e-01 3.122313e+00 64 90 34
4.012267e-01 4.609186e-01 3.126125e+00 73 92 48
3.571417e-01 5.113548e-01 3.118691e+00 47 67 67
4.321067e-01 4.273893e-01 3.123675e+00 33 127 201
4.301589e-01 4.297177e-01 3.123944e+00 4 32 58
3.697481e-01 4.973350e-01 3.122219e+00 85 110 76
3.577868e-01 5.113358e-01 3.118859e+00 200 216 241
3.577868e-01 5.113358e-01 3.118859e+00 200 216 241
3.572784e-01 5.120798e-01 3.118671e+00 212 229 248
3.572784e-01 5.120798e-01 3.118671e+00 212 229 248
4.054407e-01 4.572724e-01 3.126121e+00 21 34 14
3.416420e-01 5.309434e-01 3.112586e+00 56 62 88
4.342035e-01 4.260046e-01 3.123386e+00 56 63 81
4.048087e-01 4.582936e-01 3.126168e+00 41 55 31
3.587028e-01 5.117708e-01 3.119077e+00 207 222 249
3.587028e-01 5.117708e-01 3.119077e+00 207 222 249
3.987213e-01 4.661399e-01 3.126179e+00 115 121 133
3.489214e-01 5.236935e-01 3.115559e+00 137 149 161
4.261478e-01 4.362513e-01 3.124962e+00 157 166 183
4.171646e-01 4.461104e-01 3.125785e+00 19 24 44
3.868889e-01 4.799080e-01 3.125247e+00 159 132 126
3.842947e-01 4.828243e-01 3.124944e+00 31 47 46
3.527180e-01 5.198006e-01 3.116932e+00 113 106 118
3.416851e-01 5.328575e-01 3.112483e+00 64 64 76
4.163948e-01 4.474246e-01 3.125840e+00 142 144 159
3.571380e-01 5.148837e-01 3.118443e+00 42 46 72
3.919012e-01 4.749251e-01 3.125814e+00 37 45 68
3.919012e-01 4.749251e-01 3.125814e+00 37 45 68
3.757265e-01 4.933446e-01 3.123445e+00 132 138 160
4.330366e-01 4.295031e-01 3.124372e+00 115 115 125
4.296327e-01 4.332698e-01 3.124749e+00 20 12 25
3.718702e-01 4.979950e-01 3.122615e+00 130 122 137
4.100714e-01 4.548706e-01 3.126315e+00 27 32 54
4.100714e-01 4.548706e-01 3.126315e+00 27 32 54
3.449610e-01 5.302364e-01 3.113826e+00 114 116 131
3.449610e-01 5.302364e-01 3.113826e+00 114 116 131
4.291191e-01 4.344647e-01 3.124989e+00 38 27 41
3.545854e-01 5.188187e-01 3.117570e+00 20 28 49
4.206903e-01 4.441225e-01 3.125940e+00 39 45 71
3.917505e-01 4.763919e-01 3.125840e+00 59 65 91
4.255036e-01 4.391876e-01 3.125487e+00 152 102 127
4.064229e-01 4.602802e-01 3.126541e+00 144 148 160
3.914844e-01 4.769868e-01 3.125798e+00 125 130 152
3.891617e-01 4.796686e-01 3.125533e+00 126 132 148
3.601575e-01 5.133020e-01 3.119312e+00 113 109 123
3.378674e-01 5.400406e-01 3.110504e+00 137 143 176
3.442335e-01 5.324829e-01 3.113405e+00 119 123 135
3.499695e-01 5.257137e-01 3.115710e+00 80 95 119
4.370419e-01 4.273334e-01 3.124176e+00 59 62 59
3.534312e-01 5.222159e-01 3.117104e+00 22 30 55
3.389443e-01 5.394990e-01 3.111045e+00 36 29 50
4.058217e-01 4.621405e-01 3.126669e+00 81 86 106
3.424243e-01 5.354413e-01 3.112553e+00 57 60 79
4.236201e-01 4.427086e-01 3.125952e+00 118 114 128
4.131929e-01 4.543386e-01 3.126583e+00 22 24 45
4.131929e-01 4.543386e-01 3.126583e+00 22 24 45
4.210177e-01 4.458497e-01 3.126228e+00 202 208 232
4.210177e-01 4.458497e-01 3.126228e+00 202 208 232
4.287190e-01 4.381219e-01 3.125535e+00 115 104 115
3.740282e-01 4.996748e-01 3.122952e+00 37 29 53
3.393092e-01 5.408247e-01 3.111033e+00 89 90 114
3.510696e-01 5.267443e-01 3.116349e+00 194 204 231
3.975983e-01 4.732579e-01 3.126400e+00 60 65 84
3.917728e-01 4.800453e-01 3.125879e+00 53 51 65
3.706512e-01 5.043573e-01 3.122025e+00 71 72 90
3.885983e-01 4.838515e-01 3.125198e+00 72 77 96
4.236388e-01 4.447865e-01 3.126311e+00 147 133 156
3.361839e-01 5.452753e-01 3.109485e+00 151 156 185
4.226189e-01 4.460008e-01 3.126414e+00 224 211 232
3.626201e-01 5.140127e-01 3.119928e+00 33 23 55
4.023404e-01 4.685966e-01 3.126687e+00 212 219 238
4.023404e-01 4.685966e-01 3.126687e+00 212 219 238
3.497230e-01 5.295967e-01 3.115391e+00 178 188 215
3.497230e-01 5.295967e-01 3.115391e+00 178 188 215
4.209430e-01 4.485998e-01 3.126595e+00 125 124 138
4.162489e-01 4.538929e-01 3.126829e+00 39 51 76
3.681269e-01 5.086354e-01 3.121404e+00 148 155 174
3.639814e-01 5.135437e-01 3.120359e+00 173 161 172
3.543275e-01 5.249668e-01 3.117065e+00 23 25 40
3.841779e-01 4.903926e-01 3.124867e+00 128 130 143
3.429105e-01 5.385814e-01 3.112574e+00 171 152 176
3.672172e-01 5.099687e-01 3.121156e+00 28 33 52
4.156121e-01 4.551931e-01 3.126943e+00 29 41 65
3.963103e-01 4.767725e-01 3.126383e+00 47 48 67
4.226927e-01 4.474852e-01 3.126655e+00 56 58 73
3.374192e-01 5.455229e-01 3.110056e+00 50 56 85
3.410529e-01 5.414560e-01 3.111691e+00 91 81 98
4.143749e-01 4.570460e-01 3.126935e+00 68 73 92
4.346467e-01 4.348067e-01 3.125618e+00 42 40 56
3.503448e-01 5.307195e-01 3.115547e+00 214 211 234
3.436696e-01 5.386570e-01 3.112853e+00 40 28 48
4.141522e-01 4.576902e-01 3.127066e+00 189 192 207
4.032597e-01 4.699104e-01 3.126820e+00 47 48 69
3.990575e-01 4.746976e-01 3.126607e+00 57 60 69
3.402513e-01 5.430281e-01 3.111346e+00 133 133 157
3.902106e-01 4.851317e-01 3.125341e+00 69 67 72
3.354988e-01 5.490616e-01 3.109157e+00 118 108 117
4.225851e-01 4.490017e-01 3.126827e+00 125 123 137
3.929426e-01 4.821893e-01 3.125959e+00 195 201 213
3.929426e-01 4.821893e-01 3.125959e+00 195 201 213
3.587418e-01 5.218385e-01 3.118507e+00 50 57 67
4.348992e-01 4.358091e-01 3.125851e+00 37 34 51
3.936845e-01 4.816772e-01 3.126085e+00 38 40 52
4.039939e-01 4.701729e-01 3.126937e+00 173 166 188
3.769316e-01 5.009720e-01 3.123410e+00 73 54 73
3.769316e-01 5.009720e-01 3.123410e+00 73 54 73
3.483935e-01 5.343432e-01 3.114773e+00 39 33 43
3.483935e-01 5.343432e-01 3.114773e+00 39 33 43
3.506651e-01 5.318533e-01 3.115590e+00 59 65 89
3.372767e-01 5.479486e-01 3.109556e+00 89 88 107
4.049931e-01 4.694664e-01 3.127009e+00 55 52 73
4.161914e-01 4.572049e-01 3.127231e+00 54 59 78
3.512290e-01 5.317358e-01 3.115847e+00 197 200 221
3.512290e-01 5.317358e-01 3.115847e+00 197 200 221
3.442668e-01 5.400013e-01 3.112949e+00 91 93 106
3.442668e-01 5.400013e-01 3.112949e+00 91 93 106
3.970818e-01 4.790935e-01 3.126500e+00 132 124 132
3.491277e-01 5.348971e-01 3.114957e+00 27 24 33
4.178725e-01 4.562251e-01 3.127262e+00 36 41 60
4.115812e-01 4.632042e-01 3.127136e+00 53 44 56
3.545723e-01 5.286392e-01 3.116875e+00 138 131 143
3.957654e-01 4.813353e-01 3.126294e+00 40 38 58
3.973365e-01 4.799264e-01 3.126499e+00 47 44 53
3.357296e-01 5.517405e-01 3.108980e+00 91 50 64
3.699854e-01 5.114319e-01 3.121636e+00 134 132 146
3.982311e-01 4.790845e-01 3.126574e+00 37 30 37
4.218470e-01 4.531291e-01 3.128787e+00 156 158 173
3.672030e-01 5.152012e-01 3.120984e+00 130 121 121
3.652046e-01 5.177732e-01 3.120352e+00 63 56 62
3.495688e-01 5.368007e-01 3.114940e+00 28 26 40
4.419387e-01 4.319545e-01 3.125862e+00 81 83 95
4.381653e-01 4.362086e-01 3.126298e+00 89 97 110
4.342632e-01 4.413684e-01 3.126865e+00 114 117 134
3.378401e-01 5.519224e-01 3.109967e+00 49 12 39
3.687217e-01 5.158959e-01 3.121325e+00 99 93 95
3.417278e-01 5.477328e-01 3.111658e+00 128 105 126
3.417278e-01 5.477328e-01 3.111658e+00 128 105 126
4.387856e-01 4.376549e-01 3.126568e+00 35 38 53
3.702996e-01 5.153714e-01 3.121515e+00 129 126 135
3.639683e-01 5.228674e-01 3.119792e+00 113 108 114
3.576829e-01 5.303486e-01 3.117726e+00 148 146 151
4.049617e-01 4.762331e-01 3.126781e+00 127 116 120
3.469482e-01 5.437929e-01 3.113871e+00 171 175 187
4.294285e-01 4.494336e-01 3.127674e+00 96 100 112
3.595003e-01 5.296002e-01 3.118246e+00 112 107 113
3.390159e-01 5.537345e-01 3.110293e+00 34 34 42
3.996046e-01 4.837914e-01 3.126731e+00 195 193 206
3.946914e-01 4.921605e-01 3.126025e+00 130 124 128
4.362336e-01 4.459213e-01 3.127871e+00 89 91 103
4.355454e-01 4.466702e-01 3.127959e+00 88 86 97
4.319411e-01 4.510540e-01 3.128113e+00 50 53 65
3.935631e-01 4.943768e-01 3.125327e+00 128 123 123
4.416889e-01 4.406566e-01 3.127619e+00 43 41 57
3.938298e-01 4.953886e-01 3.125800e+00 64 58 60
4.071654e-01 4.803347e-01 3.127385e+00 162 155 162
4.376120e-01 4.465612e-01 3.128133e+00 24 27 36
4.206458e-01 4.665925e-01 3.128171e+00 96 94 99
4.132901e-01 4.750349e-01 3.127895e+00 59 53 55
3.615384e-01 5.345715e-01 3.119911e+00 162 153 154
4.350518e-01 4.509628e-01 3.128592e+00 54 61 69
3.483257e-01 5.517502e-01 3.113745e+00 84 81 92
3.600378e-01 5.384606e-01 3.119808e+00 141 136 143
4.074987e-01 4.840298e-01 3.127343e+00 171 165 167
3.519960e-01 5.488804e-01 3.115225e+00 109 107 118
3.971274e-01 4.976336e-01 3.125794e+00 129 118 122
3.553648e-01 5.458911e-01 3.116515e+00 92 92 103
4.083537e-01 4.850762e-01 3.127425e+00 142 133 134
3.530577e-01 5.497581e-01 3.115697e+00 113 112 125
3.877848e-01 5.098958e-01 3.124397e+00 53 44 46
4.142360e-01 4.817894e-01 3.128129e+00 35 29 33
3.815825e-01 5.191722e-01 3.123048e+00 163 162 168
3.639342e-01 5.401106e-01 3.119018e+00 119 114 120
3.639342e-01 5.401106e-01 3.119018e+00 119 114 120
4.298495e-01 4.655235e-01 3.129359e+00 100 99 106
4.307155e-01 4.645916e-01 3.129347e+00 102 102 110
4.304822e-01 4.657666e-01 3.129856e+00 182 181 189
3.942518e-01 5.068643e-01 3.125221e+00 166 160 160
3.709948e-01 5.424929e-01 3.121096e+00 138 132 136
4.063177e-01 5.046278e-01 3.126246e+00 76 70 74
4.274859e-01 4.903595e-01 3.128954e+00 133 125 123
4.116753e-01 5.112857e-01 3.125551e+00 133 127 129
4.343373e-01 4.925463e-01 3.129290e+00 80 72 73
4.087389e-01 5.234020e-01 3.124449e+00 149 140 141
4.148845e-01 5.224911e-01 3.124386e+00 97 96 101
4.244652e-01 5.162014e-01 3.125093e+00 141 136 140
4.254048e-01 5.237945e-01 3.123798e+00 79 75 75
4.343315e-01 5.270086e-01 3.122616e+00 151 150 155
4.414931e-01 5.246209e-01 3.123263e+00 112 111 118
4.480288e-01 5.200684e-01 3.134166e+00 141 140 145
4.213795e-01 5.533531e-01 3.128680e+00 109 109 119
4.599835e-01 5.248473e-01 3.135044e+00 153 148 152
3.561145e-01 4.356420e-01 3.115838e+00 205 168 180
3.418701e-01 4.550091e-01 3.114634e+00 185 155 168
3.584235e-01 4.364749e-01 3.116412e+00 194 149 159
3.589249e-01 4.361459e-01 3.116490e+00 196 177 185
3.509133e-01 4.451322e-01 3.116014e+00 202 27 46
3.485339e-01 4.483098e-01 3.115870e+00 187 144 166
3.425002e-01 4.574665e-01 3.115041e+00 255 244 205
3.609400e-01 4.376879e-01 3.117118e+00 184 113 115
3.609400e-01 4.376879e-01 3.117118e+00 184 113 115
3.463756e-01 4.551027e-01 3.115921e+00 145 97 57
3.446716e-01 4.574394e-01 3.115619e+00 138 15 32
3.440445e-01 4.586525e-01 3.115529e+00 255 235 202
3.640716e-01 4.367273e-01 3.117447e+00 144 41 64
3.506428e-01 4.517702e-01 3.116698e+00 135 104 75
3.465308e-01 4.566111e-01 3.116061e+00 187 103 94
3.465308e-01 4.566111e-01 3.116061e+00 187 103 94
3.436176e-01 4.600244e-01 3.115513e+00 165 114 108
3.431419e-01 4.608812e-01 3.115387e+00 210 127 124
3.658214e-01 4.352994e-01 3.117670e+00 255 240 203
3.658214e-01 4.352994e-01 3.117670e+00 255 240 203
3.616743e-01 4.400611e-01 3.117593e+00 253 232 183
3.548823e-01 4.479168e-01 3.117236e+00 134 35 52
3.502194e-01 4.533025e-01 3.116730e+00 145 63 72
3.637982e-01 4.383544e-01 3.117751e+00 253 233 194
3.553998e-01 4.478576e-01 3.117430e+00 169 125 133
3.612411e-01 4.414219e-01 3.117761e+00 238 177 155
3.490708e-01 4.552346e-01 3.116623e+00 209 104 97
3.542462e-01 4.495476e-01 3.117302e+00 135 93 59
3.630809e-01 4.396919e-01 3.117838e+00 168 131 133
3.511571e-01 4.531262e-01 3.116941e+00 135 98 72
3.511571e-01 4.531262e-01 3.116941e+00 135 98 72
3.668634e-01 4.355993e-01 3.117811e+00 146 110 80
3.668634e-01 4.355993e-01 3.117811e+00 146 110 80
3.585422e-01 4.452995e-01 3.117745e+00 198 126 138
3.622947e-01 4.411691e-01 3.117998e+00 148 95 70
3.430177e-01 4.631348e-01 3.115524e+00 167 109 106
3.419279e-01 4.643895e-01 3.115252e+00 163 26 33
3.585054e-01 4.458704e-01 3.117869e+00 166 71 73
3.482193e-01 4.576460e-01 3.116547e+00 190 114 100
3.519061e-01 4.535104e-01 3.117158e+00 255 236 212
3.672895e-01 4.366150e-01 3.118071e+00 131 101 77
3.594942e-01 4.455667e-01 3.117977e+00 177 16 35
3.541143e-01 4.516047e-01 3.117480e+00 157 8 27
3.492992e-01 4.571486e-01 3.116826e+00 130 92 65
3.492992e-01 4.571486e-01 3.116826e+00 130 92 65
3.651046e-01 4.395359e-01 3.118173e+00 255 233 203
3.593101e-01 4.460174e-01 3.117971e+00 202 140 130
3.488451e-01 4.578079e-01 3.116755e+00 141 80 62
3.391228e-01 4.691638e-01 3.114411e+00 169 32 55
3.504008e-01 4.564252e-01 3.117070e+00 253 203 169
3.447123e-01 4.629935e-01 3.116011e+00 166 90 68
3.447123e-01 4.629935e-01 3.116011e+00 166 90 68
3.494108e-01 4.577461e-01 3.116906e+00 255 234 202
3.494108e-01 4.577461e-01 3.116906e+00 255 234 202
3.467363e-01 4.609813e-01 3.116396e+00 255 226 202
3.610114e-01 4.450122e-01 3.118214e+00 255 231 205
3.636818e-01 4.421410e-01 3.118293e+00 90 53 37
3.588927e-01 4.474324e-01 3.118079e+00 255 227 203
3.525259e-01 4.550400e-01 3.117429e+00 165 107 96
3.468598e-01 4.615270e-01 3.116511e+00 132 88 66
3.428620e-01 4.662461e-01 3.115577e+00 226 154 132
3.593519e-01 4.476135e-01 3.118167e+00 120 83 57
3.664659e-01 4.398966e-01 3.118482e+00 255 227 205
3.511324e-01 4.572328e-01 3.117309e+00 246 206 180
3.511324e-01 4.572328e-01 3.117309e+00 246 206 180
3.538685e-01 4.544989e-01 3.117732e+00 255 235 210
3.491068e-01 4.600607e-01 3.116980e+00 255 221 192
3.665254e-01 4.407384e-01 3.118629e+00 143 103 91
3.507980e-01 4.585685e-01 3.117341e+00 137 87 61
3.473152e-01 4.624959e-01 3.116647e+00 255 228 200
3.398658e-01 4.711827e-01 3.114891e+00 148 87 74
3.402629e-01 4.708157e-01 3.114952e+00 180 132 143
3.492036e-01 4.605651e-01 3.117035e+00 111 78 63
3.574651e-01 4.512743e-01 3.118214e+00 137 99 76
3.495845e-01 4.602021e-01 3.117149e+00 125 68 57
3.582164e-01 4.507333e-01 3.118346e+00 154 76 58
3.451873e-01 4.658067e-01 3.116233e+00 191 99 82
3.530930e-01 4.569862e-01 3.117779e+00 156 89 63
3.512996e-01 4.593251e-01 3.117491e+00 108 71 44
3.555862e-01 4.545478e-01 3.118134e+00 255 213 189
3.555862e-01 4.545478e-01 3.118134e+00 255 213 189
3.592913e-01 4.506624e-01 3.118543e+00 171 95 75
3.592913e-01 4.506624e-01 3.118543e+00 171 95 75
3.609745e-01 4.488933e-01 3.118741e+00 158 93 72
3.602399e-01 4.497393e-01 3.118667e+00 150 83 56
3.485225e-01 4.631555e-01 3.116987e+00 255 235 210
3.514692e-01 4.598888e-01 3.117587e+00 253 222 196
3.442031e-01 4.682315e-01 3.116014e+00 255 228 212
3.442031e-01 4.682315e-01 3.116014e+00 255 228 212
3.399051e-01 4.731985e-01 3.114814e+00 167 100 73
3.399624e-01 4.737425e-01 3.114822e+00 254 220 202
3.519451e-01 4.600364e-01 3.117701e+00 127 76 56
3.565246e-01 4.552700e-01 3.118460e+00 251 199 171
3.565246e-01 4.552700e-01 3.118460e+00 251 199 171
3.424958e-01 4.714043e-01 3.115599e+00 125 90 73
3.541864e-01 4.580310e-01 3.118100e+00 253 231 207
3.541864e-01 4.580310e-01 3.118100e+00 253 231 207
3.516253e-01 4.609029e-01 3.117695e+00 255 195 163
3.516253e-01 4.609029e-01 3.117695e+00 255 195 163
3.473903e-01 4.658156e-01 3.116823e+00 106 51 55
3.373343e-01 4.776586e-01 3.114019e+00 116 96 97
3.594970e-01 4.524377e-01 3.118803e+00 173 160 170
3.546404e-01 4.580965e-01 3.118294e+00 138 98 81
3.518569e-01 4.614367e-01 3.117703e+00 181 104 78
3.518569e-01 4.614367e-01 3.117703e+00 181 104 78
3.485744e-01 4.658005e-01 3.117150e+00 156 111 97
3.505367e-01 4.638742e-01 3.117594e+00 247 227 217
3.420496e-01 4.741723e-01 3.115506e+00 251 229 218
3.510316e-01 4.639334e-01 3.117693e+00 111 98 107
3.856517e-01 4.257846e-01 3.118534e+00 143 140 151
3.949050e-01 4.181873e-01 3.117616e+00 138 138 146
3.977317e-01 4.167237e-01 3.117628e+00 113 117 120
3.974797e-01 4.170613e-01 3.117661e+00 105 109 110
3.986188e-01 4.165388e-01 3.117647e+00 104 104 103
3.980113e-01 4.172130e-01 3.117751e+00 179 184 179
3.911314e-01 4.260277e-01 3.119204e+00 182 184 179
3.855046e-01 4.327179e-01 3.120013e+00 111 114 117
4.008439e-01 4.165908e-01 3.117848e+00 75 74 69
3.855693e-01 4.332220e-01 3.120135e+00 141 142 137
3.976465e-01 4.205874e-01 3.118576e+00 68 69 64
3.657755e-01 4.560260e-01 3.120433e+00 216 209 216
3.644167e-01 4.577381e-01 3.120350e+00 209 206 213
3.620263e-01 4.604025e-01 3.120081e+00 216 214 217
3.620263e-01 4.604025e-01 3.120081e+00 216 214 217
3.603732e-01 4.624351e-01 3.119875e+00 210 205 211
3.979047e-01 4.209956e-01 3.118730e+00 120 121 115
3.600273e-01 4.629399e-01 3.119813e+00 214 209 215
3.316206e-01 4.964070e-01 3.111299e+00 195 196 201
3.794514e-01 4.413771e-01 3.120795e+00 207 209 206
3.621852e-01 4.609342e-01 3.120128e+00 145 141 142
3.463410e-01 4.792169e-01 3.116797e+00 202 201 209
3.463410e-01 4.792169e-01 3.116797e+00 202 201 209
3.463410e-01 4.792169e-01 3.116797e+00 202 201 209
3.799301e-01 4.412626e-01 3.120824e+00 102 101 99
3.965931e-01 4.233561e-01 3.119151e+00 68 73 67
3.283920e-01 5.011027e-01 3.109818e+00 158 163 160
3.415491e-01 4.868168e-01 3.115207e+00 109 108 105
3.976274e-01 4.237601e-01 3.119339e+00 69 78 51
3.881447e-01 4.342260e-01 3.120641e+00 73 78 74
3.386039e-01 4.906117e-01 3.114104e+00 167 167 157
3.981736e-01 4.237258e-01 3.119357e+00 124 135 103
3.798710e-01 4.439582e-01 3.121292e+00 148 148 148
3.899360e-01 4.332075e-01 3.120678e+00 109 118 100
3.750507e-01 4.498056e-01 3.121399e+00 157 159 154
4.045411e-01 4.177236e-01 3.118513e+00 46 59 32
4.045411e-01 4.177236e-01 3.118513e+00 46 59 32
3.804111e-01 4.439506e-01 3.121349e+00 107 103 102
3.804111e-01 4.439506e-01 3.121349e+00 107 103 102
3.457713e-01 4.833810e-01 3.116632e+00 146 143 138
3.744522e-01 4.506254e-01 3.121376e+00 140 141 137
3.917145e-01 4.322282e-01 3.120662e+00 38 43 36
3.917145e-01 4.322282e-01 3.120662e+00 38 43 36
3.427768e-01 4.876513e-01 3.115569e+00 70 62 60
4.083108e-01 4.144530e-01 3.117965e+00 111 129 89
4.083108e-01 4.144530e-01 3.117965e+00 111 129 89
3.527709e-01 4.760857e-01 3.118519e+00 84 79 73
3.708271e-01 4.556753e-01 3.121360e+00 77 81 67
3.429608e-01 4.880670e-01 3.115623e+00 143 138 135
3.429608e-01 4.880670e-01 3.115623e+00 143 138 135
3.914262e-01 4.332931e-01 3.120852e+00 63 77 62
3.742279e-01 4.524732e-01 3.121594e+00 140 139 134
3.742279e-01 4.524732e-01 3.121594e+00 140 139 134
4.108556e-01 4.127836e-01 3.117621e+00 95 115 79
3.518454e-01 4.783299e-01 3.118367e+00 136 137 132
3.982441e-01 4.264799e-01 3.120071e+00 108 126 87
3.434841e-01 4.882249e-01 3.115745e+00 75 72 63
4.019979e-01 4.232368e-01 3.119654e+00 45 68 22
3.893548e-01 4.369247e-01 3.121312e+00 124 133 104
4.033347e-01 4.219314e-01 3.119450e+00 100 117 75
3.466298e-01 4.859063e-01 3.116815e+00 111 120 100
3.874613e-01 4.398903e-01 3.121628e+00 79 88 59
3.829105e-01 4.449779e-01 3.121856e+00 125 124 129
4.022197e-01 4.242790e-01 3.119872e+00 55 78 32
3.533363e-01 4.787839e-01 3.118760e+00 103 114 72
3.329981e-01 5.030634e-01 3.111386e+00 86 95 74
3.329981e-01 5.030634e-01 3.111386e+00 86 95 74
3.271354e-01 5.100610e-01 3.108607e+00 47 66 34
4.095560e-01 4.167550e-01 3.118645e+00 33 52 7
3.352078e-01 5.007002e-01 3.112416e+00 48 59 42
3.415773e-01 4.932933e-01 3.114968e+00 96 111 78
3.265297e-01 5.116205e-01 3.108163e+00 108 118 83
4.105267e-01 4.161786e-01 3.118658e+00 102 121 75
3.616249e-01 4.701156e-01 3.120542e+00 116 122 96
3.616249e-01 4.701156e-01 3.120542e+00 116 122 96
3.466862e-01 4.875686e-01 3.116813e+00 52 62 27
3.879261e-01 4.410622e-01 3.121890e+00 80 82 77
3.539523e-01 4.795780e-01 3.118909e+00 103 122 69
3.539523e-01 4.795780e-01 3.118909e+00 103 122 69
3.255026e-01 5.134487e-01 3.107621e+00 97 109 85
3.932973e-01 4.355470e-01 3.121513e+00 53 61 37
3.683599e-01 4.632082e-01 3.121599e+00 65 73 35
3.850522e-01 4.445570e-01 3.122178e+00 98 96 101
4.072177e-01 4.210340e-01 3.119619e+00 47 65 27
4.072177e-01 4.210340e-01 3.119619e+00 47 65 27
3.744006e-01 4.570612e-01 3.122085e+00 68 83 42
3.619781e-01 4.713617e-01 3.120541e+00 73 78 55
3.619781e-01 4.713617e-01 3.120541e+00 73 78 55
3.699038e-01 4.626195e-01 3.121798e+00 63 67 43
3.699038e-01 4.626195e-01 3.121798e+00 63 67 43
3.680019e-01 4.647891e-01 3.121572e+00 60 67 32
3.680019e-01 4.647891e-01 3.121572e+00 60 67 32
3.278250e-01 5.120059e-01 3.108760e+00 51 64 36
4.098513e-01 4.188067e-01 3.119217e+00 87 100 81
3.839544e-01 4.470861e-01 3.122337e+00 97 98 102
3.839544e-01 4.470861e-01 3.122337e+00 97 98 102
3.556552e-01 4.791245e-01 3.119357e+00 71 79 38
3.823362e-01 4.490426e-01 3.122378e+00 82 81 87
3.306082e-01 5.091458e-01 3.110064e+00 55 70 37
3.806749e-01 4.510312e-01 3.122407e+00 96 95 101
3.362925e-01 5.024887e-01 3.112660e+00 102 114 84
4.071593e-01 4.224225e-01 3.119949e+00 48 63 43
3.564182e-01 4.791551e-01 3.119529e+00 65 71 33
4.149714e-01 4.145111e-01 3.118540e+00 106 125 83
4.064919e-01 4.235234e-01 3.120183e+00 65 78 61
3.557507e-01 4.801336e-01 3.119349e+00 65 71 35
3.446770e-01 4.931461e-01 3.115947e+00 63 70 37
3.364467e-01 5.029891e-01 3.112715e+00 51 62 28
3.972438e-01 4.337037e-01 3.121580e+00 105 123 90
3.939758e-01 4.375891e-01 3.121964e+00 121 137 95
3.691332e-01 4.652753e-01 3.121900e+00 62 65 46
3.691332e-01 4.652753e-01 3.121900e+00 62 65 46
4.088804e-01 4.216811e-01 3.119865e+00 53 67 42
3.270976e-01 5.150059e-01 3.108161e+00 43 47 19
3.761317e-01 4.577499e-01 3.122424e+00 123 125 112
3.537761e-01 4.833118e-01 3.118833e+00 101 121 70
3.484128e-01 4.896662e-01 3.117227e+00 62 73 39
3.861943e-01 4.468303e-01 3.122595e+00 140 140 142
3.473700e-01 4.912344e-01 3.116929e+00 56 67 21
3.427692e-01 4.969768e-01 3.115171e+00 53 62 33
3.941221e-01 4.386627e-01 3.122187e+00 70 82 68
3.391998e-01 5.014032e-01 3.113769e+00 52 57 33
3.344674e-01 5.073936e-01 3.111629e+00 123 134 91
3.985535e-01 4.342325e-01 3.121801e+00 132 142 115
3.471456e-01 4.924136e-01 3.116744e+00 105 116 73
3.948656e-01 4.385154e-01 3.122249e+00 124 132 121
3.948656e-01 4.385154e-01 3.122249e+00 124 132 121
3.859663e-01 4.482358e-01 3.122760e+00 140 143 150
3.859663e-01 4.482358e-01 3.122760e+00 140 143 150
3.480484e-01 4.915380e-01 3.117085e+00 42 54 6
3.739372e-01 4.620558e-01 3.122479e+00 57 67 32
3.430187e-01 4.980943e-01 3.115292e+00 55 58 37
3.842288e-01 4.508069e-01 3.122817e+00 77 74 81
3.842288e-01 4.508069e-01 3.122817e+00 77 74 81
3.793681e-01 4.562845e-01 3.122871e+00 141 141 143
3.608735e-01 4.772645e-01 3.120612e+00 118 134 88
3.608735e-01 4.772645e-01 3.120612e+00 118 134 88
4.006750e-01 4.331448e-01 3.121825e+00 102 108 98
4.079748e-01 4.254364e-01 3.120787e+00 115 123 98
4.073517e-01 4.261526e-01 3.120981e+00 98 107 86
3.763492e-01 4.602546e-01 3.122720e+00 50 55 50
3.756791e-01 4.610677e-01 3.122680e+00 50 58 46
3.756791e-01 4.610677e-01 3.122680e+00 50 58 46
3.520621e-01 4.882294e-01 3.118321e+00 57 69 44
3.340364e-01 5.096602e-01 3.111357e+00 36 46 20
4.029029e-01 4.311744e-01 3.121632e+00 117 121 104
4.029029e-01 4.311744e-01 3.121632e+00 117 121 104
4.026113e-01 4.315620e-01 3.121602e+00 47 49 36
3.996954e-01 4.347077e-01 3.122016e+00 152 162 103
3.258619e-01 5.199285e-01 3.107257e+00 128 144 107
3.727697e-01 4.647831e-01 3.122482e+00 70 84 60
3.367066e-01 5.068794e-01 3.112506e+00 73 83 58
4.141112e-01 4.194544e-01 3.119852e+00 42 47 17
4.125426e-01 4.212447e-01 3.120129e+00 116 117 103
4.125426e-01 4.212447e-01 3.120129e+00 116 117 103
3.611109e-01 4.785479e-01 3.120660e+00 54 69 38
4.061567e-01 4.284655e-01 3.121330e+00 30 44 18
3.324740e-01 5.125154e-01 3.110537e+00 118 132 106
3.324740e-01 5.125154e-01 3.110537e+00 118 132 106
4.014585e-01 4.335922e-01 3.121988e+00 43 45 32
3.504057e-01 4.912678e-01 3.117797e+00 56 72 40
3.620642e-01 4.779669e-01 3.120882e+00 114 126 106
3.293083e-01 5.168277e-01 3.108908e+00 100 114 83
3.648270e-01 4.748465e-01 3.121392e+00 121 132 100
3.648270e-01 4.748465e-01 3.121392e+00 121 132 100
3.733396e-01 4.654067e-01 3.122576e+00 42 50 39
3.726016e-01 4.661929e-01 3.122493e+00 50 55 41
3.448623e-01 4.983936e-01 3.115792e+00 114 124 107
3.564049e-01 4.849515e-01 3.119519e+00 131 136 107
3.973878e-01 4.388934e-01 3.122590e+00 63 68 66
3.730915e-01 4.658830e-01 3.122605e+00 102 107 99
3.958192e-01 4.407115e-01 3.122718e+00 74 75 74
3.398766e-01 5.049329e-01 3.113779e+00 71 74 57
3.265651e-01 5.209667e-01 3.107429e+00 84 102 64
3.563865e-01 4.854415e-01 3.119544e+00 63 69 36
3.324104e-01 5.140851e-01 3.110378e+00 46 60 34
3.484854e-01 4.949411e-01 3.117096e+00 111 124 98
3.268731e-01 5.214251e-01 3.107539e+00 43 61 23
3.927592e-01 4.450374e-01 3.123168e+00 157 154 161
3.654642e-01 4.757645e-01 3.121500e+00 117 134 90
4.194634e-01 4.163416e-01 3.119432e+00 66 86 33
3.828587e-01 4.562706e-01 3.123346e+00 94 88 92
3.652409e-01 4.763252e-01 3.121528e+00 65 85 46
3.652409e-01 4.763252e-01 3.121528e+00 65 85 46
3.326697e-01 5.147775e-01 3.110446e+00 82 99 75
3.796947e-01 4.601057e-01 3.123230e+00 43 45 41
3.304665e-01 5.175959e-01 3.109317e+00 44 69 37
3.368397e-01 5.100114e-01 3.112347e+00 47 62 34
3.742020e-01 4.666415e-01 3.122860e+00 117 122 99
3.709231e-01 4.704561e-01 3.122465e+00 84 103 63
3.513840e-01 4.930641e-01 3.117966e+00 62 85 57
3.804984e-01 4.598698e-01 3.123346e+00 141 141 142
3.780927e-01 4.625384e-01 3.123220e+00 47 50 43
3.431878e-01 5.031008e-01 3.114965e+00 104 118 92
3.574505e-01 4.865219e-01 3.119756e+00 73 93 34
3.779946e-01 4.630603e-01 3.123208e+00 154 156 151
3.779946e-01 4.630603e-01 3.123208e+00 154 156 151
3.994584e-01 4.393637e-01 3.122934e+00 186 187 182
3.446170e-01 5.019076e-01 3.115565e+00 53 71 45
3.464786e-01 4.997967e-01 3.116249e+00 56 73 31
3.645637e-01 4.788464e-01 3.121443e+00 77 94 42
4.195888e-01 4.181382e-01 3.120024e+00 158 174 128
3.528087e-01 4.927013e-01 3.118371e+00 121 143 99
3.419490e-01 5.058073e-01 3.114379e+00 45 60 27
3.268177e-01 5.241225e-01 3.107267e+00 31 54 12
3.268177e-01 5.241225e-01 3.107267e+00 31 54 12
3.764503e-01 4.658233e-01 3.123181e+00 97 108 77
3.593811e-01 4.854527e-01 3.120287e+00 57 74 32
3.357718e-01 5.138786e-01 3.111623e+00 11 32 0
3.784032e-01 4.641171e-01 3.123391e+00 81 87 76
3.361591e-01 5.134865e-01 3.111795e+00 97 119 81
3.639806e-01 4.806919e-01 3.121326e+00 117 139 86
3.639806e-01 4.806919e-01 3.121326e+00 117 139 86
3.541427e-01 4.922753e-01 3.118776e+00 57 76 21
3.757339e-01 4.674743e-01 3.123157e+00 118 134 91
3.519469e-01 4.949906e-01 3.118076e+00 100 128 70
3.789263e-01 4.639737e-01 3.123448e+00 186 191 196
3.426291e-01 5.063906e-01 3.114636e+00 41 60 19
3.596119e-01 4.866363e-01 3.120272e+00 122 139 94
3.558894e-01 4.911132e-01 3.119249e+00 104 128 72
3.525931e-01 4.949614e-01 3.118255e+00 62 87 30
3.434988e-01 5.057079e-01 3.114967e+00 112 141 89
3.434988e-01 5.057079e-01 3.114967e+00 112 141 89
3.534113e-01 4.941114e-01 3.118597e+00 108 131 75
4.170788e-01 4.232027e-01 3.121099e+00 39 63 15
4.170788e-01 4.232027e-01 3.121099e+00 39 63 15
4.158551e-01 4.245390e-01 3.121260e+00 48 67 22
3.792067e-01 4.648340e-01 3.123530e+00 36 46 35
3.482578e-01 5.006201e-01 3.116756e+00 125 151 88
3.482578e-01 5.006201e-01 3.116756e+00 125 151 88
3.584629e-01 4.886658e-01 3.119958e+00 108 131 76
3.584629e-01 4.886658e-01 3.119958e+00 108 131 76
4.153853e-01 4.252775e-01 3.121450e+00 42 63 22
3.532600e-01 4.952535e-01 3.118427e+00 114 142 84
3.775963e-01 4.672139e-01 3.123420e+00 145 167 103
3.775963e-01 4.672139e-01 3.123420e+00 145 167 103
3.774896e-01 4.679237e-01 3.123449e+00 116 139 84
3.739944e-01 4.719535e-01 3.123090e+00 93 109 73
3.578449e-01 4.906035e-01 3.119742e+00 114 142 84
3.629764e-01 4.846820e-01 3.121092e+00 67 82 34
4.020382e-01 4.409732e-01 3.123476e+00 132 150 108
3.754267e-01 4.707137e-01 3.123284e+00 39 65 20
3.474406e-01 5.032544e-01 3.116352e+00 136 154 104
4.029374e-01 4.403372e-01 3.123400e+00 34 55 15
3.769005e-01 4.693932e-01 3.123419e+00 31 45 12
3.510470e-01 4.994701e-01 3.117648e+00 134 154 95
3.510153e-01 5.000206e-01 3.117599e+00 63 81 23
3.741750e-01 4.731622e-01 3.123188e+00 23 48 8
3.804289e-01 4.667121e-01 3.123900e+00 53 67 40
3.278586e-01 5.284836e-01 3.107365e+00 121 149 101
3.776241e-01 4.699414e-01 3.123595e+00 54 70 33
3.657583e-01 4.834897e-01 3.121692e+00 131 140 97
4.007058e-01 4.442911e-01 3.123924e+00 102 129 75
3.525318e-01 4.990743e-01 3.118017e+00 100 112 62
3.407036e-01 5.132245e-01 3.113492e+00 55 83 22
3.407036e-01 5.132245e-01 3.113492e+00 55 83 22
4.206966e-01 4.231355e-01 3.121380e+00 58 80 42
4.206966e-01 4.231355e-01 3.121380e+00 58 80 42
4.004154e-01 4.451890e-01 3.123974e+00 56 79 32
4.247219e-01 4.188740e-01 3.120676e+00 76 98 97
3.952770e-01 4.509359e-01 3.124274e+00 160 172 169
3.645949e-01 4.855973e-01 3.121443e+00 63 73 23
3.638766e-01 4.863793e-01 3.121262e+00 48 62 9
3.638766e-01 4.863793e-01 3.121262e+00 48 62 9
3.358934e-01 5.195673e-01 3.111262e+00 58 86 28
3.358934e-01 5.195673e-01 3.111262e+00 58 86 28
3.303806e-01 5.262548e-01 3.108604e+00 32 63 24
3.707117e-01 4.786165e-01 3.122634e+00 111 129 87
3.662367e-01 4.837909e-01 3.121779e+00 62 71 26
3.643187e-01 4.860377e-01 3.121397e+00 111 121 69
3.754736e-01 4.732722e-01 3.123432e+00 106 133 82
3.977169e-01 4.486698e-01 3.124233e+00 53 73 47
3.701938e-01 4.795420e-01 3.122635e+00 110 129 84
3.697731e-01 4.800573e-01 3.122516e+00 31 53 7
3.697731e-01 4.800573e-01 3.122516e+00 31 53 7
3.816218e-01 4.668189e-01 3.124032e+00 98 114 85
4.173487e-01 4.275328e-01 3.122214e+00 12 34 1
3.716894e-01 4.783402e-01 3.122811e+00 35 53 11
3.706170e-01 4.795440e-01 3.122701e+00 50 67 23
3.943750e-01 4.528349e-01 3.124437e+00 45 65 37
3.660361e-01 4.848841e-01 3.121750e+00 45 62 11
3.721037e-01 4.780284e-01 3.122895e+00 91 117 72
3.677240e-01 4.830173e-01 3.122116e+00 53 78 23
4.234806e-01 4.213062e-01 3.121194e+00 10 33 15
4.136121e-01 4.319702e-01 3.122808e+00 106 127 89
3.988301e-01 4.481877e-01 3.124254e+00 110 132 85
3.982801e-01 4.487687e-01 3.124346e+00 102 124 84
3.747855e-01 4.751674e-01 3.123324e+00 44 72 21
3.747855e-01 4.751674e-01 3.123324e+00 44 72 21
3.319936e-01 5.255748e-01 3.109284e+00 19 46 11
4.151583e-01 4.305929e-01 3.122658e+00 44 69 39
4.151583e-01 4.305929e-01 3.122658e+00 44 69 39
4.029356e-01 4.439142e-01 3.124047e+00 99 127 70
3.871112e-01 4.613888e-01 3.124409e+00 57 69 55
3.516514e-01 5.022793e-01 3.117647e+00 36 60 8
3.459456e-01 5.089823e-01 3.115536e+00 32 59 8
3.420704e-01 5.139070e-01 3.113903e+00 52 82 22
3.598076e-01 4.932971e-01 3.120222e+00 138 151 107
4.215521e-01 4.244685e-01 3.121813e+00 88 114 85
4.215521e-01 4.244685e-01 3.121813e+00 88 114 85
4.126418e-01 4.341801e-01 3.123221e+00 26 53 12
4.046369e-01 4.428661e-01 3.124071e+00 27 50 4
3.739125e-01 4.772023e-01 3.123207e+00 40 64 16
3.517810e-01 5.029785e-01 3.117656e+00 18 44 2
3.517810e-01 5.029785e-01 3.117656e+00 18 44 2
3.466944e-01 5.089489e-01 3.115868e+00 78 110 61
3.284157e-01 5.309538e-01 3.107370e+00 46 78 29
3.342557e-01 5.240524e-01 3.110314e+00 48 74 26
4.101687e-01 4.370246e-01 3.123526e+00 37 52 22
4.101687e-01 4.370246e-01 3.123526e+00 37 52 22
4.083244e-01 4.390320e-01 3.123761e+00 39 55 26
4.009679e-01 4.471088e-01 3.124378e+00 40 67 26
3.972569e-01 4.513444e-01 3.124589e+00 37 60 31
3.482230e-01 5.074499e-01 3.116350e+00 92 118 76
3.482230e-01 5.074499e-01 3.116350e+00 92 118 76
3.334124e-01 5.252457e-01 3.109875e+00 179 207 166
3.334124e-01 5.252457e-01 3.109875e+00 179 207 166
3.795681e-01 4.711491e-01 3.123998e+00 95 123 74
3.648414e-01 4.880376e-01 3.121398e+00 61 83 27
3.509392e-01 5.043198e-01 3.117345e+00 92 117 78
3.920449e-01 4.572782e-01 3.124669e+00 53 80 29
3.979059e-01 4.509282e-01 3.124552e+00 91 110 90
4.115240e-01 4.361178e-01 3.123398e+00 77 91 65
4.048277e-01 4.434091e-01 3.124159e+00 83 108 69
3.370210e-01 5.213481e-01 3.111568e+00 30 60 10
3.370210e-01 5.213481e-01 3.111568e+00 30 60 10
3.534112e-01 5.018896e-01 3.118212e+00 97 129 74
3.973624e-01 4.519198e-01 3.124643e+00 79 104 74
3.950868e-01 4.543907e-01 3.124737e+00 82 98 71
4.061739e-01 4.423123e-01 3.124011e+00 83 106 75
3.937012e-01 4.561631e-01 3.124768e+00 72 95 67
4.072486e-01 4.415139e-01 3.124132e+00 28 47 23
3.504872e-01 5.061157e-01 3.117095e+00 43 68 29
3.533897e-01 5.027879e-01 3.118144e+00 76 103 62
3.469636e-01 5.104374e-01 3.115715e+00 46 75 29
4.066314e-01 4.425303e-01 3.124194e+00 42 62 35
4.066314e-01 4.425303e-01 3.124194e+00 42 62 35
3.914517e-01 4.592457e-01 3.124846e+00 102 121 89
3.565451e-01 4.995025e-01 3.119126e+00 84 105 72
4.140723e-01 4.347156e-01 3.123490e+00 25 42 23
3.874358e-01 4.640648e-01 3.124682e+00 132 154 116
3.608150e-01 4.945203e-01 3.120437e+00 19 45 6
3.608150e-01 4.945203e-01 3.120437e+00 19 45 6
3.478843e-01 5.097607e-01 3.116144e+00 89 120 76
4.084867e-01 4.408872e-01 3.124110e+00 30 48 24
3.893234e-01 4.620971e-01 3.124749e+00 48 72 36
3.893234e-01 4.620971e-01 3.124749e+00 48 72 36
3.702529e-01 4.838536e-01 3.122612e+00 104 124 86
3.786877e-01 4.743512e-01 3.123898e+00 94 118 84
3.720716e-01 4.818464e-01 3.122922e+00 98 118 81
4.140475e-01 4.352933e-01 3.123565e+00 97 111 94
3.464940e-01 5.119451e-01 3.115546e+00 29 56 11
3.832380e-01 4.694280e-01 3.124447e+00 113 130 85
3.718967e-01 4.823302e-01 3.122890e+00 31 52 17
3.718967e-01 4.823302e-01 3.122890e+00 31 52 17
3.508669e-01 5.069103e-01 3.117181e+00 38 62 28
4.261279e-01 4.224475e-01 3.121783e+00 24 53 31
4.177362e-01 4.314933e-01 3.123135e+00 29 45 33
4.063008e-01 4.439201e-01 3.124550e+00 89 112 92
4.051718e-01 4.451404e-01 3.124516e+00 30 54 38
3.664725e-01 4.887040e-01 3.121727e+00 24 44 17
3.599252e-01 4.963149e-01 3.120099e+00 74 98 62
4.078289e-01 4.424082e-01 3.124251e+00 32 49 30
3.579796e-01 4.987543e-01 3.119544e+00 99 117 81
3.497540e-01 5.083951e-01 3.116754e+00 106 138 89
4.165470e-01 4.329392e-01 3.123327e+00 26 48 35
4.165470e-01 4.329392e-01 3.123327e+00 26 48 35
4.118601e-01 4.380477e-01 3.123900e+00 95 109 95
3.994736e-01 4.516336e-01 3.124853e+00 90 107 97
4.089939e-01 4.412955e-01 3.124317e+00 81 106 75
4.026783e-01 4.481669e-01 3.124736e+00 30 46 33
3.448254e-01 5.145852e-01 3.114765e+00 28 56 7
3.308487e-01 5.314818e-01 3.108374e+00 108 132 82
3.948673e-01 4.571526e-01 3.124983e+00 79 101 77
3.948673e-01 4.571526e-01 3.124983e+00 79 101 77
3.948673e-01 4.571526e-01 3.124983e+00 79 101 77
3.456276e-01 5.138364e-01 3.115046e+00 89 115 70
3.348427e-01 5.268109e-01 3.110300e+00 122 147 82
3.653136e-01 4.908410e-01 3.121500e+00 88 114 87
3.601416e-01 4.968474e-01 3.120140e+00 32 57 17
3.516863e-01 5.068125e-01 3.117441e+00 118 135 109
4.246704e-01 4.248965e-01 3.122242e+00 6 37 3
4.118548e-01 4.387844e-01 3.124055e+00 20 37 19
3.986619e-01 4.534037e-01 3.124969e+00 94 108 95
3.777241e-01 4.768921e-01 3.123861e+00 92 124 85
3.469957e-01 5.126127e-01 3.115612e+00 25 53 12
3.694895e-01 4.864161e-01 3.122423e+00 112 138 98
3.740622e-01 4.812643e-01 3.123274e+00 88 107 77
3.554497e-01 5.030276e-01 3.118675e+00 111 134 105
3.554497e-01 5.030276e-01 3.118675e+00 111 134 105
3.958653e-01 4.568351e-01 3.125037e+00 91 115 85
3.895886e-01 4.638629e-01 3.124937e+00 32 46 22
3.610434e-01 4.965009e-01 3.120364e+00 91 120 74
3.579312e-01 5.002223e-01 3.119450e+00 59 80 48
3.852150e-01 4.690158e-01 3.124694e+00 33 53 25
3.875504e-01 4.664520e-01 3.124845e+00 46 66 38
3.967658e-01 4.562899e-01 3.125116e+00 82 102 74
3.826439e-01 4.720937e-01 3.124449e+00 23 46 26
3.697334e-01 4.868101e-01 3.122498e+00 11 35 2
4.166512e-01 4.345726e-01 3.123677e+00 89 114 73
3.977314e-01 4.552927e-01 3.125098e+00 97 115 92
3.934241e-01 4.601081e-01 3.125091e+00 75 89 67
3.454505e-01 5.154394e-01 3.114953e+00 41 71 17
3.965563e-01 4.568772e-01 3.125138e+00 24 49 17
3.965563e-01 4.568772e-01 3.125138e+00 24 49 17
3.965563e-01 4.568772e-01 3.125138e+00 24 49 17
3.831347e-01 4.719811e-01 3.124545e+00 70 94 72
3.508981e-01 5.093502e-01 3.117043e+00 68 82 65
3.921059e-01 4.622431e-01 3.125124e+00 18 42 18
3.690611e-01 4.883465e-01 3.122370e+00 31 60 14
3.936871e-01 4.606022e-01 3.125141e+00 32 51 22
3.589732e-01 5.003343e-01 3.119734e+00 79 97 73
4.169223e-01 4.351533e-01 3.123870e+00 42 65 19
4.012384e-01 4.525036e-01 3.125173e+00 34 58 35
3.749497e-01 4.819876e-01 3.123473e+00 98 112 87
3.651759e-01 4.932660e-01 3.121431e+00 31 48 17
4.045677e-01 4.489431e-01 3.125023e+00 84 97 77
4.045677e-01 4.489431e-01 3.125023e+00 84 97 77
3.934342e-01 4.611954e-01 3.125182e+00 80 100 70
3.758591e-01 4.810857e-01 3.123611e+00 85 104 74
3.680848e-01 4.900097e-01 3.122104e+00 91 105 82
3.289834e-01 5.365363e-01 3.107162e+00 23 42 39
3.796411e-01 4.768385e-01 3.124146e+00 85 103 78
3.493506e-01 5.120827e-01 3.116446e+00 77 104 63
3.801238e-01 4.763689e-01 3.124255e+00 27 44 25
3.486524e-01 5.130018e-01 3.116113e+00 88 114 69
3.486524e-01 5.130018e-01 3.116113e+00 88 114 69
4.033376e-01 4.505177e-01 3.125139e+00 93 119 90
4.027648e-01 4.512031e-01 3.125168e+00 22 48 21
3.328275e-01 5.321384e-01 3.109143e+00 129 143 145
3.502999e-01 5.115535e-01 3.116746e+00 75 101 66
3.922418e-01 4.632794e-01 3.125263e+00 90 115 74
3.314390e-01 5.342652e-01 3.108385e+00 89 109 122
3.314390e-01 5.342652e-01 3.108385e+00 89 109 122
3.646116e-01 4.950752e-01 3.121232e+00 39 64 24
3.646116e-01 4.950752e-01 3.121232e+00 39 64 24
4.062916e-01 4.480286e-01 3.125022e+00 86 112 77
4.062916e-01 4.480286e-01 3.125022e+00 86 112 77
3.387132e-01 5.258411e-01 3.111865e+00 34 61 10
3.383434e-01 5.262606e-01 3.111696e+00 105 127 78
3.939028e-01 4.618221e-01 3.125326e+00 46 69 25
3.774008e-01 4.804449e-01 3.123885e+00 114 136 93
3.451850e-01 5.181103e-01 3.114654e+00 54 83 25
4.010689e-01 4.540273e-01 3.125358e+00 83 110 68
3.363796e-01 5.288292e-01 3.110700e+00 18 32 5
3.505457e-01 5.120027e-01 3.116802e+00 24 50 13
4.138295e-01 4.402145e-01 3.124491e+00 53 80 30
4.182454e-01 4.357758e-01 3.124128e+00 78 109 65
3.596962e-01 5.020630e-01 3.119826e+00 34 56 17
3.746870e-01 4.848923e-01 3.123409e+00 103 131 78
3.703650e-01 4.898889e-01 3.122561e+00 101 130 84
3.874940e-01 4.704438e-01 3.125052e+00 37 59 11
3.642301e-01 4.970515e-01 3.121072e+00 89 115 68
3.637447e-01 4.975464e-01 3.120953e+00 42 68 22
3.985292e-01 4.589538e-01 3.125542e+00 64 91 38
3.414688e-01 5.249321e-01 3.112933e+00 52 76 57
3.853219e-01 4.739335e-01 3.124926e+00 52 81 27
4.074524e-01 4.493483e-01 3.125337e+00 56 90 29
4.271257e-01 4.280062e-01 3.123255e+00 3 27 19
3.943438e-01 4.643078e-01 3.125541e+00 72 99 44
4.190023e-01 4.372297e-01 3.124446e+00 105 134 90
4.113265e-01 4.455713e-01 3.125208e+00 59 88 34
3.729045e-01 4.886825e-01 3.123085e+00 117 145 96
4.219578e-01 4.341129e-01 3.124042e+00 103 132 77
4.202301e-01 4.361909e-01 3.124345e+00 112 139 96
3.505562e-01 5.151873e-01 3.116576e+00 53 75 37
4.208413e-01 4.359088e-01 3.124426e+00 49 78 33
4.208413e-01 4.359088e-01 3.124426e+00 49 78 33
3.985801e-01 4.604630e-01 3.125713e+00 129 156 101
3.985801e-01 4.604630e-01 3.125713e+00 129 156 101
3.683115e-01 4.951464e-01 3.122040e+00 115 143 85
3.515984e-01 5.148213e-01 3.116942e+00 65 90 50
3.949348e-01 4.651966e-01 3.125678e+00 141 166 111
3.949348e-01 4.651966e-01 3.125678e+00 141 166 111
3.591085e-01 5.063675e-01 3.119472e+00 51 83 16
4.022541e-01 4.572523e-01 3.125768e+00 118 145 90
4.022541e-01 4.572523e-01 3.125768e+00 118 145 90
3.579960e-01 5.077710e-01 3.119099e+00 55 83 22
3.579960e-01 5.077710e-01 3.119099e+00 55 83 22
4.258457e-01 4.317582e-01 3.123923e+00 21 46 44
3.676411e-01 4.968433e-01 3.121836e+00 78 106 48
4.056962e-01 4.540850e-01 3.125833e+00 68 86 26
3.555166e-01 5.118445e-01 3.118225e+00 52 79 36
3.555166e-01 5.118445e-01 3.118225e+00 52 79 36
3.978028e-01 4.634870e-01 3.125889e+00 127 150 94
4.223734e-01 4.364703e-01 3.124627e+00 22 33 22
3.867754e-01 4.759012e-01 3.125162e+00 46 73 28
3.867754e-01 4.759012e-01 3.125162e+00 46 73 28
4.215782e-01 4.375653e-01 3.124782e+00 23 46 32
4.034875e-01 4.575112e-01 3.125969e+00 51 80 22
4.019259e-01 4.592227e-01 3.125994e+00 121 146 88
3.842738e-01 4.795270e-01 3.124921e+00 110 134 86
4.060292e-01 4.552169e-01 3.125982e+00 76 95 51
3.346605e-01 5.378239e-01 3.109339e+00 14 20 43
4.327161e-01 4.260945e-01 3.123374e+00 12 41 105
4.052889e-01 4.562021e-01 3.126045e+00 69 84 42
4.126571e-01 4.482685e-01 3.125741e+00 82 102 77
4.161422e-01 4.446229e-01 3.125517e+00 30 42 31
4.161422e-01 4.446229e-01 3.125517e+00 30 42 31
3.581976e-01 5.103365e-01 3.118987e+00 59 80 64
3.599993e-01 5.083299e-01 3.119586e+00 31 50 32
3.599993e-01 5.083299e-01 3.119586e+00 31 50 32
3.399600e-01 5.322377e-01 3.111832e+00 29 28 36
4.294478e-01 4.305878e-01 3.124085e+00 8 29 55
3.376637e-01 5.353389e-01 3.110801e+00 7 18 46
3.988665e-01 4.643101e-01 3.126046e+00 105 97 60
4.050151e-01 4.577259e-01 3.126116e+00 93 108 86
3.606470e-01 5.083439e-01 3.119736e+00 122 137 137
3.584862e-01 5.108045e-01 3.119060e+00 175 191 207
3.769602e-01 4.894691e-01 3.123694e+00 100 123 75
3.592221e-01 5.101113e-01 3.119230e+00 19 31 24
3.615843e-01 5.073414e-01 3.120078e+00 124 63 71
3.693273e-01 4.984821e-01 3.122161e+00 98 113 97
3.611426e-01 5.081344e-01 3.119875e+00 34 33 40
3.969496e-01 4.671998e-01 3.126055e+00 129 147 141
3.872980e-01 4.781652e-01 3.125318e+00 64 69 51
3.757513e-01 4.915201e-01 3.123533e+00 22 35 20
3.588675e-01 5.111832e-01 3.119152e+00 24 39 61
3.796429e-01 4.872000e-01 3.124238e+00 22 33 28
3.796429e-01 4.872000e-01 3.124238e+00 22 33 28
3.521586e-01 5.193765e-01 3.116817e+00 22 20 33
3.663281e-01 5.028504e-01 3.121329e+00 141 149 171
3.499189e-01 5.221368e-01 3.115993e+00 95 93 99
4.261590e-01 4.356529e-01 3.124870e+00 124 133 150
4.229612e-01 4.391045e-01 3.125285e+00 67 69 68
3.945508e-01 4.706260e-01 3.125912e+00 48 56 60
3.332315e-01 5.422579e-01 3.108477e+00 126 131 154
3.968424e-01 4.682452e-01 3.126103e+00 130 137 144
4.071166e-01 4.568736e-01 3.126281e+00 136 148 148
3.873998e-01 4.791715e-01 3.125317e+00 132 86 90
4.249934e-01 4.374165e-01 3.125083e+00 39 29 45
3.930951e-01 4.728057e-01 3.125878e+00 36 50 56
3.594837e-01 5.115600e-01 3.119262e+00 218 222 248
3.594837e-01 5.115600e-01 3.119262e+00 218 222 248
3.719450e-01 4.971647e-01 3.122692e+00 149 145 162
3.512473e-01 5.216623e-01 3.116375e+00 22 17 21
3.600178e-01 5.116280e-01 3.119410e+00 26 23 42
3.398198e-01 5.355536e-01 3.111616e+00 35 51 77
3.594368e-01 5.123931e-01 3.119232e+00 220 227 249
3.423463e-01 5.326728e-01 3.112755e+00 129 120 134
4.013174e-01 4.647258e-01 3.126367e+00 127 118 121
4.207224e-01 4.434170e-01 3.125805e+00 82 93 121
4.207224e-01 4.434170e-01 3.125805e+00 82 93 121
4.218984e-01 4.424141e-01 3.125723e+00 32 30 44
3.942353e-01 4.731478e-01 3.126099e+00 131 136 166
3.459363e-01 5.292157e-01 3.114249e+00 22 22 36
4.289140e-01 4.349401e-01 3.125006e+00 157 149 164
3.325120e-01 5.455098e-01 3.108168e+00 158 68 92
4.080756e-01 4.580901e-01 3.126447e+00 40 40 48
3.587486e-01 5.143542e-01 3.118958e+00 27 41 75
3.486040e-01 5.264484e-01 3.115303e+00 58 77 110
4.285999e-01 4.355821e-01 3.125078e+00 207 203 217
4.005109e-01 4.667495e-01 3.126387e+00 42 48 67
3.632493e-01 5.093667e-01 3.120310e+00 27 29 48
4.054413e-01 4.613678e-01 3.126513e+00 134 135 153
4.290458e-01 4.355803e-01 3.125128e+00 89 77 90
4.142136e-01 4.518726e-01 3.126356e+00 54 61 89
4.142136e-01 4.518726e-01 3.126356e+00 54 61 89
4.322476e-01 4.321276e-01 3.124709e+00 61 67 57
3.912505e-01 4.776283e-01 3.125752e+00 123 126 145
3.610852e-01 5.124886e-01 3.119624e+00 144 134 143
3.610852e-01 5.124886e-01 3.119624e+00 144 134 143
3.526298e-01 5.226050e-01 3.116741e+00 41 42 72
4.016010e-01 4.663482e-01 3.126528e+00 185 190 212
4.295953e-01 4.355920e-01 3.125196e+00 143 123 134
4.014012e-01 4.667796e-01 3.126494e+00 55 62 81
4.065923e-01 4.610742e-01 3.126650e+00 66 73 89
3.583596e-01 5.163832e-01 3.118720e+00 10 25 51
3.537953e-01 5.217936e-01 3.117160e+00 130 138 159
3.428316e-01 5.350379e-01 3.112697e+00 114 113 130
4.231868e-01 4.432240e-01 3.125964e+00 37 36 50
4.051882e-01 4.631049e-01 3.126618e+00 68 73 92
3.602900e-01 5.146563e-01 3.119308e+00 60 62 83
3.543112e-01 5.217872e-01 3.117264e+00 8 18 37
4.071108e-01 4.612831e-01 3.126708e+00 117 123 135
4.141375e-01 4.535629e-01 3.126621e+00 139 141 162
4.208126e-01 4.464239e-01 3.126298e+00 189 195 219
4.025956e-01 4.667022e-01 3.126603e+00 105 116 136
3.966150e-01 4.734814e-01 3.126308e+00 125 127 150
3.922361e-01 4.785985e-01 3.125918e+00 122 124 137
3.922361e-01 4.785985e-01 3.125918e+00 122 124 137
4.198181e-01 4.480278e-01 3.126430e+00 153 150 168
4.050168e-01 4.644981e-01 3.126745e+00 75 78 93
4.012705e-01 4.689170e-01 3.126606e+00 39 45 67
4.209630e-01 4.470666e-01 3.126402e+00 30 38 59
3.506561e-01 5.272867e-01 3.116111e+00 18 31 52
4.072018e-01 4.624836e-01 3.126841e+00 91 87 101
4.202770e-01 4.481824e-01 3.126532e+00 22 20 34
