ply
format ascii 1.0
element face 0
property list uchar int vertex_indices
element vertex 932
property float x
property float y
property float z
property uchar diffuse_red
property uchar diffuse_green
property uchar diffuse_blue
end_header
-3.127172e+00 2.240709e+00 1.653486e+00 159 150 141
-3.649644e+00 2.349121e+00 3.881840e+00 115 110 106
-4.038791e+00 2.702585e+00 5.583487e+00 16 12 16
-4.519436e+00 4.631309e+00 4.642375e+00 108 107 108
-2.798981e+00 -9.116782e-01 4.025768e+00 40 36 35
-3.472153e+00 -3.141796e-01 3.675027e+00 111 115 118
-3.494804e+00 -9.132979e-03 3.729721e+00 26 25 28
-3.386330e+00 6.365173e-02 4.242855e+00 47 39 36
-3.602978e+00 1.567299e-01 3.972032e+00 84 77 81
-3.662953e+00 2.293308e-01 5.272650e+00 107 106 111
-3.518918e+00 2.923857e-01 3.544730e+00 32 32 33
-3.075221e+00 2.703390e-01 4.517138e+00 97 97 95
-3.075221e+00 2.703390e-01 4.517138e+00 97 97 95
-2.855396e+00 2.910354e-01 1.489576e+00 127 116 97
-3.529487e+00 5.776804e-01 3.461187e+00 89 79 69
-3.887116e+00 6.445492e-01 6.040913e+00 51 45 51
-3.716077e+00 7.749240e-01 5.285569e+00 38 34 30
-4.072725e+00 2.262326e+00 5.873515e+00 49 41 39
-3.861762e+00 2.238451e+00 5.039959e+00 60 54 54
-3.508165e+00 2.324692e+00 3.065370e+00 59 55 55
-3.018503e+00 2.220565e+00 1.289233e+00 190 184 169
-4.270833e+00 3.170552e+00 5.327929e+00 94 100 111
-4.277340e+00 3.321094e+00 5.321093e+00 100 109 114
-4.277340e+00 3.321094e+00 5.321093e+00 100 109 114
-3.936656e+00 4.663293e+00 4.205701e+00 126 125 134
-3.459991e+00 4.952552e+00 3.889715e-01 195 185 180
-4.439010e+00 5.427563e+00 4.670859e+00 50 47 57
-3.452577e+00 5.779519e+00 -4.943361e-02 249 253 255
-4.564065e+00 6.016568e+00 4.504915e+00 214 226 236
-4.546499e+00 6.015716e+00 4.420024e+00 219 226 233
-3.470181e+00 5.475109e-01 3.071385e+00 46 37 29
-4.464667e+00 2.771259e+00 6.962189e+00 186 212 250
-3.721969e+00 5.289569e+00 1.406708e+00 101 88 79
-4.464149e+00 5.482872e+00 4.712481e+00 105 99 93
-3.601176e+00 5.721628e+00 2.934147e-01 154 169 230
-4.517890e+00 5.219955e+00 1.883662e+00 169 171 223
-4.032711e+00 3.114596e+00 5.013704e+00 45 63 125
-5.013760e+00 6.493411e+00 5.986487e+00 172 187 244
-5.013760e+00 6.493411e+00 5.986487e+00 172 187 244
-4.280441e+00 -3.320737e+00 -2.426737e+00 80 82 159
-3.175013e+00 -6.169997e-01 3.003056e+00 48 63 129
-2.783238e+00 -4.393105e-01 3.694480e+00 161 170 226
-3.727427e+00 4.426149e+00 7.977402e-01 45 56 126
-3.194686e+00 -3.709985e-01 3.311937e+00 145 155 214
-3.352501e+00 -1.059462e-01 2.993362e+00 70 80 142
-3.158710e+00 2.830063e-02 4.456213e+00 183 189 237
-3.333600e+00 1.244725e+00 2.608433e+00 120 122 173
-3.359278e+00 2.065555e+00 2.713091e+00 156 162 210
-3.623154e+00 4.097000e+00 1.232356e+00 165 176 218
-3.902545e+00 6.371306e+00 1.359331e-01 152 167 239
-4.257719e+00 -3.482484e+00 -2.378929e+00 91 85 152
-1.633464e+00 -2.978028e+00 7.263302e-01 176 177 225
-3.305917e+00 -8.734927e-03 2.961699e+00 179 180 213
-4.007996e+00 2.762079e+00 6.213019e+00 176 185 226
-2.460754e+00 -1.280818e+00 3.562113e+00 152 155 196
-3.176996e+00 -5.622199e-01 3.443698e+00 41 43 117
-3.413208e+00 -6.440199e-02 3.170095e+00 170 177 231
-3.414597e+00 -5.752205e-02 3.464315e+00 168 181 227
-3.446498e+00 5.614195e-02 3.402598e+00 46 54 127
-3.588044e+00 6.715661e-02 3.693303e+00 52 58 137
-3.129212e+00 1.593527e+00 1.501823e+00 80 80 144
-3.096995e+00 1.718501e+00 1.517756e+00 76 69 136
-2.834620e+00 2.105095e+00 5.226875e-01 82 85 144
-2.991538e+00 2.220087e+00 1.103449e+00 189 196 238
-3.766288e+00 4.259092e+00 8.164921e-01 46 48 122
-4.042663e+00 -2.727257e+00 -2.800249e+00 184 187 234
-2.412731e+00 -1.799035e+00 3.405042e+00 80 89 154
-2.126057e+00 -1.821776e+00 2.150074e+00 68 82 147
-2.067051e+00 -1.802003e+00 2.405266e+00 68 75 140
-2.712785e+00 -1.037991e+00 3.788437e+00 151 165 225
-2.564376e-01 -5.779237e-01 4.002547e+00 50 63 133
-3.513034e+00 -5.134546e-01 3.892282e+00 50 60 132
-3.528565e+00 -5.130903e-01 3.886774e+00 50 60 132
-3.458563e+00 -1.403040e-01 4.682828e+00 104 99 166
-3.250797e+00 -1.638167e-01 2.617160e+00 172 176 223
-3.582083e+00 1.959481e-01 4.803457e+00 145 148 199
-3.583728e+00 5.216161e-01 3.629923e+00 168 171 207
-3.567414e+00 5.891708e-01 3.504619e+00 164 160 201
-3.056347e+00 2.048779e+00 1.488100e+00 118 113 166
-3.800701e+00 2.140384e+00 5.057008e+00 166 172 220
-3.990489e+00 2.317382e+00 4.985428e+00 179 183 230
-3.637706e+00 2.350407e+00 3.891586e+00 186 190 235
-3.149632e+00 2.493677e+00 1.697356e+00 90 90 146
-4.617016e+00 2.592105e+00 6.961491e+00 242 254 254
-3.852670e+00 2.689502e+00 4.834970e+00 111 120 186
-3.865243e+00 2.689655e+00 4.918414e+00 67 79 152
-3.990864e+00 2.700319e+00 5.330132e+00 94 106 169
-4.456443e+00 2.833378e+00 6.863202e+00 247 255 255
-4.139310e+00 5.014233e+00 3.868425e+00 243 255 254
-3.411132e+00 5.562186e+00 -9.076772e-02 79 78 157
-3.621849e+00 5.817153e+00 2.857840e-01 123 124 188
-4.788326e+00 -3.033519e+00 -2.787619e+00 235 232 255
-4.622287e+00 -2.949317e+00 -3.721240e+00 252 254 255
-4.800950e+00 -2.925963e+00 -2.818044e+00 95 91 159
-2.316537e+00 -1.807723e+00 2.831320e+00 56 65 130
-3.222045e+00 -6.793620e-01 3.036412e+00 153 156 222
-3.589467e+00 -2.759586e-01 6.816498e+00 88 90 155
-3.361174e+00 -3.213154e-01 3.584863e+00 192 203 255
-3.518585e+00 8.609421e-02 4.019802e+00 180 180 230
-3.443839e+00 6.024627e-01 3.212847e+00 49 49 101
-3.681140e+00 7.522609e-01 5.237690e+00 134 137 192
-2.872392e+00 2.553435e+00 5.967920e-01 183 174 237
-2.898098e+00 2.576581e+00 6.775786e-01 181 183 232
-4.049934e+00 2.709383e+00 5.890855e+00 165 180 235
-5.605360e+00 4.863950e+00 1.951699e+00 239 254 255
-4.350421e+00 5.671331e+00 2.012266e+00 241 254 255
-3.933207e+00 6.502349e+00 1.292887e-01 123 129 184
-4.751397e+00 -2.834546e+00 -2.823730e+00 173 172 223
-3.070600e+00 -7.854220e-01 3.234237e+00 140 153 215
-3.462664e+00 -1.883867e-01 3.346255e+00 2 10 73
-3.741945e+00 2.573000e-01 5.286289e+00 102 117 177
-3.565045e+00 3.359355e-01 3.525816e+00 198 205 247
-3.338969e+00 8.972064e-01 3.656790e+00 133 139 186
-3.496308e+00 1.209225e+00 3.973226e+00 230 229 254
-3.999968e+00 1.796157e+00 6.477957e+00 146 152 205
-3.173343e+00 1.855695e+00 1.439630e+00 49 50 106
-2.970786e+00 2.011219e+00 1.245582e+00 145 141 191
-2.965692e+00 2.063688e+00 1.255941e+00 108 108 160
-3.397168e+00 2.162452e+00 2.870165e+00 198 200 251
-3.521616e+00 2.321243e+00 3.344018e+00 216 219 255
-3.526145e+00 2.330770e+00 3.371407e+00 80 70 129
-2.946502e+00 2.637130e+00 1.908846e+00 202 205 251
-4.411277e+00 2.815037e+00 6.883470e+00 243 254 251
-4.380642e+00 3.905465e+00 5.379643e+00 124 130 184
-4.285724e+00 4.312150e+00 4.639552e+00 142 145 200
-5.635789e+00 4.822735e+00 2.006401e+00 138 139 198
-4.691117e+00 5.578370e+00 5.838546e+00 180 180 232
-4.227858e+00 5.946315e+00 1.921461e+00 115 116 181
-3.965078e+00 5.967706e+00 1.937405e+00 230 249 255
-2.311394e+00 -1.753286e+00 2.959765e+00 28 29 93
-1.934690e+00 -1.797385e+00 1.217126e+00 62 81 142
-1.986822e+00 -1.478295e+00 1.121721e+00 69 69 121
-3.409420e+00 4.795775e-02 3.345427e+00 164 169 225
-3.225844e+00 6.535192e-02 2.632919e+00 50 40 94
-3.316716e+00 1.862125e-01 3.009375e+00 17 17 82
-3.856093e+00 3.071725e-01 5.699241e+00 112 118 180
-2.988758e+00 4.775801e-01 2.383329e+00 124 132 181
-4.097572e+00 2.089339e+00 5.871242e+00 39 41 103
-4.087383e+00 2.108389e+00 5.974672e+00 153 155 203
-3.471868e+00 2.134225e+00 4.374398e+00 115 118 171
-3.471868e+00 2.134225e+00 4.374398e+00 115 118 171
-2.957213e+00 2.112305e+00 2.047921e+00 156 155 202
-3.621427e+00 2.251703e+00 3.971956e+00 102 101 158
-2.911542e+00 2.538642e+00 7.872502e-01 186 195 249
-3.002285e+00 2.615113e+00 2.020650e+00 166 166 232
-3.870651e+00 2.711269e+00 5.035850e+00 187 191 243
-3.850909e+00 2.724487e+00 4.967491e+00 75 80 134
-3.941438e+00 2.773119e+00 6.178931e+00 156 165 221
-3.565930e+00 2.756482e+00 4.579082e+00 133 135 192
-3.998447e+00 2.792660e+00 6.259670e+00 87 93 148
-4.405013e+00 2.928730e+00 6.929126e+00 235 249 255
-3.443588e+00 5.073369e+00 2.585096e-01 174 185 241
-3.728375e+00 5.162429e+00 1.361775e+00 184 185 226
-4.488861e+00 5.222257e+00 5.005050e+00 129 133 171
-4.453097e+00 5.279241e+00 4.801354e+00 165 163 211
-4.383824e+00 5.512115e+00 4.443921e+00 150 152 200
-4.384180e+00 5.551826e+00 4.452992e+00 142 142 197
-3.365747e+00 5.747208e+00 -7.559950e-02 248 255 255
-4.168099e+00 2.171409e+00 6.097634e+00 69 79 121
-3.612843e+00 3.733521e+00 5.920406e-01 34 54 107
-3.655866e+00 3.908693e+00 5.795841e-01 36 53 105
-3.143310e+00 -5.509149e-01 3.231509e+00 37 53 102
-4.478333e+00 2.860833e+00 6.964360e+00 242 255 255
-3.636200e+00 3.568354e+00 8.401803e-01 31 51 104
-3.460352e+00 3.571747e+00 1.012819e+00 151 176 212
-1.500612e+00 -2.974585e+00 5.142444e-01 180 202 226
-1.910146e+00 -1.795678e+00 1.175586e+00 162 192 228
-2.209466e+00 -1.712473e+00 2.505960e+00 64 74 117
-2.691055e+00 2.603156e+00 4.815347e-01 173 189 221
-4.598063e+00 4.956921e+00 5.028478e+00 152 180 202
-4.422336e+00 5.207614e+00 4.620282e+00 182 201 231
-3.457034e+00 1.280719e-01 3.704129e+00 162 187 226
-3.473210e+00 3.036423e-01 3.343877e+00 176 208 230
-2.722399e+00 9.312177e-01 2.113119e+00 189 203 234
-3.267991e+00 2.158767e+00 2.618817e+00 47 58 115
-3.966768e+00 2.755036e+00 5.518485e+00 157 178 202
-4.043392e+00 -3.484031e+00 -3.131886e+00 60 74 110
-2.276983e+00 -9.255581e-01 2.068779e+00 56 79 120
-3.261424e+00 -2.569631e-01 2.940901e+00 21 35 79
-3.494629e+00 1.088600e-01 3.651459e+00 9 26 69
-3.582113e+00 5.737556e-01 3.547927e+00 31 47 76
-3.049654e+00 1.852116e+00 8.472997e-01 34 41 91
-3.193051e+00 1.963351e+00 1.687806e+00 27 35 79
-2.995393e+00 2.124758e+00 1.118623e+00 91 104 146
-3.065874e+00 2.131942e+00 1.504568e+00 99 113 151
-3.419541e+00 2.125248e+00 2.885748e+00 173 197 232
-3.013724e+00 2.636489e+00 2.080581e+00 71 97 149
-3.752435e+00 2.672142e+00 4.769947e+00 71 98 152
1.620598e+01 -8.235222e-01 1.046357e+01 242 252 254
1.620598e+01 -8.235222e-01 1.046357e+01 242 252 254
-2.687780e+00 -1.043363e+00 3.626771e+00 155 186 232
-3.163713e+00 -6.206550e-01 2.921926e+00 34 48 98
-3.542550e+00 -4.484258e-01 3.890331e+00 21 45 89
-3.211525e+00 -2.636021e-01 2.680961e+00 34 53 107
-3.281106e+00 3.151788e-01 2.765366e+00 25 38 74
-2.694303e+00 1.161380e+00 6.531754e-01 23 36 101
-4.396934e+00 3.514930e+00 6.470541e+00 95 117 164
1.625102e+01 -8.149679e-01 1.047429e+01 191 197 221
-1.997534e+00 -1.780268e+00 1.808191e+00 146 169 215
-2.050658e+00 -1.527604e+00 1.333265e+00 24 37 79
-3.355003e+00 -1.036429e-01 3.232962e+00 39 58 97
-3.528581e+00 -1.004408e-01 4.039264e+00 161 185 218
-3.038131e+00 1.865492e+00 1.592559e+00 184 201 231
-2.706546e+00 1.993692e+00 -2.905004e-01 232 250 255
-3.032562e+00 2.018017e+00 1.628589e+00 110 137 166
-2.753926e+00 2.110833e+00 -2.271613e-01 236 250 255
-4.140631e+00 3.751852e+00 4.632221e+00 111 133 179
-5.793369e+00 4.503608e+00 2.048785e+00 224 252 255
-4.442171e+00 4.531649e+00 5.302535e+00 102 124 170
-4.436709e+00 5.678573e+00 2.077222e+00 216 252 255
1.625315e+01 -8.145044e-01 1.047572e+01 234 244 252
1.625315e+01 -8.145044e-01 1.047572e+01 234 244 252
-1.918854e+00 -3.114401e+00 2.460355e+00 163 188 229
-1.972521e+00 -1.836357e+00 1.772346e+00 71 100 144
-2.156233e+00 -1.471895e+00 2.180461e+00 105 129 162
-3.898082e+00 2.450320e-01 6.044040e+00 127 148 186
-3.785935e+00 3.289845e-01 5.299419e+00 156 179 221
-3.391725e+00 6.084430e-01 4.106054e+00 121 137 175
-3.784318e+00 6.532344e-01 5.901996e+00 114 131 167
-3.454276e+00 8.861144e-01 4.158635e+00 137 151 188
-3.268419e+00 1.166086e+00 3.731657e+00 146 175 209
-4.348834e+00 1.536382e+00 6.813148e+00 138 164 199
-2.938341e+00 2.036178e+00 1.017645e+00 110 134 167
-3.438780e+00 2.080903e+00 4.389194e+00 121 144 176
-2.904684e+00 2.208727e+00 7.593320e-01 108 125 158
-3.838833e+00 2.241742e+00 5.458600e+00 169 189 222
-4.012243e+00 2.333093e+00 5.931256e+00 125 140 173
-2.844364e+00 2.573358e+00 6.898466e-01 163 181 217
-2.956454e+00 2.666787e+00 1.969873e+00 112 126 171
-3.933594e+00 2.715404e+00 5.409405e+00 159 184 219
-3.918604e+00 2.788081e+00 6.193051e+00 75 99 134
-4.470080e+00 2.934631e+00 6.897905e+00 125 155 179
-3.197827e+00 4.082564e+00 -1.949167e-01 231 254 255
-4.670512e+00 5.577722e+00 5.931216e+00 118 141 179
-3.554978e+00 4.955374e+00 -1.336383e-01 142 157 211
-3.132935e+00 1.939288e+00 1.553457e+00 163 173 204
-2.920158e+00 2.011706e+00 7.066244e-01 105 109 159
-4.072849e+00 3.778842e+00 1.388247e+00 47 53 127
-4.338654e+00 6.032914e+00 4.197384e+00 118 134 206
-3.857852e+00 4.747346e+00 1.505065e+00 149 160 203
-4.975968e+00 -2.873176e+00 -3.009536e+00 164 172 216
-3.319151e+00 -2.177607e-01 3.387748e+00 167 184 229
-3.403445e+00 -1.786065e-01 3.484582e+00 18 30 82
-3.387233e+00 -1.009035e-01 3.138814e+00 49 60 123
-3.079337e+00 1.527740e+00 1.522049e+00 53 54 119
-2.933753e+00 2.071700e+00 8.076293e-01 175 184 225
-4.085285e+00 2.768327e+00 5.838603e+00 174 178 223
-3.098298e+00 2.723318e+00 1.011195e+00 177 200 246
-1.745742e+00 -1.825118e+00 6.546735e-01 53 58 128
-3.271067e+00 -2.396633e-01 3.016804e+00 33 49 95
-3.482621e+00 6.015222e-01 3.147314e+00 178 183 211
-3.378230e+00 2.165310e+00 2.831897e+00 72 70 128
-2.941468e+00 2.564582e+00 8.888680e-01 34 39 114
-2.939628e+00 2.568672e+00 9.383592e-01 157 160 213
-4.757881e+00 5.022632e+00 6.667153e+00 139 157 226
-3.475112e+00 5.080553e+00 2.706757e-01 36 49 125
-2.296193e+00 -1.807726e+00 2.839573e+00 40 57 121
-1.742821e+00 -1.824868e+00 6.564450e-01 51 57 126
-3.510019e+00 -2.319638e-01 4.027791e+00 172 180 241
-3.531079e+00 -2.833022e-02 3.653691e+00 1 10 62
-3.463026e+00 6.035784e-01 3.204091e+00 40 51 89
-3.813902e+00 2.110413e+00 4.813846e+00 95 101 147
-3.028795e+00 2.266370e+00 1.295361e+00 85 91 141
-4.802534e+00 4.450837e+00 6.630944e+00 236 253 255
-1.549077e+00 -2.987179e+00 5.707309e-01 175 182 221
-1.994901e+00 -1.778933e+00 1.443429e+00 54 61 125
-2.208476e+00 -9.539617e-01 1.278299e+00 156 165 218
-3.124124e+00 -5.058840e-01 3.039322e+00 28 42 94
-3.393887e+00 -1.891892e-01 3.273484e+00 18 22 85
-3.379136e+00 -1.026055e-01 3.223380e+00 42 50 97
-2.984957e+00 2.001256e+00 1.048925e+00 61 69 116
-2.824873e+00 2.078224e+00 5.874103e-01 157 161 208
-2.851661e+00 2.083500e+00 5.725338e-01 157 161 208
-3.077608e+00 2.116073e+00 1.556089e+00 187 195 242
-3.082837e+00 2.130467e+00 1.579033e+00 92 102 150
-2.889312e+00 2.139653e+00 8.689939e-01 192 199 241
-3.138986e+00 2.280277e+00 1.447594e+00 60 59 111
-3.425638e+00 2.479131e+00 4.353438e+00 115 121 163
-3.176025e+00 2.862098e+00 2.169040e+00 126 133 185
-5.803137e+00 4.471386e+00 1.978663e+00 134 117 224
-4.366849e+00 5.064831e+00 4.632516e+00 125 131 173
-4.380796e+00 5.204277e+00 6.300099e+00 120 135 185
-4.544447e+00 5.292273e+00 5.605609e+00 112 114 151
1.721986e+01 -3.962134e-01 1.048967e+01 12 8 40
-1.868369e+00 -2.957464e+00 2.640471e+00 158 159 218
-2.096652e+00 -1.852897e+00 2.058218e+00 172 175 224
-2.291747e+00 -1.758260e+00 3.093147e+00 138 144 202
-1.902969e+00 -1.807617e+00 1.138876e+00 168 177 237
-2.098093e+00 -1.748185e+00 2.300123e+00 143 145 214
-3.424097e+00 6.177127e-01 3.107820e+00 173 172 201
-3.719422e+00 7.770192e-01 5.301447e+00 137 144 186
-3.444376e+00 7.937867e-01 4.180122e+00 171 180 223
-3.339986e+00 1.141816e+00 4.702262e+00 148 155 205
-3.062170e+00 1.403071e+00 1.044833e+00 167 171 232
-2.845606e+00 2.015851e+00 8.889494e-01 162 175 207
-2.882415e+00 2.133821e+00 9.510562e-01 163 170 213
-2.978532e+00 2.255200e+00 1.130026e+00 176 179 218
-4.018804e+00 2.677975e+00 5.656742e+00 177 181 252
-4.460732e+00 2.749337e+00 6.776663e+00 204 210 255
-4.460732e+00 2.749337e+00 6.776663e+00 204 210 255
-2.836129e+00 2.588291e+00 6.209771e-01 100 108 146
-4.077570e+00 2.743345e+00 5.796555e+00 105 118 161
-3.043332e+00 2.700157e+00 2.281889e+00 172 180 225
-4.566868e+00 5.282235e+00 5.523023e+00 169 175 211
-3.477694e+00 4.388849e+00 1.157127e+00 169 178 217
-2.424930e+00 -7.101859e-01 2.450765e+00 195 208 242
-3.327801e+00 2.207526e+00 2.720658e+00 79 81 122
-3.874272e+00 2.147987e+00 4.652351e+00 95 96 141
-1.868886e+00 -1.796765e+00 9.449278e-01 164 184 232
-3.284491e+00 -1.300062e-01 3.499762e+00 154 175 221
-3.725953e+00 3.939676e+00 8.124347e-01 33 49 100
-4.526000e+00 -3.514552e+00 -2.453070e+00 161 158 192
-4.526000e+00 -3.514552e+00 -2.453070e+00 161 158 192
-3.416696e+00 -3.686293e-01 3.679224e+00 49 61 114
-2.983322e+00 1.280367e+00 1.564979e+00 68 71 122
-2.834930e+00 2.106008e+00 5.237269e-01 90 98 143
-4.215092e+00 -3.726201e+00 -2.302093e+00 165 171 197
-4.191611e+00 -3.479763e+00 -2.711385e+00 70 72 114
-1.963166e+00 -1.834920e+00 1.335668e+00 94 107 162
-3.300703e+00 -1.872928e-01 2.907025e+00 47 65 112
-3.531147e+00 -8.155155e-02 3.695187e+00 60 73 126
-3.411389e+00 4.949534e-01 2.949739e+00 184 178 212
-3.100375e+00 2.586557e+00 1.554900e+00 57 63 116
-3.302143e+00 -1.657708e-01 2.985604e+00 61 74 130
-3.640122e+00 5.824353e-01 4.991111e+00 129 142 184
-2.731592e+00 1.991783e+00 -2.634398e-01 246 252 255
-4.463940e+00 3.584895e+00 6.459952e+00 121 135 182
-4.004163e+00 2.098716e+00 5.648782e+00 164 166 217
-3.972992e+00 2.760164e+00 5.452074e+00 171 175 214
-2.257551e+00 -1.651690e+00 2.767071e+00 19 29 68
-2.257551e+00 -1.651690e+00 2.767071e+00 19 29 68
-3.408666e+00 -1.177725e-01 3.418856e+00 158 172 223
-3.411005e+00 5.851572e-01 3.142317e+00 186 192 224
-2.770789e+00 2.518124e+00 -2.986872e-01 236 249 253
-4.446142e+00 5.230868e+00 6.211562e+00 138 148 200
-4.390787e+00 5.587981e+00 3.749080e+00 225 245 254
-4.941633e+00 6.352023e+00 5.667927e+00 190 228 251
-3.195684e+00 2.227881e+00 1.735199e+00 88 90 87
-4.502753e+00 6.052105e+00 4.053245e+00 93 108 136
-5.000377e+00 6.191587e+00 6.234792e+00 58 85 144
-3.345534e+00 5.633462e+00 -4.369358e-02 250 252 255
-1.706892e+00 -1.782680e+00 6.905981e-01 118 120 118
-3.448338e+00 -4.275447e-01 3.952483e+00 77 82 90
-3.203709e+00 -4.345265e-01 2.710783e+00 90 95 98
-3.578266e+00 -7.166284e-02 4.004527e+00 74 79 76
-3.522036e+00 6.172199e-01 3.227351e+00 88 86 78
-3.148640e+00 2.596342e+00 1.624396e+00 88 92 89
-2.726344e+00 -3.763780e+00 3.651780e+00 27 27 32
-1.922648e+00 -2.073668e+00 2.672738e+00 145 155 164
-2.734943e+00 -3.431785e+00 3.718353e+00 107 103 102
-2.728277e+00 -2.947939e+00 3.983234e+00 50 49 45
-2.366388e+00 -3.558428e+00 2.777276e+00 89 83 99
-2.010810e+00 -2.704511e+00 2.812446e+00 60 60 60
-2.263938e+00 -3.468315e+00 2.733384e+00 82 83 84
-2.924781e+00 -3.638484e+00 5.201737e+00 60 56 56
-3.333743e+00 -2.870441e+00 6.334399e+00 104 105 110
-3.369442e+00 -3.309672e+00 6.285672e+00 79 74 71
-2.037370e+00 -3.500191e+00 2.973672e+00 104 111 105
-3.181236e+00 -1.330531e+00 5.937631e+00 65 59 67
-3.360706e+00 -3.862990e+00 6.190765e+00 70 70 70
-4.043103e+00 1.887491e+00 6.431734e+00 125 129 130
-3.825648e+00 3.151311e+00 6.445311e+00 118 122 126
-4.121173e+00 1.853890e+00 5.831337e+00 97 97 99
-3.893164e+00 1.853907e+00 4.805881e+00 93 89 88
-4.044294e+00 1.948157e+00 5.218342e+00 82 84 85
-2.722207e+00 -1.361345e+00 4.678813e+00 119 118 123
-2.459376e+00 -1.747095e+00 3.690922e+00 105 105 107
-3.068426e+00 -1.289188e+00 5.626480e+00 21 17 19
-2.519835e+00 -1.338584e+00 3.370965e+00 44 40 37
-2.762060e+00 -1.243999e+00 4.811944e+00 77 77 75
-3.534914e+00 -1.534895e-01 3.987281e+00 28 27 32
-4.617523e+00 4.762652e+00 4.696186e+00 12 11 24
-2.520736e+00 -1.743416e+00 3.913239e+00 98 101 106
-2.294374e+00 -1.768928e+00 3.251194e+00 121 118 125
-2.205899e+00 -1.652972e+00 1.965984e+00 104 104 106
-2.802965e+00 -1.572097e+00 4.934774e+00 88 86 84
-2.108626e+00 -1.350246e+00 1.668078e+00 55 54 59
-2.584315e+00 -1.266457e+00 3.650669e+00 103 103 99
-3.083560e+00 -2.277944e+00 5.818360e+00 23 15 12
-2.666353e+00 -1.671953e+00 4.390048e+00 9 9 11
-2.228389e+00 -1.705674e+00 2.133980e+00 112 112 112
-2.735453e+00 -1.593773e+00 4.866563e+00 35 33 38
-2.841189e+00 -1.516344e+00 4.978887e+00 10 8 8
-2.835327e+00 -1.321776e+00 4.763805e+00 11 7 6
-2.981749e+00 -1.283425e+00 5.396868e+00 16 10 9
-2.462931e+00 -1.291845e+00 3.091397e+00 119 116 112
-2.195752e+00 -1.289307e+00 1.887530e+00 60 55 52
-2.696757e+00 -2.989880e+00 4.074960e+00 22 13 8
-2.554076e+00 -1.767755e+00 3.734681e+00 7 6 9
-3.008813e+00 -1.660747e+00 5.225030e+00 19 19 20
-3.182204e+00 -1.607331e+00 5.894874e+00 18 16 19
-2.541046e+00 -1.665162e+00 3.431980e+00 88 83 84
-2.760420e+00 -1.634032e+00 4.290629e+00 15 12 13
-2.410102e+00 -1.663300e+00 2.747808e+00 89 88 91
-2.603696e+00 -1.575726e+00 4.031741e+00 118 116 113
-3.899677e+00 4.527852e-01 5.700423e+00 86 85 90
-4.142702e+00 2.252968e+00 6.090533e+00 83 84 88
-3.576118e+00 5.248789e-01 3.626285e+00 109 102 100
-3.901872e+00 5.513390e+00 2.318032e+00 255 255 255
-2.886250e+00 2.309110e-01 1.655614e+00 132 133 128
-2.614710e+00 1.773615e+00 -2.238805e-01 255 255 255
-2.606960e+00 -1.487817e+00 4.584945e+00 95 94 90
-1.550883e+00 -1.297085e+00 2.910542e+00 61 53 50
-4.123873e+00 1.208333e+00 6.646972e+00 89 85 82
-3.112395e+00 -2.977126e+00 6.946184e+00 41 40 41
-2.686872e+00 -1.749076e-02 -3.728237e-01 255 255 252
-1.445919e+00 -3.033122e+00 7.458277e-01 61 60 55
-1.497665e+00 -1.343761e+00 2.827497e+00 103 99 90
-2.637805e+00 2.215260e+00 5.578925e-01 82 86 87
-2.380702e+00 -3.462777e+00 2.566516e+00 38 38 38
-1.734563e+00 -5.376086e-01 8.240242e-01 135 139 140
-3.505316e+00 -4.797916e-02 6.606959e+00 90 92 91
-3.332353e+00 -6.893312e-03 2.949841e+00 125 125 121
-1.633793e+00 -3.987342e+00 1.008090e+00 66 65 63
-3.030153e+00 -3.720742e+00 6.515160e+00 32 31 29
-1.576380e+00 -3.839833e+00 1.152284e+00 69 67 68
-2.240918e+00 -2.330636e+00 3.028257e+00 67 62 57
-3.074512e+00 -1.561761e+00 5.841888e+00 111 112 109
-4.534443e+00 -2.318219e-01 7.143800e+00 151 158 164
-4.281455e+00 1.794387e+00 5.870189e+00 27 27 29
-2.840886e+00 1.974696e+00 6.554870e-01 118 119 121
-4.490931e+00 2.908362e+00 6.910746e+00 139 129 129
-2.273647e+00 -3.589700e+00 2.827588e+00 24 24 29
-2.167860e+00 -3.466641e+00 2.275797e+00 56 56 56
-2.613642e+00 -1.692863e+00 3.843243e+00 29 28 26
-1.762462e+00 -4.817796e-01 8.653149e-01 60 60 58
-3.378554e+00 -6.376007e-02 3.178663e+00 121 122 126
-2.762859e+00 -4.966664e-02 3.401239e+00 37 40 49
-2.622875e+00 8.051581e-01 -1.301768e-01 131 146 150
-3.223302e+00 4.722706e+00 -2.505121e-01 254 255 255
-5.015459e+00 5.060212e+00 6.643709e+00 250 252 251
-5.149428e+00 6.443123e+00 6.110515e+00 133 142 141
-5.149428e+00 6.443123e+00 6.110515e+00 133 142 141
-3.821509e+00 6.382278e+00 2.380537e-01 252 254 255
-1.924406e+00 -4.103656e-01 7.354271e-01 136 141 145
-2.043040e+00 6.662436e-02 3.524104e+00 34 41 49
-2.009407e+00 1.877043e-01 3.840700e-01 102 102 103
-2.016189e+00 2.815451e-01 4.299078e-01 83 83 79
-5.122623e+00 5.669475e+00 6.410047e+00 133 137 140
-4.462189e+00 6.001181e+00 4.284337e+00 246 249 254
-3.823034e+00 6.488022e+00 1.807859e-01 142 150 160
-4.477642e+00 2.802421e+00 6.964061e+00 133 137 138
-2.728178e+00 2.712055e+00 -2.374375e-01 243 249 251
-2.444985e+00 -2.471086e+00 3.555105e+00 58 53 49
-2.313901e+00 -2.346636e+00 4.749951e+00 131 136 139
-2.928201e+00 -2.543236e+00 5.705959e+00 62 62 58
-1.903541e+00 -2.502248e+00 1.566918e+00 52 52 44
-1.786328e+00 -2.181141e+00 1.172960e+00 127 127 129
-2.933300e+00 -2.099775e+00 6.096366e+00 120 120 118
-3.608717e+00 -4.964765e-01 5.488557e+00 126 127 130
-2.965513e+00 -6.098075e-01 4.650966e+00 163 167 173
-3.084234e+00 -5.678722e-01 4.112215e+00 136 135 140
-3.377090e+00 8.550465e-01 4.517954e+00 157 159 162
-2.775454e+00 1.381484e+00 1.661140e+00 134 135 142
-4.739158e+00 5.392181e+00 5.210040e+00 92 95 103
-2.658836e+00 1.972177e-01 9.809813e-01 139 139 139
-2.939831e+00 7.052983e-01 1.874793e+00 119 117 114
-2.857906e+00 7.538028e-01 1.562163e+00 141 141 141
-3.618490e+00 5.188250e+00 1.033865e+00 122 124 132
-1.904010e+00 -1.667655e+00 1.902926e+00 108 109 105
-1.904010e+00 -1.667655e+00 1.902926e+00 108 109 105
-2.977097e+00 -8.587432e-01 4.408616e+00 78 77 75
-2.715154e+00 -6.128516e-02 1.347093e+00 149 148 154
-1.968425e+00 -3.555628e+00 1.435002e+00 8 6 7
-1.867367e+00 -1.905966e+00 1.291885e+00 74 74 69
-2.374963e+00 -1.650301e+00 3.443951e+00 83 84 79
-2.444275e+00 -1.553512e+00 3.002057e+00 118 114 103
-2.219767e+00 -1.585318e+00 3.015508e+00 118 114 103
-4.070099e+00 4.776989e+00 4.291547e+00 131 137 148
-2.035288e+00 -3.443012e+00 1.708625e+00 65 66 61
-2.960371e+00 -1.933845e+00 5.636410e+00 138 143 144
-2.568020e+00 -1.855591e+00 4.519164e+00 70 70 70
-1.954635e+00 -1.673988e+00 2.009787e+00 111 112 106
-2.118398e+00 -1.440449e+00 1.735667e+00 123 123 125
-2.181820e+00 -1.420513e+00 2.434933e+00 136 136 140
-2.552196e+00 -1.289116e-01 2.184952e+00 154 155 160
-2.841246e+00 5.546027e-02 1.647143e+00 71 67 64
-2.730545e+00 5.752256e-02 1.861182e+00 137 138 138
-3.860675e+00 1.087191e+00 5.939689e+00 75 75 75
-3.080288e+00 1.758870e+00 1.392639e+00 122 123 128
-1.429318e+00 -3.065726e+00 2.565384e+00 127 131 136
-3.331483e+00 -2.953963e+00 5.918021e+00 93 98 92
-1.344590e+00 -2.929541e+00 2.473217e+00 135 138 147
-1.634678e+00 -2.931939e+00 2.691103e+00 133 140 146
-2.776714e+00 -2.916941e+00 3.206609e+00 93 93 86
-2.455804e+00 -2.072784e+00 3.709145e+00 90 88 84
-1.892692e+00 -1.804610e+00 1.197646e+00 150 154 165
-2.195577e+00 -1.688299e+00 2.188692e+00 106 105 103
-3.248427e+00 -1.389257e+00 6.473720e+00 125 132 136
-2.586815e+00 -1.501864e+00 4.004932e+00 132 134 131
-1.965829e+00 -1.630924e+00 1.284096e+00 133 134 137
-1.897436e+00 -1.162909e+00 1.322236e+00 137 144 149
-3.872490e+00 -1.966682e-01 6.114058e+00 87 85 86
-3.776045e+00 -2.077127e-01 5.433438e+00 70 69 67
-3.862843e+00 -1.663136e-01 6.252719e+00 96 98 94
-2.733321e+00 -7.635434e-02 1.210185e+00 67 62 58
-3.848092e+00 5.360642e-01 5.486606e+00 129 130 126
-2.745932e+00 6.808902e-02 9.707397e-01 64 63 59
-3.267196e+00 5.684934e-01 4.641665e+00 156 159 165
-3.210294e+00 5.571676e-01 4.456269e+00 158 158 161
-2.857045e+00 4.089461e-01 1.266967e+00 121 122 117
-3.050553e+00 1.265934e+00 1.524807e+00 37 43 53
-3.168846e+00 2.069203e+00 1.756624e+00 94 94 95
-3.033444e+00 2.025428e+00 1.588230e+00 128 128 132
-3.188721e+00 2.213269e+00 1.758310e+00 36 36 38
-2.874296e+00 2.025817e+00 8.360089e-01 133 132 133
-3.098847e+00 -3.816775e+00 6.274578e+00 79 82 79
-1.835381e+00 -3.688810e+00 2.253618e+00 112 115 108
-3.093512e+00 -3.683286e+00 6.274937e+00 88 93 89
-3.093512e+00 -3.683286e+00 6.274937e+00 88 93 89
-1.947850e+00 -3.624196e+00 1.042458e+00 31 29 30
-1.947850e+00 -3.624196e+00 1.042458e+00 31 29 30
-3.335974e+00 -3.636801e+00 6.125746e+00 63 64 56
-3.276873e+00 -3.520583e+00 5.889785e+00 84 86 83
-1.986119e+00 -3.420985e+00 2.787439e+00 100 104 107
-2.660753e+00 -3.468394e+00 3.170039e+00 101 103 97
-1.403733e+00 -3.003030e+00 2.460261e+00 62 61 65
-1.924944e+00 -2.612755e+00 2.813343e+00 134 134 136
-2.410602e+00 -2.388755e+00 4.240360e+00 59 56 51
-2.394811e+00 -1.953213e+00 3.584133e+00 59 49 48
-2.652618e+00 -1.718685e+00 4.592255e+00 130 134 138
-1.795904e+00 -1.886761e+00 9.781308e-01 58 57 62
-2.285457e+00 -1.788377e+00 2.907723e+00 120 125 129
-2.388219e+00 -1.758257e+00 3.468165e+00 143 148 152
-1.963946e+00 -1.820035e+00 2.015321e+00 89 90 95
-2.256519e+00 -1.764638e+00 2.796836e+00 143 148 152
-1.910178e+00 -1.810936e+00 2.135246e+00 149 152 157
-1.869934e+00 -1.810265e+00 1.911362e+00 138 142 147
-1.869934e+00 -1.810265e+00 1.911362e+00 138 142 147
-1.821382e+00 -1.814733e+00 1.686914e+00 138 141 148
-2.190135e+00 -1.719499e+00 2.527934e+00 61 60 56
-2.621735e+00 -1.326252e+00 4.056676e+00 37 37 32
-2.506382e+00 -1.343965e+00 3.613457e+00 47 45 43
-2.121006e+00 -1.442544e+00 2.175579e+00 133 132 137
-2.247298e+00 -1.418556e+00 2.156017e+00 133 132 137
-2.474139e+00 -1.333446e+00 3.161149e+00 48 47 45
-2.674958e+00 -1.247963e+00 4.560544e+00 131 127 119
-2.122894e+00 -1.354634e+00 2.503445e+00 45 44 42
-1.974317e+00 -1.383166e+00 1.817852e+00 44 44 46
-1.936191e+00 -1.383309e+00 1.476235e+00 42 43 39
-1.965837e+00 -1.375281e+00 1.580826e+00 37 39 38
-2.089571e+00 -1.308570e+00 1.612547e+00 118 118 109
-3.376124e+00 -9.028159e-01 6.492565e+00 124 131 131
-3.408628e+00 -8.959292e-01 6.500533e+00 124 131 131
-2.698629e+00 -7.663585e-01 3.751738e+00 41 43 55
-3.357249e+00 7.675069e-02 3.032944e+00 38 39 47
-3.099299e+00 3.247667e-01 4.459221e+00 155 157 162
-2.624212e+00 5.437441e-01 7.857371e-01 134 132 133
-2.667478e+00 5.651618e-01 9.148282e-01 144 142 143
-2.925963e+00 7.277327e-01 1.747410e+00 133 134 131
-2.680482e+00 6.907194e-01 8.479741e-01 123 122 117
-3.024391e+00 1.237320e+00 1.620116e+00 138 142 145
-3.024391e+00 1.237320e+00 1.620116e+00 138 142 145
-2.546114e+00 1.918026e+00 3.489086e-01 78 78 78
-2.556530e+00 2.454345e+00 3.258554e-01 54 53 58
-3.810816e+00 4.762218e+00 1.634987e+00 62 61 66
-2.491499e+00 -3.844063e+00 2.165502e+00 107 109 105
-3.520152e+00 -3.722091e+00 1.779055e+00 25 22 21
-2.688605e+00 -3.567288e+00 3.440442e+00 16 16 17
-2.242465e+00 -3.495917e+00 2.778081e+00 26 22 24
-1.807056e+00 -3.464863e+00 1.403907e+00 84 84 81
-1.663441e+00 -3.138725e+00 2.558365e+00 123 126 132
-2.697297e+00 -2.843826e+00 3.175602e+00 53 49 44
-1.810638e+00 -1.997510e+00 9.657768e-01 128 130 128
-2.024929e+00 -1.511939e+00 2.426635e+00 134 134 136
-2.244965e+00 -1.355363e+00 2.723420e+00 44 43 44
-2.187225e+00 -1.379797e+00 1.887707e+00 48 46 46
-2.506952e+00 -1.272748e+00 3.664863e+00 116 113 107
-2.164106e+00 -1.323548e+00 1.962860e+00 122 120 112
-2.101936e+00 -1.327476e+00 1.735463e+00 112 110 106
-2.212377e+00 -1.281087e+00 2.382171e+00 35 35 33
-2.092341e+00 -1.309557e+00 1.493623e+00 126 121 117
-2.005950e+00 -1.316558e+00 1.699331e+00 37 35 36
-1.783561e+00 -1.362348e+00 8.552460e-01 111 110 108
-1.922247e+00 -1.311149e+00 7.576019e-01 33 33 32
-1.976529e+00 -1.077157e+00 1.335721e+00 59 62 77
-3.343353e+00 -1.891719e-01 2.965336e+00 132 135 138
-3.508943e+00 3.173260e-02 3.693229e+00 147 148 150
-2.841612e+00 4.411980e-01 1.593872e+00 138 138 137
-2.731877e+00 4.463134e-01 1.040364e+00 122 121 115
-2.922654e+00 5.758324e-01 1.842460e+00 139 138 139
-3.451969e+00 8.431038e-01 4.064232e+00 138 139 141
-2.904232e+00 5.958673e-01 1.703965e+00 152 152 150
-2.270490e+00 3.793231e-01 5.731507e-01 156 160 169
-3.085029e+00 8.145202e-01 2.446636e+00 116 115 115
-2.710549e+00 7.116587e-01 7.581659e-01 89 87 89
-3.919503e+00 2.372974e+00 5.074977e+00 121 122 124
-3.682236e+00 5.292971e+00 1.147908e+00 118 122 131
-2.970540e+00 -3.981161e+00 6.400135e+00 28 25 32
-3.067463e+00 -3.520077e+00 5.722427e+00 35 30 34
-2.372736e+00 -3.382572e+00 4.780150e+00 54 48 58
-2.372736e+00 -3.382572e+00 4.780150e+00 54 48 58
-2.377685e+00 -3.344914e+00 4.772502e+00 121 131 132
-2.172341e+00 -2.067901e+00 3.369822e+00 53 47 49
-2.673307e+00 -1.670164e+00 4.491246e+00 100 99 95
-2.975430e+00 -1.586128e+00 5.437297e+00 55 51 51
-1.866977e+00 -1.670814e+00 8.043066e-01 105 101 98
-3.218082e+00 -1.324129e+00 6.596836e+00 108 116 113
-2.551810e+00 -1.468055e+00 3.935305e+00 68 59 60
-1.874877e+00 -1.619234e+00 1.628200e+00 72 71 71
-2.260612e+00 -1.252345e+00 2.182309e+00 39 34 31
-2.854759e+00 -9.017670e-01 4.548039e+00 82 80 81
-2.525534e+00 -2.559214e-01 6.980410e-01 119 123 126
-2.893810e+00 3.818612e-01 1.485723e+00 57 57 57
-2.638639e+00 3.956174e-01 9.349367e-01 80 77 72
-2.918624e+00 6.290727e-01 1.888987e+00 69 69 71
-2.632682e+00 5.909174e-01 8.404567e-01 59 57 61
-2.625426e+00 5.986146e-01 7.293553e-01 69 68 73
-2.929793e+00 7.976535e-01 1.761320e+00 66 63 64
-3.124676e+00 9.023940e-01 2.465234e+00 69 65 64
-3.896751e+00 1.982553e+00 4.931474e+00 23 24 29
-3.029702e+00 1.740302e+00 9.126580e-01 95 96 99
-3.029702e+00 1.740302e+00 9.126580e-01 95 96 99
-3.008089e+00 2.158599e+00 2.225153e+00 128 128 133
-4.500407e+00 4.840630e+00 4.593429e+00 61 61 67
-4.747780e+00 5.414026e+00 5.642594e+00 105 115 119
-3.429883e+00 -8.824233e-01 5.105530e+00 102 107 106
-3.314171e+00 4.592085e-02 2.960927e+00 138 135 128
-3.462888e+00 5.515453e-01 3.470454e+00 99 97 92
-2.791458e+00 4.112268e-01 1.095471e+00 108 108 108
-3.385351e+00 7.712303e-01 3.972818e+00 150 156 156
-2.659740e+00 4.565530e-01 7.947524e-01 139 143 144
-3.255059e+00 8.327102e-01 3.263022e+00 73 71 72
-2.658057e+00 7.680813e-01 6.330009e-01 60 64 67
-3.776019e+00 6.895773e-01 5.744598e+00 124 127 126
-2.846239e+00 3.307016e-01 1.660050e+00 192 182 177
-2.064460e+00 -1.622148e+00 1.740787e+00 132 124 103
-3.564357e+00 5.200601e+00 6.337932e-01 174 166 153
-3.071047e+00 2.029723e+00 1.574162e+00 176 172 159
-2.939011e+00 -5.221733e-01 4.751868e+00 111 114 105
-3.202982e+00 5.692259e-01 3.359199e+00 64 46 34
-8.478084e+00 5.509173e+00 6.689418e+00 119 118 129
-4.628330e+00 5.494295e+00 5.324844e+00 125 119 122
-2.842418e+00 4.469500e-01 1.592442e+00 190 179 163
-4.461919e+00 1.790185e+00 6.819775e+00 109 120 142
-3.023610e+00 1.640252e+00 1.021277e+00 112 108 102
-3.967696e+00 2.084996e+00 6.322507e+00 45 38 40
-2.871353e+00 2.056931e+00 6.852628e-01 200 189 176
-4.880718e+00 4.469747e+00 6.636620e+00 190 235 253
-4.504828e+00 4.986819e+00 6.236753e+00 114 109 114
-3.692737e+00 4.303177e-01 5.290929e+00 74 70 67
-4.002102e+00 5.372441e-01 5.650741e+00 22 18 16
-2.699221e+00 4.590027e-01 1.497562e+00 174 163 139
-3.163643e+00 6.063374e-01 3.334305e+00 105 86 71
-2.810373e+00 1.052040e+00 1.682980e+00 186 184 186
-3.126317e+00 -4.249122e-01 3.445015e+00 56 70 140
-2.510541e+00 -1.497526e+00 3.632916e+00 53 56 113
-3.871634e+00 2.163843e+00 4.846128e+00 88 81 134
-3.871634e+00 2.163843e+00 4.846128e+00 88 81 134
-1.640942e+00 -2.937840e+00 2.515547e+00 146 151 211
-3.214192e+00 -4.047806e-02 2.932946e+00 54 58 124
-2.996001e+00 2.574817e+00 9.559375e-01 56 61 124
-4.361938e+00 -3.301244e+00 -3.786746e+00 207 219 254
-2.732329e+00 -1.683123e+00 4.527992e+00 27 34 99
-3.312399e+00 4.705360e+00 -2.737659e-01 246 255 255
-4.796676e+00 5.074772e+00 6.655365e+00 232 253 255
-4.796676e+00 5.074772e+00 6.655365e+00 232 253 255
-4.353747e+00 5.497861e-02 7.156171e+00 182 185 199
-4.527826e+00 6.031620e+00 4.029812e+00 151 152 201
-3.095859e+00 -4.016258e-01 4.699178e+00 165 180 214
-3.471063e+00 -1.819843e-01 3.698419e+00 162 188 217
-3.472195e+00 1.837919e-01 3.589633e+00 150 182 215
-3.472195e+00 1.837919e-01 3.589633e+00 150 182 215
-3.480550e+00 2.773529e-01 3.400149e+00 165 185 209
-2.943388e+00 2.212858e+00 8.088444e-01 79 86 128
-4.504333e+00 2.851918e+00 6.843741e+00 245 254 255
-2.119177e+00 -2.893014e+00 2.731365e+00 82 98 140
-4.014060e+00 2.752459e+00 6.298213e+00 75 94 160
1.633278e+01 -8.099808e-01 1.043013e+01 236 248 255
1.633797e+01 -9.139755e-01 9.834458e+00 209 213 228
1.633797e+01 -9.139755e-01 9.834458e+00 209 213 228
1.625244e+01 -8.144949e-01 1.047446e+01 191 197 221
-3.968251e+00 5.336586e+00 2.294820e+00 213 248 255
1.631141e+01 -9.188841e-01 9.810652e+00 216 226 230
1.627890e+01 -9.176132e-01 9.831213e+00 210 218 230
1.621171e+01 -9.321711e-01 9.783290e+00 223 227 235
-4.648291e+00 3.586205e+00 6.677197e+00 165 200 221
-2.702590e+00 -4.202474e-01 3.275429e+00 170 193 239
-4.162035e+00 2.073387e+00 5.680661e+00 91 97 149
-5.866968e+00 4.398139e+00 1.978562e+00 249 254 255
-2.924555e+00 2.209262e+00 8.194828e-01 87 81 135
-3.274704e+00 -1.656210e-02 3.203266e+00 58 65 137
-3.201761e+00 1.568086e+00 1.724727e+00 179 182 233
-3.040749e+00 -1.223640e+00 5.279860e+00 51 51 104
-3.487338e+00 -8.660172e-01 5.199918e+00 66 77 136
-4.402434e+00 2.811147e+00 6.958543e+00 225 242 254
-3.550398e+00 5.879670e+00 -6.041826e-02 146 167 213
-2.371425e+00 -3.837102e+00 2.745181e+00 92 107 156
-3.381471e+00 -1.838273e-01 3.429187e+00 160 182 228
-3.307385e+00 4.273487e-02 2.914021e+00 56 63 120
-3.332773e+00 8.040423e-02 3.347827e+00 54 68 129
-4.555931e+00 2.730512e+00 6.806598e+00 244 255 255
-2.820068e+00 -3.511386e+00 3.668739e+00 30 29 78
-3.413985e+00 -7.491435e-01 3.611679e+00 37 59 109
-3.413985e+00 -7.491435e-01 3.611679e+00 37 59 109
-3.362905e+00 -6.938966e-01 3.716020e+00 128 155 202
-3.465299e+00 -6.523562e-01 3.768112e+00 50 71 121
-3.465299e+00 -6.523562e-01 3.768112e+00 50 71 121
-3.876030e+00 2.691559e+00 4.915694e+00 68 83 140
-3.753629e+00 -3.241364e-01 6.350938e+00 74 90 137
-3.391220e+00 2.109613e+00 2.868226e+00 121 130 171
-4.574963e+00 5.850049e+00 4.285338e+00 89 85 86
-3.073425e+00 1.975775e+00 1.916101e+00 85 85 83
-2.849233e+00 -4.958428e-01 3.429623e+00 109 118 124
-5.031161e+00 5.858482e+00 6.383274e+00 70 69 80
-3.431492e+00 -6.025948e-01 3.751386e+00 31 33 41
-4.298039e+00 3.140460e+00 4.707839e+00 82 89 95
-1.487560e+00 1.479580e+00 3.634510e+00 99 98 106
-5.154816e+00 6.360529e+00 6.157610e+00 176 227 247
-3.581206e+00 2.965649e-01 3.377866e+00 101 108 102
-4.831383e+00 1.525941e+00 3.393222e+00 95 106 111
-2.961456e+00 1.206997e+00 1.556627e+00 86 91 94
-8.198310e+00 3.268820e+00 4.769202e+00 79 86 89
-4.317270e+00 5.596006e+00 4.341122e+00 103 112 119
-2.295869e+00 -1.631503e+00 2.498853e+00 53 54 49
-5.829243e+00 1.596126e-01 2.539989e+00 99 102 104
-3.968732e+00 2.315664e+00 4.999725e+00 83 86 92
-3.334656e+00 -3.642841e-01 4.329127e+00 79 86 86
-3.516302e+00 5.817838e-02 3.710546e+00 36 39 45
-2.811734e+00 2.364580e+00 -3.111076e-01 246 254 253
-3.547735e+00 1.890774e-01 3.560883e+00 80 87 95
-3.547735e+00 1.890774e-01 3.560883e+00 80 87 95
-3.536839e+00 3.416831e-01 3.274590e+00 83 83 84
-3.522726e+00 2.271614e-01 3.530944e+00 72 73 79
-1.921393e+00 -2.723749e+00 2.458322e+00 156 150 136
-3.420683e+00 -6.677062e-01 5.253529e+00 45 47 47
-3.515355e+00 9.041224e-01 3.876123e+00 151 144 128
-2.947533e+00 -1.816987e+00 5.885901e+00 67 61 48
-2.462422e+00 -1.227283e+00 3.318484e+00 59 51 39
-2.786193e+00 -1.828848e+00 5.323175e+00 78 74 63
-2.927266e+00 -1.381198e+00 5.335791e+00 137 129 116
-4.196861e+00 -5.411708e-01 6.079101e+00 132 126 106
-3.491876e+00 1.377642e-01 4.746869e+00 128 121 103
-1.921342e+00 -3.573526e+00 1.564930e+00 102 93 78
-2.323371e+00 -1.974983e+00 2.955720e+00 152 144 123
-3.057972e+00 -1.718278e+00 5.938754e+00 156 153 138
-2.928002e+00 -1.722087e+00 5.491378e+00 148 142 126
-2.661972e+00 -1.391869e+00 4.215596e+00 135 126 111
-3.792896e+00 1.339801e-01 5.413935e+00 149 141 123
-3.458967e+00 5.535183e-01 3.212526e+00 39 36 25
-3.257317e+00 8.936069e-01 2.868301e+00 149 140 123
-2.940973e+00 8.673720e-01 1.733065e+00 153 142 119
-2.777396e+00 -1.733922e+00 5.051802e+00 147 143 127
-2.840992e+00 -1.298086e+00 5.185227e+00 49 41 30
-2.981497e+00 2.210912e+00 1.213193e+00 47 40 29
-2.448034e+00 -3.605450e+00 5.813068e+00 21 15 12
-2.687509e+00 -3.526224e+00 5.835182e+00 28 22 15
-2.924232e+00 -2.980908e+00 5.617885e+00 104 97 79
-3.328570e+00 -7.203044e-01 5.572689e+00 97 88 73
-4.402081e+00 -8.523942e-02 6.034141e+00 100 95 77
-2.743493e+00 -2.011013e-01 1.413364e+00 107 100 81
-3.443057e+00 7.481104e-01 4.087635e+00 89 81 68
-3.566015e+00 9.380220e-01 4.174500e+00 68 60 49
-3.451111e+00 -1.396050e+00 6.669583e+00 79 78 82
-4.903627e+00 4.896145e+00 5.564126e+00 7 5 18
-4.884336e+00 4.894308e+00 5.562065e+00 6 5 18
-3.177787e+00 1.066654e+00 4.499085e+00 58 56 56
-2.398302e+00 -1.754961e+00 3.467513e+00 105 106 110
-3.870636e+00 2.105897e+00 4.985891e+00 116 110 112
-3.606867e+00 4.629690e-01 6.488455e+00 32 32 39
-3.606867e+00 4.629690e-01 6.488455e+00 32 32 39
-4.148412e+00 2.371063e+00 6.108311e+00 103 101 106
-3.702260e+00 2.280745e+00 4.137478e+00 80 76 72
-3.186925e+00 -1.270130e+00 5.978543e+00 15 8 14
-2.967697e+00 -1.627428e+00 5.188123e+00 100 91 92
-3.009366e+00 -1.456966e+00 5.286395e+00 40 38 39
-3.004991e+00 -1.455777e+00 5.657509e+00 9 11 13
-4.334314e+00 -1.002670e+00 5.602061e+00 15 7 8
-3.385354e+00 -8.102023e-01 6.515993e+00 60 61 65
-3.951936e+00 2.059618e+00 6.376155e+00 123 124 128
-2.916957e+00 -1.682302e+00 5.195618e+00 88 87 83
-3.006494e+00 -1.451661e+00 5.405579e+00 105 101 100
-3.845042e+00 1.367604e+00 5.036300e+00 134 134 139
-4.843888e+00 4.811731e+00 5.738678e+00 4 5 15
-4.659950e+00 4.766015e+00 5.013179e+00 1 4 13
-4.854682e+00 5.043410e+00 6.653397e+00 53 71 93
-4.688209e+00 5.138892e+00 4.823508e+00 2 4 9
-3.486286e+00 4.180063e-02 3.648969e+00 5 5 17
-4.840619e+00 5.322971e+00 5.188508e+00 115 119 121
-4.840619e+00 5.322971e+00 5.188508e+00 115 119 121
-1.778262e+00 -1.290230e+00 5.026847e-01 59 58 54
-1.786584e+00 -1.448876e+00 5.776453e-01 124 124 122
-4.726527e+00 3.686003e+00 5.500643e+00 27 31 42
-2.078733e+00 -1.439669e+00 1.487986e+00 111 113 108
-3.711139e+00 -7.119042e-01 6.084857e+00 101 107 106
-3.449664e+00 1.955275e-01 3.470348e+00 41 39 50
-2.329350e+00 -1.759351e+00 3.243879e+00 129 135 135
-2.221385e+00 -1.759423e+00 2.804371e+00 119 123 124
-3.276969e+00 -1.275797e+00 6.296888e+00 41 40 36
-3.480067e+00 -1.082013e+00 6.562009e+00 58 54 53
-3.477951e+00 2.226529e-02 3.687345e+00 126 130 129
-3.718531e+00 1.034581e+00 5.270761e+00 81 77 74
-3.966712e+00 1.437891e+00 5.061287e+00 30 29 34
-3.820508e+00 2.117653e+00 4.858868e+00 55 51 50
-3.501793e+00 2.286459e+00 2.865374e+00 47 45 50
-3.749362e+00 4.846674e+00 5.900376e-01 40 49 67
-3.257295e+00 -1.240623e+00 6.473809e+00 90 91 89
-3.263033e+00 -1.177980e+00 6.683199e+00 36 28 26
-6.450803e+00 -1.043787e+00 7.555445e-01 119 115 112
-3.394473e+00 -3.034069e-01 3.714657e+00 107 108 112
-3.490360e+00 1.275993e+00 3.687808e+00 127 131 133
-4.233159e+00 1.469886e+00 5.892301e+00 28 26 31
-3.957266e+00 5.178174e+00 2.273904e+00 132 139 145
-4.655677e+00 6.126981e+00 4.023682e+00 142 142 150
-2.802483e+00 -1.393435e+00 4.625413e+00 116 118 115
-3.522193e+00 -7.179097e-02 4.012563e+00 118 121 120
-4.418768e+00 2.144650e+00 6.953076e+00 235 246 247
-1.914634e+00 1.730962e+00 1.581982e+00 117 118 113
-1.504066e+00 -3.057238e+00 6.735667e-01 47 52 48
-1.920474e+00 -1.789559e+00 1.332235e+00 101 108 112
-4.275195e+00 -7.562723e-01 1.022196e+00 46 44 44
-3.519361e+00 -1.656999e-01 4.032209e+00 29 32 32
-3.359247e+00 1.186467e-01 3.040761e+00 41 36 35
-6.115343e+00 2.617973e+00 5.707414e+00 32 32 30
-4.002847e+00 2.688805e+00 5.502360e+00 59 57 60
-3.041124e+00 -1.426413e+00 5.950241e+00 31 22 23
-3.486781e+00 -2.448663e-01 3.967369e+00 110 109 114
-3.439252e+00 2.542250e-01 3.361416e+00 43 35 38
-3.786334e+00 3.764563e-01 5.514270e+00 70 69 64
-3.438182e+00 3.587412e-01 3.330537e+00 35 38 44
-3.287132e+00 8.815221e-01 3.670710e+00 92 91 89
-1.518017e+01 7.445008e+00 5.864398e-01 253 254 255
-5.735138e+00 4.356920e+00 1.961888e+00 253 251 254
-5.612453e+00 4.603868e+00 2.030673e+00 112 111 123
-4.069262e+00 4.008846e-01 3.766120e+00 34 30 34
-4.063382e+00 1.983500e+00 5.599218e+00 129 128 126
-2.969934e+00 2.135411e+00 1.086192e+00 111 110 108
-2.981772e+00 2.112632e+00 2.260129e+00 94 96 93
-3.033671e+00 2.286867e+00 2.323085e+00 93 93 93
-4.480833e+00 2.805058e+00 6.970074e+00 133 137 138
-4.843342e+00 5.083775e+00 6.643451e+00 230 235 237
-3.788509e+00 -1.177920e-01 5.122115e+00 46 50 61
-2.779455e+00 4.940995e-01 1.285329e+00 80 80 77
-4.201454e+00 1.718733e+00 5.426592e+00 135 140 143
-3.962076e+00 5.724550e+00 1.771220e+00 66 66 79
-3.674358e+00 -5.127576e-01 6.124816e+00 126 131 134
-3.939945e+00 -5.839296e-02 5.844962e+00 39 41 49
-2.823532e+00 2.169318e-01 1.672847e+00 139 139 142
-3.477821e+00 9.808513e-01 4.212408e+00 101 102 102
-5.003644e+00 4.980331e+00 5.582837e+00 20 24 35
-3.639738e+00 5.206158e+00 1.031199e+00 122 124 132
-3.052054e+00 -3.775522e+00 5.702495e+00 91 93 88
-3.210451e+00 -3.466521e+00 5.535306e+00 74 75 76
-2.769480e+00 -3.565503e+00 5.134581e+00 42 42 42
-2.920502e+00 -9.968361e-01 4.710919e+00 152 156 160
-2.977399e+00 -8.331754e-01 4.589706e+00 115 117 115
-3.178754e+00 -7.028960e-01 5.150908e+00 50 54 65
-3.351371e+00 -5.171227e-02 4.319929e+00 102 103 99
-3.917358e+00 5.495501e-01 6.213845e+00 149 153 164
-3.714234e+00 1.088140e+00 5.151199e+00 72 72 75
-3.187045e+00 2.070838e+00 2.316894e+00 66 67 66
-3.542808e+00 2.535509e+00 4.462614e+00 92 95 96
-3.186062e+00 -1.151372e+00 5.816948e+00 75 72 67
-3.223538e+00 -1.141196e+00 6.024481e+00 75 72 69
-3.104661e+00 -1.155464e+00 5.585262e+00 91 87 82
-3.395460e+00 -8.330574e-01 6.609112e+00 76 78 77
-2.497461e+00 -7.227407e-01 2.445206e+00 166 169 174
-3.178030e+00 -4.142812e-01 4.780889e+00 149 151 148
-3.719096e+00 -7.471737e-02 5.545400e+00 135 136 140
-3.399982e+00 8.953662e-01 3.903334e+00 142 143 148
-3.404643e+00 8.976461e-01 3.902862e+00 142 143 148
-3.520792e+00 1.087309e+00 4.311724e+00 57 57 57
-3.383768e+00 1.033038e+00 3.838610e+00 89 87 90
-3.862235e+00 2.191006e+00 4.993902e+00 131 133 133
-4.104854e+00 2.439472e+00 6.336636e+00 137 143 149
-3.034876e+00 1.937986e+00 9.009972e-01 19 19 24
-4.218666e+00 3.079254e+00 5.343008e+00 124 128 137
-4.469912e+00 4.989750e+00 5.210464e+00 101 108 116
-2.521995e+00 -3.034458e+00 4.798220e+00 130 134 138
-1.958315e+00 -1.790844e+00 1.415061e+00 138 142 153
-2.630836e+00 -1.482145e+00 4.444778e+00 124 126 126
-2.480879e+00 -1.411758e+00 3.095929e+00 143 143 141
-3.779922e+00 -3.051057e-01 5.358763e+00 119 121 120
-3.118280e+00 -2.136548e-01 4.614474e+00 149 152 159
-3.243223e+00 1.278097e-01 4.700640e+00 161 165 174
-3.574407e+00 2.957166e-01 4.852760e+00 120 122 121
-3.729885e+00 1.238170e+00 5.121189e+00 153 160 162
-2.701143e+00 8.445570e-01 9.117307e-01 139 140 136
-2.856625e+00 1.115681e+00 1.641053e+00 140 142 146
-3.186962e+00 1.605611e+00 1.766005e+00 107 106 111
-3.072538e+00 2.010987e+00 1.284739e+00 54 55 59
-3.159227e+00 2.066351e+00 1.759246e+00 94 94 95
-3.776587e+00 4.639007e+00 7.929107e-01 22 24 36
-2.547995e+00 -3.463226e+00 4.565119e+00 54 50 51
-2.391798e+00 -3.331581e+00 4.683455e+00 120 125 129
-3.147944e+00 -1.707831e+00 5.967433e+00 142 153 155
-2.470515e+00 -1.750612e+00 3.694359e+00 153 157 164
-2.350988e+00 -1.763773e+00 3.241098e+00 144 151 157
-2.137720e+00 -1.768670e+00 2.590739e+00 139 144 150
-3.356620e+00 -1.405562e+00 6.782146e+00 125 130 136
-3.356620e+00 -1.405562e+00 6.782146e+00 125 130 136
-3.061172e+00 -1.297922e+00 5.000926e+00 37 36 35
-3.329187e+00 -1.171762e+00 6.628414e+00 105 114 115
-2.607587e+00 -1.310432e+00 3.268687e+00 60 60 55
-2.880455e+00 -1.214348e+00 4.840071e+00 111 111 101
-2.828267e+00 -1.224129e+00 4.830746e+00 111 111 101
-2.349794e+00 -1.352334e+00 2.818765e+00 48 44 43
-2.235049e+00 -1.180501e+00 2.046443e+00 84 78 78
-3.444311e+00 -7.936599e-01 6.703120e+00 75 76 78
-3.866012e+00 2.000246e-01 6.098565e+00 142 144 147
-3.653455e+00 9.339121e-01 4.863258e+00 132 134 132
-3.897369e+00 1.824921e+00 4.842663e+00 115 115 115
-3.960818e+00 2.280805e+00 5.184736e+00 31 29 35
-3.112955e+00 1.959052e+00 1.581588e+00 94 92 95
-3.036674e+00 -3.967002e+00 5.336464e+00 77 79 74
-3.170883e+00 -3.878290e+00 6.366733e+00 44 43 45
-3.098176e+00 -3.808444e+00 6.386619e+00 82 88 85
-3.098176e+00 -3.808444e+00 6.386619e+00 82 88 85
-2.507743e+00 -3.415514e+00 4.526734e+00 109 114 115
-3.304008e+00 -3.245656e+00 6.153202e+00 49 48 44
-3.314308e+00 -3.228349e+00 6.262460e+00 58 53 51
-3.170056e+00 -2.820356e+00 6.318509e+00 94 96 93
-3.020629e+00 -1.352205e+00 4.945721e+00 122 123 123
-3.270077e+00 -1.268388e+00 5.790123e+00 38 38 40
-2.679403e+00 -1.387966e+00 4.030281e+00 128 128 128
-3.326950e+00 -1.194132e+00 6.174592e+00 109 111 110
-2.942173e+00 -1.254011e+00 4.673719e+00 46 44 44
-2.828388e+00 -1.232595e+00 4.354388e+00 112 112 106
-2.875655e+00 -1.207004e+00 4.437477e+00 38 32 34
-2.758227e+00 -1.225217e+00 3.833464e+00 43 40 35
-2.707738e+00 -1.231217e+00 3.609774e+00 39 35 33
-2.253966e+00 -1.255984e+00 1.947550e+00 37 34 34
-2.985442e+00 -9.124724e-01 4.513481e+00 141 143 145
-2.985442e+00 -9.124724e-01 4.513481e+00 141 143 145
-3.815591e+00 -7.791860e-02 6.305070e+00 131 135 134
-3.423065e+00 2.618633e-01 3.033863e+00 45 47 59
-3.694715e+00 6.379498e-01 6.390875e+00 156 165 172
-3.419564e+00 6.990659e-01 4.145397e+00 130 132 133
-3.914888e+00 1.727045e+00 4.883487e+00 29 27 36
-4.227191e+00 2.190802e+00 6.118650e+00 34 31 38
-3.789672e+00 2.126975e+00 4.777725e+00 120 122 117
-3.708387e+00 2.285934e+00 4.146364e+00 75 75 75
