ply
format ascii 1.0
element face 0
property list uchar int vertex_indices
element vertex 968
property float x
property float y
property float z
property uchar diffuse_red
property uchar diffuse_green
property uchar diffuse_blue
end_header
3.277019e-01 4.614695e-01 2.863501e+00 151 154 135
3.784297e-01 4.866976e-01 2.911829e+00 123 128 95
3.410133e-01 4.689857e-01 2.879219e+00 119 134 113
4.351223e-01 4.883763e-01 2.856718e+00 39 43 18
4.259222e-01 4.933951e-01 2.886973e+00 95 92 99
4.004808e-01 4.950551e-01 2.918974e+00 44 61 19
3.916890e-01 4.928318e-01 2.918892e+00 53 71 31
3.969449e-01 4.943796e-01 2.919111e+00 60 76 38
3.969449e-01 4.943796e-01 2.919111e+00 60 76 38
4.133581e-01 4.974407e-01 2.911207e+00 184 184 186
4.079246e-01 4.975179e-01 2.916692e+00 40 54 28
4.079246e-01 4.975179e-01 2.916692e+00 40 54 28
4.247243e-01 4.966468e-01 2.893885e+00 122 124 138
4.005835e-01 4.970013e-01 2.921257e+00 48 54 20
3.963551e-01 4.959262e-01 2.921243e+00 119 138 92
4.201402e-01 4.976946e-01 2.902751e+00 129 127 141
4.057766e-01 4.987344e-01 2.918630e+00 37 50 20
3.743165e-01 4.899981e-01 2.915309e+00 39 65 17
3.555089e-01 4.811794e-01 2.898722e+00 49 75 27
3.313665e-01 4.689785e-01 2.873191e+00 121 143 86
3.946422e-01 4.977466e-01 2.923856e+00 57 81 31
3.843374e-01 4.945224e-01 2.920605e+00 47 68 12
3.388098e-01 4.741826e-01 2.883561e+00 49 75 27
4.073958e-01 5.013171e-01 2.921902e+00 42 57 18
4.393585e-01 4.948138e-01 2.856458e+00 48 72 25
4.048144e-01 5.025029e-01 2.924822e+00 84 104 59
3.498163e-01 4.820158e-01 2.896312e+00 52 70 22
3.462202e-01 4.812872e-01 2.894428e+00 108 128 65
4.213305e-01 5.050060e-01 2.911801e+00 164 180 176
4.362453e-01 5.018388e-01 2.876525e+00 137 161 110
4.165934e-01 5.064178e-01 2.919164e+00 59 77 52
4.462869e-01 4.963992e-01 2.840006e+00 72 95 67
4.368918e-01 5.018124e-01 2.875187e+00 41 67 20
4.232982e-01 5.063303e-01 2.909994e+00 105 127 81
3.717465e-01 4.954034e-01 2.919667e+00 110 126 78
3.584896e-01 4.895661e-01 2.908635e+00 120 145 90
4.386738e-01 5.014884e-01 2.869604e+00 103 120 83
4.218681e-01 5.065515e-01 2.911787e+00 112 138 93
3.653392e-01 4.938001e-01 2.915080e+00 26 47 14
3.629229e-01 4.929000e-01 2.913903e+00 116 134 88
3.531635e-01 4.885242e-01 2.905364e+00 81 106 67
3.531635e-01 4.885242e-01 2.905364e+00 81 106 67
4.499823e-01 4.961613e-01 2.827816e+00 26 49 23
4.193806e-01 5.084510e-01 2.918532e+00 103 127 91
3.581349e-01 4.910098e-01 2.909626e+00 24 49 15
3.581349e-01 4.910098e-01 2.909626e+00 24 49 15
3.392964e-01 4.824186e-01 2.891753e+00 93 121 73
4.359762e-01 5.050375e-01 2.882123e+00 28 51 28
3.201710e-01 4.733895e-01 2.871448e+00 65 88 36
4.419851e-01 5.021294e-01 2.861652e+00 29 44 24
4.307324e-01 5.070390e-01 2.897144e+00 35 55 43
4.498525e-01 4.978981e-01 2.832231e+00 75 98 70
4.485838e-01 4.995156e-01 2.838595e+00 26 45 25
3.983532e-01 5.074025e-01 2.933071e+00 35 61 14
3.959856e-01 5.070082e-01 2.933204e+00 33 53 26
3.753704e-01 4.997969e-01 2.923806e+00 81 110 66
4.313434e-01 5.078171e-01 2.895781e+00 32 44 34
3.993022e-01 5.079001e-01 2.933210e+00 73 95 59
3.537605e-01 4.909426e-01 2.907034e+00 19 36 18
3.828750e-01 5.033585e-01 2.930001e+00 34 53 31
4.230545e-01 5.107213e-01 2.916142e+00 88 103 82
3.487254e-01 4.894111e-01 2.904000e+00 21 39 16
3.932772e-01 5.070380e-01 2.932893e+00 78 101 81
3.857502e-01 5.048886e-01 2.931368e+00 16 37 20
3.857502e-01 5.048886e-01 2.931368e+00 16 37 20
4.454762e-01 5.046649e-01 2.856719e+00 91 114 68
4.002918e-01 5.104499e-01 2.935314e+00 84 106 66
4.019958e-01 5.110527e-01 2.935313e+00 21 36 10
4.295511e-01 5.122731e-01 2.907081e+00 91 117 80
3.529603e-01 4.935062e-01 2.908635e+00 92 120 79
3.586373e-01 4.967895e-01 2.915441e+00 39 68 21
3.675953e-01 5.007159e-01 2.923066e+00 23 48 8
3.675953e-01 5.007159e-01 2.923066e+00 23 48 8
3.649639e-01 5.004305e-01 2.922087e+00 35 57 20
3.299243e-01 4.848251e-01 2.889303e+00 122 147 92
3.059140e-01 4.735042e-01 2.863349e+00 72 93 75
4.312352e-01 5.141029e-01 2.905710e+00 45 71 23
3.739013e-01 5.059103e-01 2.930068e+00 106 131 83
4.137900e-01 5.167678e-01 2.933971e+00 26 49 6
3.035997e-01 4.746970e-01 2.862233e+00 128 142 169
3.567425e-01 4.993645e-01 2.917368e+00 37 66 16
3.455207e-01 4.941145e-01 2.905834e+00 62 90 42
4.041462e-01 5.156010e-01 2.938674e+00 25 52 2
4.041462e-01 5.156010e-01 2.938674e+00 25 52 2
4.065258e-01 5.162537e-01 2.937919e+00 43 69 22
4.314382e-01 5.176950e-01 2.910384e+00 144 159 103
4.482337e-01 5.120351e-01 2.860498e+00 20 32 23
4.418318e-01 5.153033e-01 2.884578e+00 101 127 82
3.886330e-01 5.131577e-01 2.938406e+00 133 157 98
3.389666e-01 4.937349e-01 2.902782e+00 138 146 148
4.516115e-01 5.114544e-01 2.851068e+00 17 19 32
4.468300e-01 5.140882e-01 2.869142e+00 15 38 25
4.348847e-01 5.177792e-01 2.902401e+00 85 105 71
4.348847e-01 5.177792e-01 2.902401e+00 85 105 71
4.524955e-01 5.122362e-01 2.851625e+00 97 93 122
4.524955e-01 5.122362e-01 2.851625e+00 97 93 122
3.908938e-01 5.152184e-01 2.940762e+00 92 119 66
3.767160e-01 5.112625e-01 2.935008e+00 130 147 157
3.145289e-01 4.851080e-01 2.879710e+00 20 21 42
4.232205e-01 5.214154e-01 2.928414e+00 160 155 136
4.232205e-01 5.214154e-01 2.928414e+00 160 155 136
4.201383e-01 5.213854e-01 2.931886e+00 58 66 57
4.182079e-01 5.213900e-01 2.934621e+00 56 66 58
3.887597e-01 5.152868e-01 2.939886e+00 134 148 160
4.003363e-01 5.188781e-01 2.942866e+00 35 44 28
4.459758e-01 5.169738e-01 2.876022e+00 22 21 29
4.437379e-01 5.178200e-01 2.882984e+00 97 101 113
4.275583e-01 5.214812e-01 2.921916e+00 47 53 62
4.010721e-01 5.190895e-01 2.942267e+00 148 158 157
3.983755e-01 5.187168e-01 2.944109e+00 138 148 158
3.049561e-01 4.817049e-01 2.870493e+00 134 128 146
4.149460e-01 5.222191e-01 2.938302e+00 49 59 75
4.149460e-01 5.222191e-01 2.938302e+00 49 59 75
3.135739e-01 4.860217e-01 2.879914e+00 121 123 144
3.071390e-01 4.831178e-01 2.873473e+00 62 64 85
3.004802e-01 4.798479e-01 2.864797e+00 122 122 132
4.448613e-01 5.183762e-01 2.881113e+00 21 32 50
3.523677e-01 5.032778e-01 2.918989e+00 123 111 125
3.523677e-01 5.032778e-01 2.918989e+00 123 111 125
4.151762e-01 5.222975e-01 2.936594e+00 127 138 160
3.340090e-01 4.959142e-01 2.902488e+00 125 126 138
4.135787e-01 5.227453e-01 2.939389e+00 131 139 162
4.135787e-01 5.227453e-01 2.939389e+00 131 139 162
4.535028e-01 5.164309e-01 2.856188e+00 32 24 37
3.461608e-01 5.016616e-01 2.914423e+00 17 25 46
4.494043e-01 5.178811e-01 2.867729e+00 59 13 41
4.195839e-01 5.239058e-01 2.935404e+00 89 93 106
4.195839e-01 5.239058e-01 2.935404e+00 89 93 106
3.604137e-01 5.079231e-01 2.926885e+00 28 21 36
4.478726e-01 5.196527e-01 2.876234e+00 79 65 90
4.478726e-01 5.196527e-01 2.876234e+00 79 65 90
4.484293e-01 5.193785e-01 2.873556e+00 46 16 43
4.441115e-01 5.210936e-01 2.886313e+00 198 204 226
4.436101e-01 5.214766e-01 2.889215e+00 40 47 67
3.517391e-01 5.052372e-01 2.921024e+00 117 130 146
3.507318e-01 5.055862e-01 2.920429e+00 19 31 55
3.597646e-01 5.096302e-01 2.928035e+00 122 123 143
3.064660e-01 4.871608e-01 2.877678e+00 67 62 85
2.966187e-01 4.828665e-01 2.867536e+00 29 20 44
4.132783e-01 5.254154e-01 2.942417e+00 121 129 142
4.132783e-01 5.254154e-01 2.942417e+00 121 129 142
3.977987e-01 5.224748e-01 2.946205e+00 122 130 153
4.443232e-01 5.238144e-01 2.892342e+00 27 33 52
4.499470e-01 5.219944e-01 2.873996e+00 142 128 137
3.007154e-01 4.857666e-01 2.873132e+00 144 124 144
4.320053e-01 5.263599e-01 2.919809e+00 33 31 53
4.229746e-01 5.270447e-01 2.935028e+00 45 51 75
4.223159e-01 5.271223e-01 2.935531e+00 224 231 250
4.223159e-01 5.271223e-01 2.935531e+00 224 231 250
3.632357e-01 5.126154e-01 2.933337e+00 33 25 49
4.480114e-01 5.235245e-01 2.881673e+00 37 30 50
4.480114e-01 5.235245e-01 2.881673e+00 37 30 50
4.320730e-01 5.275666e-01 2.921968e+00 35 38 74
4.248400e-01 5.283028e-01 2.933656e+00 211 211 223
4.248400e-01 5.283028e-01 2.933656e+00 211 211 223
4.222421e-01 5.280482e-01 2.936205e+00 35 34 52
3.707131e-01 5.160751e-01 2.937520e+00 31 36 55
3.861764e-01 5.213626e-01 2.945059e+00 59 17 57
3.861764e-01 5.213626e-01 2.945059e+00 59 17 57
4.253569e-01 5.286780e-01 2.932981e+00 65 65 75
4.568171e-01 5.220490e-01 2.855616e+00 90 90 116
4.102534e-01 5.275068e-01 2.945273e+00 47 53 69
3.637092e-01 5.141919e-01 2.933397e+00 80 66 79
3.512502e-01 5.094029e-01 2.923723e+00 114 120 138
3.512502e-01 5.094029e-01 2.923723e+00 114 120 138
4.557273e-01 5.231818e-01 2.860463e+00 167 156 173
4.361186e-01 5.284435e-01 2.915189e+00 57 73 99
4.323949e-01 5.291369e-01 2.923430e+00 81 113 165
3.225202e-01 4.981479e-01 2.897889e+00 133 115 137
3.225202e-01 4.981479e-01 2.897889e+00 133 115 137
4.004791e-01 5.265800e-01 2.948514e+00 226 224 235
3.036378e-01 4.909969e-01 2.880149e+00 155 154 170
3.619179e-01 5.147995e-01 2.932924e+00 121 111 120
3.335728e-01 5.039335e-01 2.910354e+00 34 25 41
3.227634e-01 4.994698e-01 2.899750e+00 91 91 105
4.439854e-01 5.282010e-01 2.897755e+00 66 72 84
4.210662e-01 5.302262e-01 2.938854e+00 150 143 151
3.289027e-01 5.022557e-01 2.906057e+00 79 78 96
3.993827e-01 5.269486e-01 2.948645e+00 49 45 59
3.367095e-01 5.055302e-01 2.913089e+00 37 29 42
3.968467e-01 5.263355e-01 2.947422e+00 128 126 131
3.712843e-01 5.189693e-01 2.940068e+00 48 47 61
3.616287e-01 5.157571e-01 2.934327e+00 55 48 55
3.119395e-01 4.962226e-01 2.890379e+00 31 26 48
4.334171e-01 5.317956e-01 2.924212e+00 166 160 172
4.271362e-01 5.334039e-01 2.934769e+00 77 60 66
3.675861e-01 5.199572e-01 2.938467e+00 158 153 157
4.583196e-01 5.279963e-01 2.860489e+00 40 44 60
4.028271e-01 5.306918e-01 2.949371e+00 135 125 124
3.078661e-01 4.983117e-01 2.890116e+00 135 141 153
3.448021e-01 5.133919e-01 2.924644e+00 130 124 128
2.884617e-01 4.915480e-01 2.872232e+00 31 18 38
3.458822e-01 5.145622e-01 2.925618e+00 64 53 60
3.323972e-01 5.102449e-01 2.915434e+00 79 77 80
3.787379e-01 5.272014e-01 2.946844e+00 88 82 86
4.342035e-01 5.372672e-01 2.929069e+00 70 70 72
3.812779e-01 5.289243e-01 2.949117e+00 131 122 127
4.080788e-01 5.372831e-01 2.950987e+00 144 135 138
4.313153e-01 5.405862e-01 2.937345e+00 61 54 62
4.218179e-01 5.399830e-01 2.946633e+00 73 67 71
4.315120e-01 5.411181e-01 2.935964e+00 144 138 142
3.074572e-01 5.067917e-01 2.899386e+00 64 63 68
3.553452e-01 5.237183e-01 2.934774e+00 121 118 117
4.317032e-01 5.424453e-01 2.937892e+00 141 136 140
4.233777e-01 5.465091e-01 2.975138e+00 139 133 138
4.497055e-01 5.418499e-01 2.904949e+00 40 39 45
4.598417e-01 5.405267e-01 2.880865e+00 43 40 52
4.328322e-01 5.428223e-01 2.932188e+00 157 151 161
3.877424e-01 5.361704e-01 2.954285e+00 155 146 151
3.756920e-01 5.326585e-01 2.949573e+00 158 157 165
4.404311e-01 5.481712e-01 2.931556e+00 184 183 188
4.501655e-01 5.501136e-01 2.919398e+00 116 123 131
4.297271e-01 5.503482e-01 2.946543e+00 89 85 86
3.413585e-01 5.304623e-01 2.941906e+00 168 166 169
4.006732e-01 5.622459e-01 2.971404e+00 71 67 64
3.967620e-01 5.699520e-01 2.968627e+00 71 69 74
3.546278e-01 5.669366e-01 2.974805e+00 37 32 38
3.925415e-01 4.323027e-01 2.834526e+00 183 152 168
3.992123e-01 4.349037e-01 2.832701e+00 202 26 47
3.724032e-01 4.305515e-01 2.841061e+00 165 26 60
3.849438e-01 4.372378e-01 2.849944e+00 165 133 133
3.891012e-01 4.363653e-01 2.843125e+00 181 145 161
4.037686e-01 4.372522e-01 2.831317e+00 139 111 76
3.981311e-01 4.397664e-01 2.841540e+00 163 125 81
4.039793e-01 4.399254e-01 2.835381e+00 147 113 85
3.989242e-01 4.408789e-01 2.842357e+00 255 235 197
3.933316e-01 4.409825e-01 2.847443e+00 255 236 202
3.709685e-01 4.349771e-01 2.847205e+00 255 239 202
3.887862e-01 4.411240e-01 2.850532e+00 255 235 204
3.982121e-01 4.429054e-01 2.846377e+00 255 206 172
3.888772e-01 4.425373e-01 2.852759e+00 123 97 68
3.831317e-01 4.410909e-01 2.853217e+00 116 72 43
4.026932e-01 4.445291e-01 2.844676e+00 157 103 73
3.995616e-01 4.445886e-01 2.847895e+00 158 92 71
3.907465e-01 4.437561e-01 2.853276e+00 140 38 57
3.945535e-01 4.449332e-01 2.852584e+00 255 232 200
3.897104e-01 4.442380e-01 2.854880e+00 255 237 203
3.736915e-01 4.391955e-01 2.853190e+00 164 93 84
3.834395e-01 4.432048e-01 2.855653e+00 255 229 198
3.789282e-01 4.416987e-01 2.855014e+00 254 227 203
3.789282e-01 4.416987e-01 2.855014e+00 254 227 203
3.746489e-01 4.403364e-01 2.854172e+00 255 233 211
4.065190e-01 4.459984e-01 2.842367e+00 169 34 45
4.065190e-01 4.459984e-01 2.842367e+00 169 34 45
3.667555e-01 4.373813e-01 2.850692e+00 164 125 122
3.843648e-01 4.448432e-01 2.857826e+00 139 104 70
3.843648e-01 4.448432e-01 2.857826e+00 139 104 70
3.938048e-01 4.471553e-01 2.856385e+00 149 71 58
4.043859e-01 4.473296e-01 2.846759e+00 135 90 85
3.924920e-01 4.468372e-01 2.856296e+00 163 12 46
3.766819e-01 4.427883e-01 2.857275e+00 155 15 28
3.853035e-01 4.458320e-01 2.858857e+00 255 232 200
3.721134e-01 4.415677e-01 2.856102e+00 253 191 153
3.760885e-01 4.434859e-01 2.858404e+00 255 208 177
4.080406e-01 4.481748e-01 2.843567e+00 128 81 71
4.075937e-01 4.486078e-01 2.845267e+00 176 143 143
4.075937e-01 4.486078e-01 2.845267e+00 176 143 143
4.069786e-01 4.486623e-01 2.845899e+00 126 87 77
3.678438e-01 4.407055e-01 2.854769e+00 172 139 146
3.650704e-01 4.395813e-01 2.853368e+00 165 92 68
3.650704e-01 4.395813e-01 2.853368e+00 165 92 68
4.036950e-01 4.500686e-01 2.852011e+00 135 95 79
3.667606e-01 4.404818e-01 2.854311e+00 150 89 69
3.728797e-01 4.439788e-01 2.859064e+00 255 230 194
3.663232e-01 4.412697e-01 2.855573e+00 249 218 188
3.769606e-01 4.461495e-01 2.861753e+00 251 217 189
3.909279e-01 4.504400e-01 2.862608e+00 139 99 79
3.909279e-01 4.504400e-01 2.862608e+00 139 99 79
3.828013e-01 4.491365e-01 2.864703e+00 160 91 66
4.058693e-01 4.522926e-01 2.853510e+00 133 81 78
3.925971e-01 4.516129e-01 2.863395e+00 163 76 62
3.661499e-01 4.421687e-01 2.856698e+00 135 95 65
3.937252e-01 4.521004e-01 2.863492e+00 223 27 43
3.790127e-01 4.484379e-01 2.864824e+00 125 68 47
4.065631e-01 4.525791e-01 2.852703e+00 255 220 183
4.044664e-01 4.533456e-01 2.856809e+00 138 42 45
3.712440e-01 4.453400e-01 2.860788e+00 147 78 57
3.647245e-01 4.424298e-01 2.856548e+00 170 34 51
3.647245e-01 4.424298e-01 2.856548e+00 170 34 51
3.855395e-01 4.514799e-01 2.867112e+00 139 88 61
3.624385e-01 4.421350e-01 2.856238e+00 255 224 195
3.946371e-01 4.547432e-01 2.867150e+00 171 80 55
3.946371e-01 4.547432e-01 2.867150e+00 171 80 55
3.992523e-01 4.557087e-01 2.865967e+00 249 190 162
3.719452e-01 4.472580e-01 2.862691e+00 149 101 74
3.609454e-01 4.423748e-01 2.856319e+00 255 190 159
4.048223e-01 4.555876e-01 2.859515e+00 142 91 92
4.048223e-01 4.555876e-01 2.859515e+00 142 91 92
3.956539e-01 4.555527e-01 2.868005e+00 254 190 161
4.034833e-01 4.559165e-01 2.861382e+00 189 85 66
3.990286e-01 4.570619e-01 2.867952e+00 159 83 73
3.980084e-01 4.570187e-01 2.868461e+00 194 66 67
3.980084e-01 4.570187e-01 2.868461e+00 194 66 67
4.034543e-01 4.574403e-01 2.864137e+00 255 244 205
3.939546e-01 4.570107e-01 2.871066e+00 135 79 60
3.995602e-01 4.577955e-01 2.868264e+00 251 215 201
3.924012e-01 4.568948e-01 2.871676e+00 172 76 52
3.924012e-01 4.568948e-01 2.871676e+00 172 76 52
3.898700e-01 4.565689e-01 2.872487e+00 166 88 76
3.886654e-01 4.562822e-01 2.872834e+00 223 36 58
3.656562e-01 4.470506e-01 2.862983e+00 165 162 158
4.088548e-01 4.577881e-01 2.858232e+00 115 98 89
4.088548e-01 4.577881e-01 2.858232e+00 115 98 89
4.077409e-01 4.582025e-01 2.860459e+00 143 95 91
3.809202e-01 4.540447e-01 2.871310e+00 162 159 153
4.011157e-01 4.586668e-01 2.867798e+00 166 100 95
3.984800e-01 4.592288e-01 2.871173e+00 169 92 72
4.025750e-01 4.595862e-01 2.868251e+00 179 160 170
3.752347e-01 4.528532e-01 2.870979e+00 253 201 179
3.960215e-01 4.598345e-01 2.874399e+00 136 89 75
3.876166e-01 4.577909e-01 2.874839e+00 170 98 77
3.841636e-01 4.569612e-01 2.874992e+00 156 88 77
3.937229e-01 4.594050e-01 2.874166e+00 169 159 175
3.937229e-01 4.594050e-01 2.874166e+00 169 159 175
3.700911e-01 4.513572e-01 2.868536e+00 140 92 93
3.700911e-01 4.513572e-01 2.868536e+00 140 92 93
3.683319e-01 4.506421e-01 2.867735e+00 138 98 97
3.586449e-01 4.455385e-01 2.859508e+00 153 99 92
3.760857e-01 4.543495e-01 2.872607e+00 116 90 80
3.760857e-01 4.543495e-01 2.872607e+00 116 90 80
3.741911e-01 4.534676e-01 2.871450e+00 122 93 89
3.741911e-01 4.534676e-01 2.871450e+00 122 93 89
3.635516e-01 4.485323e-01 2.864468e+00 132 87 83
3.635516e-01 4.485323e-01 2.864468e+00 132 87 83
3.810415e-01 4.564684e-01 2.875016e+00 123 93 87
3.984756e-01 4.609987e-01 2.873783e+00 92 76 86
3.656743e-01 4.497946e-01 2.866322e+00 127 92 81
3.656743e-01 4.497946e-01 2.866322e+00 127 92 81
4.185475e-01 4.618674e-01 2.848965e+00 141 138 149
4.185475e-01 4.618674e-01 2.848965e+00 141 138 149
4.256175e-01 4.666095e-01 2.842739e+00 100 105 102
4.136662e-01 4.746796e-01 2.878227e+00 95 95 87
4.174888e-01 4.740566e-01 2.871014e+00 105 96 91
4.112040e-01 4.754567e-01 2.882181e+00 100 96 84
4.132843e-01 4.755371e-01 2.880129e+00 89 87 74
3.429281e-01 4.531541e-01 2.862852e+00 84 85 79
4.334207e-01 4.681842e-01 2.826748e+00 63 65 52
4.320328e-01 4.718356e-01 2.836362e+00 100 108 95
3.350098e-01 4.528462e-01 2.858658e+00 87 105 91
3.496651e-01 4.611156e-01 2.874617e+00 68 76 55
4.246952e-01 4.794841e-01 2.865859e+00 105 102 109
4.330587e-01 4.747360e-01 2.838691e+00 35 46 30
4.239067e-01 4.805725e-01 2.870324e+00 120 120 125
3.319526e-01 4.527685e-01 2.856989e+00 46 60 37
3.873212e-01 4.799137e-01 2.903993e+00 119 122 105
4.244418e-01 4.817432e-01 2.871897e+00 204 203 208
4.331955e-01 4.761717e-01 2.840778e+00 102 111 90
3.493474e-01 4.631566e-01 2.876806e+00 45 61 24
3.493474e-01 4.631566e-01 2.876806e+00 45 61 24
3.419512e-01 4.590363e-01 2.868668e+00 47 61 35
4.260540e-01 4.807420e-01 2.865674e+00 163 168 146
3.890988e-01 4.810673e-01 2.905129e+00 140 144 129
3.890988e-01 4.810673e-01 2.905129e+00 140 144 129
4.422771e-01 4.698473e-01 2.804863e+00 39 58 13
4.422821e-01 4.698578e-01 2.804897e+00 39 58 13
4.281002e-01 4.803723e-01 2.860958e+00 61 75 48
3.734080e-01 4.753431e-01 2.897749e+00 114 126 78
4.012235e-01 4.855800e-01 2.906114e+00 62 71 34
4.194495e-01 4.854786e-01 2.886603e+00 80 79 84
4.194495e-01 4.854786e-01 2.886603e+00 80 79 84
4.390284e-01 4.738184e-01 2.819091e+00 58 70 30
4.343636e-01 4.782449e-01 2.841336e+00 116 132 105
4.307584e-01 4.808448e-01 2.855283e+00 119 136 93
4.307584e-01 4.808448e-01 2.855283e+00 119 136 93
3.375748e-01 4.596662e-01 2.867396e+00 114 126 86
3.801608e-01 4.804272e-01 2.904480e+00 128 137 95
4.253435e-01 4.846694e-01 2.873416e+00 129 130 135
4.247230e-01 4.852372e-01 2.876160e+00 135 137 142
4.242050e-01 4.853328e-01 2.876905e+00 139 140 145
4.310159e-01 4.822351e-01 2.856826e+00 58 77 31
4.354842e-01 4.791463e-01 2.839756e+00 64 79 43
4.212422e-01 4.871255e-01 2.886124e+00 140 141 145
4.205206e-01 4.869938e-01 2.886330e+00 151 151 155
4.199303e-01 4.872813e-01 2.887845e+00 143 142 147
4.195619e-01 4.879188e-01 2.890535e+00 148 145 152
3.907197e-01 4.852025e-01 2.909963e+00 117 127 68
4.180337e-01 4.878857e-01 2.891786e+00 142 139 146
4.174536e-01 4.883633e-01 2.893953e+00 145 140 145
4.279891e-01 4.848388e-01 2.868451e+00 51 53 49
3.612847e-01 4.734331e-01 2.892686e+00 44 54 19
3.612847e-01 4.734331e-01 2.892686e+00 44 54 19
4.230083e-01 4.875256e-01 2.883445e+00 68 68 70
4.230083e-01 4.875256e-01 2.883445e+00 68 68 70
4.213830e-01 4.879467e-01 2.886307e+00 57 58 63
3.296364e-01 4.574845e-01 2.860516e+00 56 67 36
3.296364e-01 4.574845e-01 2.860516e+00 56 67 36
3.476633e-01 4.669526e-01 2.879148e+00 106 121 82
4.383496e-01 4.801148e-01 2.833924e+00 105 118 100
4.422345e-01 4.769653e-01 2.816811e+00 60 69 49
3.395406e-01 4.641217e-01 2.872851e+00 99 110 78
3.516176e-01 4.707586e-01 2.885822e+00 55 58 32
4.433930e-01 4.773900e-01 2.814385e+00 56 71 48
3.529373e-01 4.718515e-01 2.887557e+00 107 108 83
4.321071e-01 4.861723e-01 2.860365e+00 60 65 58
4.360886e-01 4.842842e-01 2.847434e+00 62 68 53
4.140415e-01 4.926169e-01 2.905114e+00 62 60 61
4.343848e-01 4.864850e-01 2.855496e+00 71 79 43
4.105199e-01 4.935289e-01 2.909145e+00 132 134 129
4.163083e-01 4.934683e-01 2.901897e+00 199 198 203
4.163083e-01 4.934683e-01 2.901897e+00 199 198 203
3.579446e-01 4.764354e-01 2.894712e+00 50 64 38
3.579446e-01 4.764354e-01 2.894712e+00 50 64 38
4.385979e-01 4.838599e-01 2.838373e+00 42 44 30
4.333681e-01 4.886727e-01 2.861846e+00 74 81 74
4.077702e-01 4.957016e-01 2.917237e+00 65 78 58
3.938737e-01 4.924403e-01 2.917816e+00 58 72 36
4.149697e-01 4.955903e-01 2.907686e+00 145 135 136
3.851038e-01 4.900387e-01 2.916016e+00 45 59 34
4.294814e-01 4.925765e-01 2.877891e+00 151 150 158
4.288623e-01 4.927191e-01 2.879165e+00 157 156 164
4.061465e-01 4.956146e-01 2.915461e+00 28 31 14
4.097476e-01 4.962545e-01 2.913867e+00 77 81 64
4.185821e-01 4.959141e-01 2.902711e+00 90 88 93
4.164792e-01 4.962593e-01 2.906484e+00 99 97 100
4.152998e-01 4.962817e-01 2.907528e+00 97 91 97
3.375065e-01 4.691654e-01 2.877258e+00 107 121 86
3.706746e-01 4.854501e-01 2.908874e+00 120 130 92
4.308774e-01 4.936037e-01 2.876587e+00 127 129 144
4.087998e-01 4.974142e-01 2.916319e+00 76 85 67
4.087998e-01 4.974142e-01 2.916319e+00 76 85 67
4.024499e-01 4.968346e-01 2.920295e+00 37 48 14
3.988068e-01 4.960278e-01 2.920428e+00 81 98 46
3.826691e-01 4.911027e-01 2.917062e+00 46 57 14
4.211745e-01 4.976088e-01 2.900976e+00 113 115 127
4.381047e-01 4.908873e-01 2.853437e+00 83 102 66
4.385998e-01 4.906357e-01 2.851480e+00 33 58 18
4.385998e-01 4.906357e-01 2.851480e+00 33 58 18
3.908244e-01 4.948526e-01 2.921524e+00 108 125 71
3.722958e-01 4.879246e-01 2.911854e+00 44 65 19
3.722958e-01 4.879246e-01 2.911854e+00 44 65 19
3.722958e-01 4.879246e-01 2.911854e+00 44 65 19
4.461103e-01 4.856111e-01 2.820550e+00 55 67 31
3.471241e-01 4.764092e-01 2.890101e+00 119 136 104
3.471241e-01 4.764092e-01 2.890101e+00 119 136 104
3.789224e-01 4.912727e-01 2.916916e+00 56 76 27
4.359292e-01 4.937286e-01 2.864391e+00 56 68 30
3.396516e-01 4.729729e-01 2.882148e+00 54 78 28
3.950948e-01 4.971438e-01 2.923101e+00 118 136 96
3.413774e-01 4.742676e-01 2.884468e+00 113 137 91
3.413774e-01 4.742676e-01 2.884468e+00 113 137 91
3.631832e-01 4.850706e-01 2.906107e+00 107 136 82
4.049106e-01 4.995232e-01 2.921703e+00 92 109 71
4.049106e-01 4.995232e-01 2.921703e+00 92 109 71
4.431914e-01 4.898799e-01 2.837159e+00 48 75 19
3.622357e-01 4.849269e-01 2.905490e+00 38 65 14
3.641341e-01 4.858962e-01 2.907220e+00 55 84 26
3.641341e-01 4.858962e-01 2.907220e+00 55 84 26
3.098969e-01 4.584291e-01 2.849526e+00 20 47 6
4.469062e-01 4.875523e-01 2.822298e+00 28 41 11
3.956689e-01 4.981942e-01 2.923901e+00 39 61 19
3.956689e-01 4.981942e-01 2.923901e+00 39 61 19
3.796289e-01 4.931605e-01 2.918919e+00 44 65 7
3.137513e-01 4.618723e-01 2.855375e+00 38 61 15
3.719839e-01 4.906423e-01 2.914611e+00 111 132 78
4.360911e-01 4.964553e-01 2.868008e+00 101 120 74
3.639801e-01 4.881565e-01 2.909476e+00 32 55 1
3.639801e-01 4.881565e-01 2.909476e+00 32 55 1
4.328256e-01 4.992565e-01 2.880681e+00 43 59 30
4.419422e-01 4.945417e-01 2.848899e+00 31 55 3
4.419422e-01 4.945417e-01 2.848899e+00 31 55 3
3.798692e-01 4.956852e-01 2.921512e+00 135 148 95
3.334377e-01 4.746088e-01 2.880332e+00 67 90 33
3.292282e-01 4.726246e-01 2.875960e+00 51 73 11
4.064916e-01 5.038308e-01 2.925891e+00 76 90 48
3.877421e-01 4.989441e-01 2.925471e+00 38 54 6
3.463930e-01 4.814634e-01 2.894686e+00 105 125 62
4.100736e-01 5.042922e-01 2.923238e+00 115 132 100
4.333064e-01 5.010297e-01 2.881962e+00 53 84 24
3.783499e-01 4.962490e-01 2.921976e+00 55 78 26
4.487042e-01 4.928574e-01 2.826910e+00 31 54 22
4.487042e-01 4.928574e-01 2.826910e+00 31 54 22
3.526313e-01 4.853415e-01 2.901539e+00 110 132 84
4.366849e-01 5.004164e-01 2.873069e+00 97 125 64
4.282833e-01 5.038621e-01 2.897954e+00 69 87 63
4.470276e-01 4.941344e-01 2.833086e+00 103 126 85
3.212674e-01 4.706620e-01 2.870726e+00 112 136 74
4.226439e-01 5.051974e-01 2.908636e+00 68 85 51
3.729546e-01 4.948969e-01 2.919036e+00 118 135 81
4.205086e-01 5.058957e-01 2.913820e+00 83 104 69
4.435876e-01 4.975155e-01 2.849526e+00 109 139 77
4.278859e-01 5.044549e-01 2.897839e+00 114 131 99
4.425111e-01 4.994301e-01 2.856713e+00 28 44 9
4.335201e-01 5.036349e-01 2.885987e+00 97 126 80
4.245170e-01 5.063406e-01 2.908197e+00 87 107 80
4.245170e-01 5.063406e-01 2.908197e+00 87 107 80
3.511425e-01 4.862822e-01 2.901751e+00 29 52 6
4.400963e-01 5.004479e-01 2.863054e+00 34 52 28
4.400963e-01 5.004479e-01 2.863054e+00 34 52 28
3.500344e-01 4.860334e-01 2.900683e+00 42 70 21
4.241301e-01 5.067935e-01 2.908928e+00 23 48 18
3.433330e-01 4.830637e-01 2.894619e+00 25 61 13
3.433330e-01 4.830637e-01 2.894619e+00 25 61 13
3.755576e-01 4.975699e-01 2.922647e+00 32 51 7
4.337861e-01 5.045299e-01 2.886799e+00 41 65 32
4.175140e-01 5.077991e-01 2.920264e+00 101 120 88
3.585343e-01 4.905912e-01 2.909694e+00 28 55 14
3.448879e-01 4.841819e-01 2.896342e+00 26 57 13
3.552665e-01 4.891029e-01 2.906393e+00 6 35 1
4.316554e-01 5.061176e-01 2.894278e+00 61 78 46
4.316554e-01 5.061176e-01 2.894278e+00 61 78 46
3.870891e-01 5.026762e-01 2.929572e+00 130 147 110
3.870891e-01 5.026762e-01 2.929572e+00 130 147 110
3.636814e-01 4.933222e-01 2.913963e+00 45 56 21
3.566625e-01 4.902304e-01 2.908185e+00 74 100 63
3.566625e-01 4.902304e-01 2.908185e+00 74 100 63
3.708332e-01 4.967081e-01 2.920353e+00 23 39 3
4.323825e-01 5.061112e-01 2.891953e+00 22 40 16
3.824282e-01 5.013469e-01 2.927455e+00 28 49 16
4.312926e-01 5.068343e-01 2.895974e+00 141 154 134
4.312926e-01 5.068343e-01 2.895974e+00 141 154 134
4.038699e-01 5.076299e-01 2.931187e+00 91 122 81
4.429890e-01 5.015530e-01 2.858193e+00 102 118 91
4.268368e-01 5.082508e-01 2.906474e+00 90 110 82
4.232499e-01 5.088349e-01 2.913213e+00 125 147 111
4.025041e-01 5.078052e-01 2.932280e+00 105 137 90
3.574816e-01 4.917523e-01 2.910409e+00 22 46 15
4.373769e-01 5.050471e-01 2.878777e+00 90 107 88
4.373769e-01 5.050471e-01 2.878777e+00 90 107 88
4.246202e-01 5.089372e-01 2.911261e+00 27 49 22
4.140749e-01 5.095037e-01 2.925512e+00 101 123 74
3.414913e-01 4.845305e-01 2.894840e+00 88 117 71
4.451034e-01 5.015383e-01 2.852625e+00 92 113 98
4.451034e-01 5.015383e-01 2.852625e+00 92 113 98
3.250048e-01 4.767391e-01 2.877438e+00 84 116 67
4.333022e-01 5.073175e-01 2.891862e+00 16 32 27
4.138026e-01 5.100382e-01 2.926764e+00 8 34 0
4.138026e-01 5.100382e-01 2.926764e+00 8 34 0
4.319145e-01 5.077152e-01 2.895143e+00 48 61 44
3.125937e-01 4.709117e-01 2.864085e+00 38 63 23
4.410854e-01 5.043819e-01 2.868144e+00 83 100 84
4.298568e-01 5.088960e-01 2.901903e+00 21 37 28
4.298568e-01 5.088960e-01 2.901903e+00 21 37 28
3.997213e-01 5.078252e-01 2.932066e+00 41 58 22
4.075415e-01 5.097546e-01 2.931196e+00 36 61 21
4.010035e-01 5.085279e-01 2.933065e+00 37 48 16
3.891906e-01 5.054993e-01 2.932333e+00 26 49 13
3.790636e-01 5.020493e-01 2.927470e+00 42 61 31
3.790636e-01 5.020493e-01 2.927470e+00 42 61 31
4.213542e-01 5.108756e-01 2.918993e+00 16 37 18
3.973365e-01 5.083835e-01 2.934387e+00 92 112 84
3.669371e-01 4.976549e-01 2.919644e+00 15 41 2
4.022286e-01 5.098313e-01 2.934255e+00 32 47 26
4.047169e-01 5.104432e-01 2.933681e+00 92 117 75
3.980776e-01 5.090361e-01 2.934615e+00 22 38 12
3.964045e-01 5.086242e-01 2.934650e+00 28 47 19
3.424126e-01 4.869666e-01 2.897495e+00 21 49 8
3.424126e-01 4.869666e-01 2.897495e+00 21 49 8
3.999077e-01 5.095829e-01 2.934838e+00 26 45 15
3.875108e-01 5.061672e-01 2.932883e+00 37 57 30
4.391967e-01 5.073812e-01 2.877870e+00 30 55 25
3.503455e-01 4.917215e-01 2.907054e+00 20 37 19
3.700375e-01 5.002416e-01 2.923333e+00 37 55 29
4.161593e-01 5.127834e-01 2.927531e+00 27 47 19
4.041127e-01 5.113381e-01 2.934970e+00 13 33 5
4.071964e-01 5.120966e-01 2.933987e+00 96 121 81
3.709940e-01 5.010720e-01 2.924664e+00 30 49 21
3.067630e-01 4.714408e-01 2.861087e+00 54 86 21
4.422160e-01 5.075859e-01 2.870925e+00 88 114 69
4.025542e-01 5.114827e-01 2.935475e+00 32 52 24
4.025542e-01 5.114827e-01 2.935475e+00 32 52 24
3.984127e-01 5.109356e-01 2.935871e+00 48 64 28
4.239847e-01 5.142645e-01 2.919237e+00 129 154 96
3.425798e-01 4.907101e-01 2.901642e+00 105 128 82
4.465967e-01 5.078239e-01 2.859071e+00 27 57 16
3.593038e-01 4.981485e-01 2.916967e+00 98 127 73
4.096904e-01 5.145043e-01 2.934499e+00 110 143 88
3.510782e-01 4.950146e-01 2.910333e+00 106 134 85
3.374818e-01 4.891285e-01 2.897524e+00 110 137 85
4.325403e-01 5.144313e-01 2.903610e+00 128 153 96
3.841907e-01 5.090486e-01 2.935188e+00 51 80 22
3.841907e-01 5.090486e-01 2.935188e+00 51 80 22
3.592329e-01 4.994159e-01 2.918347e+00 53 82 22
4.068136e-01 5.153944e-01 2.937410e+00 101 130 74
3.754885e-01 5.064474e-01 2.930720e+00 49 75 27
4.282362e-01 5.166847e-01 2.915189e+00 51 80 27
4.029782e-01 5.152751e-01 2.938855e+00 37 61 14
3.569956e-01 4.995903e-01 2.918003e+00 36 66 16
4.020255e-01 5.152639e-01 2.939112e+00 30 55 15
4.020255e-01 5.152639e-01 2.939112e+00 30 55 15
4.241813e-01 5.176269e-01 2.923353e+00 130 155 100
4.057644e-01 5.163061e-01 2.939103e+00 65 93 42
4.187322e-01 5.178050e-01 2.929950e+00 62 87 30
3.300165e-01 4.883432e-01 2.892299e+00 137 150 154
4.393171e-01 5.149829e-01 2.889400e+00 52 82 28
3.482599e-01 4.967641e-01 2.910414e+00 132 158 121
4.197597e-01 5.183376e-01 2.929471e+00 139 158 103
3.294453e-01 4.885527e-01 2.892591e+00 56 68 84
3.739123e-01 5.075533e-01 2.931402e+00 135 159 109
3.739123e-01 5.075533e-01 2.931402e+00 135 159 109
3.739123e-01 5.075533e-01 2.931402e+00 135 159 109
3.373351e-01 4.923536e-01 2.900682e+00 49 61 58
3.721548e-01 5.075308e-01 2.930716e+00 55 75 25
3.721548e-01 5.075308e-01 2.930716e+00 55 75 25
3.430866e-01 4.957529e-01 2.906730e+00 153 165 161
3.284538e-01 4.893035e-01 2.892196e+00 126 140 166
3.844778e-01 5.123618e-01 2.938090e+00 64 90 34
4.266049e-01 5.199030e-01 2.922330e+00 73 92 48
3.570434e-01 5.023252e-01 2.920143e+00 47 67 67
3.833417e-01 5.128810e-01 2.938134e+00 85 110 76
3.579502e-01 5.033260e-01 2.921444e+00 200 216 241
3.579502e-01 5.033260e-01 2.921444e+00 200 216 241
3.564994e-01 5.028351e-01 2.920270e+00 212 229 248
3.564994e-01 5.028351e-01 2.920270e+00 212 229 248
4.303787e-01 5.201373e-01 2.915377e+00 21 34 14
3.062753e-01 4.808422e-01 2.870725e+00 56 62 88
4.295786e-01 5.205375e-01 2.917271e+00 41 55 31
3.588985e-01 5.050280e-01 2.923529e+00 207 222 249
3.588985e-01 5.050280e-01 2.923529e+00 207 222 249
4.226292e-01 5.220368e-01 2.929796e+00 115 121 133
3.310329e-01 4.934718e-01 2.898241e+00 137 149 161
4.507265e-01 5.155830e-01 2.860572e+00 157 166 183
4.414384e-01 5.190809e-01 2.889972e+00 19 24 44
4.081951e-01 5.211284e-01 2.941657e+00 159 132 126
4.048245e-01 5.205468e-01 2.942978e+00 31 47 46
3.418616e-01 4.986887e-01 2.909048e+00 113 106 118
3.042304e-01 4.819208e-01 2.870715e+00 64 64 76
4.403028e-01 5.196242e-01 2.892490e+00 142 144 159
3.534998e-01 5.037935e-01 2.919508e+00 42 46 72
4.141590e-01 5.225190e-01 2.939031e+00 37 45 68
4.141590e-01 5.225190e-01 2.939031e+00 37 45 68
3.915393e-01 5.177494e-01 2.942928e+00 132 138 160
4.541256e-01 5.151430e-01 2.850728e+00 20 12 25
3.848273e-01 5.158264e-01 2.940812e+00 130 122 137
4.339254e-01 5.220294e-01 2.911000e+00 27 32 54
4.339254e-01 5.220294e-01 2.911000e+00 27 32 54
3.154405e-01 4.882872e-01 2.884083e+00 114 116 131
3.154405e-01 4.882872e-01 2.884083e+00 114 116 131
4.533610e-01 5.164353e-01 2.855746e+00 38 27 41
3.461759e-01 5.016754e-01 2.914401e+00 20 28 49
4.444540e-01 5.205088e-01 2.886352e+00 39 45 71
4.133002e-01 5.234733e-01 2.940674e+00 59 65 91
4.491135e-01 5.189052e-01 2.870882e+00 152 102 127
4.296320e-01 5.239919e-01 2.921669e+00 144 148 160
4.127424e-01 5.235734e-01 2.940926e+00 125 130 152
4.096914e-01 5.231003e-01 2.942167e+00 126 132 148
3.591954e-01 5.077582e-01 2.925716e+00 113 109 123
3.110282e-01 4.876287e-01 2.880684e+00 119 123 135
3.306529e-01 4.962329e-01 2.900458e+00 80 95 119
3.413885e-01 5.015964e-01 2.912411e+00 22 30 55
4.285279e-01 5.252188e-01 2.925253e+00 81 86 106
3.029637e-01 4.848026e-01 2.872860e+00 57 60 79
4.465721e-01 5.215014e-01 2.881968e+00 118 114 128
4.358925e-01 5.244625e-01 2.910601e+00 22 24 45
4.358925e-01 5.244625e-01 2.910601e+00 22 24 45
4.438430e-01 5.227688e-01 2.891008e+00 202 208 232
4.438430e-01 5.227688e-01 2.891008e+00 202 208 232
4.512561e-01 5.205302e-01 2.866954e+00 115 104 115
3.854541e-01 5.192150e-01 2.943487e+00 37 29 53
3.341155e-01 5.004987e-01 2.909096e+00 194 204 231
4.183696e-01 5.266110e-01 2.938944e+00 60 65 84
4.111858e-01 5.259565e-01 2.943966e+00 53 51 65
3.782877e-01 5.172515e-01 2.939671e+00 71 72 90
4.076193e-01 5.262074e-01 2.948481e+00 72 77 96
4.456854e-01 5.239866e-01 2.888123e+00 147 133 156
4.446492e-01 5.244757e-01 2.891696e+00 224 211 232
3.619967e-01 5.118919e-01 2.930902e+00 33 23 55
4.233719e-01 5.273101e-01 2.933952e+00 212 219 238
4.233719e-01 5.273101e-01 2.933952e+00 212 219 238
3.261373e-01 4.976077e-01 2.899375e+00 178 188 215
3.261373e-01 4.976077e-01 2.899375e+00 178 188 215
4.425278e-01 5.256473e-01 2.897862e+00 125 124 138
4.377107e-01 5.268213e-01 2.910000e+00 39 51 76
3.727472e-01 5.165987e-01 2.938489e+00 148 155 174
3.643938e-01 5.138155e-01 2.933992e+00 173 161 172
3.393611e-01 5.038482e-01 2.912566e+00 23 25 40
3.999415e-01 5.250653e-01 2.947860e+00 128 130 143
3.010500e-01 4.877649e-01 2.875226e+00 171 152 176
3.706945e-01 5.160969e-01 2.937465e+00 28 33 52
4.368331e-01 5.275710e-01 2.912957e+00 29 41 65
4.157878e-01 5.280149e-01 2.942655e+00 47 48 67
4.440531e-01 5.262209e-01 2.895810e+00 56 58 73
2.925089e-01 4.846743e-01 2.866762e+00 91 81 98
4.351784e-01 5.280117e-01 2.915769e+00 68 73 92
4.562738e-01 5.224550e-01 2.857652e+00 42 40 56
3.264246e-01 4.994831e-01 2.901627e+00 214 211 234
3.030471e-01 4.896221e-01 2.878461e+00 40 28 48
4.349513e-01 5.286479e-01 2.917992e+00 189 192 207
4.231508e-01 5.291054e-01 2.935680e+00 47 48 69
4.184373e-01 5.290070e-01 2.941036e+00 57 60 69
4.079435e-01 5.286040e-01 2.950480e+00 69 67 72
4.432328e-01 5.276207e-01 2.899136e+00 125 123 137
4.103339e-01 5.281683e-01 2.945113e+00 195 201 213
4.103339e-01 5.281683e-01 2.945113e+00 195 201 213
3.496108e-01 5.098006e-01 2.923535e+00 50 57 67
4.559169e-01 5.239814e-01 2.861104e+00 37 34 51
4.112649e-01 5.287067e-01 2.945643e+00 38 40 52
4.234949e-01 5.300520e-01 2.936522e+00 173 166 188
3.869305e-01 5.231398e-01 2.946544e+00 73 54 73
3.869305e-01 5.231398e-01 2.946544e+00 73 54 73
3.191342e-01 4.977690e-01 2.896387e+00 39 33 43
3.191342e-01 4.977690e-01 2.896387e+00 39 33 43
3.259715e-01 5.006886e-01 2.902672e+00 59 65 89
4.244278e-01 5.304374e-01 2.935926e+00 55 52 73
4.362557e-01 5.300483e-01 2.917345e+00 54 59 78
3.277187e-01 5.020363e-01 2.905492e+00 197 200 221
3.277187e-01 5.020363e-01 2.905492e+00 197 200 221
3.027952e-01 4.914675e-01 2.880058e+00 91 93 106
3.027952e-01 4.914675e-01 2.880058e+00 91 93 106
4.149035e-01 5.302802e-01 2.945056e+00 132 124 132
3.199577e-01 4.993872e-01 2.898349e+00 27 24 33
4.375673e-01 5.306290e-01 2.915499e+00 36 41 60
4.306574e-01 5.308133e-01 2.925877e+00 53 44 56
3.359128e-01 5.058363e-01 2.912424e+00 138 131 143
4.126023e-01 5.303164e-01 2.945714e+00 40 38 58
4.144470e-01 5.309409e-01 2.945408e+00 47 44 53
3.722626e-01 5.202042e-01 2.940998e+00 134 132 146
4.154107e-01 5.311648e-01 2.944782e+00 37 30 37
4.409643e-01 5.310514e-01 2.908473e+00 156 158 173
3.667679e-01 5.189578e-01 2.939263e+00 130 121 121
3.619985e-01 5.173524e-01 2.935751e+00 63 56 62
3.185808e-01 5.009674e-01 2.898902e+00 28 26 40
4.575411e-01 5.277676e-01 2.863152e+00 89 97 110
4.530510e-01 5.303520e-01 2.880217e+00 114 117 134
3.663414e-01 5.200871e-01 2.937062e+00 99 93 95
4.570732e-01 5.299890e-01 2.867378e+00 35 38 53
3.694177e-01 5.225464e-01 2.942085e+00 129 126 135
3.560367e-01 5.180915e-01 2.934023e+00 113 108 114
3.399359e-01 5.121291e-01 2.921003e+00 148 146 151
4.196133e-01 5.342318e-01 2.939297e+00 127 116 120
3.070282e-01 5.002280e-01 2.893234e+00 171 175 187
4.468134e-01 5.346243e-01 2.902184e+00 96 100 112
3.433998e-01 5.145671e-01 2.924850e+00 112 107 113
4.133822e-01 5.353605e-01 2.948950e+00 195 193 206
4.050590e-01 5.356637e-01 2.952047e+00 130 124 128
4.519874e-01 5.372442e-01 2.893854e+00 89 91 103
4.513604e-01 5.375127e-01 2.896385e+00 88 86 97
4.472538e-01 5.383482e-01 2.905695e+00 50 53 65
4.036578e-01 5.365489e-01 2.955603e+00 128 123 123
4.574275e-01 5.367267e-01 2.879668e+00 43 41 57
4.021852e-01 5.364796e-01 2.952619e+00 64 58 60
4.193433e-01 5.396041e-01 2.946955e+00 162 155 162
4.523897e-01 5.391471e-01 2.895642e+00 24 27 36
4.255377e-01 5.413624e-01 2.942692e+00 59 53 55
3.418365e-01 5.197875e-01 2.928562e+00 162 153 154
4.492782e-01 5.415809e-01 2.908457e+00 54 61 69
3.006789e-01 5.063212e-01 2.895096e+00 84 81 92
3.379494e-01 5.205573e-01 2.929922e+00 141 136 143
4.171083e-01 5.419660e-01 2.949149e+00 171 165 167
3.127344e-01 5.123010e-01 2.908636e+00 109 107 118
4.029389e-01 5.409041e-01 2.955901e+00 129 118 122
3.262183e-01 5.187348e-01 2.926475e+00 92 92 103
4.169854e-01 5.433672e-01 2.950305e+00 142 133 134
4.605490e-01 5.433584e-01 2.882289e+00 33 31 45
3.153461e-01 5.153365e-01 2.914320e+00 113 112 125
4.051322e-01 5.416891e-01 2.952404e+00 144 138 142
4.626615e-01 5.447875e-01 2.880648e+00 120 122 134
4.226345e-01 5.468933e-01 2.951233e+00 35 29 33
3.416224e-01 5.267914e-01 2.936757e+00 119 114 120
3.416224e-01 5.267914e-01 2.936757e+00 119 114 120
4.395770e-01 5.492781e-01 2.935775e+00 100 99 106
4.404144e-01 5.492447e-01 2.934110e+00 102 102 110
4.397923e-01 5.498295e-01 2.935909e+00 182 181 189
3.917564e-01 5.458420e-01 2.977372e+00 162 152 150
4.285071e-01 5.704551e-01 2.971592e+00 80 72 73
3.548365e-01 5.605234e-01 2.976767e+00 21 19 32
3.636032e-01 5.673054e-01 2.973240e+00 35 33 36
4.109471e-01 5.914738e-01 2.957551e+00 141 140 145
4.118630e-01 6.023743e-01 2.953846e+00 153 148 152
3.758183e-01 4.277900e-01 2.836128e+00 185 155 168
3.921801e-01 4.326721e-01 2.835486e+00 202 27 46
3.882794e-01 4.332286e-01 2.839451e+00 187 144 166
3.758702e-01 4.330329e-01 2.844043e+00 255 244 205
3.825120e-01 4.384561e-01 2.849752e+00 145 97 57
3.789591e-01 4.377576e-01 2.849742e+00 138 15 32
3.774499e-01 4.379229e-01 2.850339e+00 255 235 202
3.719818e-01 4.365694e-01 2.849524e+00 140 106 78
3.893842e-01 4.424529e-01 2.852246e+00 135 104 75
3.819247e-01 4.406591e-01 2.852907e+00 187 103 94
3.819247e-01 4.406591e-01 2.852907e+00 187 103 94
3.762040e-01 4.388037e-01 2.851957e+00 165 114 108
3.748576e-01 4.385264e-01 2.851489e+00 210 127 124
4.053056e-01 4.435916e-01 2.839282e+00 253 232 183
3.956652e-01 4.445813e-01 2.850827e+00 134 35 52
3.881820e-01 4.437169e-01 2.854657e+00 145 63 72
3.691598e-01 4.371856e-01 2.850257e+00 175 89 68
4.079608e-01 4.442926e-01 2.837242e+00 253 233 194
3.965799e-01 4.459392e-01 2.852946e+00 169 125 133
4.046642e-01 4.455617e-01 2.843866e+00 238 177 155
3.859702e-01 4.441715e-01 2.856508e+00 209 104 97
3.944849e-01 4.460830e-01 2.854348e+00 135 93 59
4.069161e-01 4.455458e-01 2.840826e+00 168 131 133
3.894548e-01 4.453838e-01 2.856527e+00 135 98 72
3.894548e-01 4.453838e-01 2.856527e+00 135 98 72
4.006539e-01 4.472727e-01 2.850899e+00 198 126 138
4.059991e-01 4.472872e-01 2.845704e+00 148 95 70
3.736933e-01 4.412605e-01 2.855771e+00 167 109 106
3.712603e-01 4.401573e-01 2.854418e+00 163 26 33
4.006407e-01 4.484633e-01 2.853357e+00 166 71 73
3.835356e-01 4.452832e-01 2.858592e+00 190 114 100
3.901484e-01 4.472833e-01 2.858818e+00 255 236 212
4.015335e-01 4.493291e-01 2.853226e+00 177 16 35
3.934880e-01 4.487452e-01 2.858915e+00 157 8 27
3.853632e-01 4.470973e-01 2.860869e+00 130 92 65
3.853632e-01 4.470973e-01 2.860869e+00 130 92 65
4.087863e-01 4.484452e-01 2.842827e+00 255 233 203
4.010865e-01 4.495517e-01 2.853737e+00 202 140 130
3.844850e-01 4.470527e-01 2.861160e+00 141 80 62
3.628706e-01 4.375852e-01 2.849674e+00 169 32 55
3.871828e-01 4.484747e-01 2.862284e+00 253 203 169
3.763795e-01 4.449686e-01 2.860606e+00 166 90 68
3.763795e-01 4.449686e-01 2.860606e+00 166 90 68
3.852739e-01 4.481470e-01 2.862478e+00 255 234 202
3.852739e-01 4.481470e-01 2.862478e+00 255 234 202
3.800121e-01 4.465125e-01 2.861528e+00 255 226 202
4.032329e-01 4.510031e-01 2.854059e+00 255 231 205
4.065826e-01 4.504663e-01 2.848819e+00 90 53 37
4.002411e-01 4.511372e-01 2.857216e+00 255 227 203
3.901729e-01 4.504306e-01 2.863240e+00 165 107 96
3.801648e-01 4.477775e-01 2.863706e+00 132 88 66
3.715309e-01 4.442161e-01 2.859642e+00 226 154 132
4.005269e-01 4.520053e-01 2.857968e+00 120 83 57
3.621972e-01 4.399825e-01 2.853205e+00 195 127 100
4.099631e-01 4.513110e-01 2.846032e+00 255 227 205
3.877129e-01 4.509145e-01 2.865510e+00 246 206 180
3.877129e-01 4.509145e-01 2.865510e+00 246 206 180
3.614278e-01 4.402324e-01 2.853643e+00 144 93 64
3.921243e-01 4.524216e-01 2.865391e+00 255 235 210
3.837144e-01 4.503255e-01 2.865936e+00 255 221 192
4.097583e-01 4.528369e-01 2.848823e+00 143 103 91
3.866985e-01 4.519679e-01 2.867437e+00 137 87 61
3.800572e-01 4.495397e-01 2.865720e+00 255 228 200
3.639225e-01 4.428227e-01 2.858070e+00 148 87 74
3.645509e-01 4.430481e-01 2.858012e+00 180 132 143
3.836041e-01 4.511418e-01 2.867123e+00 111 78 63
3.973147e-01 4.542739e-01 2.864441e+00 137 99 76
3.844044e-01 4.516328e-01 2.867808e+00 125 68 57
3.984467e-01 4.550039e-01 2.864977e+00 154 76 58
3.753241e-01 4.489009e-01 2.865688e+00 191 99 82
3.902084e-01 4.543222e-01 2.869276e+00 156 89 63
3.868626e-01 4.537165e-01 2.869621e+00 108 71 44
3.940380e-01 4.555664e-01 2.868806e+00 255 213 189
3.940380e-01 4.555664e-01 2.868806e+00 255 213 189
3.994716e-01 4.565476e-01 2.866159e+00 171 95 75
3.994716e-01 4.565476e-01 2.866159e+00 171 95 75
4.020019e-01 4.570779e-01 2.865177e+00 158 93 72
4.009361e-01 4.570563e-01 2.866068e+00 150 83 56
3.812760e-01 4.526526e-01 2.869570e+00 255 235 210
3.868753e-01 4.548184e-01 2.871299e+00 253 222 196
3.722701e-01 4.491290e-01 2.865867e+00 255 228 212
3.722701e-01 4.491290e-01 2.865867e+00 255 228 212
3.619505e-01 4.440456e-01 2.858442e+00 167 100 73
3.615763e-01 4.445808e-01 2.858930e+00 254 220 202
3.873352e-01 4.558181e-01 2.872413e+00 127 76 56
3.949336e-01 4.583906e-01 2.872734e+00 251 199 171
3.949336e-01 4.583906e-01 2.872734e+00 251 199 171
3.676326e-01 4.485434e-01 2.864993e+00 125 90 73
3.909126e-01 4.574761e-01 2.873191e+00 253 231 207
3.909126e-01 4.574761e-01 2.873191e+00 253 231 207
3.865876e-01 4.563286e-01 2.873511e+00 255 195 163
3.865876e-01 4.563286e-01 2.873511e+00 255 195 163
3.782964e-01 4.533039e-01 2.870945e+00 106 51 55
3.540088e-01 4.417282e-01 2.853976e+00 116 96 97
3.990911e-01 4.594855e-01 2.871096e+00 173 160 170
3.916809e-01 4.587517e-01 2.875224e+00 138 98 81
3.862554e-01 4.569052e-01 2.873701e+00 181 104 78
3.862554e-01 4.569052e-01 2.873701e+00 181 104 78
3.799671e-01 4.557259e-01 2.874004e+00 156 111 97
3.837157e-01 4.576375e-01 2.876101e+00 247 227 217
3.649985e-01 4.500795e-01 2.866575e+00 251 229 218
3.841630e-01 4.584444e-01 2.876790e+00 111 98 107
4.329715e-01 4.588471e-01 2.810141e+00 182 184 179
4.270491e-01 4.649760e-01 2.836641e+00 111 114 117
4.269386e-01 4.659735e-01 2.838630e+00 141 142 137
4.037291e-01 4.738927e-01 2.888363e+00 216 209 216
4.018555e-01 4.740811e-01 2.890407e+00 209 206 213
3.983839e-01 4.735384e-01 2.891997e+00 216 214 217
3.983839e-01 4.735384e-01 2.891997e+00 216 214 217
3.957636e-01 4.731967e-01 2.892935e+00 210 205 211
3.951045e-01 4.731167e-01 2.893003e+00 214 209 215
4.199803e-01 4.719786e-01 2.863367e+00 207 209 206
3.982184e-01 4.742706e-01 2.892901e+00 145 141 142
3.682173e-01 4.636349e-01 2.883588e+00 202 201 209
3.682173e-01 4.636349e-01 2.883588e+00 202 201 209
3.682173e-01 4.636349e-01 2.883588e+00 202 201 209
4.202568e-01 4.722168e-01 2.862778e+00 102 101 99
4.376233e-01 4.601541e-01 2.799492e+00 68 73 67
3.540520e-01 4.586629e-01 2.873664e+00 109 108 105
4.381601e-01 4.622532e-01 2.801651e+00 69 78 51
4.284028e-01 4.709606e-01 2.843791e+00 73 78 74
3.448225e-01 4.539708e-01 2.864530e+00 167 167 157
4.384514e-01 4.626570e-01 2.801012e+00 124 135 103
4.195381e-01 4.766113e-01 2.872062e+00 148 148 148
4.299948e-01 4.714325e-01 2.840987e+00 109 118 100
4.139436e-01 4.787701e-01 2.884403e+00 157 159 154
4.198846e-01 4.771990e-01 2.872195e+00 107 103 102
4.198846e-01 4.771990e-01 2.872195e+00 107 103 102
3.643739e-01 4.658167e-01 2.885530e+00 146 143 138
4.130832e-01 4.789347e-01 2.885481e+00 140 141 137
4.314714e-01 4.717656e-01 2.837693e+00 38 43 36
4.314714e-01 4.717656e-01 2.837693e+00 38 43 36
3.554934e-01 4.619665e-01 2.877876e+00 70 62 60
3.791916e-01 4.731922e-01 2.895912e+00 84 79 73
4.082919e-01 4.805833e-01 2.893741e+00 77 81 67
3.555092e-01 4.627046e-01 2.878775e+00 143 138 135
3.555092e-01 4.627046e-01 2.878775e+00 143 138 135
4.309551e-01 4.733627e-01 2.841905e+00 63 77 62
4.122923e-01 4.811360e-01 2.890030e+00 140 139 134
4.122923e-01 4.811360e-01 2.890030e+00 140 139 134
3.768524e-01 4.737535e-01 2.897052e+00 136 137 132
4.376652e-01 4.686492e-01 2.814993e+00 108 126 87
3.561121e-01 4.637793e-01 2.879974e+00 75 72 63
4.412685e-01 4.665360e-01 2.800313e+00 45 68 22
4.283537e-01 4.770168e-01 2.854288e+00 124 133 104
3.635767e-01 4.691908e-01 2.888930e+00 111 120 100
4.261332e-01 4.795696e-01 2.863662e+00 79 88 59
4.212715e-01 4.816853e-01 2.876645e+00 125 124 129
4.409120e-01 4.686902e-01 2.804616e+00 55 78 32
3.784704e-01 4.767478e-01 2.900665e+00 103 114 72
3.177587e-01 4.450907e-01 2.840175e+00 86 95 74
3.177587e-01 4.450907e-01 2.840175e+00 86 95 74
3.266770e-01 4.507205e-01 2.851792e+00 48 59 42
3.480640e-01 4.626772e-01 2.875526e+00 96 111 78
3.931159e-01 4.827626e-01 2.906341e+00 116 122 96
3.931159e-01 4.827626e-01 2.906341e+00 116 122 96
3.624416e-01 4.705573e-01 2.890285e+00 52 62 27
4.260540e-01 4.819195e-01 2.867696e+00 80 82 77
3.787069e-01 4.784223e-01 2.902608e+00 103 122 69
3.787069e-01 4.784223e-01 2.902608e+00 103 122 69
4.314156e-01 4.793777e-01 2.850997e+00 53 61 37
4.031391e-01 4.859109e-01 2.906034e+00 65 73 35
4.231616e-01 4.840637e-01 2.878023e+00 98 96 101
4.105401e-01 4.867803e-01 2.899923e+00 68 83 42
3.923632e-01 4.839078e-01 2.907001e+00 73 78 55
3.923632e-01 4.839078e-01 2.907001e+00 73 78 55
4.045992e-01 4.871936e-01 2.906284e+00 63 67 43
4.045992e-01 4.871936e-01 2.906284e+00 63 67 43
4.018553e-01 4.867414e-01 2.907338e+00 60 67 32
4.018553e-01 4.867414e-01 2.907338e+00 60 67 32
4.213495e-01 4.860084e-01 2.883639e+00 97 98 102
4.213495e-01 4.860084e-01 2.883639e+00 97 98 102
3.811460e-01 4.809899e-01 2.905769e+00 71 79 38
4.194937e-01 4.866593e-01 2.887667e+00 82 81 87
4.176152e-01 4.872834e-01 2.891664e+00 96 95 101
3.269738e-01 4.543120e-01 2.855551e+00 102 114 84
3.819826e-01 4.822087e-01 2.907093e+00 65 71 33
3.804656e-01 4.817834e-01 2.906419e+00 65 71 35
3.538055e-01 4.694154e-01 2.885247e+00 63 70 37
3.269782e-01 4.551637e-01 2.856655e+00 51 62 28
4.346166e-01 4.809019e-01 2.845659e+00 105 123 90
4.311281e-01 4.834148e-01 2.858368e+00 121 137 95
4.028807e-01 4.890848e-01 2.910445e+00 62 65 46
4.028807e-01 4.890848e-01 2.910445e+00 62 65 46
4.115920e-01 4.897288e-01 2.902874e+00 123 125 112
3.757666e-01 4.807550e-01 2.904712e+00 101 121 70
3.632027e-01 4.751253e-01 2.895264e+00 62 73 39
4.229668e-01 4.882791e-01 2.884253e+00 140 140 142
3.605144e-01 4.743244e-01 2.893834e+00 56 67 21
3.466900e-01 4.674106e-01 2.879899e+00 53 62 33
4.308861e-01 4.853231e-01 2.862312e+00 70 82 68
3.349822e-01 4.614278e-01 2.867699e+00 52 57 33
3.162299e-01 4.512888e-01 2.845782e+00 123 134 91
4.351976e-01 4.831583e-01 2.847669e+00 132 142 115
3.587452e-01 4.742087e-01 2.892536e+00 105 116 73
4.314464e-01 4.860002e-01 2.862296e+00 124 132 121
4.314464e-01 4.860002e-01 2.862296e+00 124 132 121
4.222681e-01 4.898245e-01 2.887711e+00 140 143 150
4.222681e-01 4.898245e-01 2.887711e+00 140 143 150
3.611796e-01 4.756993e-01 2.895352e+00 42 54 6
4.081284e-01 4.917625e-01 2.909341e+00 57 67 32
3.465993e-01 4.690848e-01 2.882240e+00 55 58 37
4.199867e-01 4.908921e-01 2.892536e+00 77 74 81
4.199867e-01 4.908921e-01 2.892536e+00 77 74 81
4.147748e-01 4.922305e-01 2.903218e+00 141 141 143
3.884003e-01 4.879472e-01 2.913888e+00 118 134 88
3.884003e-01 4.879472e-01 2.913888e+00 118 134 88
4.369668e-01 4.838301e-01 2.844409e+00 102 108 98
4.443705e-01 4.782119e-01 2.812792e+00 115 123 98
4.438625e-01 4.792098e-01 2.817209e+00 98 107 86
