ply
format ascii 1.0
element face 0
property list uchar int vertex_indices
element vertex 950
property float x
property float y
property float z
property uchar diffuse_red
property uchar diffuse_green
property uchar diffuse_blue
end_header
-8.823119e-03 -4.537196e+00 1.636821e+00 50 59 5
1.762636e-01 -4.535755e+00 1.644173e+00 115 128 36
-3.318949e+00 -4.327876e+00 1.727267e+00 8 9 4
7.143643e-01 -4.438529e+00 1.819302e+00 15 11 25
1.928163e+00 -4.537892e+00 1.548264e+00 21 25 1
-4.277251e+00 -4.387166e+00 1.068429e+00 16 23 12
-4.277251e+00 -4.387166e+00 1.068429e+00 16 23 12
-2.077662e-01 -4.398855e+00 1.655607e+00 87 92 27
-8.018666e-01 -4.357144e+00 1.714656e+00 100 105 26
-8.018666e-01 -4.357144e+00 1.714656e+00 100 105 26
4.012084e-01 -4.423198e+00 1.569387e+00 186 192 83
4.012084e-01 -4.423198e+00 1.569387e+00 186 192 83
1.756980e+00 -4.455931e+00 1.621391e+00 23 24 18
1.756980e+00 -4.455931e+00 1.621391e+00 23 24 18
6.596260e-01 -4.370556e+00 1.805314e+00 60 8 23
-9.071817e-01 -4.348827e+00 1.613768e+00 30 35 11
3.949725e-01 -4.374600e+00 1.570618e+00 56 58 18
-3.290560e+00 -4.111318e+00 1.783576e+00 3 3 5
1.466243e+00 -4.274700e+00 1.877029e+00 190 194 113
1.349296e+00 -4.242460e+00 1.908083e+00 103 85 85
-7.174630e-01 -4.197379e+00 1.757318e+00 85 95 33
-7.067080e-01 -4.254547e+00 1.511965e+00 85 95 33
1.776680e+00 -4.263442e+00 1.830557e+00 142 154 44
-4.104881e+00 -4.143108e+00 1.174560e+00 91 97 30
-3.767435e+00 -4.085079e+00 1.317703e+00 17 22 2
1.426175e+00 -4.135119e+00 1.948853e+00 160 157 67
1.348776e+00 -4.132474e+00 1.785463e+00 22 13 21
-4.381839e+00 -3.921475e+00 1.608250e+00 24 38 12
-5.982814e-01 -3.961746e+00 2.006056e+00 51 65 8
-2.632610e-01 -3.978222e+00 1.901781e+00 104 112 48
-3.541591e+00 -3.846586e+00 1.726188e+00 5 8 13
-4.518401e+00 -3.336852e+00 1.683092e+00 20 19 25
-4.729097e+00 -3.226210e+00 1.453139e+00 197 186 172
-4.746629e+00 -3.175911e+00 1.475698e+00 52 42 45
-4.648141e+00 -3.117426e+00 1.510640e+00 45 35 44
-2.643025e+00 -3.172689e+00 1.542555e+00 94 62 78
-4.886436e+00 -3.054230e+00 1.091301e+00 47 37 35
-5.173238e+00 -2.995338e+00 1.497025e+00 124 116 113
-4.652737e+00 -2.978109e+00 1.491954e+00 61 47 44
-4.160322e+00 -2.924214e+00 1.729692e+00 74 70 69
2.876423e+00 -2.977035e+00 2.250554e+00 19 19 21
-4.560284e+00 -2.800388e+00 1.685889e+00 52 46 48
2.940239e+00 -2.893506e+00 2.231463e+00 85 83 89
-4.608549e+00 -2.651152e+00 1.589777e+00 51 43 40
-4.640818e+00 -2.613097e+00 1.616937e+00 135 126 116
-4.634060e+00 -2.569140e+00 1.711849e+00 60 53 54
-4.582104e+00 -2.561556e+00 1.860760e+00 60 53 54
-3.380974e+00 -2.577994e+00 1.875439e+00 84 87 92
-3.349317e+00 -2.566361e+00 2.012149e+00 84 87 92
-4.711628e+00 -2.548949e+00 1.720130e+00 47 44 49
-4.867082e+00 -2.534685e+00 1.552205e+00 42 40 43
-1.871936e+00 -2.540236e+00 2.203373e+00 75 73 76
-4.525155e+00 -2.339422e+00 1.801325e+00 56 44 47
-4.615888e+00 -2.287508e+00 1.748265e+00 49 42 53
-4.689874e+00 -2.267126e+00 1.760506e+00 32 32 35
-4.549911e+00 -2.222602e+00 2.045991e+00 102 97 93
-4.406522e+00 -2.213657e+00 2.087088e+00 62 56 60
-4.735122e+00 -2.199195e+00 1.755671e+00 110 107 102
3.596227e+00 -2.323362e+00 2.303633e+00 44 42 47
-4.419048e+00 -2.050975e+00 2.048603e+00 59 54 51
4.075646e+00 -2.168826e+00 2.169334e+00 42 41 51
-4.404811e+00 -1.942717e+00 2.105363e+00 54 50 49
-4.021326e+00 -1.940492e+00 3.221808e+00 54 50 49
-4.684566e+00 -1.939076e+00 1.825636e+00 72 70 71
-4.826018e+00 -1.904515e+00 1.349963e+00 122 121 119
-4.724039e+00 -1.868256e+00 1.835762e+00 126 125 123
-4.724039e+00 -1.868256e+00 1.835762e+00 126 125 123
4.085783e+00 -2.021580e+00 2.102687e+00 35 33 51
-3.943797e+00 -1.739471e+00 1.920351e+00 74 66 75
-4.842437e+00 -1.706738e+00 1.843688e+00 114 100 89
-4.822815e+00 -1.562951e+00 1.711802e+00 46 45 64
-4.822815e+00 -1.562951e+00 1.711802e+00 46 45 64
-4.972379e+00 -1.063847e+00 1.789848e+00 96 94 98
3.838338e+00 -9.225128e-01 2.317919e+00 100 99 107
3.506548e+00 -9.266268e-01 2.436075e+00 125 128 137
3.482714e+00 -8.762359e-01 2.300877e+00 71 69 74
-4.424636e-02 -9.928515e-01 3.672591e+00 18 16 21
3.283279e+00 -8.738463e-01 2.479262e+00 118 116 121
-3.751321e+00 -4.945863e-01 2.103654e+00 127 130 137
3.194206e+00 -5.831141e-01 2.537440e+00 46 44 48
2.497938e+00 -5.169766e-01 2.501920e+00 40 36 35
-3.341204e+00 -4.348411e-01 2.226089e+00 117 117 117
3.013636e+00 -4.851533e-01 2.544460e+00 108 100 97
6.093999e-01 -6.638720e-01 3.743575e+00 111 107 106
-1.219776e+00 -5.845784e-01 3.442584e+00 98 95 85
2.883163e+00 -4.288861e-01 2.392691e+00 31 23 21
2.572018e+00 -4.581618e-01 2.563361e+00 34 29 26
-2.116580e+00 -4.454131e-01 2.595029e+00 101 96 94
3.208286e+00 -4.475591e-01 2.597804e+00 44 34 33
2.528551e+00 -4.289107e-01 2.542545e+00 33 22 21
6.492548e-01 -6.462461e-01 3.745938e+00 29 20 21
2.742832e+00 -4.344788e-01 2.573075e+00 28 16 18
2.742832e+00 -4.344788e-01 2.573075e+00 28 16 18
8.003291e-01 -6.219638e-01 3.738589e+00 26 20 22
-2.113071e+00 -3.907553e-01 2.587085e+00 23 17 17
-2.588334e+00 -3.638018e-01 2.416228e+00 23 19 18
3.776467e+00 -3.484721e-01 2.350214e+00 119 120 124
2.267719e+00 -2.228116e-01 2.615657e+00 43 42 55
-2.723251e+00 -1.266532e-01 2.317818e+00 48 50 55
-1.670677e+00 -1.370438e-01 2.603924e+00 80 79 82
2.412529e+00 -8.187573e-02 2.579839e+00 103 94 95
-2.422675e+00 -1.497688e-02 2.416173e+00 88 87 86
-2.417163e+00 -2.862828e-02 2.473019e+00 88 87 86
2.327033e+00 -2.546093e-02 2.523830e+00 31 30 44
-2.544577e+00 -1.875317e-02 2.473957e+00 51 52 47
-3.278085e+00 2.193732e-02 2.275899e+00 71 71 73
3.502235e+00 2.274575e-01 2.624704e+00 75 69 71
3.716656e+00 3.368705e-01 2.482331e+00 254 255 253
-3.661947e+00 4.166653e-01 2.315957e+00 76 75 79
-3.748346e+00 4.993516e-01 2.000454e+00 76 75 79
-2.759593e+00 5.421755e-01 2.403701e+00 106 107 109
-3.496720e+00 8.164069e-01 2.288618e+00 142 146 153
3.353317e+00 1.100754e+00 2.655503e+00 140 141 145
-3.471200e+00 1.096415e+00 2.425522e+00 136 136 141
3.382284e+00 1.218578e+00 2.596376e+00 130 130 138
-1.808258e+00 1.192189e+00 2.504399e+00 112 109 104
-2.120158e+00 1.193366e+00 2.538501e+00 103 98 92
-3.412425e+00 1.308490e+00 2.312774e+00 143 146 152
-1.611325e+00 1.690944e+00 2.472957e+00 92 89 84
-1.732056e+00 1.634644e+00 2.625797e+00 66 63 58
-8.553468e-01 1.468013e+00 3.140877e+00 148 146 149
-3.067013e+00 1.850683e+00 2.364314e+00 56 50 50
1.129165e+00 1.799281e+00 2.717401e+00 130 129 136
-1.517750e+00 1.817194e+00 2.540437e+00 129 130 135
6.422709e-01 1.836567e+00 2.627656e+00 125 125 133
-2.324560e+00 1.832519e+00 2.532250e+00 119 120 122
3.299274e-01 1.908210e+00 2.563739e+00 253 254 253
-3.198309e+00 1.928849e+00 2.355647e+00 135 135 139
-3.446771e+00 2.088739e+00 2.223195e+00 253 253 253
1.737576e+00 2.167020e+00 2.380696e+00 111 111 110
1.700380e+00 1.977302e+00 2.814965e+00 44 43 48
-1.819025e-01 2.213587e+00 2.589198e+00 142 143 148
-1.819025e-01 2.213587e+00 2.589198e+00 142 143 148
1.595694e+00 2.244954e+00 2.950356e+00 129 128 126
-6.008226e-01 2.291618e+00 2.729866e+00 255 254 252
-2.300437e-01 2.359823e+00 2.637995e+00 254 254 254
-2.300437e-01 2.359823e+00 2.637995e+00 254 254 254
2.160561e+00 2.390463e+00 2.722775e+00 34 33 38
2.158641e+00 2.388377e+00 2.726932e+00 34 33 38
4.048683e-01 2.261260e+00 2.913137e+00 138 139 144
-1.969247e-01 2.431989e+00 2.613054e+00 140 141 150
-1.969247e-01 2.431989e+00 2.613054e+00 140 141 150
3.221135e+00 2.533176e+00 2.637264e+00 58 53 57
1.325098e+00 2.503639e+00 2.768086e+00 99 97 98
-2.350534e+00 2.554696e+00 2.485434e+00 16 11 17
2.644431e+00 2.602078e+00 2.667558e+00 96 92 93
-1.771887e-01 2.564965e+00 2.619873e+00 136 136 140
-8.240372e-01 2.550868e+00 2.628156e+00 149 147 148
2.888794e+00 2.684316e+00 2.612249e+00 57 51 51
2.465252e+00 2.671468e+00 2.657297e+00 128 124 123
2.868302e+00 2.635770e+00 2.781221e+00 137 136 134
2.186562e+00 2.677640e+00 2.673384e+00 44 38 40
-3.454215e+00 2.755565e+00 2.275983e+00 254 254 254
-2.007291e+00 2.674391e+00 2.559716e+00 40 34 36
-2.007291e+00 2.674391e+00 2.559716e+00 40 34 36
-1.135046e+00 2.668314e+00 2.641711e+00 59 55 56
-3.471930e+00 2.896266e+00 2.058582e+00 128 127 128
-2.869681e+00 2.971304e+00 1.992270e+00 108 104 101
-2.700504e+00 2.760884e+00 2.443318e+00 41 39 37
-2.916758e+00 2.832144e+00 2.393787e+00 140 137 132
2.416596e+00 2.867202e+00 2.723980e+00 112 107 98
3.438791e+00 2.959715e+00 2.645130e+00 245 255 254
1.667759e+00 2.899793e+00 2.688510e+00 123 118 106
2.658187e+00 2.993865e+00 2.597033e+00 45 41 44
2.745308e+00 3.188090e+00 2.260643e+00 49 47 48
2.514459e+00 3.007073e+00 2.576994e+00 53 46 49
2.788567e+00 2.991673e+00 2.623871e+00 47 41 43
2.084390e+00 2.950758e+00 2.676392e+00 72 64 63
1.660682e+00 2.956496e+00 2.691228e+00 64 60 61
1.686519e+00 3.000858e+00 2.612718e+00 64 60 61
2.073051e+00 3.000961e+00 2.677164e+00 120 119 119
2.073051e+00 3.000961e+00 2.677164e+00 120 119 119
1.227911e+00 2.950317e+00 2.716842e+00 79 70 71
1.595906e+00 3.010705e+00 2.698421e+00 87 85 86
1.581738e+00 2.982342e+00 2.741909e+00 87 85 86
1.530030e+00 3.032183e+00 2.657292e+00 87 85 88
1.364933e+00 3.023816e+00 2.673070e+00 114 109 106
1.364933e+00 3.023816e+00 2.673070e+00 114 109 106
3.116879e+00 3.050960e+00 2.732331e+00 122 124 129
1.475524e+00 3.049736e+00 2.678339e+00 58 53 51
2.217803e+00 3.118487e+00 2.641749e+00 104 102 90
1.394824e+00 3.100227e+00 2.632607e+00 62 55 58
8.840876e-01 2.961802e+00 2.841491e+00 74 72 81
-1.738133e+00 2.895086e+00 2.817437e+00 118 114 104
-1.826063e+00 2.851974e+00 2.875559e+00 113 106 97
3.623488e-01 3.032108e+00 2.710862e+00 254 254 253
3.623488e-01 3.032108e+00 2.710862e+00 254 254 253
-2.067846e+00 3.112865e+00 2.420111e+00 112 107 99
-2.366247e+00 3.107199e+00 2.431611e+00 116 109 100
3.001288e+00 3.358144e+00 2.327066e+00 126 126 126
1.241357e-01 3.038390e+00 2.712536e+00 254 255 255
3.116640e+00 3.208518e+00 2.604640e+00 74 73 80
-3.238014e-02 3.046418e+00 2.706718e+00 253 255 254
-1.561006e+00 3.035550e+00 2.634816e+00 60 50 50
-1.561006e+00 3.035550e+00 2.634816e+00 60 50 50
-1.823124e+00 3.092872e+00 2.543856e+00 63 56 56
-1.823124e+00 3.092872e+00 2.543856e+00 63 56 56
-5.099828e-01 3.058130e+00 2.708904e+00 254 254 253
-2.132157e+00 3.138377e+00 2.463728e+00 60 51 51
-2.132157e+00 3.138377e+00 2.463728e+00 60 51 51
-2.217970e+00 3.194925e+00 2.369033e+00 45 39 41
-2.228903e+00 2.919449e+00 2.862905e+00 44 38 41
2.715934e+00 3.184951e+00 2.704003e+00 97 96 102
2.409274e+00 3.197008e+00 2.664267e+00 114 114 116
-1.090869e+00 3.127033e+00 2.602956e+00 113 106 101
-1.574833e+00 3.116882e+00 2.598644e+00 117 115 116
-1.578495e+00 3.155713e+00 2.537583e+00 117 115 116
-2.928416e+00 3.249833e+00 2.294528e+00 53 48 45
-1.660391e+00 3.174595e+00 2.515471e+00 110 109 107
-3.024730e+00 3.218140e+00 2.346275e+00 53 47 45
-3.331550e+00 3.254956e+00 2.320455e+00 254 254 252
-3.331550e+00 3.254956e+00 2.320455e+00 254 254 252
1.047799e+00 3.150720e+00 2.800108e+00 129 129 128
-7.388740e-01 3.222855e+00 2.565297e+00 130 131 136
-4.967477e-01 3.460529e+00 2.234950e+00 255 255 255
-1.456395e+00 3.208905e+00 2.601619e+00 102 99 91
-1.695208e+00 3.200235e+00 2.625252e+00 115 112 107
-2.337219e+00 3.250312e+00 2.540229e+00 125 125 114
-1.633184e+00 3.270886e+00 2.590876e+00 29 27 38
2.034794e+00 3.310446e+00 2.756722e+00 23 21 35
-3.350663e+00 3.322851e+00 2.408169e+00 254 254 253
-9.367814e-01 3.331103e+00 2.670818e+00 57 53 72
-9.367814e-01 3.331103e+00 2.670818e+00 57 53 72
5.533186e-01 4.006320e+00 2.734451e+00 137 136 141
6.415718e-01 3.979386e+00 2.809585e+00 128 126 129
5.973642e-01 4.044193e+00 2.729162e+00 253 253 253
5.851659e-01 4.121502e+00 2.747461e+00 254 255 251
2.719814e+00 4.222570e+00 3.477890e+00 83 81 85
6.293170e-01 4.539793e+00 2.901436e+00 255 255 253
-1.994063e+00 4.578683e+00 2.737606e+00 112 111 107
-1.686783e+00 4.644380e+00 2.765021e+00 21 17 31
1.781471e+00 4.599929e+00 3.298708e+00 131 130 133
1.781471e+00 4.599929e+00 3.298708e+00 131 130 133
-2.565056e+00 4.568444e+00 3.072586e+00 71 70 75
6.882244e-01 4.826823e+00 3.109403e+00 150 148 161
7.323342e-01 4.904910e+00 3.091412e+00 253 253 253
7.039860e-01 4.782986e+00 3.302172e+00 139 134 153
-1.206819e+00 4.861423e+00 3.141489e+00 83 70 83
1.427632e+00 4.648411e+00 3.789119e+00 130 130 130
1.285069e+00 4.777340e+00 3.636391e+00 139 135 133
1.041808e+00 -6.729681e+00 1.966307e+00 111 109 117
1.797562e-01 -6.665207e+00 1.710889e+00 111 113 119
-4.355872e-01 -6.499595e+00 1.568824e+00 55 58 65
6.132488e-01 -6.826441e+00 8.190434e-01 72 70 85
6.141272e-01 -6.829200e+00 8.132772e-01 72 70 85
-1.678616e-01 -6.435403e+00 1.542743e+00 57 59 71
1.816109e+00 -6.689000e+00 1.042272e+00 230 228 230
1.610060e+00 -6.332678e+00 1.563974e+00 196 194 197
1.728421e+00 -6.548586e+00 9.870382e-01 195 193 195
1.728421e+00 -6.548586e+00 9.870382e-01 195 193 195
2.266117e+00 -6.110919e+00 1.793528e+00 240 239 237
1.682261e+00 -6.375722e+00 9.319801e-01 183 178 175
4.358353e-01 -6.277843e+00 9.326633e-01 91 90 96
2.848267e-01 -6.006184e+00 1.529088e+00 132 133 138
3.080903e-01 -5.974216e+00 1.541989e+00 96 96 101
3.695267e-01 -6.163499e+00 9.879522e-01 97 96 104
1.004900e+00 -5.885626e+00 1.566554e+00 136 132 131
2.807036e+00 -5.669083e+00 1.798349e+00 79 78 96
2.239383e+00 -5.719133e+00 1.174034e+00 57 42 85
4.731924e-01 -5.594304e+00 1.252785e+00 166 164 165
2.265848e+00 -5.688686e+00 1.177706e+00 252 254 251
1.731787e+00 -5.328708e+00 1.563082e+00 109 106 127
2.239780e+00 -5.322836e+00 1.604092e+00 228 227 224
-2.165152e+00 -4.961614e+00 1.761303e+00 97 97 105
1.223017e+00 -5.233589e+00 1.422668e+00 237 238 223
3.525901e-01 -4.961880e+00 1.781415e+00 8 9 21
-4.834414e+00 -4.666887e+00 1.092655e+00 7 11 7
-3.316291e+00 -4.555553e+00 1.693616e+00 4 6 2
-4.126535e+00 -4.470392e+00 1.560551e+00 6 13 7
-4.126535e+00 -4.470392e+00 1.560551e+00 6 13 7
-1.427167e+00 -4.608523e+00 1.515978e+00 30 42 22
-4.422026e+00 -4.534380e+00 1.004849e+00 2 10 0
3.043975e-01 -4.526986e+00 1.776844e+00 22 20 21
4.121786e-01 -4.571639e+00 1.603545e+00 18 15 40
-4.666649e+00 -4.452696e+00 1.053532e+00 67 78 17
-4.654281e-01 -4.479109e+00 1.647716e+00 9 10 4
-3.456202e+00 -4.327362e+00 1.678870e+00 68 84 37
-3.456202e+00 -4.327362e+00 1.678870e+00 68 84 37
-3.638996e+00 -4.438100e+00 1.169963e+00 4 11 3
1.907835e+00 -4.619752e+00 1.321105e+00 20 21 5
5.761562e-01 -4.439619e+00 1.824467e+00 10 6 22
3.998851e-02 -4.411719e+00 1.844004e+00 60 70 30
-1.363009e+00 -4.382329e+00 1.677520e+00 60 81 25
-9.149644e-01 -4.382651e+00 1.675289e+00 62 72 18
-1.177957e+00 -4.396807e+00 1.551182e+00 10 12 2
1.838554e+00 -4.411284e+00 1.864087e+00 136 148 75
-2.895257e-01 -4.346906e+00 1.718019e+00 36 42 14
8.051529e-01 -4.310127e+00 1.993570e+00 123 119 139
-7.044680e-01 -4.311385e+00 1.741363e+00 65 83 24
-4.493499e+00 -4.264339e+00 1.062651e+00 79 89 37
1.753613e+00 -4.393171e+00 1.601995e+00 21 26 4
-1.037027e+00 -4.252594e+00 1.710428e+00 25 29 2
1.896396e+00 -4.424419e+00 1.422517e+00 165 173 92
-2.712836e-01 -4.239898e+00 1.804704e+00 115 123 99
1.860454e+00 -4.335082e+00 1.693548e+00 36 45 1
1.860454e+00 -4.335082e+00 1.693548e+00 36 45 1
-4.711609e+00 -4.177356e+00 1.123210e+00 90 105 22
-4.709641e+00 -4.176277e+00 1.128775e+00 90 105 22
1.716645e+00 -4.271505e+00 1.873151e+00 91 94 34
1.787576e+00 -4.317440e+00 1.674928e+00 91 94 34
-1.928418e+00 -4.072868e+00 2.085128e+00 6 3 11
-4.134772e+00 -4.181225e+00 1.177228e+00 22 26 2
-8.820876e-01 -4.164358e+00 1.775237e+00 60 72 8
-3.940630e-01 -4.213896e+00 1.617846e+00 27 29 23
3.287648e-01 -4.187847e+00 1.846944e+00 92 99 54
5.919839e-02 -4.230637e+00 1.621520e+00 20 23 1
-6.079338e-01 -4.136433e+00 1.799039e+00 26 36 9
-6.840290e-02 -4.136500e+00 1.829162e+00 20 27 3
-8.752754e-02 -4.104892e+00 1.964227e+00 20 27 3
-3.976994e+00 -4.001813e+00 1.632830e+00 38 42 19
3.253675e-01 -4.161144e+00 1.720558e+00 96 102 28
3.253675e-01 -4.161144e+00 1.720558e+00 96 102 28
-4.320345e+00 -3.982763e+00 1.604384e+00 49 59 20
1.702732e+00 -4.181085e+00 1.794998e+00 29 36 1
5.115500e-02 -4.122228e+00 1.747651e+00 56 64 4
1.204838e+00 -4.125102e+00 1.705361e+00 26 29 13
-2.158635e-01 -4.024642e+00 1.815796e+00 40 44 10
-8.642358e-02 -3.993065e+00 1.933808e+00 33 43 18
-2.581513e+00 -3.685456e+00 1.482593e+00 55 47 60
-2.791579e+00 -3.932477e+00 1.404736e-02 55 47 60
-4.679933e+00 -3.314712e+00 1.445957e+00 49 11 22
-4.574709e+00 -3.228493e+00 1.499851e+00 51 49 59
-3.574567e+00 -3.215352e+00 1.753747e+00 95 97 103
-4.123227e+00 -3.191468e+00 1.256827e+00 161 165 169
-4.036076e+00 -3.112022e+00 1.628792e+00 36 34 38
-4.068621e+00 -3.078097e+00 1.635337e+00 88 80 77
-4.156773e+00 -3.013821e+00 1.630239e+00 23 18 22
-4.283065e+00 -2.983304e+00 1.602607e+00 19 18 23
-4.283065e+00 -2.983304e+00 1.602607e+00 19 18 23
-5.037184e+00 -2.979149e+00 1.392261e+00 25 18 32
-5.037184e+00 -2.979149e+00 1.392261e+00 25 18 32
-4.429672e+00 -2.972968e+00 1.551379e+00 94 87 81
-5.216162e+00 -2.982775e+00 1.004865e+00 95 91 90
-4.224625e+00 -2.919718e+00 1.786490e+00 100 96 92
-5.146575e+00 -2.888253e+00 1.442398e+00 61 51 51
-4.535202e+00 -2.850051e+00 1.656618e+00 119 111 90
-2.725992e+00 -2.726343e+00 2.072025e+00 62 62 64
-2.725992e+00 -2.726343e+00 2.072025e+00 62 62 64
-3.112605e+00 -2.632904e+00 1.907866e+00 32 36 39
-4.680678e+00 -2.591606e+00 1.714058e+00 142 130 106
-4.680678e+00 -2.591606e+00 1.714058e+00 142 130 106
4.117466e+00 -2.705891e+00 2.061837e+00 22 20 26
3.527482e+00 -2.609379e+00 2.200337e+00 111 109 114
-4.553303e+00 -2.435093e+00 1.609465e+00 126 117 94
-2.631052e+00 -2.441621e+00 2.176258e+00 73 73 73
3.490400e+00 -2.533934e+00 2.500673e+00 46 45 51
-4.601107e+00 -2.375613e+00 1.741242e+00 63 49 40
-2.839467e+00 -2.328552e+00 2.060621e+00 23 23 23
-5.106676e+00 -2.283927e+00 1.588369e+00 45 40 44
4.307231e+00 -2.441623e+00 2.103363e+00 91 90 95
-4.735738e+00 -2.248157e+00 1.745373e+00 96 90 90
-4.735738e+00 -2.248157e+00 1.745373e+00 96 90 90
-3.083116e+00 -2.187471e+00 2.051866e+00 43 43 45
-4.513137e+00 -2.145842e+00 1.817647e+00 62 52 53
3.354690e+00 -2.286444e+00 2.281494e+00 88 86 89
3.632254e+00 -2.286690e+00 2.235025e+00 30 28 31
3.646948e+00 -2.273857e+00 2.287096e+00 123 123 123
-3.877448e+00 -2.114798e+00 1.973530e+00 42 41 49
-3.969104e+00 -2.102505e+00 1.831796e+00 31 30 38
4.128013e+00 -2.224979e+00 2.136205e+00 79 77 78
3.507501e+00 -2.209122e+00 2.214010e+00 32 31 36
-4.753086e+00 -1.972682e+00 1.774214e+00 116 116 105
-4.785088e+00 -1.957303e+00 1.780861e+00 63 32 41
4.136102e+00 -2.094965e+00 2.218559e+00 31 33 45
4.429880e+00 -2.085861e+00 2.072702e+00 178 177 173
4.195027e+00 -1.992381e+00 2.163587e+00 189 190 185
4.188714e+00 -1.992188e+00 2.174137e+00 189 190 185
-3.913569e+00 -1.828606e+00 1.899203e+00 67 71 82
-4.401515e+00 -1.805721e+00 1.914868e+00 35 34 40
-4.860276e+00 -1.788676e+00 1.817825e+00 110 94 91
3.999700e+00 -1.880728e+00 2.212644e+00 47 48 68
4.272422e+00 -1.844199e+00 2.159269e+00 29 27 40
4.196227e+00 -1.813817e+00 2.224046e+00 98 98 101
-4.675225e+00 -1.654043e+00 1.882175e+00 45 42 63
4.269613e+00 -1.761006e+00 2.392364e+00 77 75 91
4.811724e+00 -1.718837e+00 2.058828e+00 254 254 254
-4.904473e+00 -1.505374e+00 1.708241e+00 61 57 70
-4.904473e+00 -1.505374e+00 1.708241e+00 61 57 70
-4.718623e+00 -1.484196e+00 1.765501e+00 145 142 137
4.236831e+00 -1.634809e+00 2.285908e+00 75 72 92
4.309354e+00 -1.623100e+00 2.170956e+00 75 72 92
-4.687134e+00 -1.395859e+00 1.908425e+00 135 134 132
-4.687134e+00 -1.395859e+00 1.908425e+00 135 134 132
-4.440410e+00 -1.349377e+00 1.976133e+00 109 106 115
-3.889801e+00 -1.400730e+00 3.559786e+00 130 127 135
-3.889801e+00 -1.400730e+00 3.559786e+00 130 127 135
-4.748561e+00 -1.234308e+00 1.768526e+00 103 92 109
-4.804015e+00 -1.120260e+00 1.949347e+00 255 253 254
-4.845641e+00 -1.079694e+00 1.914227e+00 97 94 107
-5.033347e+00 -1.028547e+00 1.733325e+00 253 254 252
-5.033347e+00 -1.028547e+00 1.733325e+00 253 254 252
-2.918352e+00 -1.034756e+00 2.322247e+00 57 57 57
3.219041e+00 -9.503686e-01 2.244139e+00 39 39 46
2.872025e+00 -9.698789e-01 2.473594e+00 36 35 41
2.617225e+00 -9.734871e-01 2.500638e+00 32 35 39
-3.195397e+00 -8.658813e-01 2.126881e+00 48 47 52
-2.544800e+00 -8.647430e-01 2.390271e+00 35 34 40
-3.113399e+00 -8.376136e-01 2.252366e+00 97 102 105
4.656077e-01 -1.027301e+00 3.811340e+00 41 39 42
-2.485954e-01 -9.967119e-01 3.677840e+00 15 12 19
-2.441516e+00 -8.260445e-01 2.423117e+00 21 19 21
-2.205351e+00 -7.373342e-01 2.492556e+00 19 19 18
-2.434583e+00 -7.246714e-01 2.435753e+00 23 21 20
2.928468e+00 -6.011826e-01 2.521463e+00 14 9 15
2.928468e+00 -6.011826e-01 2.521463e+00 14 9 15
-2.933701e+00 -5.242558e-01 2.311744e+00 20 20 23
2.401524e+00 -5.849134e-01 2.586780e+00 104 97 91
2.664094e+00 -5.687824e-01 2.512072e+00 103 93 93
3.157517e+00 -5.588627e-01 2.520479e+00 120 116 116
-6.789636e-01 -6.876195e-01 3.532551e+00 88 82 82
3.252171e+00 -5.429846e-01 2.506790e+00 110 106 105
-2.273661e+00 -5.065279e-01 2.487750e+00 28 25 18
2.534455e+00 -4.797099e-01 2.549069e+00 107 102 99
-2.052211e+00 -4.138056e-01 2.580668e+00 21 13 11
3.356051e+00 -3.881628e-01 2.379763e+00 36 26 28
-2.348165e+00 -3.747433e-01 2.486723e+00 20 14 16
-3.347953e+00 -1.680719e-01 2.235751e+00 121 124 129
3.010916e+00 -2.219745e-01 2.534924e+00 32 32 39
2.930132e+00 -2.270048e-01 2.553912e+00 52 55 61
2.441583e+00 -2.223341e-01 2.572086e+00 25 24 39
2.364485e+00 -2.230906e-01 2.576123e+00 31 32 42
-2.454251e+00 -1.615273e-01 2.458142e+00 31 31 39
2.479037e+00 -1.737475e-01 2.568978e+00 63 62 65
2.760353e+00 -1.507791e-01 2.555796e+00 104 101 101
2.790349e+00 -1.370137e-01 2.571434e+00 45 44 42
-2.366472e+00 -1.228998e-01 2.516089e+00 22 22 33
6.448067e-01 -3.438653e-01 3.661289e+00 101 96 101
2.894244e+00 -9.848354e-02 2.563668e+00 118 118 113
2.894244e+00 -9.848354e-02 2.563668e+00 118 118 113
2.817089e+00 -9.578724e-02 2.554834e+00 122 121 116
2.726833e+00 -9.867496e-02 2.581032e+00 130 126 127
2.645495e+00 -9.689845e-02 2.585023e+00 118 117 113
1.824810e+00 -3.633958e-01 3.769676e+00 120 121 114
3.401936e+00 -7.875599e-02 2.523972e+00 137 136 134
1.788605e+00 -3.403103e-01 3.739921e+00 127 126 124
2.243904e+00 -9.764601e-02 2.605058e+00 127 126 124
2.166257e+00 -9.718499e-02 2.602874e+00 128 125 121
2.088444e+00 -9.635144e-02 2.599694e+00 123 121 116
2.487797e+00 -9.034467e-02 2.586191e+00 97 93 92
2.487797e+00 -9.034467e-02 2.586191e+00 97 93 92
-2.612854e+00 -6.603600e-02 2.464088e+00 73 74 76
-2.367278e+00 -5.903376e-02 2.523530e+00 35 32 39
-2.367278e+00 -5.903376e-02 2.523530e+00 35 32 39
-2.436884e+00 -7.174673e-02 2.587874e+00 33 32 38
-1.995528e+00 -6.086187e-02 2.599333e+00 90 87 82
-2.084200e+00 -5.676945e-02 2.561971e+00 111 111 103
-2.164580e+00 -5.260606e-02 2.551858e+00 113 110 106
-2.800521e+00 -2.084758e-02 2.410161e+00 21 21 23
-3.001507e+00 2.074931e-02 2.332440e+00 75 74 72
-3.232174e+00 3.216874e-02 2.282694e+00 123 122 124
-3.684035e+00 4.336032e-01 2.246131e+00 82 81 86
-3.684035e+00 4.336032e-01 2.246131e+00 82 81 86
3.062401e+00 3.976750e-01 2.593419e+00 70 68 71
2.032801e+00 3.980354e-01 2.628599e+00 49 48 46
-2.791923e+00 5.100621e-01 2.432283e+00 23 23 25
2.882508e+00 5.783874e-01 2.564698e+00 73 73 73
2.193369e+00 6.468292e-01 2.615649e+00 52 41 38
8.533971e-01 4.694941e-01 3.236674e+00 112 108 109
2.370130e+00 6.840855e-01 2.606535e+00 109 100 91
2.370130e+00 6.840855e-01 2.606535e+00 109 100 91
-3.613549e+00 7.375952e-01 2.269977e+00 129 127 141
-3.613549e+00 7.375952e-01 2.269977e+00 129 127 141
2.373436e+00 4.292316e-01 3.419592e+00 121 120 120
6.300662e-01 6.047890e-01 2.983925e+00 101 94 87
3.426132e+00 8.430377e-01 2.651311e+00 107 106 114
2.211284e+00 8.868404e-01 2.592824e+00 53 51 52
2.189743e+00 9.036971e-01 2.671612e+00 102 101 99
-1.836737e+00 8.955826e-01 2.574144e+00 99 101 100
2.037185e+00 7.858447e-01 3.190339e+00 117 117 110
3.215011e+00 1.067346e+00 2.673099e+00 79 79 76
3.249150e+00 1.093512e+00 2.609052e+00 79 79 76
2.015778e+00 8.835747e-01 3.181418e+00 118 114 111
2.015778e+00 8.835747e-01 3.181418e+00 118 114 111
2.918303e+00 1.032633e+00 2.782499e+00 78 73 74
3.848788e-01 1.054813e+00 2.739382e+00 107 103 95
3.757297e-01 1.040678e+00 2.788249e+00 107 103 95
1.940346e+00 1.085834e+00 2.742187e+00 117 110 108
3.607097e-01 1.101098e+00 2.720431e+00 104 95 84
1.936280e+00 9.650783e-01 3.169094e+00 118 109 104
2.235979e-01 1.101587e+00 2.782633e+00 116 114 102
2.027735e+00 1.167996e+00 2.681520e+00 116 109 101
2.731328e-01 1.111585e+00 2.787317e+00 113 108 97
-1.052668e-01 1.096101e+00 2.832261e+00 109 106 100
7.987785e-02 1.162233e+00 2.690316e+00 128 124 123
-1.714794e+00 1.079441e+00 2.859628e+00 118 114 103
1.974748e-01 1.162878e+00 2.717620e+00 123 118 107
-6.364116e-02 1.140543e+00 2.804660e+00 104 100 101
-1.545860e+00 1.220338e+00 2.557997e+00 66 58 55
-1.545860e+00 1.220338e+00 2.557997e+00 66 58 55
7.496825e-01 1.283788e+00 2.790565e+00 131 129 130
3.244463e+00 1.582783e+00 2.615849e+00 62 55 57
-2.487688e+00 1.526140e+00 2.537235e+00 74 71 64
-7.875989e-01 1.514415e+00 2.706328e+00 68 66 69
1.420488e+00 1.627269e+00 2.619669e+00 144 140 139
2.667542e+00 1.410681e+00 3.334024e+00 69 61 59
2.868998e+00 1.755094e+00 2.644461e+00 40 38 43
3.399895e+00 1.822890e+00 2.586404e+00 254 254 252
-3.208405e+00 1.774667e+00 2.397655e+00 60 55 51
1.752982e+00 1.760594e+00 2.704306e+00 45 44 51
1.752982e+00 1.760594e+00 2.704306e+00 45 44 51
-2.715461e+00 1.596204e+00 2.986076e+00 57 53 52
1.747369e+00 1.815508e+00 2.709715e+00 49 48 53
-3.232664e+00 1.843329e+00 2.380551e+00 77 75 78
1.718434e+00 1.832953e+00 2.773063e+00 46 44 49
1.734454e+00 1.912029e+00 2.719039e+00 44 43 50
-4.372237e-01 1.858366e+00 2.747593e+00 254 254 251
-1.517721e+00 1.890782e+00 2.612794e+00 122 123 127
3.047749e-01 1.964384e+00 2.646662e+00 254 254 254
1.738349e+00 2.030444e+00 2.705449e+00 44 43 48
3.009778e-01 2.082777e+00 2.641905e+00 252 254 253
3.196328e-01 2.079238e+00 2.708096e+00 102 99 110
-1.390848e-01 2.100523e+00 2.642737e+00 118 117 126
2.937557e-01 2.140654e+00 2.616586e+00 127 127 135
1.718150e+00 2.113181e+00 2.761832e+00 33 31 36
-1.472340e-01 2.143025e+00 2.671485e+00 254 254 253
-2.465075e-01 2.109442e+00 2.745613e+00 253 255 253
3.791826e-01 2.199609e+00 2.618994e+00 97 98 102
2.151767e+00 2.069185e+00 2.999195e+00 87 86 91
2.345956e+00 2.250118e+00 2.679506e+00 30 28 34
2.345956e+00 2.250118e+00 2.679506e+00 30 28 34
-2.407258e+00 2.170955e+00 2.596566e+00 112 113 117
3.364748e+00 2.373160e+00 2.632632e+00 253 255 254
4.813738e-01 2.307724e+00 2.750563e+00 71 70 80
2.370161e+00 2.405793e+00 2.674695e+00 31 29 32
2.300703e+00 2.576395e+00 2.356543e+00 32 31 36
-1.465820e+00 2.354693e+00 2.598368e+00 67 66 62
3.266674e+00 2.577836e+00 2.628004e+00 121 122 116
-1.601658e-01 2.436433e+00 2.774595e+00 140 141 145
1.046624e+00 2.544997e+00 2.678590e+00 58 54 55
1.113288e+00 2.680714e+00 2.417343e+00 58 54 55
1.025170e+00 2.506493e+00 2.752051e+00 58 54 55
2.117564e-01 2.506933e+00 2.716251e+00 253 254 255
1.894245e+00 2.543501e+00 2.730255e+00 132 130 131
-3.407634e+00 2.596346e+00 2.321595e+00 253 253 253
2.982274e+00 2.590178e+00 2.726058e+00 128 126 129
-1.429548e-01 2.513167e+00 2.719709e+00 254 254 254
-1.429548e-01 2.513167e+00 2.719709e+00 254 254 254
2.519116e+00 2.421207e+00 3.053634e+00 36 31 37
-4.148828e-01 2.499077e+00 2.736560e+00 126 126 134
3.474066e-01 2.544314e+00 2.725962e+00 91 90 96
3.008310e-01 2.735340e+00 2.358760e+00 154 154 162
-5.303923e-01 2.587756e+00 2.591671e+00 122 121 125
-5.303923e-01 2.587756e+00 2.591671e+00 122 121 125
-1.644492e+00 2.541471e+00 2.615576e+00 14 12 17
-4.959339e-01 2.545711e+00 2.681683e+00 254 254 253
-5.047740e-01 2.492334e+00 2.777242e+00 254 254 253
-3.759611e-01 2.539983e+00 2.706406e+00 254 255 253
-2.741700e+00 2.622605e+00 2.400845e+00 69 67 68
9.993305e-01 2.547280e+00 2.779442e+00 66 61 65
9.993305e-01 2.547280e+00 2.779442e+00 66 61 65
1.786048e-01 2.544495e+00 2.734731e+00 255 255 253
-1.179887e-01 2.572176e+00 2.696776e+00 155 157 166
4.549849e-01 2.597220e+00 2.684230e+00 146 146 158
-1.700524e-01 2.578456e+00 2.694768e+00 254 254 254
-1.700524e-01 2.578456e+00 2.694768e+00 254 254 254
3.198271e+00 2.664321e+00 2.699557e+00 131 129 130
-4.752827e-01 2.587630e+00 2.681762e+00 151 151 163
-2.088737e+00 2.473603e+00 2.827404e+00 105 102 96
2.504264e+00 2.513653e+00 3.049617e+00 95 91 88
-1.167773e+00 2.661114e+00 2.595295e+00 110 105 108
-2.027173e-01 2.668625e+00 2.661006e+00 108 106 120
5.243140e-02 2.745240e+00 2.610595e+00 140 142 155
-2.967308e+00 2.987261e+00 1.982037e+00 55 51 47
3.543811e-01 2.688548e+00 2.772218e+00 134 133 141
-3.438843e+00 2.868438e+00 2.218180e+00 254 254 254
1.081728e+00 2.706551e+00 2.803999e+00 149 147 146
3.218918e+00 2.857442e+00 2.638938e+00 79 74 77
-1.098463e+00 2.579075e+00 3.054969e+00 141 140 140
-3.419480e+00 2.896404e+00 2.298690e+00 254 255 254
-1.973965e+00 3.048592e+00 2.119842e+00 121 120 118
2.863955e+00 2.918170e+00 2.660769e+00 124 121 114
-1.149074e+00 3.069067e+00 2.185461e+00 65 60 64
1.233532e+00 2.565408e+00 3.232122e+00 134 128 127
3.262302e+00 2.973656e+00 2.665473e+00 244 254 255
3.245305e+00 2.952407e+00 2.699927e+00 244 254 255
-2.686371e+00 2.994240e+00 2.300463e+00 43 41 44
-2.686371e+00 2.994240e+00 2.300463e+00 43 41 44
-3.168872e+00 3.043702e+00 2.195013e+00 129 128 126
3.012135e+00 3.046961e+00 2.663035e+00 60 51 52
1.707809e+00 3.008368e+00 2.669774e+00 119 118 120
1.707809e+00 3.008368e+00 2.669774e+00 119 118 120
2.685796e+00 3.056312e+00 2.640998e+00 33 30 41
2.887506e+00 3.103937e+00 2.576779e+00 51 43 46
-3.536891e+00 3.057209e+00 2.279447e+00 164 158 184
-3.536891e+00 3.057209e+00 2.279447e+00 164 158 184
2.100789e+00 3.019504e+00 2.711399e+00 49 44 51
3.323312e+00 3.087613e+00 2.675360e+00 240 254 254
1.719045e+00 3.050280e+00 2.677132e+00 30 25 36
2.818582e+00 3.060860e+00 2.712655e+00 121 126 126
-3.478224e+00 3.101959e+00 2.268827e+00 254 255 255
1.560716e+00 3.051695e+00 2.683727e+00 32 29 37
2.800801e+00 3.146530e+00 2.596521e+00 65 64 68
8.293462e-01 3.020827e+00 2.720019e+00 90 90 95
3.295140e+00 3.184414e+00 2.592523e+00 250 254 252
1.487161e+00 3.105630e+00 2.669965e+00 119 118 123
1.506161e+00 3.143393e+00 2.606971e+00 119 118 123
-5.914340e-01 3.098447e+00 2.650968e+00 250 255 255
-9.331948e-01 3.071311e+00 2.665337e+00 123 117 115
-9.345395e-01 3.097548e+00 2.626580e+00 123 117 115
-3.214225e+00 3.269749e+00 2.208540e+00 47 39 37
1.390529e+00 3.171940e+00 2.677827e+00 51 49 54
-3.232897e+00 3.195825e+00 2.352231e+00 72 63 71
3.204396e+00 3.247830e+00 2.663869e+00 110 107 118
1.751760e+00 3.191185e+00 2.684863e+00 100 101 105
-3.180498e+00 3.228842e+00 2.357596e+00 113 111 112
-3.218728e+00 3.328416e+00 2.181157e+00 113 111 112
-3.261439e+00 3.251911e+00 2.320127e+00 252 254 250
-1.695772e+00 3.142142e+00 2.618978e+00 24 18 32
-1.699702e+00 3.193025e+00 2.539963e+00 24 18 32
-2.096269e+00 3.183486e+00 2.553976e+00 26 24 29
-2.096541e+00 3.176277e+00 2.564640e+00 26 24 29
-2.186151e+00 3.228092e+00 2.481543e+00 24 21 30
-2.266666e+00 3.235137e+00 2.471712e+00 22 19 31
-2.266666e+00 3.235137e+00 2.471712e+00 22 19 31
-2.356028e+00 3.282278e+00 2.388251e+00 19 18 26
-1.136670e+00 3.264436e+00 2.506673e+00 116 114 119
-2.516479e+00 3.267706e+00 2.422788e+00 75 73 76
-1.553111e+00 3.288503e+00 2.464871e+00 109 109 101
1.457198e+00 3.273065e+00 2.737595e+00 125 125 130
-9.705639e-01 3.245798e+00 2.640974e+00 44 42 54
-1.047150e+00 3.244534e+00 2.646633e+00 45 44 49
-3.128648e+00 3.303859e+00 2.436023e+00 120 119 124
-2.652287e+00 3.284916e+00 2.510172e+00 45 44 49
-2.405779e+00 3.288618e+00 2.532398e+00 33 32 38
-1.191503e+00 3.270340e+00 2.653328e+00 106 105 109
-1.908352e+00 3.292214e+00 2.580410e+00 109 109 114
-1.908352e+00 3.292214e+00 2.580410e+00 109 109 114
-9.615870e-01 3.295129e+00 2.646139e+00 115 113 116
-1.040437e+00 3.289168e+00 2.661730e+00 123 122 120
1.436292e+00 3.344817e+00 2.741247e+00 25 28 36
-1.181683e+00 3.309218e+00 2.655937e+00 66 66 68
-2.774036e+00 3.344756e+00 2.478381e+00 79 77 90
-2.774036e+00 3.344756e+00 2.478381e+00 79 77 90
-9.798062e-01 3.359694e+00 2.668445e+00 119 120 124
-3.218877e+00 3.426844e+00 2.405033e+00 254 254 254
-1.904174e+00 3.415053e+00 2.601620e+00 125 124 129
-2.694575e+00 3.458671e+00 2.491066e+00 124 125 128
-2.696810e+00 3.451971e+00 2.500045e+00 124 125 128
-3.059959e+00 3.482093e+00 2.448231e+00 131 131 131
-3.204656e+00 3.502521e+00 2.431646e+00 253 255 254
-1.906505e+00 3.522686e+00 2.533992e+00 133 133 135
-1.904972e+00 3.495228e+00 2.575978e+00 133 133 135
3.734228e-01 3.589760e+00 2.765186e+00 255 255 254
-6.732342e-01 3.650080e+00 2.643252e+00 147 145 148
5.154665e-01 3.962780e+00 2.735695e+00 254 255 252
5.154665e-01 3.962780e+00 2.735695e+00 254 255 252
5.184243e-01 4.034163e+00 2.733433e+00 253 255 252
-1.885083e+00 4.081163e+00 2.564921e+00 129 128 134
5.593525e-01 4.124803e+00 2.680020e+00 155 156 160
6.265899e-01 4.135936e+00 2.736249e+00 113 108 114
5.759585e-01 4.246910e+00 2.753298e+00 135 132 141
-1.889021e+00 4.251063e+00 2.604770e+00 129 127 130
5.848418e-01 4.454341e+00 2.867002e+00 254 254 254
1.927900e+00 4.490520e+00 2.979516e+00 97 93 92
6.071334e-01 4.527689e+00 2.830328e+00 163 157 181
1.768131e+00 4.582998e+00 3.108907e+00 83 81 86
-2.023034e+00 4.595926e+00 2.850958e+00 23 18 23
2.236781e+00 4.463522e+00 3.395708e+00 132 132 134
-1.975610e+00 4.614087e+00 2.914044e+00 63 55 53
-1.665052e+00 4.716145e+00 2.856449e+00 22 18 35
1.717596e+00 4.551701e+00 3.327483e+00 57 55 60
-1.855002e+00 4.682061e+00 2.911041e+00 133 129 126
6.835396e-01 4.782349e+00 2.967715e+00 149 145 163
-2.483302e+00 4.566070e+00 3.216589e+00 37 35 38
7.718053e-01 4.865144e+00 3.113896e+00 127 124 131
6.197416e-01 4.766693e+00 3.263786e+00 252 252 252
1.995512e+00 4.555266e+00 3.699640e+00 121 120 116
1.800252e+00 4.530828e+00 3.720455e+00 121 121 119
1.823495e+00 4.618187e+00 3.688547e+00 80 78 83
1.316053e+00 4.777283e+00 3.521373e+00 72 69 76
8.819734e-01 4.940942e+00 3.289716e+00 112 111 117
8.700323e-01 4.894008e+00 3.341801e+00 112 111 117
1.609133e+00 4.754665e+00 3.644791e+00 74 71 78
1.587943e+00 4.697466e+00 3.706887e+00 74 71 78
1.443043e+00 4.807296e+00 3.587782e+00 77 75 80
1.443043e+00 4.807296e+00 3.587782e+00 77 75 80
1.164350e+00 4.834296e+00 3.551709e+00 82 77 84
1.075112e+00 4.863414e+00 3.516144e+00 76 74 79
8.576313e-01 4.795253e+00 3.623784e+00 102 97 103
8.576313e-01 4.795253e+00 3.623784e+00 102 97 103
9.847087e-01 4.922375e+00 3.674063e+00 254 254 252
9.847087e-01 4.922375e+00 3.674063e+00 254 254 252
-1.755388e+00 4.891000e+00 3.546394e+00 65 61 62
-1.415669e+00 4.961748e+00 3.558909e+00 80 69 77
-1.610206e+00 4.924842e+00 3.606095e+00 58 53 57
5.030196e-01 -6.842109e+00 2.052798e+00 74 72 87
-1.312904e+00 -6.626473e+00 1.733578e+00 59 58 73
9.861899e-01 -6.676832e+00 1.858559e+00 86 82 97
5.870401e-01 -6.617835e+00 1.680368e+00 57 56 61
5.515219e-01 -6.595368e+00 1.596863e+00 92 90 104
1.808527e+00 -6.843558e+00 1.095498e+00 176 174 175
1.584991e+00 -6.499839e+00 1.801158e+00 176 174 175
2.851001e+00 -6.564955e+00 1.871806e+00 187 185 186
2.851001e+00 -6.564955e+00 1.871806e+00 187 185 186
2.786159e+00 -6.564008e+00 1.582401e+00 146 144 145
2.786159e+00 -6.564008e+00 1.582401e+00 146 144 145
-1.208372e-01 -6.689368e+00 8.405104e-01 60 62 75
-1.208372e-01 -6.689368e+00 8.405104e-01 60 62 75
2.555117e+00 -7.241939e+00 -3.043775e-02 181 177 190
2.555117e+00 -7.241939e+00 -3.043775e-02 181 177 190
2.314083e+00 -6.275583e+00 1.908710e+00 194 192 193
2.314083e+00 -6.275583e+00 1.908710e+00 194 192 193
6.834413e-01 -6.515877e+00 9.053359e-01 78 73 93
6.834413e-01 -6.515877e+00 9.053359e-01 78 73 93
2.436608e+00 -6.449897e+00 1.180364e+00 236 235 231
2.435617e+00 -6.366900e+00 1.121212e+00 187 186 184
1.743443e+00 -6.359856e+00 9.902514e-01 227 224 217
2.181029e+00 -6.094766e+00 1.675471e+00 189 188 186
1.271616e+00 -6.258782e+00 9.888472e-01 133 131 131
-1.327608e+00 -6.517455e+00 -1.710358e-01 41 37 56
1.002182e+00 -5.934010e+00 1.562445e+00 227 223 224
4.915995e-01 -6.515164e+00 2.437953e-02 76 76 84
3.392710e+00 -5.614567e+00 2.036370e+00 186 184 185
4.317382e-01 -5.483009e+00 1.628311e+00 161 159 160
2.327542e+00 -5.687500e+00 1.188409e+00 251 251 250
-4.595058e+00 -5.865539e+00 -3.353466e-01 71 75 89
1.246447e+00 -5.605734e+00 1.229045e+00 207 206 204
1.246447e+00 -5.605734e+00 1.229045e+00 207 206 204
2.513567e+00 -5.469861e+00 1.635233e+00 16 12 33
2.627566e+00 -5.573211e+00 1.269895e+00 238 238 231
-1.828059e+00 -5.758887e+00 8.325322e-02 8 11 31
-3.757717e+00 -5.729098e+00 -2.797447e-01 33 37 48
-1.815851e+00 -5.539939e+00 4.232854e-01 4 3 20
1.276422e+00 -5.231539e+00 1.671061e+00 82 78 101
-1.054617e+00 -5.026943e+00 1.742350e+00 11 11 19
4.980880e-01 -5.193575e+00 1.430278e+00 242 243 229
4.980880e-01 -5.193575e+00 1.430278e+00 242 243 229
2.176583e+00 -5.401126e+00 8.736609e-01 230 230 223
4.483790e-01 -5.226169e+00 1.086773e+00 14 53 42
1.084465e+00 -5.138919e+00 1.423747e+00 73 95 100
4.177310e-01 -4.982415e+00 1.790425e+00 11 9 25
-9.229035e-01 -4.964245e+00 1.508804e+00 6 11 16
-8.432812e-01 -4.952698e+00 1.544068e+00 6 6 11
2.290248e+00 -5.253922e+00 9.295639e-01 37 35 40
-4.577087e+00 -4.713672e+00 1.080427e+00 28 52 23
-4.038828e+00 -4.661670e+00 1.051349e+00 4 11 3
-3.853666e+00 -4.654233e+00 1.094189e+00 9 15 7
-3.887745e-01 -4.728224e+00 1.296824e+00 39 45 31
1.454229e+00 -4.660599e+00 1.701871e+00 23 23 75
6.284672e-01 -4.595473e+00 1.813695e+00 107 89 101
-4.507218e+00 -4.527615e+00 1.047061e+00 72 90 57
-4.061764e+00 -4.530497e+00 1.082966e+00 3 10 2
-4.061764e+00 -4.530497e+00 1.082966e+00 3 10 2
5.689263e-01 -4.634005e+00 1.491552e+00 113 113 129
-4.803019e+00 -4.487574e+00 1.083645e+00 55 73 22
-4.246178e+00 -4.527492e+00 1.009592e+00 3 14 0
-2.981804e-01 -4.514476e+00 1.708595e+00 17 20 9
-3.859478e+00 -4.514256e+00 1.069526e+00 4 14 1
1.214804e+00 -4.535525e+00 1.779844e+00 250 254 254
-9.814987e-01 -4.475287e+00 1.636849e+00 8 13 5
-4.105437e+00 -4.337332e+00 1.599449e+00 26 37 20
-4.275648e+00 -4.473826e+00 1.059608e+00 26 37 20
-3.843568e+00 -4.471436e+00 1.103499e+00 63 81 32
-4.017194e+00 -4.727615e+00 2.545237e-02 6 12 1
1.071154e+00 -4.487855e+00 1.861411e+00 66 62 47
1.223296e+00 -4.501680e+00 1.821028e+00 65 35 87
8.564533e-01 -4.453748e+00 1.937231e+00 201 200 204
4.047271e-01 -4.570263e+00 1.422670e+00 99 91 47
-2.640602e-01 -4.469824e+00 1.685493e+00 86 93 51
-5.953390e-01 -4.463105e+00 1.610614e+00 104 112 39
6.315015e-01 -4.437972e+00 1.853421e+00 8 1 17
1.929663e-01 -4.464576e+00 1.683381e+00 16 17 3
-4.874204e-01 -4.436624e+00 1.663545e+00 74 83 21
-5.765523e-01 -4.458725e+00 1.442558e+00 93 96 41
-4.454100e-01 -4.345356e+00 1.897665e+00 63 74 24
-3.923586e+00 -4.241741e+00 1.607921e+00 78 92 12
-4.110803e+00 -4.351043e+00 1.109676e+00 30 41 8
1.663102e+00 -4.408757e+00 1.875025e+00 14 16 11
1.107423e+00 -4.382041e+00 1.757068e+00 204 208 72
1.168463e-01 -4.334802e+00 1.746918e+00 147 147 43
-2.568265e-01 -4.357006e+00 1.535296e+00 96 115 46
-2.768745e-01 -4.303703e+00 1.751241e+00 96 115 46
1.899242e+00 -4.469684e+00 1.391097e+00 32 39 5
-2.162435e-01 -4.357514e+00 1.514085e+00 27 39 18
1.986300e-02 -4.264923e+00 1.770451e+00 21 22 4
-1.118773e-01 -4.231141e+00 1.846946e+00 147 147 87
-1.118773e-01 -4.231141e+00 1.846946e+00 147 147 87
-1.061781e-01 -4.173334e+00 2.009032e+00 44 56 20
-1.061781e-01 -4.173334e+00 2.009032e+00 44 56 20
-1.109709e-01 -4.143392e+00 1.988168e+00 138 145 91
1.227226e+00 -4.276926e+00 1.586419e+00 244 246 230
1.574218e+00 -4.246189e+00 1.719280e+00 224 219 109
-4.378705e+00 -4.016941e+00 1.622441e+00 20 35 8
-9.750559e-01 -4.113090e+00 1.767388e+00 12 21 0
9.212024e-01 -4.133789e+00 1.854218e+00 77 81 53
-9.881535e-01 -4.064313e+00 1.810175e+00 24 34 6
3.700552e-01 -4.126675e+00 1.735927e+00 182 181 124
-4.551584e+00 -4.031739e+00 1.224181e+00 82 95 26
8.870791e-01 -4.114174e+00 1.827098e+00 64 72 34
-4.764102e-01 -4.057162e+00 1.853342e+00 97 115 73
1.491910e+00 -4.131102e+00 1.812099e+00 47 49 12
-3.650577e+00 -4.014425e+00 1.364215e+00 20 34 3
1.576053e+00 -4.132860e+00 1.768546e+00 151 143 55
1.824881e+00 -4.172761e+00 1.602620e+00 48 48 16
2.330652e-01 -4.079461e+00 1.783645e+00 61 69 25
3.252465e-01 -4.058670e+00 1.862666e+00 57 63 30
3.024266e-01 -4.032956e+00 1.978438e+00 57 63 30
-2.737178e-01 -4.001602e+00 1.976183e+00 36 41 0
1.188771e+00 -4.055254e+00 1.843370e+00 114 116 39
-4.341261e+00 -4.072550e+00 4.976000e-01 51 77 36
-1.485620e-01 -3.953912e+00 1.835905e+00 85 99 52
-1.160890e-01 -3.909252e+00 2.009308e+00 23 37 2
-6.399590e-01 -3.886819e+00 1.949543e+00 60 75 16
-3.270743e-01 -3.881119e+00 1.981286e+00 18 27 0
-3.349557e-01 -3.867318e+00 2.046692e+00 18 27 0
-2.538527e+00 -3.580253e+00 2.028384e+00 6 3 12
-4.443257e+00 -3.307078e+00 1.122366e+00 147 165 169
-4.210939e+00 -3.197647e+00 1.688472e+00 97 112 120
-3.615134e+00 -3.206576e+00 1.322441e+00 51 5 18
-4.408680e+00 -3.088524e+00 1.535543e+00 99 97 97
-5.156721e+00 -2.995596e+00 1.437405e+00 36 25 32
4.509655e+00 -2.978647e+00 1.971678e+00 18 16 30
4.468037e+00 -2.901529e+00 2.033371e+00 15 13 23
4.468037e+00 -2.901529e+00 2.033371e+00 15 13 23
4.502683e+00 -2.850008e+00 2.067340e+00 16 12 27
4.472607e+00 -2.848378e+00 2.026740e+00 17 15 26
-4.057653e+00 -2.600451e+00 1.737963e+00 37 33 33
-4.764372e+00 -2.572636e+00 1.704287e+00 130 123 104
-4.764372e+00 -2.572636e+00 1.704287e+00 130 123 104
-5.034953e+00 -2.517150e+00 1.698597e+00 26 20 32
3.243211e+00 -2.691577e+00 2.211110e+00 71 69 72
-2.770011e+00 -2.538774e+00 2.031483e+00 33 33 35
-5.111047e+00 -2.502332e+00 1.510206e+00 35 29 41
3.733005e+00 -2.607615e+00 2.018001e+00 48 47 52
-5.096465e+00 -2.362864e+00 1.531375e+00 43 39 40
-3.930390e+00 -2.366130e+00 1.791401e+00 33 32 38
4.117334e+00 -2.471794e+00 2.179230e+00 22 20 25
-2.286163e+00 -2.324260e+00 2.183381e+00 74 74 74
4.473232e+00 -2.465217e+00 2.181022e+00 36 36 48
-4.643240e+00 -2.270459e+00 1.788642e+00 97 93 88
4.186003e+00 -2.444912e+00 2.114100e+00 80 79 75
-4.553519e+00 -2.244214e+00 1.811075e+00 125 118 112
-4.379167e+00 -2.231505e+00 2.077943e+00 142 134 115
-3.053773e+00 -2.220242e+00 2.059111e+00 103 106 111
3.394909e+00 -2.330782e+00 2.367247e+00 93 92 94
-2.681560e+00 -2.205384e+00 2.148111e+00 24 23 21
-3.034838e+00 -2.176976e+00 2.025218e+00 36 37 42
4.037124e+00 -2.284301e+00 2.173957e+00 20 14 25
3.991302e+00 -2.239205e+00 2.180053e+00 32 29 37
-3.905713e+00 -2.019567e+00 1.906193e+00 59 59 61
-4.778820e+00 -1.996611e+00 1.774310e+00 125 113 93
-4.148224e+00 -1.962795e+00 3.113198e+00 70 68 69
-3.932857e+00 -1.925788e+00 1.908569e+00 164 163 169
-3.984429e+00 -1.896715e+00 1.898110e+00 144 144 149
-4.370803e+00 -1.887720e+00 2.179131e+00 81 77 65
-4.520397e+00 -1.884008e+00 1.788327e+00 81 77 65
-4.962132e+00 -1.863253e+00 1.616954e+00 98 88 77
-4.962132e+00 -1.863253e+00 1.616954e+00 98 88 77
4.370814e+00 -1.999329e+00 2.159717e+00 166 166 163
-4.492791e+00 -1.822448e+00 1.497739e+00 31 31 33
-4.046668e+00 -1.795136e+00 1.642364e+00 50 60 69
-3.825601e+00 -1.791911e+00 1.962368e+00 116 118 131
-4.646542e+00 -1.742649e+00 1.880505e+00 222 228 224
-4.646542e+00 -1.742649e+00 1.880505e+00 222 228 224
4.217595e+00 -1.896846e+00 2.156294e+00 78 77 84
4.164909e+00 -1.835143e+00 2.197933e+00 45 33 73
-4.716066e+00 -1.674592e+00 1.853018e+00 84 81 98
4.492926e+00 -1.823739e+00 2.205001e+00 202 201 196
4.492926e+00 -1.823739e+00 2.205001e+00 202 201 196
4.134484e+00 -1.812543e+00 2.208607e+00 247 253 255
4.184677e+00 -1.789806e+00 2.166659e+00 34 26 59
4.301567e+00 -1.727030e+00 2.219219e+00 87 84 102
4.682723e+00 -1.706202e+00 2.202669e+00 72 70 87
-4.650098e+00 -1.543757e+00 1.762905e+00 56 54 65
-4.939991e+00 -1.460446e+00 1.705627e+00 230 231 226
-4.778273e+00 -1.354604e+00 1.323367e+00 54 53 61
-4.804739e+00 -1.315311e+00 1.758118e+00 64 62 64
5.276797e-01 -1.424219e+00 3.315795e+00 118 114 115
-4.942470e+00 -1.037965e+00 1.751553e+00 254 254 253
3.238715e+00 -1.085298e+00 2.275094e+00 50 44 44
3.436318e+00 -1.026190e+00 2.447661e+00 61 55 55
-2.990463e+00 -9.470250e-01 2.300959e+00 54 52 55
-2.931015e+00 -8.854480e-01 2.254751e+00 16 17 19
2.626595e+00 -9.342976e-01 2.453183e+00 87 88 93
-2.341048e+00 -9.001087e-01 2.496533e+00 97 96 101
2.702004e+00 -1.034677e+00 3.262479e+00 123 122 130
2.524809e+00 -9.401621e-01 2.521149e+00 103 102 107
3.878028e+00 -9.132347e-01 2.263248e+00 105 103 114
3.380703e+00 -9.240929e-01 2.440115e+00 123 124 128
-2.381648e+00 -8.689423e-01 2.441128e+00 32 31 29
-2.677269e+00 -8.433278e-01 2.300091e+00 15 14 19
-2.675464e+00 -8.465563e-01 2.319542e+00 15 14 19
1.757115e-01 -1.026432e+00 3.732405e+00 98 95 88
-2.406839e+00 -8.447028e-01 2.446135e+00 86 84 87
-3.164243e+00 -8.025111e-01 2.161959e+00 37 37 35
-2.647064e+00 -8.152467e-01 2.338375e+00 108 106 105
-1.605847e-01 -9.707196e-01 3.655533e+00 81 77 78
1.773512e-01 -8.676758e-01 3.747612e+00 123 119 118
2.852899e+00 -7.095805e-01 2.535145e+00 48 43 48
-2.541976e+00 -6.200266e-01 2.452555e+00 115 114 112
1.411591e+00 -7.833281e-01 3.828551e+00 99 95 94
7.287957e-01 -7.506603e-01 3.738289e+00 29 23 30
7.287957e-01 -7.506603e-01 3.738289e+00 29 23 30
-2.602454e+00 -4.887435e-01 2.370743e+00 94 93 91
-3.703708e+00 -4.295083e-01 2.208437e+00 135 137 150
-2.553509e+00 -3.396837e-01 2.398756e+00 85 81 80
3.672971e+00 -3.808029e-01 2.550881e+00 113 114 119
-2.952201e+00 -3.117550e-01 2.290341e+00 108 106 106
-3.487428e+00 -2.803544e-01 2.236199e+00 43 43 51
2.896250e+00 -2.587505e-01 2.564074e+00 126 129 133
2.493299e+00 -2.565667e-01 2.584811e+00 129 131 140
-2.083164e+00 -2.233845e-01 2.606814e+00 112 112 119
-2.164838e+00 -2.146222e-01 2.572551e+00 112 114 126
-2.252371e+00 -2.084297e-01 2.529671e+00 111 114 119
-2.675721e+00 -1.862782e-01 2.431394e+00 108 111 116
-2.769929e+00 -1.681001e-01 2.343413e+00 114 115 119
-2.198779e+00 -1.906617e-01 2.553403e+00 44 49 53
3.705783e+00 -1.400297e-01 2.478178e+00 110 110 118
-2.194020e+00 -1.363497e-01 2.526764e+00 31 34 41
2.705920e+00 -1.425494e-01 2.580668e+00 44 40 41
2.722405e+00 -1.327480e-01 2.548378e+00 44 40 41
2.670194e+00 -1.254284e-01 2.494797e+00 53 51 52
2.443084e+00 -1.059804e-01 2.593152e+00 31 26 32
-2.582471e+00 -7.205667e-02 2.437904e+00 41 41 43
-2.669121e+00 -5.993204e-02 2.397284e+00 34 34 36
3.301121e+00 -8.046901e-02 2.559577e+00 126 120 119
3.227261e+00 -7.573156e-02 2.541811e+00 136 131 127
-1.952815e+00 -8.485783e-02 2.660772e+00 31 23 20
-1.952815e+00 -8.485783e-02 2.660772e+00 31 23 20
9.181650e-01 -2.835255e-01 3.669699e+00 33 30 33
-1.958394e+00 2.212753e-01 2.586497e+00 122 121 127
2.873143e+00 2.945648e-01 2.703765e+00 47 47 49
2.207518e+00 1.404079e-01 3.328278e+00 106 100 99
1.659708e+00 1.829293e-01 3.244259e+00 99 93 93
2.147683e+00 4.117183e-01 2.434017e+00 140 140 139
-3.243736e+00 4.492180e-01 2.290376e+00 62 61 61
-3.301779e+00 4.563693e-01 2.273277e+00 48 46 49
-2.752601e+00 4.872465e-01 2.353267e+00 99 99 99
6.528055e-01 3.481019e-01 3.030043e+00 22 20 26
3.586484e+00 5.298457e-01 2.445743e+00 249 254 255
3.483572e+00 4.715927e-01 2.632922e+00 249 254 255
3.535731e+00 5.014582e-01 2.540675e+00 249 254 255
-2.821178e+00 4.970512e-01 2.409469e+00 118 119 121
3.562703e+00 5.155702e-01 2.547009e+00 116 113 141
-3.241306e+00 5.677344e-01 2.264390e+00 50 50 52
-3.233257e+00 5.524469e-01 2.312125e+00 50 50 52
-3.233257e+00 5.524469e-01 2.312125e+00 50 50 52
1.973390e+00 5.043845e-01 2.641325e+00 54 51 48
2.664350e+00 5.857765e-01 2.508890e+00 65 58 52
2.156581e+00 6.004592e-01 2.636465e+00 58 49 49
-3.586966e+00 6.572201e-01 2.283089e+00 253 255 252
-3.642694e+00 6.661945e-01 2.257187e+00 251 253 255
-3.618544e+00 6.888226e-01 2.256144e+00 122 121 131
-3.618544e+00 6.888226e-01 2.256144e+00 122 121 131
2.371804e+00 7.255731e-01 2.605566e+00 65 55 49
-2.365711e+00 7.684807e-01 2.445223e+00 61 52 43
-7.485762e-01 6.365009e-01 3.013111e+00 62 58 59
1.945904e+00 5.881491e-01 3.271314e+00 59 60 64
2.122030e+00 8.142532e-01 2.643629e+00 64 66 65
-1.859063e+00 8.650642e-01 2.542593e+00 71 71 71
