ply
format ascii 1.0
element face 0
property list uchar int vertex_indices
element vertex 940
property float x
property float y
property float z
property uchar diffuse_red
property uchar diffuse_green
property uchar diffuse_blue
end_header
-1.509996e+00 1.226693e+00 2.915261e+00 207 204 197
7.555134e-01 2.621146e+00 2.944631e+00 161 150 141
5.015452e-01 2.595264e+00 2.946635e+00 53 48 40
1.321584e-01 2.568627e+00 2.944534e+00 75 71 59
1.321584e-01 2.568627e+00 2.944534e+00 75 71 59
-2.275864e-01 2.542053e+00 2.936079e+00 80 77 66
-7.484435e-02 2.628567e+00 2.933718e+00 91 80 68
-1.760902e-01 2.621135e+00 2.931764e+00 91 83 71
-5.507163e-01 2.596891e+00 2.927374e+00 89 76 66
-7.825527e-01 2.590005e+00 2.927454e+00 70 60 48
-1.415509e+00 2.547284e+00 2.940419e+00 86 75 62
1.516170e-01 -1.431824e+00 2.948830e+00 140 124 106
1.571681e-01 -1.361398e+00 2.946017e+00 166 153 139
-1.603783e-01 -9.107168e-01 2.923702e+00 196 186 174
-1.292855e-01 -9.077795e-01 2.923916e+00 198 187 187
-5.093856e-01 -6.295806e-01 2.921725e+00 74 61 51
-9.811417e-01 -6.038319e-01 2.913914e+00 91 79 70
3.431464e-01 7.137911e-02 3.037955e+00 199 190 188
4.962153e-01 1.457487e-01 3.041647e+00 49 39 31
2.959083e-01 3.503800e-01 3.063834e+00 224 215 216
5.117258e-01 1.211898e+00 3.105290e+00 179 169 159
5.957001e-01 1.401935e+00 3.096407e+00 185 178 170
5.559058e-01 2.575298e+00 2.948942e+00 72 67 56
1.316486e-01 2.656824e+00 2.936496e+00 77 70 57
4.258063e-02 2.565682e+00 2.941977e+00 47 34 26
-1.001351e-01 -2.095664e+00 3.000571e+00 71 53 39
-1.324317e-01 -1.318969e+00 2.940469e+00 116 93 77
4.761015e-01 1.841441e-01 3.048789e+00 51 41 39
-8.924609e-02 4.989098e-01 3.102458e+00 135 119 109
-8.924609e-02 4.989098e-01 3.102458e+00 135 119 109
-5.067666e-02 8.465293e-01 3.143830e+00 38 28 36
1.998232e-01 1.331114e+00 3.089427e+00 166 154 144
2.216585e-01 2.578062e+00 2.945741e+00 43 34 25
-2.484931e-01 2.562591e+00 2.933455e+00 188 185 180
-1.052885e+00 2.356196e+00 2.917587e+00 104 102 91
-1.493872e+00 2.490296e+00 2.941525e+00 109 96 88
4.600470e-02 -9.044680e-01 2.927132e+00 78 66 55
1.202058e+00 1.314028e+00 4.856563e+00 142 122 103
7.323122e-01 1.117572e+00 3.097903e+00 125 116 106
3.774516e-01 2.564321e+00 2.948841e+00 83 71 59
1.069194e+00 2.786635e+00 2.944735e+00 161 144 133
4.302169e-01 2.642113e+00 2.942133e+00 162 145 134
-1.012950e+00 2.465221e+00 2.921411e+00 159 151 136
-1.407461e+00 2.509681e+00 2.938871e+00 171 161 152
-1.621665e-01 4.547226e-01 3.091301e+00 150 138 132
-3.585724e-01 2.554409e+00 2.930794e+00 172 165 151
1.946903e+00 2.060638e+00 2.952213e+00 165 155 145
2.232179e+00 1.301991e+00 2.951760e+00 194 186 173
-2.211014e+00 4.459601e+00 3.066669e+00 110 100 98
2.802691e+00 5.466525e+00 3.171088e+00 174 173 168
1.564030e+00 8.140589e-01 3.019905e+00 196 188 177
1.692638e+00 1.303343e+00 2.996233e+00 184 177 161
1.058332e+00 1.370108e+00 3.063743e+00 212 209 205
-1.847668e+00 -2.249143e+00 3.050135e+00 73 56 45
-6.279914e-02 4.416852e-01 3.095215e+00 51 46 55
1.579366e+00 1.619870e+00 2.978199e+00 165 164 152
-2.254086e+00 4.508174e+00 3.069924e+00 178 174 167
-1.738321e+00 4.668269e+00 3.065400e+00 191 192 187
2.250839e+00 5.053409e+00 3.124974e+00 164 155 148
-1.935067e+00 7.963317e-01 2.930046e+00 177 169 161
2.420303e+00 1.435025e+00 2.965925e+00 192 179 160
2.301933e+00 2.554939e+00 2.989249e+00 119 114 104
-2.389346e+00 2.308639e+00 2.978601e+00 30 27 22
1.870005e+00 2.653084e+00 2.971339e+00 49 42 30
2.312625e+00 2.710701e+00 2.997686e+00 48 39 32
3.130420e+00 2.987410e+00 3.061978e+00 196 191 185
2.394891e+00 1.161886e+00 2.959187e+00 200 192 178
1.501735e+00 1.709459e+00 2.989610e+00 48 42 43
1.542159e+00 2.391906e+00 2.951142e+00 37 30 31
-1.622558e+00 4.607384e+00 3.059944e+00 180 173 167
-2.106698e+00 -2.258015e+00 3.060267e+00 146 133 116
-5.098687e-01 -1.137286e+00 2.931992e+00 187 178 162
1.372792e+00 1.109784e+00 3.031126e+00 189 179 170
1.526163e+00 1.139755e+00 3.020461e+00 202 193 176
1.526163e+00 1.139755e+00 3.020461e+00 202 193 176
-1.461334e+00 1.150995e+00 2.917383e+00 176 166 154
2.510143e+00 2.579606e+00 3.002556e+00 174 172 159
-1.660478e+00 4.713433e+00 3.066298e+00 185 182 175
-2.425742e+00 -2.472975e+00 3.086191e+00 151 139 121
-2.359515e+00 -2.405015e+00 3.079573e+00 171 162 145
1.646559e+00 1.015944e+00 3.011201e+00 183 175 160
-7.204970e-01 1.242641e+00 3.028240e+00 182 172 162
2.269937e+00 5.481856e+00 3.150795e+00 170 168 163
5.253551e-02 4.485790e-01 3.113956e+00 190 182 176
-2.082911e+00 9.153747e-01 2.937029e+00 155 143 129
3.651840e+00 5.325996e+00 3.203903e+00 151 156 157
-1.724668e+00 4.482003e+00 3.055534e+00 175 175 167
9.848737e-01 2.688911e+00 2.940145e+00 188 184 172
-2.188830e+00 4.111463e+00 3.051148e+00 14 19 22
-2.466567e+00 4.213455e+00 3.060625e+00 184 177 174
1.052228e+00 2.511063e+00 2.940753e+00 125 119 102
-1.820554e+00 4.264338e+00 3.046492e+00 56 43 37
-1.369641e+00 4.696212e+00 3.060171e+00 174 167 161
-1.442281e+00 4.708879e+00 3.062170e+00 169 163 155
-1.808156e+00 4.612554e+00 3.063994e+00 84 82 77
-1.859824e+00 4.634289e+00 3.066344e+00 89 91 85
-2.144961e+00 4.542326e+00 3.068748e+00 73 72 67
9.545929e-01 4.979339e+00 3.079606e+00 71 71 63
1.687995e+00 5.349158e+00 3.122939e+00 187 173 167
-2.011942e+00 4.530012e+00 3.065160e+00 60 63 54
-1.847040e+00 4.603208e+00 3.064534e+00 180 181 175
1.586880e+00 2.699143e+00 2.960955e+00 172 163 153
1.226271e+00 5.111301e+00 3.094097e+00 90 82 72
9.937457e-01 2.529533e+00 2.939496e+00 95 93 83
-1.471302e+00 4.687139e+00 3.061563e+00 70 73 64
-2.265471e+00 4.587855e+00 3.074392e+00 87 68 65
4.187371e-01 -1.249743e+00 2.942035e+00 170 158 143
1.047400e+00 -1.299393e+00 2.959185e+00 191 185 170
-1.928657e+00 8.845486e-02 2.938480e+00 182 177 173
-1.928657e+00 8.845486e-02 2.938480e+00 182 177 173
-1.933407e+00 5.575882e-01 2.928253e+00 144 137 127
-1.643511e+00 7.766341e-01 2.917696e+00 179 170 157
-1.449782e+00 -1.014448e+00 2.952061e+00 190 185 179
2.283462e-01 -1.007086e+00 2.929992e+00 97 82 75
-1.926098e+00 -9.881411e-01 2.973729e+00 193 184 175
-2.132763e+00 -8.916487e-01 2.980378e+00 103 89 76
-1.168927e+00 6.421453e-01 2.928007e+00 207 202 198
-1.493464e+00 6.952518e-01 2.917979e+00 186 176 165
-1.811750e+00 -2.288242e+00 3.051370e+00 126 110 94
2.392650e+00 -1.310602e+00 3.027095e+00 203 197 184
2.311475e+00 -1.169572e+00 3.014267e+00 115 99 83
5.591197e-01 -1.021265e+00 2.935377e+00 105 92 79
-1.145829e+00 -6.834686e-01 2.921343e+00 179 167 153
-2.255535e+00 -7.101248e-01 2.978784e+00 167 152 139
-2.432994e+00 -7.029228e-01 2.988930e+00 159 147 132
-2.068552e+00 -6.373091e-01 2.964473e+00 171 157 144
-2.068552e+00 -6.373091e-01 2.964473e+00 171 157 144
-2.222339e+00 6.396719e-01 2.945818e+00 105 89 73
-2.399097e+00 6.321973e-01 2.956581e+00 190 180 170
-1.607563e+00 9.778883e-01 2.915978e+00 139 130 117
1.736863e+00 -2.566748e+00 3.076771e+00 126 112 93
-1.478752e+00 -1.574999e+00 2.988937e+00 197 192 185
3.762586e-01 -1.350869e+00 2.947415e+00 186 182 173
-1.994867e+00 -1.039140e+00 2.980005e+00 120 99 85
-1.353834e+00 -7.024465e-01 2.930867e+00 175 164 146
-2.606539e+00 -7.064684e-01 2.999616e+00 171 157 144
-2.606539e+00 -7.064684e-01 2.999616e+00 171 157 144
-2.245868e+00 -5.928997e-01 2.972931e+00 173 163 153
-2.247800e+00 -5.038305e-01 2.969580e+00 173 163 153
2.240322e+00 6.621024e-01 2.946739e+00 97 79 63
-1.100199e+00 3.897445e-01 2.935434e+00 198 192 184
-1.999283e+00 5.937143e-01 2.931886e+00 203 196 190
-2.137218e+00 6.900668e-01 2.939744e+00 194 188 177
9.964263e-01 -2.197957e+00 3.024208e+00 174 164 154
-1.565218e+00 -1.238378e+00 2.970677e+00 202 197 191
2.759402e-01 -1.261237e+00 2.940671e+00 208 201 191
1.107262e+00 -1.273211e+00 2.960029e+00 208 202 196
8.482467e-01 -1.253185e+00 2.950861e+00 199 192 182
-2.785196e-01 -1.180022e+00 2.934266e+00 133 117 105
-7.203575e-01 -1.120225e+00 2.934448e+00 209 202 194
4.546636e-01 -1.124930e+00 2.935729e+00 192 185 176
3.420189e-01 -1.123266e+00 2.934044e+00 193 189 179
-2.710340e+00 -9.189740e-01 3.013757e+00 188 182 173
-7.609269e-01 -7.790316e-01 2.917880e+00 178 165 149
2.276239e+00 -7.173241e-01 2.988691e+00 182 172 162
7.302292e-01 -6.254576e-01 2.966593e+00 177 171 160
1.006495e+00 -6.498635e-01 2.967266e+00 181 174 163
-2.791595e+00 -7.022889e-01 3.010160e+00 173 168 162
8.815668e-01 -5.424913e-01 3.002650e+00 180 167 149
-2.470333e+00 -4.616089e-01 2.981620e+00 76 61 54
-1.085863e+00 6.153110e-01 2.945102e+00 106 97 93
-1.592329e+00 6.970732e-01 2.916559e+00 193 186 175
2.583810e+00 1.434206e+00 2.975601e+00 189 179 157
-2.427396e+00 1.005874e+00 2.957040e+00 186 178 167
-1.862696e+00 -2.169337e+00 3.045736e+00 160 148 132
-2.415319e+00 -2.027540e+00 3.059087e+00 100 79 60
-2.845646e+00 -1.679634e+00 3.057518e+00 44 26 27
6.448902e-01 -1.709805e+00 2.976546e+00 190 183 171
4.952815e-01 -1.563652e+00 2.962695e+00 112 95 75
1.716391e-01 -1.106255e+00 2.931453e+00 190 182 163
-1.913003e+00 -9.801756e-01 2.972353e+00 197 188 175
-1.769521e+00 -7.761726e-01 2.954383e+00 38 23 15
-2.101859e+00 -6.848018e-01 2.968517e+00 175 163 151
5.773411e-01 -5.476300e-01 2.984536e+00 62 46 34
-2.669984e+00 -5.825312e-01 2.998504e+00 44 26 23
-2.105517e+00 -4.549845e-01 2.958738e+00 66 50 43
-1.521809e+00 -4.375087e-01 2.925956e+00 176 163 147
-1.568710e+00 -4.256685e-01 2.927747e+00 44 25 18
-2.803804e+00 -3.882684e-01 2.999620e+00 147 135 121
-2.367070e+00 2.765215e-01 2.961183e+00 159 154 143
2.667040e+00 1.287473e+00 2.978882e+00 172 163 146
-1.838898e+00 8.019748e-01 2.925056e+00 168 161 142
3.837360e-01 1.367075e+00 3.095716e+00 181 172 163
-4.139506e-01 1.331695e+00 3.049310e+00 179 173 162
6.803913e-01 -2.558190e+00 3.045784e+00 148 136 113
-2.380138e+00 -1.829330e+00 3.045469e+00 146 133 117
-2.499836e+00 -1.670347e+00 3.041266e+00 92 75 53
-2.153617e+00 -1.271346e+00 3.001136e+00 167 159 148
-1.798561e+00 -1.139775e+00 2.975534e+00 199 193 180
4.432763e-02 -1.137468e+00 2.932019e+00 200 192 184
-7.460130e-01 -1.073751e+00 2.931935e+00 167 149 127
7.485928e-01 -5.527478e-01 3.000494e+00 170 154 143
-2.848878e+00 -3.273890e-01 3.000480e+00 134 123 116
-1.795347e-01 4.040334e-01 3.081834e+00 195 187 177
-2.244132e-01 5.038083e-01 3.188570e+00 33 24 25
1.167033e+00 6.407902e-01 3.142115e+00 107 100 92
-2.418598e+00 3.696256e-01 2.962088e+00 179 171 158
1.535220e+00 1.305575e+00 3.009892e+00 101 91 72
-1.502611e+00 8.648432e-01 2.916732e+00 105 92 75
-1.596794e+00 9.458560e-01 2.915370e+00 110 96 83
-1.697137e+00 1.013130e+00 2.917258e+00 107 89 75
-1.873068e+00 1.194139e+00 2.925066e+00 201 191 182
-1.604913e+00 1.292008e+00 2.915790e+00 186 177 168
-2.887980e+00 -1.684403e+00 3.059907e+00 196 194 187
-2.808770e+00 -1.688133e+00 3.056066e+00 205 198 192
-2.808770e+00 -1.688133e+00 3.056066e+00 205 198 192
4.040476e-01 -1.420706e+00 2.952185e+00 203 192 177
2.940098e-01 -1.246794e+00 2.939520e+00 209 205 195
-5.777695e-01 -1.208184e+00 2.937261e+00 211 199 188
-1.802920e+00 -9.416872e-01 2.964710e+00 127 117 108
-1.750046e+00 -9.217332e-01 2.960909e+00 160 155 144
-1.785697e+00 -9.180891e-01 2.962455e+00 156 150 144
-2.815639e+00 -9.270738e-01 3.020301e+00 206 197 184
-1.430009e-03 -8.690004e-01 2.927001e+00 41 25 16
-1.887449e+00 -7.965738e-01 2.961836e+00 79 62 52
1.952960e+00 -5.633821e-01 2.964383e+00 56 36 26
-1.523420e+00 -3.986479e-01 2.924260e+00 40 20 11
2.311658e+00 5.739949e-01 2.949763e+00 128 115 98
1.894602e+00 8.884967e-01 2.955651e+00 79 65 51
-1.392719e+00 7.162145e-01 2.922660e+00 105 92 76
-6.397682e-02 1.058725e+00 3.149784e+00 154 144 127
-1.458517e+00 8.187009e-01 2.918090e+00 103 90 74
-1.773530e+00 8.062303e-01 2.921747e+00 82 70 54
-2.431767e+00 7.171805e-01 2.958057e+00 109 98 85
-2.462249e+00 7.232446e-01 2.959609e+00 192 182 172
-2.731654e+00 6.308981e-01 2.974372e+00 104 99 95
-1.544783e+00 9.079149e-01 2.915436e+00 108 97 80
-2.368486e+00 8.153959e-01 2.953481e+00 102 92 75
-2.364831e+00 8.635122e-01 2.952617e+00 185 176 160
-1.772265e+00 9.882661e-01 2.920830e+00 90 73 58
-2.143394e+00 9.228566e-01 2.939478e+00 184 177 164
-2.013376e+00 9.783950e-01 2.933199e+00 147 139 126
-2.093460e+00 9.581745e-01 2.936899e+00 91 77 64
-2.321928e+00 9.116690e-01 2.949837e+00 186 178 163
-1.893979e+00 1.249051e+00 2.927421e+00 111 102 87
-1.893979e+00 1.249051e+00 2.927421e+00 111 102 87
2.440068e+00 -1.623628e+00 3.048500e+00 199 191 179
-2.156328e+00 -1.144606e+00 2.994071e+00 194 179 162
-1.727657e+00 -9.704251e-01 2.962650e+00 191 183 172
-2.190100e+00 -9.492417e-01 2.985881e+00 193 186 176
6.523867e-01 -8.901466e-01 2.934977e+00 44 30 20
4.649967e-01 1.138781e-01 3.046952e+00 191 180 168
5.473280e-01 4.346446e-01 3.013617e+00 165 155 133
2.091184e+00 6.920191e-01 2.944845e+00 200 193 180
2.186624e+00 9.122328e-01 2.946966e+00 106 97 83
2.520035e+00 1.011883e+00 2.966702e+00 97 91 77
-1.675445e+00 1.045168e+00 2.916231e+00 180 171 154
-1.648573e+00 1.061058e+00 2.915239e+00 89 82 69
-2.399084e+00 9.561359e-01 2.955061e+00 144 134 125
-2.211055e+00 1.001896e+00 2.942979e+00 189 176 161
-2.211055e+00 1.001896e+00 2.942979e+00 189 176 161
1.618918e-01 -2.413424e+00 3.027194e+00 43 28 21
-1.789883e+00 -1.926461e+00 3.026685e+00 151 137 114
-2.781934e+00 -1.687976e+00 3.054720e+00 198 187 183
6.205305e-01 -1.097767e+00 2.937925e+00 139 127 113
-1.818453e+00 -9.619890e-01 2.966558e+00 194 184 175
-2.074824e+00 -9.527714e-01 2.979790e+00 191 182 164
-9.437522e-01 -8.527275e-01 2.924461e+00 201 195 190
-1.163597e+00 -8.284068e-01 2.929296e+00 193 185 175
-2.637774e+00 -5.531744e-01 2.995396e+00 132 117 112
4.403375e-01 1.705411e-01 3.049383e+00 194 184 182
-2.965979e-01 6.443906e-01 3.097773e+00 186 178 175
2.259065e+00 1.137388e+00 2.952687e+00 180 166 152
2.322381e+00 1.175731e+00 2.955978e+00 209 206 195
1.649783e+00 1.152970e+00 3.008667e+00 100 91 80
5.872614e-01 1.232020e+00 3.101390e+00 197 188 179
-1.587838e+00 9.557724e-01 2.915477e+00 104 90 77
-6.620160e-01 1.125933e+00 3.034932e+00 94 87 79
-6.650443e-01 1.339038e+00 3.027261e+00 197 187 180
1.726112e+00 1.850651e-01 2.946347e+00 167 158 141
-1.185085e+00 -1.007033e-01 2.904715e+00 151 138 122
2.755129e+00 1.376869e+00 2.986703e+00 104 99 82
-1.867614e+00 1.059915e+00 2.924815e+00 139 130 113
-2.556003e+00 1.081642e+00 2.965662e+00 173 165 154
1.563113e+00 -1.118337e+00 2.969560e+00 112 96 82
6.039329e-01 -2.765992e+00 3.061396e+00 153 136 119
6.863033e-01 -2.470287e+00 3.038763e+00 156 143 135
1.886175e+00 -5.694611e-01 2.961949e+00 177 163 144
5.395202e-01 -2.603230e+00 3.047026e+00 146 139 120
5.872340e-01 -2.454280e+00 3.035543e+00 128 117 103
6.391002e-01 -1.808232e+00 2.984171e+00 115 97 75
5.841461e-01 -1.701105e+00 2.974473e+00 121 105 86
8.053956e-01 -8.862462e-01 2.937820e+00 68 53 45
-1.074777e+00 -5.876107e-01 2.914653e+00 72 53 41
-2.463827e-01 -2.276161e+00 3.015993e+00 166 154 132
-1.017468e-01 -7.433315e-01 2.936867e+00 163 151 135
3.574678e-01 -1.358333e+00 2.946200e+00 197 188 178
1.455443e+00 -9.605283e-01 2.956564e+00 164 151 134
-9.421908e-01 -8.366380e-01 2.923826e+00 78 62 54
-5.961516e-01 1.660629e-01 3.036838e+00 197 187 182
7.140611e-02 -1.158170e+00 2.932867e+00 207 197 187
3.068830e-01 2.369072e-01 3.058269e+00 202 195 192
1.741259e+00 -9.991362e-01 2.971392e+00 71 57 44
7.072832e-01 -9.390691e-01 2.935823e+00 190 181 173
2.103343e+00 4.662461e+00 3.095988e+00 147 147 133
-2.181079e+00 1.174508e+00 2.941111e+00 195 185 175
2.457213e+00 4.971664e+00 3.129429e+00 18 15 22
-2.003972e+00 1.223774e+00 2.931865e+00 198 191 181
-1.468525e+00 1.385314e+00 2.912813e+00 124 112 99
-1.644897e+00 2.145479e+00 2.936065e+00 17 14 17
-1.552848e+00 2.295011e+00 2.936344e+00 176 170 159
2.016270e+00 -8.227252e-01 2.977780e+00 185 177 166
-2.348261e+00 8.507470e-01 2.951457e+00 134 127 109
-1.547953e+00 1.266562e+00 2.915426e+00 184 175 168
1.850068e+00 2.222767e+00 2.955457e+00 186 178 168
-1.146309e+00 2.145601e+00 2.914608e+00 190 181 172
1.000390e+00 2.294720e+00 2.958471e+00 181 173 162
-2.218680e+00 2.229845e+00 2.966176e+00 169 168 160
-1.884883e+00 2.268998e+00 2.950297e+00 174 170 159
-1.533128e+00 -6.257455e-01 2.935966e+00 183 175 157
2.281037e+00 -8.961891e-01 2.997697e+00 195 185 173
-2.688112e+00 9.088425e-01 2.971507e+00 76 67 58
-1.519374e+00 1.041341e+00 2.913933e+00 193 185 178
-2.314354e+00 2.176583e+00 2.970502e+00 38 28 27
1.857138e+00 2.513783e+00 2.964576e+00 83 75 67
-1.725152e+00 2.354112e+00 2.946254e+00 37 29 26
-1.725152e+00 2.354112e+00 2.946254e+00 37 29 26
-2.065105e+00 2.325491e+00 2.961777e+00 38 33 27
-2.065105e+00 2.325491e+00 2.961777e+00 38 33 27
-2.389346e+00 2.308639e+00 2.978601e+00 30 27 22
-2.389346e+00 2.308639e+00 2.978601e+00 30 27 22
-1.804538e+00 2.433377e+00 2.952466e+00 145 134 125
-1.834845e+00 4.507138e+00 3.059288e+00 154 146 143
2.535710e+00 5.440622e+00 3.158549e+00 146 138 132
-2.529393e+00 -7.985965e-01 2.998547e+00 184 181 172
-1.812386e+00 -8.145548e-01 2.958475e+00 190 189 184
3.036421e+00 -1.117521e+00 3.061517e+00 190 187 182
2.943171e+00 -1.055955e+00 3.051343e+00 74 57 49
1.886175e+00 -5.694611e-01 2.961949e+00 177 163 144
-2.716756e+00 2.621714e-01 2.978204e+00 205 202 197
1.870184e+00 4.221759e-01 2.948705e+00 198 191 181
-9.922425e-01 8.409429e-01 2.963657e+00 204 196 187
-1.140404e+00 1.340438e+00 2.914501e+00 197 187 175
-1.498135e+00 1.634377e+00 2.923701e+00 31 22 23
-1.632400e+00 1.892212e+00 2.929999e+00 26 18 18
-1.490025e+00 1.902550e+00 2.926836e+00 29 19 19
-2.227502e+00 2.142496e+00 2.964645e+00 200 194 182
-1.988304e+00 2.213005e+00 2.954276e+00 74 61 54
-1.988304e+00 2.213005e+00 2.954276e+00 74 61 54
-2.387780e+00 2.197166e+00 2.975100e+00 178 170 159
-2.467503e+00 2.185099e+00 2.979628e+00 57 45 41
-1.720589e+00 2.242878e+00 2.941963e+00 189 185 174
-1.378794e+00 2.272456e+00 2.929606e+00 177 168 161
1.646724e+00 2.471107e+00 2.953920e+00 200 193 180
1.096858e+00 2.570598e+00 2.940456e+00 182 173 164
-1.046357e+00 2.479296e+00 2.922409e+00 148 140 127
1.785684e+00 5.350050e+00 3.126036e+00 124 120 111
2.410205e+00 5.458550e+00 3.154838e+00 124 120 115
3.109702e+00 -8.311053e-01 3.053875e+00 89 74 56
2.583149e+00 -7.261273e-01 3.010361e+00 196 187 179
1.443174e+00 1.154422e+00 3.025266e+00 103 87 70
1.637568e+00 2.381401e+00 2.951622e+00 155 145 136
1.961881e+00 2.485215e+00 2.969100e+00 77 68 61
1.961881e+00 2.485215e+00 2.969100e+00 77 68 61
-2.612608e+00 2.239256e+00 2.985850e+00 71 61 54
-1.049574e+00 2.399756e+00 2.919391e+00 196 193 182
1.665474e+00 2.671434e+00 2.963296e+00 38 31 20
-2.644835e+00 2.349464e+00 2.991196e+00 111 101 89
-1.817268e+00 4.664933e+00 3.066716e+00 182 177 177
1.818488e+00 -9.742900e-01 2.973998e+00 105 89 75
2.189768e+00 -9.957959e-01 2.996556e+00 31 20 18
3.090826e+00 -1.056055e+00 3.062304e+00 92 77 64
2.361914e+00 -9.050689e-01 3.003272e+00 84 71 62
1.494103e+00 -5.794514e-01 2.952370e+00 177 164 151
-1.094836e+00 4.559773e-01 2.937300e+00 192 184 177
-1.427880e+00 9.766282e-01 2.920440e+00 140 134 122
-2.416693e+00 1.196808e+00 2.956995e+00 191 190 182
-1.398528e+00 1.234595e+00 2.918719e+00 182 178 166
-2.232096e+00 2.051624e+00 2.962007e+00 191 187 180
-2.622964e+00 2.129490e+00 2.983684e+00 166 157 148
-1.789795e+00 2.315196e+00 2.947370e+00 142 135 129
-1.656706e+00 2.325875e+00 2.941973e+00 181 173 164
-2.718688e+00 2.238276e+00 2.992414e+00 109 99 89
-1.104576e+00 2.338688e+00 2.918238e+00 110 107 87
3.077251e+00 2.715873e+00 3.047772e+00 142 140 127
3.060097e+00 2.770802e+00 3.048281e+00 60 52 40
-9.460602e-02 2.584459e+00 2.935446e+00 106 100 88
-1.835056e+00 -7.717592e-01 2.958013e+00 64 44 31
-9.781646e-01 -5.726304e-01 2.912593e+00 221 209 204
1.831160e+00 -7.571359e-01 2.965217e+00 90 75 67
2.947366e+00 -7.908409e-01 3.040220e+00 211 201 201
2.713381e+00 -7.360451e-01 3.020059e+00 170 157 144
3.072173e+00 -2.310393e-01 3.029815e+00 197 190 172
-2.216005e-01 4.375378e-01 3.084641e+00 33 23 22
-2.505903e-01 7.244820e-01 3.110827e+00 17 7 2
-1.787922e+00 8.463615e-01 2.923579e+00 161 153 142
-1.778842e+00 8.885830e-01 2.922094e+00 64 55 38
1.752475e+00 9.545689e-01 2.999916e+00 89 79 64
1.816824e+00 1.033096e+00 2.989770e+00 77 63 45
2.082097e+00 2.578657e+00 2.978702e+00 189 181 168
2.082097e+00 2.578657e+00 2.978702e+00 189 181 168
2.539124e+00 2.638524e+00 3.008434e+00 188 181 171
1.734625e+00 2.585160e+00 2.962438e+00 79 71 63
-1.585249e+00 2.385503e+00 2.941210e+00 187 178 174
-2.156590e+00 2.384493e+00 2.968095e+00 180 173 163
1.566472e+00 2.663988e+00 2.958574e+00 172 165 150
2.201331e+00 2.740565e+00 2.992209e+00 172 164 158
2.441915e+00 2.774466e+00 3.008012e+00 180 173 158
2.441915e+00 2.774466e+00 3.008012e+00 180 173 158
1.923081e+00 2.747813e+00 2.977617e+00 157 150 138
2.668065e+00 4.999605e+00 3.140072e+00 67 55 46
2.555552e+00 -1.058672e+00 3.024274e+00 88 73 67
1.803855e+00 -7.290628e-01 2.962857e+00 207 198 192
1.775992e+00 -6.912700e-01 2.960620e+00 126 113 102
-2.074511e+00 7.198979e-01 2.936325e+00 181 177 168
1.303391e+00 1.088051e+00 3.035944e+00 139 128 116
2.323378e+00 1.141761e+00 2.955729e+00 94 89 70
-1.951888e+00 2.315927e+00 2.955328e+00 115 102 87
1.040888e+00 2.462734e+00 2.941817e+00 175 166 155
2.620033e+00 2.693339e+00 3.015849e+00 83 73 63
2.035833e+00 2.675792e+00 2.980672e+00 205 184 189
1.621489e+00 2.665397e+00 2.961196e+00 41 22 20
2.273159e+00 2.791513e+00 2.998541e+00 161 151 142
-6.505918e-01 2.589958e+00 2.927045e+00 89 77 61
2.100584e+00 4.927546e+00 3.111396e+00 193 181 170
2.041001e+00 5.324731e+00 3.133117e+00 80 82 73
-2.093381e+00 4.497984e+00 3.065565e+00 180 178 168
-5.221091e-01 1.104145e-02 3.027812e+00 183 175 165
1.853160e+00 8.988402e-01 2.961882e+00 180 175 165
1.632736e+00 1.079643e+00 3.009743e+00 107 94 75
2.621047e+00 1.749617e+00 2.983418e+00 65 56 59
-2.068263e+00 2.221383e+00 2.958211e+00 200 191 182
1.609972e+00 2.513543e+00 2.954761e+00 69 61 43
1.688990e+00 2.528564e+00 2.958244e+00 61 53 43
2.486673e+00 2.620751e+00 3.003901e+00 74 68 51
1.678362e+00 2.559588e+00 2.959098e+00 187 178 166
2.107496e+00 2.609558e+00 2.981034e+00 199 188 182
-2.126931e+00 2.339336e+00 2.965201e+00 84 74 68
-1.632514e+00 2.388263e+00 2.942998e+00 117 107 95
1.771212e+00 2.725255e+00 2.969429e+00 57 44 36
2.771141e+00 2.852619e+00 3.032030e+00 60 51 41
2.326848e+00 5.478685e+00 3.152794e+00 87 84 75
-1.886400e+00 -5.206391e-01 2.948959e+00 169 160 148
-2.310536e+00 1.015888e+00 2.949292e+00 200 192 182
-1.460289e+00 2.246352e+00 2.932174e+00 61 48 42
-1.725152e+00 2.354112e+00 2.946254e+00 37 29 26
1.798008e-01 -4.683706e-01 2.994202e+00 172 155 139
1.251150e+00 -5.179014e-01 2.972206e+00 43 22 17
-2.129583e+00 2.293502e+00 2.963835e+00 158 154 143
-2.274165e+00 2.506592e+00 2.978334e+00 135 123 117
2.147034e+00 1.253607e+00 2.949596e+00 210 207 196
-1.649207e+00 1.031628e+00 2.915721e+00 175 165 152
2.007722e+00 -1.399891e+00 3.009190e+00 104 91 78
1.514319e-02 7.295756e-01 3.139202e+00 196 184 169
-1.666016e+00 2.446823e+00 2.946666e+00 188 177 169
-1.780019e+00 2.438858e+00 2.951433e+00 181 174 164
-1.050794e+00 2.629924e+00 2.928286e+00 72 59 48
-2.340360e+00 2.391146e+00 2.978312e+00 182 179 165
2.727495e+00 1.884396e+00 2.995117e+00 51 48 48
2.033634e+00 2.566183e+00 2.975211e+00 77 73 55
2.804720e+00 1.843410e+00 2.999280e+00 71 60 69
4.809211e-01 2.428574e-01 3.050031e+00 55 44 56
3.195254e+00 -2.490653e+00 3.147870e+00 185 183 171
1.486475e+00 -8.612259e-01 2.952501e+00 166 154 138
9.024214e-01 -8.890617e-01 2.938652e+00 84 65 52
1.090802e+00 -6.205296e-01 2.966702e+00 50 32 21
1.081492e+00 2.389705e+00 2.944025e+00 116 108 97
-1.759079e+00 4.525772e+00 3.058184e+00 66 60 57
5.296716e-02 4.037331e-01 3.087961e+00 190 182 176
8.784796e-02 4.334968e-01 3.086200e+00 35 26 32
-1.555905e+00 2.093429e+00 2.930086e+00 192 185 173
3.104800e+00 -2.351115e+00 3.134222e+00 67 51 49
3.104800e+00 -2.351115e+00 3.134222e+00 67 51 49
5.618814e-01 -9.280799e-01 2.933802e+00 71 53 44
3.005324e-01 3.170069e-01 3.061914e+00 24 16 14
2.296768e-01 3.295839e-01 3.067517e+00 25 12 4
-1.897668e+00 7.797561e-01 2.927522e+00 78 70 56
3.968139e+00 2.750221e+00 3.114129e+00 127 135 137
3.949667e+00 3.470748e+00 3.137711e+00 110 118 120
3.949667e+00 3.470748e+00 3.137711e+00 110 118 120
2.278299e+00 5.348511e+00 3.143386e+00 182 180 174
-2.429224e+00 3.144652e-01 2.963781e+00 127 114 100
2.467340e+00 1.285682e+00 2.965472e+00 178 165 144
3.136058e+00 1.714994e+00 3.023182e+00 89 77 60
-2.673102e+00 2.504194e+00 2.997737e+00 77 68 57
-2.175230e+00 4.424930e+00 3.064187e+00 178 175 168
-1.643789e+00 2.359054e+00 2.942655e+00 181 169 160
-2.039307e-01 4.024737e-01 3.081858e+00 202 190 181
-1.440871e-01 4.461362e-01 3.092262e+00 146 132 129
1.518690e-01 2.590388e+00 2.941871e+00 196 189 181
-1.688662e+00 2.455692e+00 2.948178e+00 182 173 164
3.271529e+00 2.942296e+00 3.069711e+00 165 162 153
-1.631197e+00 3.265952e-01 2.924371e+00 60 57 64
2.492702e+00 -1.455660e+00 3.041339e+00 187 173 161
2.124193e+00 5.387590e+00 3.139974e+00 178 174 165
-1.038987e+00 1.226569e+00 2.942141e+00 203 197 181
1.359678e+00 1.222666e+00 3.029826e+00 137 123 113
3.019139e-01 -2.623189e+00 3.045640e+00 120 107 90
6.409340e-01 2.475013e-01 3.046750e+00 159 149 136
-2.216593e+00 7.771920e-01 2.943907e+00 196 186 176
-1.334973e+00 1.129346e+00 2.914304e+00 170 158 146
2.719101e+00 -1.795988e+00 3.075747e+00 185 175 165
2.717323e+00 -9.571767e-01 3.030896e+00 166 150 135
-2.400421e+00 -2.288819e+00 3.074253e+00 94 71 55
2.030528e+00 -2.695778e+00 3.098903e+00 15 9 13
3.036388e+00 6.448611e-01 3.009477e+00 206 203 198
1.922893e+00 9.656970e-01 2.951580e+00 169 158 145
-1.472835e+00 1.515002e+00 2.918822e+00 223 218 206
3.660865e+00 1.604190e+00 3.061595e+00 107 100 84
-2.069894e+00 1.949529e+00 2.950656e+00 186 184 174
-1.477367e+00 3.739135e+00 3.011294e+00 19 14 21
3.195254e+00 -2.490653e+00 3.147870e+00 185 183 171
3.332047e+00 -2.444334e+00 3.153259e+00 77 66 48
-1.684158e+00 -8.931066e-01 2.956310e+00 102 89 81
8.205268e-02 -7.088079e-01 2.948454e+00 174 161 145
-1.695201e+00 -5.407596e-01 2.939663e+00 184 173 159
2.879909e+00 -7.629532e-01 3.033452e+00 183 172 160
3.222295e+00 -7.592649e-01 3.059868e+00 195 187 174
3.324087e+00 -6.786791e-01 3.063419e+00 66 49 34
5.072808e-01 4.067581e-01 3.023318e+00 55 45 54
7.781493e-01 4.821970e-01 3.044709e+00 128 115 99
-1.941328e+00 9.097847e-01 2.930115e+00 152 138 125
2.772565e+00 2.766175e+00 3.029109e+00 37 26 25
3.848465e+00 3.322245e+00 3.124285e+00 151 146 139
-1.236773e+00 4.614865e+00 3.052631e+00 142 138 131
-2.636328e+00 -2.301723e+00 3.083246e+00 159 147 125
1.482056e+00 -2.705716e+00 3.078383e+00 150 138 120
1.967366e-01 -2.396233e+00 3.025935e+00 157 144 127
3.039109e+00 -2.330866e+00 3.129147e+00 182 178 168
-1.773642e+00 -8.736499e-01 2.959759e+00 118 110 108
2.005042e+00 -1.066902e+00 2.989851e+00 146 141 137
1.254247e+00 -8.823829e-01 2.945418e+00 159 143 128
-1.049574e+00 2.399756e+00 2.919391e+00 196 193 182
3.254350e+00 2.855438e+00 3.065244e+00 185 179 170
3.279107e+00 2.940622e+00 3.069844e+00 158 155 146
-1.229560e+00 4.545459e+00 3.048897e+00 167 162 157
-2.488709e+00 1.122777e+00 2.961784e+00 178 166 152
2.679253e+00 5.273612e+00 3.155775e+00 88 79 70
2.191103e+00 5.277311e+00 3.135983e+00 183 184 176
-2.428790e+00 -2.523103e+00 3.089469e+00 162 145 129
-1.926569e+00 -1.880342e+00 3.029545e+00 153 137 124
2.910259e-01 -1.357979e+00 2.946868e+00 100 82 65
3.499005e-03 -1.158517e+00 2.932881e+00 98 73 54
3.173219e+00 -9.975415e-01 3.066263e+00 187 183 171
2.652156e+00 3.944118e-01 2.977265e+00 179 173 159
-7.369357e-01 1.171103e+00 3.026018e+00 95 85 68
2.632163e+00 1.208598e+00 2.975777e+00 107 91 75
1.989588e+00 2.714225e+00 2.979549e+00 173 167 160
9.870505e-01 -8.291796e-01 2.939449e+00 167 157 141
-2.930992e-01 -4.565035e-01 2.968132e+00 44 24 12
-2.688112e+00 9.088425e-01 2.971507e+00 76 67 58
2.114028e-01 -1.295785e+00 2.942245e+00 95 72 58
-1.738089e+00 -7.468873e-01 2.951662e+00 181 164 144
-1.388082e-01 -4.811586e-01 2.975413e+00 154 140 127
1.547846e+00 -5.513094e-01 2.952750e+00 43 24 18
-4.686950e-01 4.393499e-01 3.070132e+00 196 187 180
-2.137674e+00 -7.234229e-01 2.972272e+00 58 38 30
-2.416735e+00 1.196540e+00 2.957037e+00 191 190 182
-9.719072e-01 -8.468991e-01 2.924821e+00 209 199 193
9.525812e-01 -1.977393e-01 3.065656e+00 175 161 146
3.751321e-01 3.469241e-02 3.043537e+00 198 189 182
-2.064710e+00 9.584105e-01 2.936025e+00 145 133 120
-1.833724e+00 2.931570e-01 2.929010e+00 98 85 74
-1.347876e-02 5.457204e-01 3.080756e+00 216 207 202
-1.598610e-01 1.432554e+00 3.064030e+00 146 134 123
-1.028539e-01 -1.164281e+00 2.931328e+00 149 133 117
-9.132542e-01 -8.471649e-01 2.923307e+00 185 177 170
-2.167647e-02 4.960799e-01 3.105639e+00 34 20 10
7.158848e-01 1.103333e+00 3.103038e+00 185 175 159
1.557430e+00 2.701382e+00 2.959790e+00 56 43 32
-2.552327e+00 2.723672e+00 2.998500e+00 164 152 148
-8.841916e-01 5.306431e+00 3.089562e+00 64 84 82
-5.405953e-01 1.263962e+00 3.019917e+00 181 172 165
3.261779e+00 -2.452814e-01 3.044907e+00 123 108 91
-7.172426e-01 -9.399563e-01 2.923687e+00 107 90 78
2.843109e+00 -9.932814e-01 3.040785e+00 140 125 109
2.016270e+00 -8.227252e-01 2.977780e+00 185 177 166
1.751070e+00 -6.758168e-01 2.957523e+00 189 179 166
7.613522e-01 -2.468531e+00 3.040003e+00 91 74 59
1.063460e+00 -2.318222e+00 3.035834e+00 118 101 89
3.050210e+00 -6.182650e-01 3.041522e+00 160 146 130
2.978782e+00 -2.851511e+00 3.158234e+00 175 170 157
1.443174e+00 1.154422e+00 3.025266e+00 103 87 70
2.641800e+00 -3.222211e+00 3.164699e+00 149 136 118
7.030436e-01 -1.974926e+00 2.998994e+00 114 97 79
2.719444e+00 -1.297137e+00 3.047811e+00 185 177 166
2.965211e+00 -1.275052e+00 3.063710e+00 90 77 60
7.763432e-01 -1.037760e+00 2.938649e+00 85 65 55
2.582062e+00 -9.553477e-01 3.021001e+00 183 170 161
-2.603659e+00 -4.225090e-01 2.988463e+00 145 132 124
2.865724e+00 -5.836291e-01 3.025627e+00 47 33 24
3.019840e+00 -2.781762e-01 3.026518e+00 111 98 83
3.140550e+00 -2.116738e-01 3.034808e+00 114 103 93
-7.132709e-02 8.191625e-01 3.143238e+00 159 148 132
2.552503e+00 -3.014200e+00 3.145875e+00 151 142 127
2.800327e+00 -2.888015e+00 3.150355e+00 60 42 31
-1.970315e+00 -2.263702e+00 3.055487e+00 152 138 121
6.598341e-01 -1.856341e+00 2.988580e+00 107 89 67
-2.902877e-01 7.131090e-01 3.106312e+00 176 167 159
1.734234e+00 9.891372e-01 3.001706e+00 147 138 123
2.017739e+00 1.053292e+00 2.945671e+00 145 137 119
3.143252e+00 -2.328880e+00 3.135114e+00 202 196 187
-1.178715e-01 -2.344538e+00 3.021225e+00 115 99 81
-7.738754e-01 9.515522e-01 3.025961e+00 164 155 139
3.240699e+00 3.295454e+00 3.081649e+00 206 198 191
-7.336223e-01 1.004161e+00 3.030124e+00 168 156 144
2.681731e+00 5.517292e+00 3.168775e+00 179 170 163
2.419731e+00 1.383100e+00 2.963901e+00 207 200 189
1.989337e+00 2.818043e+00 2.984066e+00 157 145 128
2.644556e+00 -3.105537e+00 3.157012e+00 155 140 122
2.244033e+00 -9.789541e-01 2.998625e+00 157 145 132
3.432055e+00 -6.344947e-01 3.072029e+00 169 154 139
-4.686950e-01 4.393499e-01 3.070132e+00 196 187 180
3.233411e+00 2.936285e+00 3.066884e+00 120 110 104
3.270170e+00 -2.409589e+00 3.147693e+00 157 139 134
3.503375e-01 4.821133e-01 3.036618e+00 62 48 55
1.844884e+00 8.235765e-01 2.960402e+00 86 76 61
7.251236e-01 1.042550e+00 3.099069e+00 90 81 68
3.220648e+00 2.638178e+00 3.054992e+00 94 79 75
-2.850035e+00 -1.648373e+00 3.055953e+00 189 182 175
3.252465e+00 -2.383017e+00 3.145034e+00 86 74 68
2.777208e+00 -1.082593e+00 3.040718e+00 76 69 52
3.015525e+00 -2.434021e-01 3.025100e+00 85 73 60
2.121294e+00 2.580169e+00 2.980679e+00 69 59 56
3.947021e+00 3.325632e+00 3.131803e+00 247 252 249
2.103329e+00 9.258842e-01 2.943543e+00 84 71 56
2.865215e+00 -8.703796e-01 3.037194e+00 159 151 131
-9.572630e-01 -6.423233e-01 2.916910e+00 174 167 156
6.445491e-01 -5.321774e-01 3.007966e+00 170 158 142
-1.443792e+00 1.072681e+00 2.918182e+00 98 85 70
3.267187e-01 4.403119e-01 3.064121e+00 185 177 169
2.831132e+00 -9.386144e-01 3.037995e+00 178 169 150
2.018765e+00 -7.457538e-01 2.974518e+00 142 131 121
2.921735e-01 4.723304e-01 3.067645e+00 196 186 174
1.776607e+00 1.084233e+00 2.992162e+00 97 83 66
2.429798e+00 1.112670e+00 2.961369e+00 197 190 178
2.016723e+00 -1.026836e+00 2.987800e+00 98 92 81
2.565498e+00 -1.017497e+00 3.022908e+00 103 94 79
1.355852e+00 3.049959e-01 3.023378e+00 97 89 70
2.759070e+00 5.355329e-01 2.984629e+00 176 167 149
2.724043e+00 6.608220e-01 2.981080e+00 184 173 158
2.724043e+00 6.608220e-01 2.981080e+00 184 173 158
2.181096e+00 9.663126e-01 2.947256e+00 107 95 76
2.356122e+00 1.082109e+00 2.956723e+00 182 169 149
2.372701e+00 1.113109e+00 2.958166e+00 106 98 82
-2.272716e+00 2.471374e+00 2.977124e+00 89 76 63
-3.324721e-01 -2.292057e+00 3.017913e+00 102 85 65
1.854943e+00 -2.459242e+00 3.073441e+00 166 149 132
2.481056e+00 -1.077296e+00 3.020226e+00 131 120 117
2.031594e+00 -7.777735e-01 2.976892e+00 204 191 182
2.485381e+00 -7.956328e-01 3.006541e+00 82 71 53
2.616632e+00 8.520406e-01 2.972435e+00 181 168 152
1.412201e+00 1.059486e+00 3.031047e+00 150 141 130
1.349542e+00 1.055742e+00 3.033394e+00 137 131 119
2.499303e+00 1.066062e+00 2.965018e+00 205 201 188
2.129424e+00 1.092515e+00 2.947277e+00 155 144 125
1.428087e+00 1.327897e+00 3.038706e+00 178 171 153
-1.944638e+00 2.502024e+00 2.961475e+00 91 81 66
1.678362e+00 2.559588e+00 2.959098e+00 187 178 166
2.464419e+00 2.673982e+00 3.004658e+00 63 56 40
1.470029e+00 6.964007e-01 3.027051e+00 187 180 164
-1.632021e+00 -8.293287e-01 2.950191e+00 185 177 171
2.452651e+00 4.793621e-01 2.959489e+00 145 129 111
1.855922e-02 -1.315331e+00 2.940092e+00 125 108 90
-4.107879e-01 9.305125e-01 3.102098e+00 34 22 12
2.581209e+00 1.382035e+00 2.974292e+00 192 186 180
-2.029533e+00 9.489087e-01 2.934139e+00 69 56 43
2.573615e+00 1.091602e+00 2.970289e+00 144 138 125
1.632243e+00 5.275966e+00 3.116889e+00 179 175 168
2.638463e+00 8.233538e-01 2.974185e+00 179 167 153
1.739654e+00 2.086829e+00 2.950181e+00 149 139 130
-1.546032e+00 2.493338e+00 2.943359e+00 152 140 130
-6.074167e-02 1.460108e+00 3.066732e+00 84 75 63
3.332191e+00 2.748677e+00 3.066885e+00 173 167 160
-2.445683e+00 2.379440e+00 2.983434e+00 146 137 126
-2.172860e+00 2.271155e+00 2.965365e+00 191 184 173
-1.477851e+00 4.617468e+00 3.058470e+00 55 48 39
-2.061532e+00 2.414020e+00 2.964471e+00 112 106 92
-1.952810e+00 2.429416e+00 2.959371e+00 172 166 152
-8.904838e-01 -3.997781e-01 2.913037e+00 140 123 107
-7.693378e-01 1.050920e+00 3.021032e+00 183 173 164
3.941484e+00 3.270603e+00 3.129383e+00 242 240 239
3.374427e+00 2.850044e+00 3.073550e+00 205 203 191
2.216585e-01 2.578062e+00 2.945741e+00 43 34 25
-1.895297e+00 8.273457e-01 2.927025e+00 184 177 166
-1.546505e+00 2.755292e+00 2.954709e+00 62 54 50
2.842439e+00 2.693654e+00 3.030413e+00 149 140 135
-1.616474e+00 2.748564e+00 2.957164e+00 59 52 42
2.666073e+00 2.839448e+00 3.025038e+00 45 34 25
2.147012e+00 2.125492e+00 2.965039e+00 129 119 110
2.264286e+00 -2.691355e+00 3.108939e+00 25 13 6
2.487573e+00 2.584180e+00 3.002725e+00 173 167 153
2.387502e+00 2.140439e+00 2.979521e+00 18 8 16
-1.002738e-02 4.833092e-01 3.099262e+00 134 121 106
3.196668e+00 1.381659e+00 3.023322e+00 138 134 125
1.443617e+00 2.468491e+00 2.949917e+00 67 61 49
3.275082e+00 2.981250e+00 3.071543e+00 196 195 186
3.282940e+00 3.005333e+00 3.072956e+00 109 101 95
3.095707e+00 3.380060e+00 3.076290e+00 78 71 71
7.693640e-02 -1.319192e+00 2.940594e+00 90 67 51
-4.678045e-02 -1.362595e+00 2.943416e+00 130 111 97
3.994117e-01 -1.832990e+00 2.981600e+00 153 138 118
1.089346e-01 1.055503e+00 3.183850e+00 158 146 131
3.148502e+00 1.489388e+00 3.020397e+00 209 205 202
3.144252e+00 -4.105965e-01 3.042048e+00 208 207 202
2.927650e+00 5.100892e+00 3.157252e+00 166 163 156
3.431929e+00 -1.228532e+00 3.095032e+00 105 96 84
2.865215e+00 -8.703796e-01 3.037194e+00 159 151 131
3.331544e+00 1.670026e-01 3.040917e+00 206 202 194
4.310315e-01 -1.575505e+00 2.962224e+00 145 128 109
8.107812e-01 1.313983e+00 3.085304e+00 165 153 137
2.900212e+00 -1.314942e+00 3.061337e+00 165 156 141
2.718529e+00 -6.103700e-01 3.015673e+00 172 155 138
2.612804e+00 5.570295e-01 2.972400e+00 169 161 143
2.551901e+00 1.157170e+00 2.969472e+00 184 175 160
6.507903e-01 2.453588e+00 2.958804e+00 166 165 154
-1.315815e+00 5.090775e+00 3.081081e+00 82 79 76
6.270698e-01 -1.892430e+00 2.990540e+00 164 152 131
-1.788577e+00 -1.429598e+00 2.993130e+00 130 118 104
7.989612e-01 -1.106410e+00 2.941806e+00 106 90 80
5.406071e-01 -5.354274e-01 3.007971e+00 184 169 157
2.865724e+00 -5.836291e-01 3.025627e+00 47 33 24
2.821096e+00 1.348456e+00 2.991730e+00 169 155 146
3.227675e+00 2.657638e+00 3.055890e+00 111 98 92
3.227675e+00 2.657638e+00 3.055890e+00 111 98 92
9.859323e-01 2.383425e+00 2.944035e+00 123 110 97
2.549450e+00 -3.213064e+00 3.159593e+00 136 127 111
2.465931e+00 -3.146859e+00 3.150890e+00 134 125 110
4.814518e+00 -2.974967e+00 3.266823e+00 23 21 19
-2.024207e+00 -2.255332e+00 3.057165e+00 154 137 118
-2.769598e+00 -2.086043e+00 3.075693e+00 87 77 70
4.591040e+00 -2.779150e+00 3.242229e+00 39 32 21
5.022902e+00 -2.506545e+00 3.257664e+00 151 146 130
2.547789e+00 -1.931171e+00 3.073600e+00 145 130 109
2.432685e+00 -1.800986e+00 3.058340e+00 147 131 115
5.912187e-01 -5.144644e-01 3.011758e+00 44 22 9
2.934911e+00 -5.565263e-01 3.029955e+00 118 96 72
-2.801369e+00 -7.651060e-02 2.990732e+00 97 88 80
1.788461e+00 1.049139e+00 2.973637e+00 146 138 119
-2.011383e+00 1.023956e+00 2.932912e+00 96 83 66
-1.710508e+00 1.323721e+00 2.919202e+00 120 104 92
9.900863e-01 2.482418e+00 2.939315e+00 179 170 161
2.731621e+00 -3.281003e+00 3.173172e+00 66 54 45
-2.643832e+00 -2.242594e+00 3.080240e+00 104 90 77
4.852128e+00 -3.006781e+00 3.270745e+00 185 181 173
4.852128e+00 -3.006781e+00 3.270745e+00 185 181 173
2.795483e+00 -2.588403e+00 3.130465e+00 160 142 122
-1.763548e+00 -1.960710e+00 3.027771e+00 163 153 139
2.497333e+00 -1.860487e+00 3.066203e+00 141 125 103
2.150310e+00 -1.542284e+00 3.025927e+00 90 73 56
1.805678e+00 -1.437095e+00 3.000565e+00 212 200 190
-3.390653e-02 -1.290077e+00 2.938662e+00 126 106 94
1.818380e+00 -1.150128e+00 2.984006e+00 153 140 123
1.752909e+00 -9.067195e-01 2.967668e+00 136 120 105
2.423075e+00 -7.095863e-01 2.998397e+00 180 164 149
2.491077e+00 -5.807935e-01 2.997944e+00 46 26 19
3.315197e+00 -5.665869e-01 3.060520e+00 119 103 79
2.513006e+00 -5.395796e-01 2.998244e+00 140 119 100
1.806598e+00 -5.147247e-01 2.957781e+00 138 119 97
3.163831e+00 -2.747770e-01 3.038289e+00 122 107 91
3.064203e+00 -1.726441e-01 3.027465e+00 206 207 199
5.095157e-01 2.756234e-01 3.042355e+00 27 19 6
-7.165525e-01 5.148761e-01 3.051861e+00 36 26 24
1.514319e-02 7.295756e-01 3.139202e+00 196 184 169
-1.530703e+00 1.009450e+00 2.914701e+00 195 189 179
-1.852277e+00 1.121065e+00 2.923538e+00 171 158 145
3.048676e+00 1.708192e+00 3.016248e+00 83 67 51
-1.951888e+00 2.315927e+00 2.955328e+00 115 102 87
7.315122e-01 2.733119e+00 2.941560e+00 137 124 115
2.701344e+00 5.451996e+00 3.165991e+00 77 83 70
-2.264745e+00 4.419054e+00 3.066097e+00 85 82 77
-1.273853e+00 4.775604e+00 3.062840e+00 78 79 74
-1.400428e+00 4.888342e+00 3.071130e+00 72 66 60
4.926619e+00 -3.152289e+00 3.282962e+00 167 161 160
3.298266e+00 -2.793445e+00 3.172151e+00 115 110 98
1.693379e+00 -2.493909e+00 3.069462e+00 152 137 118
2.844596e+00 -2.606297e+00 3.134372e+00 86 69 51
2.844596e+00 -2.606297e+00 3.134372e+00 86 69 51
5.074190e+00 -2.725604e+00 3.271633e+00 51 46 33
2.783624e-01 -1.462218e+00 2.953814e+00 162 149 133
1.735214e+00 -1.483471e+00 3.000448e+00 208 199 191
2.909196e+00 -8.196813e-01 3.038437e+00 134 125 115
3.193751e+00 -6.825819e-01 3.054615e+00 95 82 58
3.379857e+00 -5.844624e-01 3.065939e+00 138 120 96
2.152253e+00 -4.993004e-01 2.973739e+00 102 84 65
2.095446e+00 -4.967594e-01 2.970256e+00 95 78 61
1.933171e+00 -4.907508e-01 2.962484e+00 97 76 59
2.748458e+00 -2.714230e-01 3.005063e+00 103 93 80
3.300532e+00 -2.344982e-01 3.048290e+00 180 172 157
3.188634e+00 -2.293699e-01 3.039144e+00 188 179 162
1.756981e+00 3.067298e-01 2.949763e+00 90 78 58
7.254396e-01 4.548067e-01 3.046516e+00 106 91 72
2.697719e+00 7.287973e-01 2.978851e+00 177 166 152
-2.180278e+00 6.089365e-01 2.944076e+00 136 122 106
2.595206e+00 8.865656e-01 2.971124e+00 176 163 147
2.522387e+00 9.046055e-01 2.965722e+00 118 106 85
1.855090e+00 8.608312e-01 2.961212e+00 189 185 170
2.424363e+00 1.080109e+00 2.961139e+00 104 99 80
1.479748e+00 1.036875e+00 3.028249e+00 105 92 81
2.224347e+00 1.152918e+00 2.951510e+00 180 169 150
6.916517e-01 1.089038e+00 3.105334e+00 92 81 69
-2.333115e+00 9.375151e-01 2.950349e+00 89 84 73
1.741921e+00 1.167773e+00 2.990644e+00 181 165 143
6.511651e-01 1.132339e+00 3.106370e+00 95 84 74
2.099784e+00 1.200801e+00 2.950050e+00 173 156 141
1.772536e+00 1.218804e+00 2.989304e+00 97 89 74
1.813697e+00 1.227581e+00 2.974816e+00 102 91 78
1.873365e+00 1.246149e+00 2.963861e+00 105 95 82
1.997435e+00 1.261730e+00 2.952318e+00 100 95 80
3.796125e+00 2.705227e+00 3.099379e+00 169 173 161
1.139129e+00 2.632126e+00 2.942711e+00 167 151 140
9.398726e-02 2.641265e+00 2.936710e+00 87 75 63
-1.944638e+00 2.502024e+00 2.961475e+00 91 81 66
1.652194e+00 5.129115e+00 3.109514e+00 86 78 68
8.887176e-01 4.978099e+00 3.078968e+00 90 87 79
8.748472e-01 4.960448e+00 3.076707e+00 179 176 169
2.635949e+00 5.505135e+00 3.166259e+00 186 188 177
1.591583e+00 5.289065e+00 3.116121e+00 181 170 164
-9.973773e-01 4.707698e+00 3.052376e+00 98 93 88
-2.155191e+00 4.479677e+00 3.066155e+00 171 163 156
-1.999533e+00 4.612762e+00 3.068678e+00 164 151 142
1.710068e+00 -2.471437e+00 3.068406e+00 83 67 52
1.710068e+00 -2.471437e+00 3.068406e+00 83 67 52
1.585001e+00 -2.453733e+00 3.062170e+00 79 61 47
2.758561e+00 -2.520465e+00 3.123843e+00 112 97 75
-2.205664e+00 -1.867235e+00 3.040386e+00 76 58 50
1.704655e+00 -2.206217e+00 3.047934e+00 117 99 76
1.704655e+00 -2.206217e+00 3.047934e+00 117 99 76
3.095512e+00 -2.316116e+00 3.131532e+00 196 187 176
4.719785e-01 -1.680368e+00 2.970981e+00 167 154 137
-2.386196e-01 -1.159075e+00 2.931319e+00 105 89 74
2.619126e+00 -1.087549e+00 3.030094e+00 195 185 179
2.565498e+00 -1.017497e+00 3.022908e+00 103 94 79
1.728486e+00 -7.951174e-01 2.962192e+00 104 94 84
2.863229e+00 -8.202839e-01 3.035229e+00 124 116 102
2.052817e+00 -7.652051e-01 2.977536e+00 104 93 84
2.527115e+00 -7.743808e-01 3.009054e+00 107 97 86
3.158029e+00 -8.013748e-01 3.056764e+00 203 202 184
9.491952e-01 -7.040338e-01 2.960721e+00 113 103 93
2.156273e+00 -6.256782e-01 2.978382e+00 145 133 120
2.616938e+00 -5.162711e-01 3.004861e+00 99 80 61
-2.763371e+00 -3.081901e-01 2.994297e+00 85 72 64
1.063642e+00 -1.857373e-01 3.058836e+00 165 148 138
-2.622625e+00 -6.871315e-02 2.978960e+00 202 197 192
-7.087436e-02 5.157645e-01 3.098307e+00 26 14 3
1.391295e+00 9.248916e-01 3.047964e+00 98 90 77
1.391295e+00 9.248916e-01 3.047964e+00 98 90 77
1.460996e+00 9.999128e-01 3.040951e+00 95 87 77
1.435036e+00 9.977285e-01 3.031642e+00 95 87 77
-2.064003e+00 9.046309e-01 2.935959e+00 171 162 147
-1.565853e+00 9.458629e-01 2.914843e+00 136 122 109
7.066511e-01 1.129517e+00 3.099314e+00 127 123 112
2.582579e+00 1.242734e+00 2.972523e+00 116 104 88
-1.795719e+00 1.011778e+00 2.921915e+00 103 87 74
-5.505943e-01 1.183532e+00 3.045333e+00 183 169 160
-9.311747e-01 1.429284e+00 2.946687e+00 98 84 71
3.725792e+00 1.865456e+00 3.072078e+00 244 252 245
1.732873e+00 1.960976e+00 2.950594e+00 164 158 146
3.219006e+00 2.410516e+00 3.047156e+00 154 148 137
3.229232e+00 2.599205e+00 3.054180e+00 122 112 103
2.036063e+00 2.507479e+00 2.972895e+00 76 74 61
2.760897e+00 2.627345e+00 3.022326e+00 76 72 60
2.202928e+00 2.700102e+00 2.990357e+00 76 68 61
1.963559e+00 2.665435e+00 2.975966e+00 81 74 56
1.109412e+00 2.690291e+00 2.943042e+00 179 170 158
-2.250745e+00 2.285054e+00 2.969848e+00 187 181 176
-6.427395e-01 2.507747e+00 2.927211e+00 188 176 168
3.759252e-01 2.639542e+00 2.941605e+00 169 154 143
-8.138473e-01 2.522080e+00 2.926944e+00 159 145 132
-1.688662e+00 2.455692e+00 2.948178e+00 182 173 164
-1.783305e+00 2.467141e+00 2.952764e+00 112 104 94
-2.234606e+00 2.445741e+00 2.974527e+00 158 145 136
-2.550026e+00 2.707254e+00 2.997765e+00 67 58 53
3.600480e+00 5.254199e+00 3.197794e+00 249 247 246
3.210718e+00 5.410742e+00 3.185092e+00 158 144 139
2.441471e+00 5.301184e+00 3.147495e+00 134 123 109
1.237717e+00 5.147078e+00 3.095554e+00 191 193 180
1.251043e+00 5.192230e+00 3.098670e+00 176 167 160
-9.701876e-01 4.705024e+00 3.051902e+00 186 173 172
-1.244220e+00 4.695539e+00 3.057826e+00 99 95 86
-2.485967e+00 -2.567616e+00 3.093738e+00 112 98 93
-1.688083e+00 -2.352073e+00 3.051896e+00 123 103 91
3.871101e+00 -2.483036e+00 3.187045e+00 92 80 82
6.183747e-01 -1.959858e+00 2.995531e+00 116 102 84
-1.083404e-01 -1.070325e+00 2.927145e+00 94 77 61
3.222419e+00 -9.414416e-01 3.067643e+00 139 126 119
1.928305e+00 -8.294214e-01 2.972612e+00 107 95 76
2.253744e+00 -7.692183e-01 2.990136e+00 193 183 171
2.003412e+00 -6.517660e-01 2.969896e+00 120 107 86
2.139060e+00 -6.375781e-01 2.977346e+00 105 89 73
3.407033e+00 -6.807029e-01 3.071576e+00 146 134 115
-8.335819e-02 -5.469322e-01 2.969574e+00 144 127 118
-2.067060e+00 -4.810411e-01 2.957715e+00 105 91 80
3.387916e+00 -6.234697e-01 3.068124e+00 159 144 119
2.591188e+00 -5.308661e-01 3.003476e+00 131 111 87
-1.705118e+00 -3.485287e-01 2.931184e+00 99 78 64
-2.831076e+00 -1.845052e-01 2.995663e+00 193 186 178
2.483899e+00 4.475706e-02 2.969149e+00 179 169 159
3.191543e+00 1.281311e-01 3.030093e+00 125 123 111
1.098784e+00 1.812173e-01 3.099364e+00 128 121 106
7.566769e-01 6.639907e-01 3.049022e+00 171 164 146
1.762443e+00 9.780081e-01 2.996215e+00 173 161 147
2.212757e+00 1.117045e+00 2.950316e+00 168 159 140
2.661437e+00 1.168070e+00 2.977460e+00 189 184 165
1.463586e+00 1.104580e+00 3.027426e+00 116 107 92
-1.664871e+00 9.464257e-01 2.917638e+00 106 94 84
2.689505e+00 1.210075e+00 2.980182e+00 178 170 158
2.525116e+00 1.227810e+00 2.968425e+00 188 180 170
2.378763e+00 1.307952e+00 2.960089e+00 186 172 162
2.378763e+00 1.307952e+00 2.960089e+00 186 172 162
2.554717e+00 1.329470e+00 2.971508e+00 176 167 156
2.560149e+00 1.346094e+00 2.971994e+00 114 106 88
2.560149e+00 1.346094e+00 2.971994e+00 114 106 88
1.173425e+00 1.560041e+00 3.054584e+00 109 94 75
3.712427e+00 1.842949e+00 3.070754e+00 167 173 163
3.651731e+00 2.669235e+00 3.087496e+00 153 150 140
1.207280e+00 2.356269e+00 2.944267e+00 172 157 150
3.443514e+00 2.829800e+00 3.077863e+00 184 180 169
1.932112e+00 2.578095e+00 2.970793e+00 179 175 166
9.385524e-01 2.446915e+00 2.941392e+00 109 106 93
7.093784e-01 2.429538e+00 2.963671e+00 102 101 89
2.146103e+00 2.780393e+00 2.991071e+00 83 78 58
2.157903e+00 2.798865e+00 2.992435e+00 157 149 134
-1.967790e+00 2.271153e+00 2.954776e+00 127 124 107
1.089156e+00 2.648097e+00 2.941919e+00 87 76 58
1.730749e+00 2.777362e+00 2.970021e+00 161 150 136
4.828289e-01 2.617059e+00 2.944209e+00 197 192 188
1.131908e+00 2.726255e+00 2.944414e+00 179 176 161
-6.627030e-02 2.566634e+00 2.939112e+00 73 71 56
1.153344e+00 2.738299e+00 2.945626e+00 137 131 114
-1.686601e+00 2.407875e+00 2.946425e+00 92 85 69
-5.610602e-01 2.540160e+00 2.927402e+00 172 167 157
-2.140331e+00 2.367213e+00 2.966743e+00 100 98 87
-2.330245e+00 2.342234e+00 2.976162e+00 153 149 137
-1.756114e+00 2.433815e+00 2.950308e+00 108 104 92
-1.051631e+00 2.528413e+00 2.924110e+00 110 102 91
-1.063760e+00 2.556109e+00 2.925818e+00 130 120 109
-2.695628e+00 2.403646e+00 2.996202e+00 185 179 170
9.705030e-01 3.065717e+00 2.954194e+00 66 62 59
-2.531569e+00 2.712946e+00 2.997007e+00 95 80 73
2.574261e+00 5.028495e+00 3.137902e+00 112 108 97
3.265863e+00 5.469322e+00 3.190585e+00 164 157 155
3.219943e+00 5.526707e+00 3.191498e+00 162 155 149
1.958326e+00 5.306189e+00 3.129171e+00 143 134 127
2.845819e+00 5.630156e+00 3.181781e+00 108 101 94
2.005376e+00 5.510699e+00 3.142894e+00 108 97 95
-9.621334e-01 4.806596e+00 3.057929e+00 102 99 96
-1.482361e+00 4.694696e+00 3.062109e+00 178 185 173
-2.770005e+00 -7.172499e-01 -3.682403e+00 0 255 0
-2.787786e+00 -7.222455e-01 -3.728867e+00 255 255 0
