ply
format ascii 1.0
element face 0
property list uchar int vertex_indices
element vertex 956
property float x
property float y
property float z
property uchar diffuse_red
property uchar diffuse_green
property uchar diffuse_blue
end_header
3.983566e-01 5.641834e-01 2.980226e+00 112 95 75
3.919828e-01 5.714329e-01 2.979093e+00 190 182 163
3.530516e-01 5.698347e-01 2.979314e+00 197 188 175
3.551398e-01 5.737847e-01 2.980407e+00 38 23 15
3.490845e-01 5.752623e-01 2.980682e+00 175 163 151
3.985311e-01 5.821307e-01 2.980778e+00 62 46 34
3.392492e-01 5.767742e-01 2.980991e+00 44 26 23
3.485093e-01 5.795523e-01 2.981024e+00 66 50 43
3.590362e-01 5.804795e-01 2.980393e+00 176 163 147
3.581315e-01 5.806690e-01 2.980761e+00 44 25 18
3.366550e-01 5.801395e-01 2.980327e+00 147 135 121
3.439819e-01 5.946598e-01 2.991700e+00 159 154 143
3.896773e-01 6.052885e-01 2.989751e+00 192 182 177
4.274445e-01 6.173599e-01 2.987880e+00 172 163 146
3.528029e-01 6.051457e-01 2.990623e+00 168 161 142
3.776637e-01 6.162082e-01 2.988014e+00 179 173 162
4.025470e-01 5.488538e-01 2.982488e+00 148 136 113
3.473650e-01 5.551438e-01 2.981317e+00 146 133 117
4.066073e-01 5.579316e-01 2.980504e+00 69 48 46
4.066073e-01 5.579316e-01 2.980504e+00 69 48 46
3.517839e-01 5.534122e-01 3.074242e+00 47 32 32
3.449130e-01 5.576175e-01 2.979164e+00 92 75 53
3.622296e-01 5.576518e-01 2.978838e+00 164 149 129
3.566101e-01 5.627571e-01 2.979731e+00 86 68 54
3.496338e-01 5.645600e-01 2.979496e+00 167 159 148
3.526760e-01 5.657765e-01 2.979602e+00 173 159 146
3.806072e-01 5.675540e-01 2.979216e+00 153 138 117
3.555038e-01 5.670427e-01 2.978966e+00 199 193 180
3.897797e-01 5.706069e-01 2.978911e+00 200 192 184
3.748777e-01 5.696189e-01 2.978095e+00 167 149 127
4.010735e-01 5.830950e-01 2.980600e+00 170 154 143
4.063001e-01 5.842250e-01 2.980520e+00 43 28 20
3.571875e-01 5.811044e-01 2.980468e+00 160 144 123
3.571875e-01 5.811044e-01 2.980468e+00 160 144 123
3.358142e-01 5.812030e-01 2.980217e+00 134 123 116
3.832201e-01 5.999531e-01 2.989415e+00 195 187 177
4.044908e-01 6.048889e-01 2.982953e+00 107 100 92
3.429104e-01 5.961832e-01 2.990808e+00 179 171 158
4.116723e-01 6.174653e-01 2.987795e+00 101 91 72
3.585868e-01 6.065822e-01 2.988739e+00 105 92 75
3.480235e-01 6.049229e-01 2.990276e+00 165 157 145
3.485637e-01 6.062116e-01 2.990943e+00 67 56 42
3.568071e-01 6.079466e-01 2.988921e+00 110 96 83
3.860376e-01 6.166202e-01 2.987831e+00 153 145 134
3.549601e-01 6.090395e-01 2.989153e+00 107 89 75
3.517663e-01 6.120562e-01 2.989586e+00 201 191 182
3.564461e-01 6.142236e-01 2.989207e+00 186 177 168
4.060852e-01 5.512533e-01 2.981041e+00 184 174 165
3.583507e-01 5.533405e-01 2.983262e+00 163 153 139
4.053414e-01 5.575552e-01 2.980283e+00 66 52 44
4.073615e-01 5.581452e-01 2.980589e+00 209 202 194
3.384765e-01 5.568829e-01 2.975267e+00 196 194 187
3.397949e-01 5.568502e-01 2.975211e+00 205 198 192
3.397949e-01 5.568502e-01 2.975211e+00 205 198 192
3.472963e-01 5.614784e-01 2.979711e+00 93 75 63
3.965340e-01 5.666622e-01 2.979702e+00 203 192 177
3.943508e-01 5.692812e-01 2.979349e+00 209 205 195
3.782861e-01 5.675241e-01 2.978129e+00 211 199 188
3.532959e-01 5.682037e-01 2.978945e+00 208 195 179
3.526649e-01 5.688287e-01 2.979296e+00 204 191 175
3.549471e-01 5.706518e-01 2.979391e+00 127 117 108
3.558601e-01 5.710508e-01 2.979141e+00 160 155 144
3.564924e-01 5.711233e-01 2.979242e+00 154 144 132
3.551972e-01 5.710719e-01 2.979126e+00 156 150 144
3.376075e-01 5.701821e-01 2.978183e+00 206 197 184
3.885312e-01 5.752399e-01 2.979782e+00 41 25 16
3.531175e-01 5.733306e-01 2.980236e+00 79 62 52
3.909002e-01 5.790889e-01 2.979746e+00 109 90 79
3.589144e-01 5.811978e-01 2.980332e+00 40 20 11
3.916082e-01 5.985758e-01 2.989235e+00 195 189 178
4.255725e-01 6.059522e-01 2.988461e+00 128 115 98
4.186718e-01 6.108976e-01 2.988055e+00 79 65 51
3.606663e-01 6.039041e-01 2.988143e+00 105 92 76
3.854767e-01 6.126025e-01 2.990035e+00 85 68 52
3.593944e-01 6.057556e-01 2.988454e+00 103 90 74
3.538957e-01 6.052560e-01 2.990098e+00 82 70 54
3.506721e-01 6.044950e-01 2.990505e+00 75 61 47
3.423366e-01 6.024395e-01 2.989841e+00 109 98 85
3.417641e-01 6.024312e-01 2.989389e+00 192 182 172
3.367687e-01 5.995151e-01 2.984223e+00 104 99 95
3.577694e-01 6.073115e-01 2.988761e+00 108 97 80
3.433714e-01 6.043574e-01 2.989928e+00 102 92 75
3.493422e-01 6.075445e-01 2.990947e+00 69 56 43
3.433465e-01 6.051714e-01 2.989470e+00 185 176 160
3.537360e-01 6.085520e-01 2.989818e+00 90 73 58
3.472169e-01 6.067423e-01 2.990106e+00 184 177 164
3.496023e-01 6.080983e-01 2.990875e+00 147 139 126
3.481168e-01 6.075131e-01 2.990369e+00 91 77 64
3.440670e-01 6.061350e-01 2.989548e+00 186 178 163
3.544392e-01 5.474347e-01 2.980830e+00 161 144 128
4.076445e-01 5.512794e-01 2.981366e+00 214 205 196
4.067667e-01 5.584348e-01 2.980684e+00 184 173 167
3.995245e-01 5.637557e-01 2.980226e+00 202 193 176
4.281952e-01 5.701879e-01 2.984793e+00 199 191 179
3.492205e-01 5.667347e-01 2.979183e+00 194 179 162
3.563836e-01 5.702281e-01 2.979639e+00 191 183 172
3.652127e-01 5.709551e-01 2.977210e+00 140 128 116
3.481514e-01 5.702610e-01 2.979670e+00 193 186 176
4.001649e-01 5.762618e-01 2.980562e+00 44 30 20
3.526206e-01 5.814645e-01 2.980717e+00 147 129 112
3.957816e-01 5.949791e-01 2.988889e+00 191 180 168
3.910394e-01 5.989457e-01 2.989198e+00 25 12 4
3.973565e-01 6.007755e-01 2.989272e+00 165 155 133
4.219032e-01 6.076212e-01 2.987583e+00 200 193 180
3.996372e-01 6.060116e-01 2.987145e+00 101 89 75
4.226756e-01 6.114291e-01 2.987891e+00 106 97 83
4.263586e-01 6.130073e-01 2.987420e+00 97 91 77
3.523289e-01 6.073075e-01 2.991063e+00 113 101 89
3.572479e-01 6.084918e-01 2.988783e+00 176 165 152
3.487150e-01 6.076529e-01 2.990943e+00 145 133 120
3.552884e-01 6.096294e-01 2.988936e+00 180 171 154
3.552884e-01 6.096294e-01 2.988936e+00 180 171 154
3.788516e-01 6.159040e-01 2.988391e+00 98 92 80
3.557296e-01 6.099368e-01 2.988743e+00 89 82 69
3.427978e-01 6.068513e-01 2.989894e+00 144 134 125
3.459419e-01 6.079828e-01 2.989626e+00 189 176 161
3.459419e-01 6.079828e-01 2.989626e+00 189 176 161
3.506118e-01 6.108027e-01 2.989550e+00 172 158 142
3.506118e-01 6.108027e-01 2.989550e+00 172 158 142
3.486769e-01 6.107867e-01 2.989205e+00 193 192 184
3.938617e-01 5.490211e-01 2.986265e+00 43 28 21
3.578281e-01 5.539445e-01 2.983406e+00 151 137 114
3.402305e-01 5.568660e-01 2.975320e+00 198 187 183
3.999130e-01 5.727927e-01 2.980024e+00 139 127 113
3.547086e-01 5.702559e-01 2.979331e+00 194 184 175
3.501734e-01 5.702841e-01 2.979706e+00 191 182 164
3.707516e-01 5.734169e-01 2.978901e+00 201 195 190
3.664731e-01 5.733675e-01 2.978076e+00 193 185 175
3.397350e-01 5.773331e-01 2.980909e+00 132 117 112
3.952228e-01 5.960175e-01 2.988791e+00 194 184 182
4.293130e-01 6.093850e-01 2.987380e+00 103 97 79
3.811434e-01 6.042094e-01 2.989862e+00 186 178 175
4.227455e-01 6.150033e-01 2.987538e+00 180 166 152
4.234400e-01 6.156115e-01 2.987554e+00 209 206 195
4.135587e-01 6.148065e-01 2.987503e+00 100 91 80
4.160067e-01 6.162773e-01 2.987444e+00 102 91 78
3.953760e-01 6.150695e-01 2.987476e+00 197 188 179
3.569732e-01 6.081505e-01 2.988976e+00 104 90 77
3.733953e-01 6.122630e-01 2.987957e+00 94 87 79
3.731731e-01 6.161141e-01 2.988401e+00 197 187 180
4.180298e-01 5.982296e-01 2.988017e+00 167 158 141
3.647122e-01 5.873428e-01 2.979973e+00 151 138 122
4.281876e-01 6.186754e-01 2.987912e+00 104 99 82
3.519895e-01 6.096971e-01 2.989908e+00 139 130 113
3.401956e-01 6.088539e-01 2.990192e+00 173 165 154
3.657941e-01 5.847578e-01 2.980277e+00 180 173 165
3.819883e-01 5.679268e-01 2.978844e+00 141 128 111
4.152200e-01 5.753772e-01 2.981954e+00 112 96 82
4.015194e-01 5.453773e-01 2.983273e+00 153 136 119
4.193608e-01 5.855735e-01 2.982862e+00 177 163 144
3.966840e-01 5.469356e-01 2.985447e+00 139 128 109
4.003548e-01 5.475604e-01 2.983724e+00 146 139 120
4.009390e-01 5.500616e-01 2.982599e+00 128 117 103
4.011005e-01 5.605685e-01 2.980786e+00 115 97 75
4.000731e-01 5.620954e-01 2.980694e+00 121 105 86
4.027402e-01 5.767732e-01 2.980605e+00 68 53 45
4.000923e-01 5.461431e-01 2.983450e+00 147 132 111
3.775279e-01 5.764315e-01 2.979196e+00 194 181 166
3.656203e-01 5.742482e-01 2.946796e+00 153 140 123
3.676872e-01 5.780568e-01 2.978468e+00 72 53 41
3.863536e-01 5.501864e-01 2.985303e+00 166 154 132
4.066217e-01 5.572080e-01 2.980725e+00 225 219 210
4.078789e-01 5.578043e-01 2.980724e+00 80 63 52
3.864463e-01 5.773765e-01 2.979426e+00 163 151 135
4.055591e-01 5.523697e-01 2.981019e+00 190 178 166
4.048180e-01 5.896357e-01 2.981103e+00 129 112 99
3.686050e-01 5.867482e-01 2.980756e+00 178 165 153
3.956680e-01 5.673105e-01 2.979588e+00 197 188 178
4.134630e-01 5.776754e-01 2.981870e+00 164 151 134
4.005550e-01 5.756319e-01 2.980277e+00 47 31 31
3.707707e-01 5.737679e-01 2.979267e+00 78 62 54
3.761099e-01 5.947681e-01 2.989309e+00 197 187 182
3.845978e-01 5.692939e-01 2.979611e+00 105 89 74
3.902782e-01 5.702667e-01 2.979022e+00 207 197 187
3.925919e-01 5.971383e-01 2.988631e+00 202 195 192
4.176450e-01 5.776558e-01 2.982767e+00 71 57 44
4.011498e-01 5.756299e-01 2.980375e+00 190 181 173
3.463204e-01 6.110593e-01 2.989075e+00 195 185 175
4.142903e-01 6.647743e-01 2.993552e+00 18 15 22
3.494512e-01 6.123491e-01 2.989621e+00 198 191 181
3.586865e-01 6.160129e-01 2.988422e+00 124 112 99
3.619940e-01 6.159267e-01 2.985586e+00 64 55 40
3.559763e-01 6.288670e-01 2.991902e+00 17 14 17
3.574639e-01 6.313150e-01 2.991241e+00 176 170 159
4.216691e-01 5.816550e-01 2.983400e+00 185 177 166
3.436087e-01 6.049484e-01 2.989344e+00 134 127 109
3.575036e-01 6.138795e-01 2.989312e+00 184 175 168
4.138373e-01 6.318655e-01 2.989650e+00 186 178 168
3.640068e-01 6.293535e-01 2.988026e+00 190 181 172
4.005854e-01 6.328613e-01 2.987418e+00 181 173 162
3.462411e-01 6.291768e-01 2.991996e+00 169 168 160
3.518598e-01 6.303849e-01 2.991743e+00 174 170 159
3.593261e-01 5.770425e-01 2.980680e+00 183 175 157
4.253717e-01 5.812255e-01 2.983902e+00 195 185 173
4.028303e-01 6.088000e-01 2.983489e+00 199 194 183
3.379259e-01 6.045822e-01 2.985446e+00 76 67 58
3.580367e-01 6.097443e-01 2.988400e+00 193 185 178
3.424948e-01 6.119058e-01 2.989665e+00 179 170 161
3.447261e-01 6.281794e-01 2.992433e+00 38 28 27
4.129515e-01 6.357333e-01 2.989201e+00 83 75 67
3.546170e-01 6.320085e-01 2.991877e+00 37 29 26
3.546170e-01 6.320085e-01 2.991877e+00 37 29 26
3.489334e-01 6.309760e-01 2.992208e+00 38 33 27
3.489334e-01 6.309760e-01 2.992208e+00 38 33 27
3.435489e-01 6.301119e-01 2.992358e+00 30 27 22
3.435489e-01 6.301119e-01 2.992358e+00 30 27 22
3.532567e-01 6.331321e-01 2.991967e+00 145 134 125
3.529144e-01 6.641304e-01 2.998621e+00 154 146 143
4.142395e-01 6.700277e-01 2.992961e+00 146 138 132
3.420449e-01 5.728488e-01 2.980211e+00 184 181 172
3.544674e-01 5.729912e-01 2.979749e+00 190 189 184
3.724558e-01 5.736728e-01 2.978770e+00 188 182 178
4.349098e-01 5.800392e-01 2.985171e+00 190 187 182
4.172627e-01 5.783767e-01 2.982797e+00 177 167 147
4.339265e-01 5.806706e-01 2.985352e+00 74 57 49
4.193608e-01 5.855735e-01 2.982862e+00 177 163 144
3.372663e-01 5.926321e-01 2.983345e+00 205 202 197
4.194162e-01 6.026839e-01 2.987529e+00 198 191 181
3.634896e-01 6.156363e-01 2.985782e+00 197 187 175
3.553820e-01 6.183564e-01 2.991209e+00 214 210 199
3.587243e-01 6.206659e-01 2.992014e+00 31 22 23
3.562933e-01 6.248502e-01 2.992497e+00 26 18 18
3.528241e-01 6.319070e-01 3.027637e+00 30 20 18
3.588210e-01 6.252491e-01 2.992584e+00 29 19 19
4.209087e-01 6.298361e-01 2.990453e+00 167 163 156
3.461535e-01 6.277708e-01 2.992234e+00 200 194 182
3.501922e-01 6.293684e-01 2.992320e+00 74 61 54
3.501922e-01 6.293684e-01 2.992320e+00 74 61 54
3.435071e-01 6.283414e-01 2.992287e+00 178 170 159
3.422297e-01 6.280432e-01 2.992671e+00 57 45 41
3.546472e-01 6.302888e-01 2.991838e+00 189 185 174
3.604408e-01 6.312836e-01 2.991364e+00 177 168 161
4.227148e-01 6.351782e-01 2.988625e+00 90 77 71
4.101500e-01 6.354053e-01 2.989167e+00 200 193 180
3.802081e-01 6.289240e-01 2.962720e+00 38 28 25
4.015610e-01 6.369455e-01 2.987754e+00 182 173 164
3.656896e-01 6.347586e-01 2.988422e+00 148 140 127
4.052111e-01 6.704790e-01 2.994231e+00 124 120 111
4.128380e-01 6.704523e-01 2.993484e+00 124 120 115
4.301541e-01 5.798541e-01 2.984594e+00 102 86 74
4.355073e-01 5.845962e-01 2.985278e+00 89 74 56
4.290898e-01 5.848058e-01 2.984362e+00 197 188 179
4.105900e-01 6.148410e-01 2.987557e+00 103 87 70
3.435182e-01 6.100719e-01 2.990403e+00 183 174 163
4.102694e-01 6.341564e-01 2.989128e+00 155 145 136
3.574654e-01 6.302168e-01 2.991526e+00 123 116 105
3.381185e-01 6.264007e-01 2.989872e+00 137 127 118
3.532720e-01 6.298533e-01 2.991997e+00 75 68 57
4.144672e-01 6.352493e-01 2.989456e+00 77 68 61
4.144672e-01 6.352493e-01 2.989456e+00 77 68 61
3.390549e-01 6.280601e-01 2.989498e+00 71 61 54
3.448979e-01 6.313373e-01 2.992135e+00 160 153 145
3.656227e-01 6.335891e-01 2.988496e+00 196 193 182
3.656227e-01 6.335891e-01 2.988496e+00 196 193 182
4.097432e-01 6.379750e-01 2.989399e+00 38 31 20
3.386778e-01 6.297220e-01 2.989676e+00 111 101 89
3.530253e-01 6.662237e-01 2.997699e+00 182 177 177
4.243670e-01 5.793112e-01 2.984117e+00 31 20 18
4.190207e-01 5.785292e-01 2.983004e+00 105 89 75
4.355797e-01 5.811056e-01 2.985381e+00 92 77 64
4.293138e-01 5.811825e-01 2.984455e+00 183 170 161
4.264877e-01 5.813025e-01 2.984078e+00 84 71 62
4.300783e-01 5.845917e-01 2.984778e+00 82 67 55
4.135012e-01 5.844014e-01 2.982097e+00 177 164 151
3.656232e-01 5.984551e-01 2.982185e+00 192 184 177
3.598613e-01 6.087555e-01 2.988811e+00 140 134 122
3.424868e-01 6.111500e-01 2.990102e+00 191 190 182
3.601708e-01 6.134848e-01 2.988902e+00 182 178 166
3.477174e-01 6.206715e-01 2.992749e+00 191 185 177
3.459947e-01 6.262638e-01 2.991931e+00 191 187 180
3.521158e-01 6.351602e-01 3.026189e+00 22 13 11
3.389004e-01 6.263566e-01 2.989540e+00 166 157 148
4.073309e-01 6.348088e-01 2.989190e+00 178 170 158
3.534674e-01 6.312895e-01 2.991741e+00 142 135 129
3.557315e-01 6.316924e-01 2.991747e+00 181 173 164
3.374247e-01 6.277798e-01 2.989639e+00 109 99 89
3.646565e-01 6.324967e-01 2.988069e+00 110 107 87
4.271864e-01 6.363499e-01 2.987302e+00 142 140 127
4.269295e-01 6.371755e-01 2.987585e+00 60 52 40
3.822055e-01 6.372358e-01 2.990273e+00 106 100 88
3.540307e-01 5.738908e-01 2.980555e+00 64 44 31
3.695440e-01 5.785820e-01 2.978866e+00 221 209 204
4.188817e-01 5.822479e-01 2.982906e+00 90 75 67
4.334786e-01 5.848012e-01 2.984855e+00 211 201 201
4.307754e-01 5.850073e-01 2.984790e+00 170 157 144
4.341326e-01 5.937336e-01 2.984991e+00 197 190 172
3.774501e-01 5.922603e-01 2.989359e+00 210 197 185
3.824983e-01 6.005082e-01 2.989746e+00 33 23 22
3.819537e-01 6.057385e-01 2.990229e+00 17 7 2
3.537478e-01 6.060888e-01 2.990883e+00 161 153 142
3.585868e-01 6.065822e-01 2.988739e+00 105 92 75
3.537756e-01 6.067919e-01 2.990317e+00 64 55 38
4.156070e-01 6.115972e-01 2.988332e+00 89 79 64
4.163370e-01 6.129155e-01 2.988221e+00 77 63 45
4.165238e-01 6.135532e-01 2.988260e+00 146 138 119
4.165238e-01 6.135532e-01 2.988260e+00 146 138 119
3.663136e-01 6.306682e-01 2.987987e+00 184 171 163
3.445566e-01 6.297595e-01 2.992494e+00 178 168 159
3.853134e-01 6.163334e-01 2.917380e+00 189 181 168
4.157401e-01 6.362624e-01 2.988969e+00 189 181 168
4.213548e-01 6.364331e-01 2.988792e+00 188 181 171
4.169158e-01 6.407002e-01 3.003674e+00 79 71 63
4.226499e-01 6.406891e-01 3.002899e+00 73 68 58
3.569504e-01 6.327465e-01 2.991768e+00 187 178 174
4.255619e-01 6.371194e-01 2.988775e+00 36 29 21
4.083858e-01 6.380245e-01 2.989405e+00 172 165 150
4.168178e-01 6.382661e-01 2.989115e+00 172 164 158
4.197643e-01 6.383769e-01 2.989080e+00 180 173 158
4.197643e-01 6.383769e-01 2.989080e+00 180 173 158
4.131169e-01 6.387270e-01 2.989241e+00 157 150 138
4.167435e-01 6.646973e-01 2.993094e+00 67 55 46
3.687371e-01 6.177218e-01 2.865633e+00 151 156 157
4.269875e-01 6.663864e-01 2.990838e+00 151 156 157
4.291077e-01 5.794656e-01 2.984502e+00 88 73 67
4.184245e-01 5.826381e-01 2.982716e+00 207 198 192
4.189716e-01 5.831117e-01 2.983124e+00 71 57 41
4.179150e-01 5.832163e-01 2.982532e+00 126 113 102
3.485445e-01 6.031476e-01 2.990136e+00 181 177 168
3.538957e-01 6.052560e-01 2.990098e+00 82 70 54
4.181303e-01 6.103859e-01 2.988038e+00 189 185 170
4.085669e-01 6.136766e-01 2.987474e+00 139 128 116
4.235515e-01 6.150678e-01 2.987516e+00 94 89 70
3.507658e-01 6.310168e-01 2.991916e+00 115 102 87
4.009016e-01 6.353661e-01 2.987427e+00 175 166 155
4.221771e-01 6.370444e-01 2.988821e+00 83 73 63
4.148215e-01 6.376155e-01 2.989236e+00 205 184 189
4.091681e-01 6.379999e-01 2.989604e+00 41 22 20
4.176140e-01 6.388731e-01 2.989255e+00 161 151 142
3.727840e-01 6.370095e-01 2.990776e+00 89 77 61
4.138170e-01 6.395861e-01 2.989313e+00 157 145 128
4.123380e-01 6.521305e-01 2.991993e+00 188 185 180
4.099799e-01 6.649827e-01 2.993345e+00 193 181 170
4.084463e-01 6.696062e-01 2.993638e+00 80 82 73
3.604378e-01 6.665721e-01 2.998602e+00 174 167 161
3.485574e-01 6.641142e-01 2.998662e+00 180 178 168
3.523509e-01 6.659833e-01 2.998410e+00 89 91 85
3.776476e-01 5.918303e-01 2.989029e+00 183 175 165
3.859866e-01 6.071657e-01 2.997766e+00 189 179 165
4.179942e-01 6.110396e-01 2.988077e+00 180 175 165
3.449932e-01 6.070929e-01 2.989471e+00 189 179 167
3.965788e-01 6.133628e-01 2.987208e+00 95 84 74
3.954680e-01 6.156893e-01 2.987676e+00 145 137 124
4.255171e-01 6.243444e-01 2.988459e+00 65 56 59
4.213576e-01 6.302439e-01 2.989532e+00 18 8 16
3.487962e-01 6.293278e-01 2.992065e+00 200 191 182
4.094458e-01 6.359479e-01 2.989177e+00 69 61 43
4.105180e-01 6.360546e-01 2.989121e+00 61 53 43
4.208452e-01 6.363579e-01 2.988925e+00 74 68 51
4.102590e-01 6.364597e-01 2.989112e+00 187 178 166
4.160250e-01 6.366991e-01 2.989072e+00 199 188 182
3.478703e-01 6.310898e-01 2.992190e+00 84 74 68
3.561245e-01 6.326919e-01 2.991610e+00 117 107 95
3.845447e-01 6.369954e-01 2.990423e+00 47 34 26
3.585837e-01 6.341134e-01 2.991517e+00 173 163 154
4.111017e-01 6.386146e-01 2.989314e+00 57 44 36
4.235813e-01 6.389798e-01 2.989142e+00 60 51 41
4.117617e-01 6.707931e-01 2.993442e+00 87 84 75
3.525545e-01 5.785523e-01 2.981000e+00 169 160 148
3.442575e-01 6.080708e-01 2.989754e+00 200 192 182
3.546170e-01 6.320085e-01 2.991877e+00 37 29 26
4.365112e-01 6.344706e-01 2.989106e+00 248 254 254
3.913481e-01 5.826203e-01 2.979658e+00 172 155 139
4.094138e-01 5.849561e-01 2.981663e+00 43 22 17
3.478091e-01 6.303701e-01 2.992215e+00 158 154 143
3.867162e-01 6.323140e-01 2.975848e+00 33 24 26
3.454585e-01 6.333760e-01 2.991918e+00 135 123 117
4.209722e-01 6.169086e-01 2.987769e+00 210 207 196
3.557778e-01 6.094284e-01 2.988941e+00 175 165 152
4.166108e-01 6.349130e-01 2.976366e+00 175 169 157
4.221078e-01 5.721837e-01 2.983515e+00 104 91 78
3.866182e-01 6.060797e-01 2.989980e+00 196 184 169
4.203579e-01 6.159738e-01 2.987430e+00 173 156 141
3.555739e-01 6.335289e-01 2.991613e+00 188 177 169
3.536608e-01 6.332164e-01 2.991711e+00 181 174 164
3.655644e-01 6.369800e-01 2.988224e+00 72 59 48
3.443608e-01 6.314974e-01 2.992253e+00 182 179 165
4.261963e-01 6.260775e-01 2.988292e+00 51 48 48
4.151762e-01 6.362051e-01 2.989014e+00 77 73 55
4.273135e-01 6.254735e-01 2.988290e+00 71 60 69
3.958653e-01 5.974200e-01 2.988770e+00 55 44 56
4.065077e-01 6.030687e-01 2.983197e+00 201 194 187
3.672004e-01 6.337208e-01 2.987453e+00 172 166 154
4.382546e-01 5.601231e-01 2.987583e+00 185 183 171
4.137051e-01 5.790603e-01 2.982383e+00 166 154 138
4.043927e-01 5.769860e-01 2.980657e+00 84 65 52
3.462258e-01 6.312581e-01 2.992543e+00 29 23 20
4.069708e-01 5.827236e-01 2.981023e+00 50 32 21
4.017285e-01 6.343504e-01 2.987452e+00 116 108 97
3.541464e-01 6.642282e-01 2.998013e+00 66 60 57
3.876469e-01 6.002482e-01 2.989360e+00 190 182 176
3.573993e-01 6.281333e-01 2.991278e+00 192 185 173
4.368987e-01 5.618710e-01 2.986763e+00 67 51 49
4.368987e-01 5.618710e-01 2.986763e+00 67 51 49
3.986322e-01 5.754502e-01 2.980366e+00 71 53 44
3.964281e-01 5.963613e-01 2.988970e+00 181 171 162
3.923418e-01 5.987492e-01 2.989129e+00 24 16 14
3.925428e-01 5.999116e-01 2.989289e+00 44 30 38
3.741724e-01 6.018847e-01 2.990839e+00 192 183 173
3.865736e-01 6.035195e-01 2.996075e+00 206 201 197
3.517401e-01 6.046265e-01 2.990580e+00 78 70 56
4.368340e-01 6.359838e-01 2.988439e+00 127 135 137
4.346063e-01 6.446804e-01 2.989123e+00 110 118 120
4.346063e-01 6.446804e-01 2.989123e+00 110 118 120
4.113030e-01 6.693935e-01 2.993266e+00 182 180 174
3.427860e-01 5.951537e-01 2.990906e+00 127 114 100
4.249379e-01 6.173224e-01 2.987655e+00 178 165 144
4.310235e-01 6.230572e-01 2.986959e+00 89 77 60
4.285337e-01 6.418573e-01 2.987701e+00 136 126 117
3.384315e-01 6.319661e-01 2.989525e+00 77 68 57
3.472233e-01 6.630651e-01 2.998668e+00 178 175 168
3.559592e-01 6.322254e-01 2.991736e+00 181 169 160
3.828261e-01 5.999175e-01 2.989519e+00 202 190 181
3.839291e-01 6.008896e-01 2.989693e+00 146 132 129
3.863265e-01 6.373865e-01 2.990250e+00 196 189 181
3.552149e-01 6.336515e-01 2.991821e+00 182 173 164
3.564545e-01 6.381516e-01 2.991624e+00 59 52 42
3.566904e-01 6.384537e-01 2.991611e+00 163 148 141
4.288153e-01 6.390965e-01 2.987968e+00 165 162 153
3.410383e-01 6.357425e-01 2.989486e+00 95 80 73
4.289431e-01 5.729562e-01 2.985463e+00 187 173 161
4.069704e-01 6.563514e-01 2.994023e+00 22 17 21
4.094397e-01 6.701841e-01 2.993854e+00 178 174 165
3.654853e-01 6.137075e-01 2.985915e+00 203 197 181
4.090901e-01 6.160513e-01 2.987564e+00 137 123 113
3.966042e-01 5.461711e-01 2.987507e+00 120 107 90
3.988549e-01 5.976938e-01 2.987872e+00 159 149 136
3.459616e-01 6.038923e-01 2.989716e+00 196 186 176
3.609378e-01 6.113625e-01 2.986363e+00 170 158 146
4.321248e-01 5.684766e-01 2.986088e+00 185 175 165
4.309633e-01 5.815973e-01 2.984842e+00 166 150 135
3.660340e-01 5.816751e-01 2.978823e+00 53 33 27
4.349258e-01 5.911462e-01 2.984661e+00 208 207 202
4.475323e-01 7.362835e-01 3.338830e+00 127 114 104
3.483577e-01 5.476131e-01 2.980144e+00 94 71 55
4.241150e-01 5.517607e-01 2.989086e+00 15 9 13
4.364961e-01 5.939119e-01 2.985772e+00 123 108 91
4.324936e-01 6.072132e-01 2.985896e+00 206 203 198
3.668853e-01 6.097639e-01 2.984705e+00 215 211 200
4.189490e-01 6.122692e-01 2.988236e+00 169 158 145
3.589252e-01 6.185215e-01 2.990579e+00 223 218 206
4.379368e-01 6.219064e-01 2.989410e+00 107 100 84
4.117085e-01 6.229474e-01 2.988923e+00 165 164 152
3.487151e-01 6.249363e-01 2.992067e+00 186 184 174
3.595718e-01 6.529889e-01 2.998914e+00 19 14 21
4.382546e-01 5.601231e-01 2.987583e+00 185 183 171
4.398631e-01 5.612973e-01 2.987759e+00 77 66 48
4.057435e-01 5.781608e-01 2.980755e+00 167 157 141
3.560807e-01 5.784120e-01 2.981160e+00 184 173 159
4.328452e-01 5.850334e-01 2.985153e+00 183 172 160
4.365846e-01 5.859958e-01 2.985249e+00 195 187 174
4.380898e-01 5.874236e-01 2.986195e+00 66 49 34
3.964609e-01 6.002213e-01 2.989134e+00 55 45 54
4.009623e-01 6.021372e-01 2.986146e+00 128 115 99
3.509816e-01 6.070285e-01 2.991200e+00 152 138 125
4.237398e-01 6.377394e-01 2.988833e+00 37 26 25
4.303228e-01 6.398991e-01 2.987867e+00 187 182 176
4.342208e-01 6.433201e-01 2.989541e+00 151 146 139
3.626051e-01 6.652178e-01 2.997709e+00 142 138 131
3.443881e-01 5.469631e-01 2.975959e+00 159 147 125
4.159485e-01 5.493642e-01 2.988080e+00 150 138 120
3.944562e-01 5.493815e-01 2.986261e+00 157 144 127
4.360612e-01 5.619403e-01 2.986612e+00 182 178 168
3.553586e-01 5.719707e-01 2.979465e+00 118 110 108
3.480469e-01 5.728637e-01 2.979967e+00 203 200 195
4.216607e-01 5.776197e-01 2.983051e+00 146 141 137
4.100777e-01 5.780266e-01 2.981505e+00 159 143 128
3.494528e-01 5.784118e-01 2.980879e+00 169 160 145
4.288426e-01 6.379864e-01 2.987723e+00 185 179 170
4.290212e-01 6.391932e-01 2.988282e+00 158 155 146
3.628168e-01 6.642379e-01 2.997895e+00 167 162 157
4.384065e-01 5.585496e-01 2.987556e+00 185 177 166
4.343011e-01 5.877328e-01 2.984686e+00 160 146 130
4.385522e-01 5.883857e-01 2.985209e+00 169 154 139
4.345996e-01 5.924588e-01 2.985213e+00 201 193 179
3.873477e-01 6.050525e-01 2.982582e+00 192 182 177
3.413649e-01 6.097745e-01 2.990620e+00 178 166 152
4.107897e-01 6.165528e-01 2.987750e+00 180 171 154
4.116195e-01 6.352613e-01 3.043649e+00 179 179 173
4.163781e-01 6.675899e-01 2.992748e+00 88 79 70
4.104075e-01 6.686721e-01 2.993240e+00 183 184 176
3.484737e-01 5.437281e-01 2.978849e+00 162 145 129
4.336590e-01 5.506352e-01 2.989269e+00 164 156 138
4.046379e-01 5.512137e-01 2.981037e+00 204 197 186
3.553531e-01 5.547206e-01 2.983958e+00 153 137 124
3.944545e-01 5.674907e-01 2.979626e+00 100 82 65
3.891033e-01 5.701565e-01 2.978936e+00 98 73 54
4.363000e-01 5.822729e-01 2.985290e+00 187 183 171
3.373297e-01 5.805032e-01 2.980194e+00 40 24 24
3.834212e-01 5.819477e-01 2.979319e+00 189 173 158
3.967759e-01 5.798316e-01 2.923997e+00 52 33 28
4.365352e-01 5.879799e-01 2.985021e+00 169 152 139
4.297897e-01 6.032150e-01 2.987789e+00 179 173 159
4.271969e-01 6.161156e-01 2.987675e+00 107 91 75
4.206698e-01 6.314540e-01 2.989450e+00 134 125 116
4.141124e-01 6.382033e-01 2.989211e+00 173 167 160
3.822731e-01 5.821082e-01 2.978878e+00 44 24 12
3.379259e-01 6.045822e-01 2.985446e+00 76 67 58
4.014742e-01 5.599012e-01 2.980705e+00 107 89 67
3.555164e-01 5.641723e-01 2.979608e+00 161 151 139
3.929569e-01 5.683497e-01 2.979252e+00 95 72 58
4.023723e-01 5.740871e-01 2.979701e+00 85 65 55
3.557342e-01 5.744387e-01 2.980387e+00 181 164 144
3.932086e-01 5.823687e-01 2.979858e+00 190 177 160
4.143050e-01 5.850182e-01 2.982253e+00 43 24 18
3.781937e-01 6.002048e-01 2.989844e+00 196 187 180
3.599667e-01 6.645493e-01 3.000270e+00 106 96 86
3.586040e-01 5.610329e-01 2.979595e+00 98 77 61
3.485269e-01 5.745022e-01 2.980628e+00 58 38 30
3.701976e-01 5.734618e-01 2.978866e+00 209 199 193
4.033672e-01 5.902145e-01 2.980887e+00 175 161 146
3.942184e-01 5.932602e-01 2.988218e+00 198 189 182
3.882076e-01 6.008210e-01 2.989058e+00 35 26 32
3.518576e-01 6.079543e-01 2.991007e+00 149 137 124
3.532428e-01 5.955594e-01 2.990177e+00 98 85 74
3.913595e-01 6.000647e-01 2.989355e+00 45 30 28
3.863830e-01 6.018000e-01 2.984679e+00 215 207 204
3.821434e-01 6.182035e-01 2.988257e+00 146 134 123
3.871164e-01 5.695141e-01 2.979721e+00 149 133 117
3.713135e-01 5.735575e-01 2.978772e+00 185 177 170
4.184709e-01 5.777659e-01 2.983038e+00 78 64 56
3.861827e-01 6.020276e-01 2.989712e+00 34 20 10
3.977711e-01 6.129984e-01 2.987416e+00 185 175 159
4.081446e-01 6.385231e-01 2.989443e+00 56 43 32
3.407036e-01 6.358740e-01 2.989516e+00 164 152 148
3.675168e-01 6.749526e-01 2.999082e+00 64 84 82
4.327659e-01 5.813139e-01 2.985300e+00 140 125 109
4.216691e-01 5.816550e-01 2.983400e+00 185 177 166
4.175571e-01 5.830713e-01 2.982979e+00 189 179 166
4.037728e-01 5.505254e-01 2.982067e+00 91 74 59
4.083977e-01 5.541739e-01 2.981445e+00 118 101 89
3.526246e-01 5.957203e-01 2.990585e+00 95 81 69
4.359645e-01 5.540162e-01 2.988116e+00 175 170 157
4.102328e-01 5.823391e-01 2.982202e+00 172 164 152
3.791587e-01 6.018740e-01 2.989939e+00 189 182 174
4.105900e-01 6.148410e-01 2.987557e+00 103 87 70
4.325943e-01 5.467776e-01 2.990394e+00 149 136 118
4.023189e-01 5.581447e-01 2.980990e+00 114 97 79
3.546340e-01 5.641014e-01 2.979971e+00 90 72 61
4.314519e-01 5.762375e-01 2.985045e+00 185 177 166
4.344113e-01 5.773722e-01 2.985475e+00 90 77 60
3.400184e-01 5.797766e-01 2.981205e+00 145 132 124
4.322686e-01 5.878080e-01 2.984709e+00 47 33 24
4.338005e-01 5.929115e-01 2.985293e+00 111 98 83
4.348357e-01 5.941566e-01 2.984996e+00 114 103 93
3.850677e-01 6.075478e-01 2.990366e+00 159 148 132
4.308264e-01 5.489001e-01 2.990408e+00 37 25 14
4.313525e-01 5.493694e-01 2.990027e+00 151 142 127
4.341486e-01 5.525015e-01 2.989043e+00 60 42 31
3.555541e-01 5.481907e-01 2.981133e+00 152 138 121
4.332968e-01 5.817159e-01 2.985179e+00 164 148 134
4.316621e-01 5.882444e-01 2.984717e+00 140 120 96
3.919732e-01 6.018002e-01 2.989314e+00 196 186 174
3.913447e-01 6.035572e-01 2.989511e+00 191 179 164
4.274544e-01 6.102221e-01 2.987486e+00 105 91 75
4.152286e-01 6.120827e-01 2.987754e+00 147 138 123
3.797894e-01 6.105617e-01 2.990856e+00 148 140 117
4.373677e-01 5.623224e-01 2.986816e+00 202 196 187
3.887700e-01 5.494400e-01 2.985500e+00 115 99 81
3.715348e-01 6.089341e-01 2.987740e+00 164 155 139
4.175834e-01 6.481785e-01 2.992246e+00 23 22 27
4.260841e-01 6.236429e-01 2.988478e+00 171 161 153
4.274160e-01 6.433894e-01 2.987812e+00 206 198 191
3.926779e-01 6.012254e-01 2.989290e+00 185 177 169
3.722196e-01 6.099550e-01 2.987833e+00 168 156 144
3.587243e-01 6.206659e-01 2.992014e+00 31 22 23
4.158350e-01 6.706859e-01 2.992887e+00 179 170 163
4.240258e-01 6.188294e-01 2.987687e+00 207 200 189
4.000905e-01 6.357492e-01 2.987419e+00 179 170 161
4.186678e-01 6.261878e-01 2.989935e+00 176 170 156
4.382546e-01 5.601231e-01 2.987583e+00 185 183 171
4.398631e-01 5.612973e-01 2.987759e+00 77 66 48
4.324570e-01 5.485658e-01 2.989888e+00 155 140 122
4.041295e-01 5.592459e-01 2.979864e+00 212 208 196
4.252070e-01 5.797031e-01 2.984427e+00 157 145 132
4.399790e-01 5.598851e-01 2.988026e+00 101 90 73
4.394050e-01 5.622403e-01 2.987351e+00 68 56 48
3.781937e-01 6.002048e-01 2.989844e+00 196 187 180
4.380388e-01 5.556294e-01 2.988257e+00 200 195 184
3.780967e-01 5.741210e-01 2.979309e+00 59 42 31
4.332136e-01 5.934564e-01 2.985136e+00 161 149 138
4.033394e-01 5.912020e-01 2.981041e+00 199 195 186
3.970698e-01 6.014521e-01 2.989355e+00 166 155 135
3.868357e-01 6.030983e-01 2.992784e+00 212 203 199
3.858493e-01 6.069878e-01 2.990046e+00 202 193 184
4.283897e-01 6.390507e-01 2.987911e+00 120 110 104
4.389718e-01 5.616291e-01 2.987305e+00 157 139 134
4.363576e-01 5.804551e-01 2.985393e+00 233 231 219
3.931130e-01 6.016414e-01 2.989390e+00 62 48 55
4.181636e-01 6.097696e-01 2.988172e+00 86 76 61
3.517431e-01 6.052041e-01 2.990418e+00 173 168 158
3.980868e-01 6.119924e-01 2.987206e+00 90 81 68
4.090402e-01 6.334145e-01 2.990158e+00 112 98 98
4.291322e-01 6.353027e-01 2.987629e+00 94 79 75
3.389951e-01 5.574739e-01 2.975022e+00 189 182 175
4.387314e-01 5.619496e-01 2.987202e+00 86 74 68
4.319392e-01 5.797482e-01 2.984953e+00 76 69 52
4.337013e-01 5.934395e-01 2.985278e+00 85 73 60
4.162730e-01 6.362551e-01 2.988948e+00 69 59 56
4.350747e-01 6.430659e-01 2.989207e+00 247 252 249
4.217215e-01 6.117247e-01 2.988339e+00 84 71 56
4.327727e-01 5.833392e-01 2.985208e+00 159 151 131
4.327727e-01 5.833392e-01 2.985208e+00 159 151 131
3.703963e-01 5.775111e-01 2.979407e+00 174 167 156
3.992306e-01 5.832205e-01 2.980352e+00 170 158 142
3.594816e-01 6.104899e-01 2.988856e+00 98 85 70
4.331849e-01 5.805215e-01 2.985334e+00 155 141 128
3.513921e-01 5.533431e-01 2.983237e+00 111 92 78
4.323513e-01 5.821818e-01 2.984905e+00 178 169 150
4.215903e-01 5.829339e-01 2.983278e+00 142 131 121
4.156964e-01 6.137684e-01 2.988093e+00 97 83 66
4.136477e-01 6.142460e-01 2.987682e+00 185 170 146
4.249952e-01 6.146162e-01 2.987546e+00 197 190 178
4.321152e-01 6.230225e-01 2.986814e+00 83 75 60
4.219553e-01 5.782701e-01 2.983603e+00 98 92 81
4.291733e-01 5.801472e-01 2.984441e+00 103 94 79
4.109589e-01 5.998102e-01 2.988195e+00 97 89 70
4.305790e-01 6.055762e-01 2.987577e+00 176 167 149
4.298413e-01 6.075474e-01 2.987551e+00 184 173 158
4.298413e-01 6.075474e-01 2.987551e+00 184 173 158
4.293381e-01 6.086084e-01 2.987524e+00 177 166 152
4.093286e-01 6.089248e-01 2.986974e+00 186 178 161
4.110762e-01 6.117454e-01 2.987129e+00 192 184 170
4.224295e-01 6.123154e-01 2.987885e+00 107 95 76
4.250196e-01 6.135820e-01 2.987669e+00 183 167 153
4.249602e-01 6.140659e-01 2.987393e+00 104 99 80
4.241854e-01 6.141398e-01 2.987577e+00 182 169 149
4.242543e-01 6.146080e-01 2.987486e+00 106 98 82
3.454794e-01 6.328438e-01 2.992000e+00 89 76 63
3.782837e-01 6.245574e-01 2.950586e+00 195 186 187
4.116869e-01 6.648269e-01 2.993888e+00 64 50 44
3.848247e-01 5.497627e-01 2.985242e+00 102 85 65
4.215792e-01 5.544784e-01 2.988760e+00 166 149 132
4.281470e-01 5.789373e-01 2.984253e+00 131 120 117
4.217701e-01 5.824576e-01 2.983261e+00 204 191 182
4.279738e-01 5.834362e-01 2.984396e+00 82 71 53
4.280957e-01 6.105511e-01 2.987632e+00 181 168 152
4.102825e-01 6.131547e-01 2.987309e+00 150 141 130
4.093876e-01 6.131170e-01 2.987475e+00 137 131 119
4.260773e-01 6.139285e-01 2.987719e+00 205 201 188
4.213338e-01 6.143681e-01 2.987919e+00 155 144 125
4.262574e-01 6.142307e-01 2.987494e+00 140 130 121
4.093385e-01 6.175213e-01 2.987503e+00 178 171 153
3.509150e-01 6.339025e-01 2.991783e+00 91 81 66
3.730516e-01 6.350994e-01 2.991171e+00 127 121 112
4.102590e-01 6.364597e-01 2.989112e+00 187 178 166
4.204226e-01 6.371129e-01 2.989062e+00 63 56 40
4.120016e-01 6.068506e-01 2.987522e+00 187 180 164
3.577944e-01 5.729137e-01 2.979718e+00 185 177 171
3.947207e-01 6.354465e-01 2.989751e+00 166 165 154
3.711440e-01 5.821796e-01 2.979264e+00 140 123 107
4.276282e-01 6.045067e-01 2.988558e+00 145 129 111
3.896186e-01 5.670372e-01 2.981018e+00 125 108 90
4.242848e-01 5.870046e-01 2.983547e+00 131 110 93
3.999868e-01 6.050527e-01 2.987023e+00 109 97 80
4.302160e-01 6.067458e-01 2.987827e+00 182 173 159
3.788957e-01 6.092376e-01 2.990772e+00 34 22 12
4.089594e-01 6.084178e-01 2.986968e+00 186 174 156
4.260522e-01 6.187799e-01 2.987771e+00 192 186 180
4.002859e-01 6.031801e-01 2.986758e+00 100 92 80
4.303367e-01 6.042961e-01 2.987579e+00 95 85 76
3.493422e-01 6.075445e-01 2.990947e+00 69 56 43
4.293381e-01 6.086084e-01 2.987524e+00 177 166 152
4.269062e-01 6.143344e-01 2.987738e+00 144 138 125
4.028680e-01 6.367390e-01 2.987473e+00 190 191 177
4.034084e-01 6.698683e-01 2.994439e+00 179 175 168
3.783635e-01 5.930429e-01 2.989012e+00 224 218 214
3.864221e-01 6.016943e-01 2.989618e+00 134 121 106
4.283985e-01 6.100886e-01 2.987556e+00 179 167 153
4.127572e-01 6.300999e-01 2.989839e+00 149 139 130
3.792663e-01 6.027037e-01 2.989947e+00 208 203 200
3.575826e-01 6.344187e-01 2.991388e+00 152 140 130
3.838536e-01 6.187401e-01 2.988061e+00 84 75 63
4.300538e-01 6.365934e-01 2.987812e+00 173 167 160
3.425951e-01 6.310365e-01 2.991788e+00 146 137 126
3.470756e-01 6.299273e-01 2.992168e+00 191 184 173
3.588118e-01 6.656856e-01 2.999591e+00 55 48 39
3.489928e-01 6.323853e-01 2.992246e+00 112 106 92
3.507814e-01 6.327855e-01 2.991937e+00 172 166 152
3.592465e-01 6.315876e-01 2.991441e+00 126 115 98
4.024605e-01 6.211896e-01 2.985480e+00 83 67 51
3.714321e-01 6.107281e-01 2.987463e+00 183 173 164
4.195239e-01 6.388764e-01 2.989104e+00 50 36 24
4.083858e-01 6.380245e-01 2.989405e+00 172 165 150
4.351822e-01 6.424309e-01 2.989200e+00 242 240 239
4.302013e-01 6.377931e-01 2.987826e+00 205 203 191
3.875146e-01 6.372255e-01 2.990456e+00 43 34 25
4.335964e-01 6.122620e-01 2.986106e+00 136 132 123
3.517283e-01 6.054859e-01 2.990440e+00 184 177 166
3.841349e-01 6.368913e-01 2.990390e+00 171 164 155
4.210594e-01 5.508779e-01 2.997346e+00 21 10 16
4.085531e-01 6.384264e-01 2.989334e+00 172 163 153
3.576243e-01 6.383522e-01 2.991563e+00 62 54 50
4.248735e-01 6.367966e-01 2.988847e+00 149 140 135
4.634682e-01 5.647116e-01 3.001611e+00 39 31 29
4.222802e-01 6.388623e-01 2.988983e+00 45 34 25
4.182794e-01 6.302728e-01 2.989520e+00 129 119 110
4.275660e-01 5.527218e-01 2.990161e+00 25 13 6
4.209271e-01 6.358278e-01 2.988819e+00 173 167 153
4.326028e-01 6.182777e-01 2.986744e+00 138 134 125
4.326028e-01 6.182777e-01 2.986744e+00 138 134 125
4.071093e-01 6.354193e-01 2.989205e+00 67 61 49
4.287002e-01 6.395276e-01 2.987862e+00 196 195 186
3.789410e-01 5.967480e-01 2.989330e+00 200 190 174
4.287418e-01 6.398426e-01 2.987951e+00 109 101 95
4.254746e-01 6.445526e-01 2.987851e+00 78 71 71
3.906876e-01 5.671318e-01 2.980976e+00 90 67 51
3.885178e-01 5.660740e-01 2.981585e+00 130 111 97
3.971766e-01 5.591933e-01 2.982581e+00 153 138 118
3.848842e-01 6.115507e-01 2.990633e+00 154 144 127
3.863605e-01 6.118267e-01 2.990644e+00 15 9 1
4.318615e-01 6.198838e-01 2.986924e+00 209 205 202
4.194785e-01 6.648819e-01 2.991536e+00 166 163 156
4.399127e-01 5.795013e-01 2.986857e+00 105 96 84
4.364479e-01 6.002237e-01 2.985551e+00 206 202 194
4.233158e-01 6.395615e-01 2.988797e+00 150 142 131
4.028398e-01 5.715933e-01 2.980226e+00 142 126 110
4.336395e-01 5.765720e-01 2.985370e+00 165 156 141
4.305390e-01 5.870227e-01 2.984494e+00 172 155 138
4.289836e-01 6.058425e-01 2.987860e+00 169 161 143
4.210058e-01 6.383147e-01 2.989176e+00 39 29 24
3.608383e-01 6.721251e-01 2.998153e+00 82 79 76
4.336626e-01 5.498923e-01 2.989501e+00 163 155 142
4.010115e-01 5.591271e-01 2.981174e+00 164 152 131
3.564471e-01 5.620832e-01 2.980544e+00 130 118 104
4.028802e-01 5.730840e-01 2.980147e+00 106 90 80
4.028802e-01 5.730840e-01 2.980147e+00 106 90 80
3.974589e-01 5.828987e-01 2.980287e+00 184 169 157
3.854654e-01 5.818091e-01 2.979386e+00 154 140 127
4.322686e-01 5.878080e-01 2.984709e+00 47 33 24
4.289325e-01 6.181586e-01 2.987637e+00 169 155 146
4.292097e-01 6.355887e-01 2.987689e+00 111 98 92
4.292097e-01 6.355887e-01 2.987689e+00 111 98 92
4.002739e-01 6.344060e-01 2.987633e+00 123 110 97
4.314784e-01 5.464396e-01 2.990709e+00 136 127 111
4.304298e-01 5.469574e-01 2.990841e+00 134 125 110
4.642919e-01 5.533827e-01 3.002923e+00 27 26 17
4.624960e-01 5.571103e-01 3.002878e+00 23 21 19
3.546354e-01 5.483481e-01 2.981224e+00 154 137 118
3.415876e-01 5.502310e-01 2.973742e+00 87 77 70
4.600503e-01 5.590840e-01 3.002803e+00 39 32 21
4.641392e-01 5.634865e-01 3.001765e+00 144 141 127
4.634929e-01 5.633721e-01 3.001698e+00 73 66 60
4.640971e-01 5.646526e-01 3.001713e+00 151 146 130
4.301204e-01 5.657475e-01 2.986264e+00 145 130 109
4.285755e-01 5.672724e-01 2.985966e+00 147 131 115
3.982868e-01 5.834104e-01 2.980375e+00 44 22 9
4.330221e-01 5.884028e-01 2.984788e+00 118 96 72
3.362316e-01 5.860431e-01 2.981651e+00 97 88 80
3.495883e-01 6.089031e-01 2.990708e+00 96 83 66
3.545820e-01 6.146367e-01 2.989468e+00 120 104 92
3.495688e-01 6.341872e-01 2.991824e+00 139 130 121
3.640773e-01 6.372669e-01 2.988075e+00 133 124 113
4.337050e-01 5.463814e-01 2.990265e+00 66 54 45
3.441009e-01 5.479442e-01 2.976440e+00 104 90 77
4.629791e-01 5.567663e-01 3.003010e+00 185 181 173
4.629791e-01 5.567663e-01 3.003010e+00 185 181 173
4.337488e-01 5.569335e-01 2.987997e+00 160 142 122
4.402145e-01 5.607995e-01 2.987508e+00 196 197 177
4.293708e-01 5.666520e-01 2.985936e+00 141 125 103
4.243349e-01 5.703644e-01 2.984331e+00 90 73 56
4.192343e-01 5.708634e-01 2.982975e+00 212 200 190
3.886075e-01 5.674034e-01 2.980662e+00 126 106 94
4.191048e-01 5.756583e-01 2.982833e+00 153 140 123
4.179153e-01 5.794967e-01 2.982703e+00 136 120 105
3.488415e-01 5.764245e-01 2.980726e+00 209 199 190
4.270609e-01 5.846428e-01 2.984211e+00 180 164 149
4.277239e-01 5.869135e-01 2.984253e+00 46 26 19
4.371346e-01 5.891395e-01 2.984951e+00 119 103 79
4.278520e-01 5.876464e-01 2.984114e+00 140 119 100
4.181102e-01 5.863064e-01 2.982717e+00 138 119 97
4.352732e-01 5.932411e-01 2.985171e+00 122 107 91
4.339600e-01 5.946137e-01 2.984980e+00 206 207 199
3.964681e-01 5.980306e-01 2.989231e+00 27 19 6
3.736333e-01 6.013367e-01 2.990257e+00 36 26 24
3.606663e-01 6.039041e-01 2.988143e+00 105 92 76
3.579061e-01 6.091757e-01 2.988633e+00 195 189 179
3.550760e-01 6.102791e-01 2.988794e+00 85 77 66
3.521450e-01 6.107615e-01 2.989432e+00 171 158 145
4.300527e-01 6.229980e-01 2.986872e+00 83 67 51
4.283935e-01 6.366507e-01 2.987844e+00 179 170 164
4.009354e-01 6.345826e-01 2.987499e+00 170 162 152
3.761975e-01 6.353013e-01 2.990489e+00 192 181 180
3.507658e-01 6.310168e-01 2.991916e+00 115 102 87
3.955305e-01 6.394769e-01 2.989831e+00 137 124 115
4.161516e-01 6.697993e-01 2.992613e+00 77 83 70
3.456452e-01 6.629685e-01 2.998276e+00 85 82 77
3.618864e-01 6.675767e-01 2.998247e+00 78 79 74
3.597058e-01 6.693405e-01 2.998413e+00 72 66 60
4.638323e-01 5.549586e-01 3.003025e+00 167 161 160
4.399096e-01 5.560648e-01 2.988710e+00 115 110 98
4.191595e-01 5.533069e-01 2.988407e+00 152 137 118
4.343475e-01 5.568823e-01 2.987969e+00 86 69 51
4.343475e-01 5.568823e-01 2.987969e+00 86 69 51
4.647355e-01 5.617039e-01 3.001856e+00 51 46 33
3.592013e-01 5.566294e-01 2.981735e+00 80 63 47
4.179371e-01 5.698022e-01 2.982961e+00 208 199 191
4.313026e-01 5.774411e-01 2.984804e+00 152 135 123
4.325484e-01 5.828272e-01 2.984789e+00 126 114 98
4.331118e-01 5.842387e-01 2.984852e+00 134 125 115
4.361872e-01 5.870883e-01 2.985240e+00 95 82 58
4.379915e-01 5.890133e-01 2.985273e+00 138 120 96
4.229472e-01 5.874145e-01 2.983223e+00 102 84 65
4.222166e-01 5.873212e-01 2.983310e+00 95 78 61
4.198523e-01 5.870295e-01 2.982809e+00 97 76 59
4.158593e-01 5.864727e-01 2.982283e+00 103 86 71
4.306539e-01 5.924480e-01 2.984963e+00 103 93 80
4.366686e-01 5.941151e-01 2.985269e+00 180 172 157
4.354103e-01 5.939784e-01 2.985078e+00 188 179 162
4.182355e-01 6.004742e-01 2.987903e+00 90 78 58
4.000514e-01 6.016559e-01 2.987519e+00 106 91 72
4.300310e-01 6.054206e-01 2.987529e+00 99 84 73
3.468475e-01 6.010105e-01 2.990779e+00 136 122 106
4.276981e-01 6.110732e-01 2.987545e+00 176 163 147
4.268345e-01 6.113658e-01 2.987672e+00 118 106 85
4.104058e-01 6.108277e-01 2.987166e+00 203 193 183
4.254962e-01 6.132773e-01 2.987901e+00 179 166 153
4.112785e-01 6.127547e-01 2.987092e+00 105 92 81
4.222413e-01 6.152487e-01 2.987535e+00 180 169 150
3.973437e-01 6.126655e-01 2.987099e+00 92 81 69
3.438444e-01 6.065592e-01 2.989384e+00 89 84 73
4.150083e-01 6.152331e-01 2.987462e+00 181 165 143
3.714321e-01 6.107281e-01 2.987463e+00 183 173 164
4.152252e-01 6.158551e-01 2.987479e+00 97 89 74
4.169229e-01 6.166401e-01 2.987486e+00 105 95 82
4.187275e-01 6.169372e-01 2.987457e+00 100 95 80
3.666095e-01 6.172764e-01 2.985562e+00 104 95 78
4.354353e-01 6.358480e-01 2.989088e+00 169 173 161
4.020505e-01 6.377401e-01 2.987877e+00 167 151 140
3.852994e-01 6.381636e-01 2.990303e+00 87 75 63
3.509150e-01 6.339025e-01 2.991783e+00 91 81 66
4.058913e-01 6.537180e-01 2.994792e+00 75 80 86
4.039103e-01 6.680264e-01 2.994805e+00 86 78 68
3.940004e-01 6.675541e-01 2.995066e+00 90 87 79
3.935779e-01 6.676219e-01 2.994823e+00 179 176 169
3.971947e-01 6.684010e-01 2.992591e+00 190 193 184
4.141339e-01 6.704698e-01 2.993127e+00 182 175 167
4.152735e-01 6.705211e-01 2.992667e+00 186 188 177
4.028211e-01 6.703124e-01 2.994774e+00 181 170 164
3.661523e-01 6.658123e-01 2.994517e+00 98 93 88
3.474909e-01 6.638931e-01 2.998613e+00 171 163 156
3.500086e-01 6.658036e-01 2.998599e+00 164 151 142
4.193943e-01 5.537159e-01 2.988342e+00 83 67 52
4.193943e-01 5.537159e-01 2.988342e+00 83 67 52
4.174884e-01 5.534750e-01 2.988071e+00 79 61 47
4.332753e-01 5.577488e-01 2.987863e+00 112 97 75
3.504481e-01 5.547034e-01 2.983107e+00 76 58 50
4.192245e-01 5.577180e-01 2.987928e+00 117 99 76
4.192245e-01 5.577180e-01 2.987928e+00 117 99 76
4.367561e-01 5.623466e-01 2.986680e+00 196 187 176
3.981311e-01 5.620891e-01 2.980792e+00 167 154 137
4.299437e-01 5.792050e-01 2.984636e+00 195 185 179
4.368281e-01 5.807000e-01 2.985537e+00 86 76 74
4.291733e-01 5.801472e-01 2.984441e+00 103 94 79
4.173379e-01 5.813347e-01 2.982410e+00 104 94 84
4.325078e-01 5.841143e-01 2.984669e+00 124 116 102
4.220682e-01 5.827272e-01 2.983374e+00 104 93 84
4.282992e-01 5.839184e-01 2.984037e+00 107 97 86
4.358554e-01 5.851949e-01 2.985032e+00 203 202 184
4.047196e-01 5.808637e-01 2.980200e+00 113 103 93
4.232118e-01 5.853350e-01 2.983306e+00 145 133 120
4.290997e-01 5.882775e-01 2.984241e+00 99 80 61
3.371486e-01 5.816194e-01 2.980225e+00 85 72 64
4.051889e-01 5.906026e-01 2.981050e+00 165 148 138
4.336008e-01 5.950364e-01 2.985203e+00 142 138 130
3.391390e-01 5.864465e-01 2.982263e+00 202 197 192
4.300615e-01 6.008580e-01 2.987897e+00 178 164 151
3.852834e-01 6.021288e-01 2.989652e+00 26 14 3
4.097706e-01 6.107268e-01 2.987027e+00 98 90 77
4.097706e-01 6.107268e-01 2.987027e+00 98 90 77
4.249332e-01 6.131660e-01 2.987638e+00 111 103 82
4.107121e-01 6.120703e-01 2.987099e+00 95 87 77
4.107121e-01 6.120703e-01 2.987099e+00 95 87 77
3.798307e-01 6.098651e-01 2.990865e+00 25 16 7
3.487457e-01 6.066696e-01 2.990895e+00 171 162 147
3.573347e-01 6.079666e-01 2.988707e+00 136 122 109
3.976052e-01 6.134675e-01 2.987388e+00 127 123 112
4.265241e-01 6.166670e-01 2.987764e+00 116 104 88
3.533207e-01 6.089583e-01 2.989957e+00 103 87 74
4.093241e-01 6.171908e-01 2.987791e+00 91 83 63
4.093241e-01 6.171908e-01 2.987791e+00 91 83 63
3.753838e-01 6.134298e-01 2.988082e+00 183 169 160
3.674112e-01 6.174634e-01 2.985536e+00 98 84 71
4.374763e-01 6.252236e-01 2.988911e+00 244 252 245
4.130510e-01 6.282563e-01 2.989743e+00 164 158 146
4.298638e-01 6.324234e-01 2.987600e+00 154 148 137
4.293764e-01 6.348254e-01 2.987681e+00 122 112 103
4.293764e-01 6.348254e-01 2.987681e+00 122 112 103
4.153981e-01 6.354207e-01 2.988959e+00 76 74 61
4.241235e-01 6.360575e-01 2.988865e+00 76 72 60
4.017112e-01 6.359542e-01 2.987351e+00 206 200 188
4.170128e-01 6.378100e-01 2.989303e+00 76 68 61
4.139460e-01 6.376509e-01 2.989363e+00 81 74 56
4.014312e-01 6.384930e-01 2.987612e+00 179 170 158
3.457711e-01 6.299709e-01 2.992000e+00 187 181 176
3.730083e-01 6.357800e-01 2.990972e+00 188 176 168
3.700749e-01 6.358387e-01 2.991104e+00 159 145 132
3.552149e-01 6.336515e-01 2.991821e+00 182 173 164
3.536245e-01 6.336537e-01 2.991798e+00 112 104 94
3.461340e-01 6.325630e-01 2.992327e+00 158 145 136
3.407315e-01 6.356163e-01 2.989452e+00 67 58 53
4.266641e-01 6.658329e-01 2.991406e+00 249 247 246
4.220388e-01 6.681938e-01 2.990666e+00 158 144 139
4.134068e-01 6.686674e-01 2.993683e+00 134 123 109
3.983789e-01 6.687946e-01 2.992748e+00 191 193 180
3.984841e-01 6.693254e-01 2.992749e+00 176 167 160
3.665864e-01 6.657873e-01 2.994591e+00 186 173 172
3.624460e-01 6.664163e-01 2.998199e+00 99 95 86
3.476125e-01 5.428620e-01 2.977032e+00 112 98 93
3.606998e-01 5.470363e-01 2.982271e+00 123 103 91
4.474195e-01 5.622594e-01 2.992030e+00 92 80 82
4.009779e-01 5.579266e-01 2.981627e+00 116 102 84
3.868421e-01 5.712310e-01 2.978900e+00 94 77 61
4.367161e-01 5.832525e-01 2.985120e+00 139 126 119
4.205120e-01 5.812491e-01 2.983352e+00 107 95 76
4.248107e-01 5.832249e-01 2.983718e+00 193 183 171
4.212624e-01 5.844709e-01 2.983346e+00 120 107 86
4.230977e-01 5.850764e-01 2.983533e+00 105 89 73
4.384003e-01 5.876344e-01 2.985273e+00 146 134 115
3.865164e-01 5.808002e-01 2.979684e+00 144 127 118
3.492711e-01 5.791363e-01 2.981153e+00 105 91 80
4.380639e-01 5.884476e-01 2.985147e+00 159 144 119
4.288173e-01 5.879771e-01 2.984217e+00 131 111 87
3.554339e-01 5.819048e-01 2.980389e+00 99 78 64
3.359018e-01 5.840230e-01 2.981673e+00 193 186 178
4.288696e-01 5.971928e-01 2.988484e+00 179 169 159
4.350148e-01 5.994473e-01 2.985452e+00 125 123 111
4.048548e-01 5.971231e-01 2.982086e+00 128 121 106
4.401456e-01 6.079285e-01 2.988549e+00 132 129 120
4.001862e-01 6.055023e-01 2.987089e+00 171 164 146
4.286212e-01 6.109828e-01 2.987333e+00 192 189 170
4.157470e-01 6.120459e-01 2.988228e+00 173 161 147
4.222648e-01 6.147104e-01 2.987667e+00 168 159 140
4.276845e-01 6.154989e-01 2.987703e+00 189 184 165
4.109182e-01 6.139807e-01 2.987424e+00 116 107 92
3.556819e-01 6.079379e-01 2.989581e+00 106 94 84
4.278301e-01 6.161076e-01 2.987598e+00 178 170 158
4.258632e-01 6.164388e-01 2.987719e+00 188 180 170
4.238112e-01 6.177205e-01 2.987776e+00 186 172 162
4.238112e-01 6.177205e-01 2.987776e+00 186 172 162
4.259436e-01 6.180190e-01 2.987851e+00 176 167 156
4.259829e-01 6.182878e-01 2.987919e+00 114 106 88
4.259829e-01 6.182878e-01 2.987919e+00 114 106 88
4.150670e-01 6.192742e-01 2.987795e+00 157 140 123
4.043390e-01 6.206274e-01 2.985523e+00 109 94 75
4.362893e-01 6.243400e-01 2.988896e+00 110 101 94
4.373382e-01 6.248837e-01 2.988750e+00 167 173 163
4.351410e-01 6.332975e-01 2.989238e+00 111 93 88
4.353056e-01 6.339614e-01 2.989139e+00 76 69 57
4.340580e-01 6.356019e-01 2.989236e+00 153 150 140
4.037592e-01 6.337765e-01 2.987287e+00 172 157 150
4.309675e-01 6.374048e-01 2.987666e+00 184 180 169
4.137538e-01 6.364699e-01 2.989104e+00 179 175 166
3.993316e-01 6.352182e-01 2.987318e+00 109 106 93
3.956980e-01 6.350292e-01 2.989773e+00 102 101 89
4.159500e-01 6.388186e-01 2.989095e+00 83 78 58
4.160776e-01 6.390869e-01 2.989215e+00 157 149 134
