ply
format ascii 1.0
element face 0
property list uchar int vertex_indices
element vertex 942
property float x
property float y
property float z
property uchar diffuse_red
property uchar diffuse_green
property uchar diffuse_blue
end_header
2.419594e+00 -6.292457e-01 2.922655e+00 89 74 56
2.060271e+00 -5.657876e-01 2.931544e+00 196 187 179
1.212879e+00 8.895544e-01 3.062417e+00 103 87 70
1.356623e+00 1.848708e+00 3.079374e+00 155 145 136
1.589854e+00 1.920307e+00 3.068441e+00 77 68 61
1.608182e+00 1.918319e+00 3.068840e+00 77 68 61
-7.918016e-01 1.965983e+00 3.195837e+00 196 193 182
1.377492e+00 2.067259e+00 3.088008e+00 38 31 20
-1.489318e+00 3.998200e+00 3.411635e+00 182 177 177
1.498065e+00 -7.880304e-01 2.944845e+00 105 89 75
1.768774e+00 -7.933970e-01 2.933412e+00 31 20 18
2.405935e+00 -8.037290e-01 2.919429e+00 92 77 64
1.897915e+00 -7.155458e-01 2.931826e+00 84 71 62
1.248932e+00 -4.735077e-01 2.981955e+00 177 164 151
-8.799364e-01 3.461849e-01 3.140652e+00 192 184 177
-1.122394e+00 7.798623e-01 3.173123e+00 140 134 122
-1.980502e+00 9.664210e-01 3.227360e+00 191 190 182
-1.095090e+00 9.928480e-01 3.180233e+00 182 178 166
-1.790433e+00 1.672255e+00 3.250379e+00 191 187 180
-1.401483e+00 1.883091e+00 3.231030e+00 142 135 129
-1.288008e+00 1.888285e+00 3.223469e+00 181 173 164
-8.402088e-01 1.916990e+00 3.195767e+00 110 107 87
2.423158e+00 2.051546e+00 3.048788e+00 142 140 127
2.406747e+00 2.089140e+00 3.050890e+00 60 52 40
3.890801e-03 2.056152e+00 3.171620e+00 106 100 88
-1.536857e+00 -7.147799e-01 3.122594e+00 64 44 31
-7.780902e-01 -5.318119e-01 3.074687e+00 221 209 204
1.507941e+00 -6.137553e-01 2.953315e+00 90 75 67
2.317732e+00 -6.078245e-01 2.925675e+00 211 201 201
2.149299e+00 -5.695065e-01 2.928929e+00 170 157 144
2.401989e+00 -1.716649e-01 2.936089e+00 197 190 172
-1.211487e-01 3.227575e-01 3.151188e+00 33 23 22
-1.403682e-01 5.481522e-01 3.179583e+00 17 7 2
-1.435607e+00 6.691994e-01 3.178132e+00 161 153 142
-1.430787e+00 7.046329e-01 3.178420e+00 64 55 38
1.451150e+00 7.261048e-01 3.038765e+00 89 79 64
1.475674e+00 7.808615e-01 3.032472e+00 77 63 45
1.685783e+00 1.980879e+00 3.066195e+00 189 181 168
1.682841e+00 1.980550e+00 3.066065e+00 189 181 168
2.006491e+00 2.002675e+00 3.053740e+00 188 181 171
1.430738e+00 2.003716e+00 3.082226e+00 79 71 63
-1.246534e+00 1.942699e+00 3.225761e+00 187 178 174
-1.737476e+00 1.952852e+00 3.264463e+00 180 173 163
1.306491e+00 2.071450e+00 3.092534e+00 172 165 150
1.774717e+00 2.099871e+00 3.069203e+00 172 164 158
1.939405e+00 2.112362e+00 3.063287e+00 180 173 158
1.941707e+00 2.112462e+00 3.063378e+00 180 173 158
1.569776e+00 2.121240e+00 3.079876e+00 157 150 138
2.161172e+00 3.850783e+00 3.200926e+00 67 55 46
2.034981e+00 -8.257125e-01 2.925864e+00 88 73 67
1.485975e+00 -5.909863e-01 2.955669e+00 207 198 192
1.469747e+00 -5.642760e-01 2.959829e+00 126 113 102
-1.690410e+00 5.638728e-01 3.184838e+00 181 177 168
1.111917e+00 8.423861e-01 3.071475e+00 139 128 116
1.886661e+00 8.784748e-01 3.000870e+00 94 89 70
-1.549334e+00 1.889303e+00 3.243782e+00 115 102 87
9.139102e-01 1.953475e+00 3.116416e+00 175 166 155
2.069200e+00 2.043951e+00 3.054903e+00 83 73 63
1.648483e+00 2.061413e+00 3.072923e+00 205 184 189
1.341954e+00 2.070565e+00 3.090516e+00 41 22 20
1.823220e+00 2.136149e+00 3.069302e+00 161 151 142
-4.475254e-01 2.089682e+00 3.191529e+00 89 77 61
1.718973e+00 3.800468e+00 3.208450e+00 193 181 170
1.709241e+00 4.190230e+00 3.245916e+00 80 82 73
-1.749890e+00 3.874447e+00 3.422662e+00 180 178 168
-3.622130e-01 -2.328132e-02 3.120181e+00 183 175 165
1.527861e+00 6.851200e-01 3.018171e+00 180 175 165
1.350172e+00 8.278334e-01 3.047598e+00 107 94 75
2.083372e+00 1.339379e+00 3.010946e+00 65 56 59
-1.668115e+00 1.818965e+00 3.250602e+00 200 191 182
1.340871e+00 1.954587e+00 3.085871e+00 69 61 43
1.397530e+00 1.965257e+00 3.082626e+00 61 53 43
1.974732e+00 1.995045e+00 3.054206e+00 74 68 51
1.391550e+00 1.989221e+00 3.084541e+00 187 178 166
1.709584e+00 2.010060e+00 3.067151e+00 199 188 182
-1.695947e+00 1.914401e+00 3.257692e+00 84 74 68
-1.278278e+00 1.942893e+00 3.226668e+00 117 107 95
1.463125e+00 2.105092e+00 3.084520e+00 57 44 36
2.182397e+00 2.152803e+00 3.058967e+00 60 51 41
-1.578173e+00 -5.025223e-01 3.130435e+00 169 160 148
-1.890362e+00 8.179484e-01 3.211568e+00 200 192 182
-1.122859e+00 1.822698e+00 3.211480e+00 61 48 42
-1.360114e+00 1.913110e+00 3.231407e+00 37 29 26
2.006134e-01 -4.215179e-01 3.055568e+00 172 155 139
1.049062e+00 -4.251275e-01 3.003303e+00 43 22 17
-1.696571e+00 1.870697e+00 3.254625e+00 158 154 143
-1.846808e+00 2.063423e+00 3.281991e+00 135 123 117
1.769005e+00 9.701490e-01 3.016342e+00 210 207 196
-1.321417e+00 8.260941e-01 3.177511e+00 175 165 152
1.632092e+00 -1.113318e+00 2.931024e+00 104 91 78
5.966307e-02 5.521474e-01 3.186129e+00 196 184 169
-1.305158e+00 1.992078e+00 3.231364e+00 188 177 169
-1.409469e+00 1.992880e+00 3.239842e+00 181 174 164
-7.985620e-01 2.159290e+00 3.205295e+00 72 59 48
-1.879235e+00 1.958246e+00 3.276799e+00 182 179 165
2.151594e+00 1.433286e+00 3.013961e+00 51 48 48
1.651987e+00 1.976718e+00 3.067442e+00 77 73 55
2.214049e+00 1.399641e+00 3.009947e+00 71 60 69
4.575953e-01 1.561376e-01 3.086553e+00 55 44 56
2.473777e+00 -1.913645e+00 2.909547e+00 185 183 171
1.235432e+00 -7.171091e-01 2.962352e+00 166 154 138
7.784509e-01 -7.482285e-01 2.989632e+00 84 65 52
9.307333e-01 -5.121581e-01 3.004889e+00 50 32 21
9.416837e-01 1.875663e+00 3.108998e+00 116 108 97
-1.431492e+00 3.842154e+00 3.393438e+00 66 60 57
1.126175e-01 2.954179e-01 3.130122e+00 190 182 176
1.362162e-01 3.191497e-01 3.130569e+00 35 26 32
-1.209271e+00 1.697609e+00 3.209310e+00 192 185 173
2.410777e+00 -1.804538e+00 2.910989e+00 67 51 49
2.410777e+00 -1.804538e+00 2.910989e+00 67 51 49
5.080295e-01 -7.904106e-01 3.003078e+00 71 53 44
3.047314e-01 2.159016e-01 3.104641e+00 24 16 14
2.485478e-01 2.289965e-01 3.114691e+00 25 12 4
-1.531139e+00 6.136260e-01 3.178207e+00 78 70 56
3.021693e+00 2.040180e+00 3.038651e+00 127 135 137
3.018407e+00 2.577720e+00 3.076820e+00 110 118 120
3.018407e+00 2.577720e+00 3.076820e+00 110 118 120
1.896823e+00 4.192868e+00 3.239827e+00 182 180 174
-2.011558e+00 2.243421e-01 3.199534e+00 127 114 100
1.990317e+00 9.844316e-01 2.999350e+00 178 165 144
2.453083e+00 1.292734e+00 2.999539e+00 89 77 60
-1.824465e+00 3.814257e+00 3.423678e+00 178 175 168
-1.280837e+00 1.919892e+00 3.225446e+00 181 169 160
-5.661211e-02 3.294179e-01 3.152141e+00 146 132 129
2.041274e-01 2.061044e+00 3.164717e+00 196 189 181
-1.334441e+00 2.002492e+00 3.235196e+00 182 173 164
2.555044e+00 2.212754e+00 3.057002e+00 165 162 153
-1.293542e+00 2.303563e-01 3.152952e+00 60 57 64
1.986522e+00 -1.134739e+00 2.921404e+00 187 173 161
1.783233e+00 4.257657e+00 3.250202e+00 178 174 165
-8.214013e-01 9.867588e-01 3.167365e+00 203 197 181
1.158774e+00 9.494389e-01 3.074170e+00 137 123 113
5.916076e-01 1.639735e-01 3.077440e+00 159 149 136
-1.823859e+00 6.138888e-01 3.197494e+00 196 186 176
-1.053646e+00 9.067903e-01 3.170511e+00 170 158 146
2.146806e+00 -1.398929e+00 2.916485e+00 185 175 165
2.144142e+00 -7.401087e-01 2.925331e+00 166 150 135
-2.024065e+00 -2.012863e+00 3.161331e+00 94 71 55
2.388868e+00 4.862034e-01 2.961817e+00 206 203 198
1.580249e+00 7.408085e-01 3.014941e+00 169 158 145
-1.161274e+00 1.225405e+00 3.193461e+00 223 218 206
2.806283e+00 1.194776e+00 2.985639e+00 107 100 84
-1.657988e+00 1.585970e+00 3.235000e+00 186 184 174
-1.147494e+00 3.064483e+00 3.307743e+00 19 14 21
2.477756e+00 -1.911283e+00 2.909488e+00 185 183 171
2.580728e+00 -1.863496e+00 2.907672e+00 77 66 48
-1.402818e+00 -8.153222e-01 3.108349e+00 102 89 81
1.143987e-01 -6.166602e-01 3.040800e+00 174 161 145
-1.406371e+00 -5.146951e-01 3.115077e+00 184 173 159
2.266335e+00 -5.883270e-01 2.926157e+00 183 172 160
2.504890e+00 -5.765958e-01 2.923464e+00 195 187 174
2.579260e+00 -5.079444e-01 2.922872e+00 66 49 34
4.864857e-01 2.863220e-01 3.077163e+00 55 45 54
6.987488e-01 3.559606e-01 3.080693e+00 128 115 99
-1.559779e+00 7.245018e-01 3.184960e+00 152 138 125
2.171226e+00 2.087545e+00 3.054842e+00 37 26 25
2.952410e+00 2.467865e+00 3.069024e+00 151 146 139
-9.660902e-01 3.845230e+00 3.357793e+00 142 138 131
-2.242616e+00 -2.040889e+00 3.180348e+00 159 147 125
2.363585e+00 -1.789597e+00 2.911897e+00 182 178 168
-1.468139e+00 -7.920931e-01 3.113654e+00 118 110 108
1.628747e+00 -8.501894e-01 2.936991e+00 146 141 137
1.052823e+00 -7.366091e-01 2.972277e+00 159 143 128
-7.912621e-01 1.942799e+00 3.192433e+00 196 193 182
2.525287e+00 2.144314e+00 3.051940e+00 185 179 170
2.527611e+00 2.188637e+00 3.053489e+00 158 155 146
-9.537050e-01 3.768923e+00 3.350139e+00 167 162 157
-2.051735e+00 9.023996e-01 3.232044e+00 178 166 152
2.208678e+00 4.130983e+00 3.225771e+00 88 79 70
1.823311e+00 4.140778e+00 3.237760e+00 183 184 176
-2.056346e+00 -2.221486e+00 3.164050e+00 162 145 129
-1.599375e+00 -1.643268e+00 3.122826e+00 153 137 124
2.835290e-01 -1.140055e+00 2.990333e+00 100 82 65
5.202414e-02 -9.866622e-01 3.010488e+00 98 73 54
2.474388e+00 -7.595092e-01 2.920372e+00 187 183 171
2.110536e+00 2.885786e-01 2.955321e+00 179 173 159
-5.461274e-01 9.293915e-01 3.177233e+00 95 85 68
2.109205e+00 9.251215e-01 2.990257e+00 107 91 75
1.620960e+00 2.090455e+00 3.075664e+00 173 167 160
8.452312e-01 -6.990955e-01 2.988931e+00 167 157 141
-2.224080e+00 7.120205e-01 3.235683e+00 76 67 58
2.218087e-01 -1.092609e+00 2.996094e+00 95 72 58
-1.448463e+00 -6.864651e-01 3.114723e+00 181 164 144
-6.203455e-02 -4.416983e-01 3.066320e+00 154 140 127
1.295890e+00 -4.543112e-01 2.981116e+00 43 24 18
-1.804996e+00 -6.777537e-01 3.148560e+00 58 38 30
-1.991652e+00 9.649709e-01 3.229099e+00 191 190 182
-7.817188e-01 -7.648096e-01 3.063332e+00 209 199 193
8.220791e-01 -1.689887e-01 3.058024e+00 175 161 146
3.671716e-01 -1.569939e-02 3.081630e+00 198 189 182
-1.670082e+00 7.639899e-01 3.193119e+00 145 133 120
-1.495194e+00 2.037742e-01 3.158207e+00 98 85 74
5.324403e-02 4.043801e-01 3.145345e+00 216 207 202
-6.749280e-02 1.125377e+00 3.168432e+00 146 134 123
-3.842746e-02 -1.004639e+00 3.013130e+00 149 133 117
-7.340709e-01 -7.620943e-01 3.060971e+00 185 177 170
6.182391e-01 8.459703e-01 3.118031e+00 185 175 159
1.300684e+00 2.100453e+00 3.094216e+00 56 43 32
-2.101391e+00 2.263668e+00 3.317771e+00 164 152 148
-6.667610e-01 4.504187e+00 3.398060e+00 64 84 82
-3.915657e-01 1.013745e+00 3.167340e+00 181 172 165
2.521617e+00 -1.896825e-01 2.932618e+00 123 108 91
-5.633681e-01 -8.375559e-01 3.048058e+00 107 90 78
2.232776e+00 -7.685512e-01 2.922318e+00 140 125 109
1.645093e+00 -6.585897e-01 2.943127e+00 185 177 166
1.443731e+00 -5.620098e-01 2.959858e+00 189 179 166
6.372686e-01 -2.044553e+00 2.967144e+00 91 74 59
8.922730e-01 -1.901011e+00 2.954984e+00 118 101 89
2.381731e+00 -4.680067e-01 2.927929e+00 160 146 130
2.329015e+00 -2.211499e+00 2.912851e+00 175 170 157
1.224177e+00 8.920600e-01 3.066214e+00 103 87 70
2.102185e+00 -2.548791e+00 2.919471e+00 149 136 118
6.143462e-01 -1.645064e+00 2.965940e+00 114 97 79
2.148360e+00 -1.002993e+00 2.920352e+00 185 177 166
2.314189e+00 -9.745374e-01 2.917710e+00 90 77 60
6.765445e-01 -8.733654e-01 2.986172e+00 85 65 55
2.054090e+00 -7.438697e-01 2.927154e+00 183 170 161
-2.208341e+00 -4.206198e-01 3.194384e+00 145 132 124
2.258837e+00 -4.474739e-01 2.930528e+00 47 33 24
2.360432e+00 -2.080188e-01 2.934693e+00 111 98 83
2.436347e+00 -1.658053e-01 2.935303e+00 114 103 93
3.030255e-03 6.258245e-01 3.196105e+00 159 148 132
2.038185e+00 -2.390707e+00 2.920230e+00 151 142 127
-1.638613e+00 -1.968463e+00 3.125724e+00 152 138 121
5.817363e-01 -1.555340e+00 2.967773e+00 107 89 67
-1.795176e-01 5.436989e-01 3.190172e+00 176 167 159
1.437165e+00 7.556405e-01 3.041389e+00 147 138 123
1.672305e+00 8.131375e-01 3.014044e+00 145 137 119
2.443749e+00 -1.781166e+00 2.910365e+00 202 196 187
-5.951329e-02 -1.956522e+00 3.003001e+00 115 99 81
-5.771402e-01 7.459960e-01 3.169206e+00 164 155 139
2.497234e+00 2.448489e+00 3.072507e+00 206 198 191
-5.437523e-01 7.895018e-01 3.170638e+00 168 156 144
2.224732e+00 4.334978e+00 3.242437e+00 179 170 163
1.956037e+00 1.060737e+00 3.005534e+00 207 200 189
1.626252e+00 2.173734e+00 3.080548e+00 157 145 128
1.812731e+00 -7.761427e-01 2.931933e+00 157 145 132
2.640637e+00 -4.770315e-01 2.924419e+00 169 154 139
-3.145445e-01 3.239664e-01 3.153962e+00 196 187 180
2.516151e+00 2.199521e+00 3.056092e+00 120 110 104
2.533952e+00 -1.839192e+00 2.908717e+00 157 139 134
3.431432e-01 3.590943e-01 3.084641e+00 62 48 55
1.523443e+00 6.262454e-01 3.014811e+00 86 76 61
6.147724e-01 7.934712e-01 3.103035e+00 90 81 68
2.515911e+00 1.984899e+00 3.041851e+00 94 79 75
-2.425553e+00 -1.479466e+00 3.199701e+00 189 182 175
2.516893e+00 -1.823095e+00 2.909067e+00 86 74 68
2.189710e+00 -8.373078e-01 2.922268e+00 76 69 52
2.365171e+00 -1.849332e-01 2.935897e+00 85 73 60
1.713245e+00 1.983746e+00 3.064816e+00 69 59 56
3.019073e+00 2.471723e+00 3.069010e+00 247 252 249
1.735537e+00 7.115995e-01 3.002143e+00 84 71 56
2.252149e+00 -6.716587e-01 2.924569e+00 159 151 131
-7.537360e-01 -5.764029e-01 3.071727e+00 174 167 156
5.651517e-01 -4.463542e-01 3.037063e+00 170 158 142
-1.139043e+00 8.585944e-01 3.176507e+00 98 85 70
2.225846e+00 -7.222885e-01 2.923978e+00 178 169 150
1.645930e+00 -5.962378e-01 2.945623e+00 142 131 121
1.465852e+00 8.295170e-01 3.040185e+00 97 83 66
1.970361e+00 8.523754e-01 2.994777e+00 197 190 178
1.642348e+00 -8.234019e-01 2.937199e+00 98 92 81
2.038623e+00 -7.916950e-01 2.926263e+00 103 94 79
1.157308e+00 2.136406e-01 3.037388e+00 97 89 70
2.192512e+00 4.011311e-01 2.958813e+00 176 167 149
2.166126e+00 4.957249e-01 2.964439e+00 184 173 158
2.166126e+00 4.957249e-01 2.964439e+00 184 173 158
1.791706e+00 7.422745e-01 3.000855e+00 107 95 76
1.909091e+00 8.283514e-01 2.996320e+00 182 169 149
1.930430e+00 8.539323e-01 2.997903e+00 106 98 82
-1.825728e+00 2.034271e+00 3.277274e+00 89 76 63
-2.372484e-01 -1.924223e+00 3.014221e+00 102 85 65
1.510241e+00 -1.964941e+00 2.931067e+00 166 149 132
1.981917e+00 -8.424544e-01 2.926793e+00 131 120 117
1.656480e+00 -6.212966e-01 2.944439e+00 204 191 182
1.988796e+00 -6.250721e-01 2.931817e+00 82 71 53
2.099588e+00 6.472835e-01 2.975673e+00 181 168 152
1.197971e+00 8.177361e-01 3.065495e+00 150 141 130
1.150496e+00 8.172133e-01 3.068870e+00 137 131 119
2.014232e+00 8.142432e-01 2.988578e+00 205 201 188
1.754954e+00 8.406602e-01 3.009748e+00 155 144 125
1.189523e+00 1.025884e+00 3.077344e+00 178 171 153
-1.553686e+00 2.050974e+00 3.255173e+00 91 81 66
1.389652e+00 1.987889e+00 3.084194e+00 187 178 166
1.957772e+00 2.035753e+00 3.057283e+00 63 56 40
1.243061e+00 5.257087e-01 3.047668e+00 187 180 164
-1.344879e+00 -7.524278e-01 3.103232e+00 185 177 171
1.977388e+00 3.508840e-01 2.962575e+00 145 129 111
5.110629e-02 -1.135688e+00 3.002619e+00 125 108 90
-2.739820e-01 7.217600e-01 3.192720e+00 34 22 12
2.072650e+00 1.059197e+00 2.999125e+00 192 186 180
-1.638580e+00 7.552341e-01 3.190575e+00 69 56 43
2.059816e+00 8.311923e-01 2.986166e+00 144 138 125
1.395887e+00 4.165092e+00 3.255195e+00 179 175 168
2.118184e+00 6.226174e-01 2.974147e+00 179 167 153
1.426606e+00 1.615819e+00 3.065275e+00 149 139 130
-1.211271e+00 2.029564e+00 3.227452e+00 152 140 130
1.403078e-02 1.144200e+00 3.163772e+00 84 75 63
2.565379e+00 2.043833e+00 3.043255e+00 173 167 160
-2.001484e+00 1.962862e+00 3.289877e+00 146 137 126
-1.759214e+00 1.862948e+00 3.261272e+00 191 184 173
-1.180635e+00 3.880994e+00 3.378568e+00 55 48 39
-1.659306e+00 1.978523e+00 3.260057e+00 112 106 92
-1.546816e+00 1.980103e+00 3.249021e+00 172 166 152
-6.968019e-01 -3.722092e-01 3.085030e+00 140 123 107
-5.780759e-01 8.311918e-01 3.172773e+00 183 173 164
3.015738e+00 2.432176e+00 3.066237e+00 242 240 239
2.627478e+00 2.139727e+00 3.050787e+00 205 203 191
2.548026e-01 2.036319e+00 3.160042e+00 43 34 25
-1.531518e+00 6.534779e-01 3.180055e+00 184 177 166
-1.191052e+00 2.245333e+00 3.238403e+00 62 54 50
2.223140e+00 2.032814e+00 3.049420e+00 149 140 135
-1.250773e+00 2.240954e+00 3.242512e+00 59 52 42
2.102366e+00 2.152148e+00 3.061374e+00 45 34 25
1.732024e+00 1.633922e+00 3.044324e+00 129 119 110
1.832398e+00 -2.153981e+00 2.924153e+00 25 13 6
1.979766e+00 1.968039e+00 3.052912e+00 173 167 153
1.918955e+00 1.637236e+00 3.035893e+00 18 8 16
2.499894e+00 1.043556e+00 2.985614e+00 138 134 125
1.221461e+00 1.927098e+00 3.095096e+00 67 61 49
2.560089e+00 2.242388e+00 3.059219e+00 196 195 186
2.567560e+00 2.260840e+00 3.060417e+00 109 101 95
1.130527e-01 -1.137812e+00 2.999111e+00 90 67 51
1.117109e-02 -1.176225e+00 3.003166e+00 130 111 97
3.678250e-01 -1.525426e+00 2.976027e+00 153 138 118
1.530639e-01 8.212187e-01 3.227992e+00 158 146 131
2.459765e+00 1.123048e+00 2.989750e+00 209 205 202
2.438365e+00 -3.067429e-01 2.931666e+00 208 207 202
2.648640e+00 -9.317877e-01 2.914483e+00 105 96 84
2.252149e+00 -6.716587e-01 2.924569e+00 159 151 131
2.586498e+00 1.214908e-01 2.943411e+00 206 202 194
3.965681e-01 -1.318229e+00 2.977060e+00 145 128 109
7.010070e-01 1.010844e+00 3.116279e+00 165 153 137
2.273549e+00 -1.011196e+00 2.918284e+00 165 156 141
2.148391e+00 -4.694262e-01 2.931863e+00 172 155 138
2.092528e+00 4.189461e-01 2.962801e+00 169 161 143
2.059309e+00 8.889098e-01 2.991697e+00 184 175 160
5.997609e-01 1.930351e+00 3.139019e+00 166 165 154
-1.050221e+00 4.351951e+00 3.410369e+00 82 79 76
5.541797e-01 -1.584594e+00 2.968603e+00 164 152 131
-1.480732e+00 -1.261738e+00 3.110910e+00 130 118 104
6.963491e-01 -9.275360e-01 2.981139e+00 106 90 80
4.833770e-01 -4.478665e-01 3.040968e+00 184 169 157
2.258837e+00 -4.474739e-01 2.930528e+00 47 33 24
2.233783e+00 1.023163e+00 2.989423e+00 169 155 146
2.517234e+00 1.996528e+00 3.042019e+00 111 98 92
2.504880e+00 1.989505e+00 3.041042e+00 111 98 92
8.670645e-01 1.876370e+00 3.113463e+00 123 110 97
2.036767e+00 -2.547856e+00 2.921159e+00 136 127 111
1.955014e+00 -2.454511e+00 2.921133e+00 134 125 110
3.696691e+00 -2.262791e+00 2.884408e+00 23 21 19
-1.686146e+00 -1.963817e+00 3.130191e+00 154 137 118
-2.361113e+00 -1.859341e+00 3.191229e+00 87 77 70
3.514349e+00 -2.103460e+00 2.886983e+00 39 32 21
3.818869e+00 -1.884259e+00 2.885687e+00 151 146 130
2.028583e+00 -1.517826e+00 2.918526e+00 145 130 109
1.924878e+00 -1.410511e+00 2.919918e+00 147 131 115
5.226373e-01 -4.288420e-01 3.040299e+00 44 22 9
2.298185e+00 -4.212996e-01 2.929961e+00 118 96 72
-2.372611e+00 -1.208844e-01 3.219143e+00 97 88 80
1.522365e+00 8.188774e-01 3.038477e+00 146 138 119
-1.645163e+00 8.211377e-01 3.196084e+00 96 83 66
-1.375713e+00 1.071462e+00 3.190616e+00 120 104 92
8.709804e-01 1.951239e+00 3.113809e+00 179 170 161
2.166247e+00 -2.587808e+00 2.918035e+00 66 54 45
-2.247721e+00 -1.988877e+00 3.181052e+00 104 90 77
3.727924e+00 -2.289168e+00 2.883863e+00 185 181 173
3.727924e+00 -2.289168e+00 2.883863e+00 185 181 173
2.193088e+00 -1.997139e+00 2.914247e+00 160 142 122
-1.457151e+00 -1.705578e+00 3.109406e+00 163 153 139
1.989825e+00 -1.461809e+00 2.919416e+00 141 125 103
1.739834e+00 -1.228232e+00 2.926897e+00 90 73 56
1.475174e+00 -1.153825e+00 2.935192e+00 212 200 190
1.919315e-02 -1.113941e+00 3.005097e+00 126 106 94
1.494075e+00 -9.252524e-01 2.940361e+00 153 140 123
1.447040e+00 -7.339792e-01 2.949947e+00 136 120 105
1.945300e+00 -5.570595e-01 2.935074e+00 180 164 149
1.994254e+00 -4.643885e-01 2.937328e+00 46 26 19
2.571601e+00 -4.340706e-01 2.927081e+00 119 103 79
2.003728e+00 -4.192078e-01 2.937920e+00 140 119 100
1.498053e+00 -4.314980e-01 2.969085e+00 138 119 97
2.460407e+00 -2.036412e-01 2.933592e+00 122 107 91
2.385584e+00 -1.240291e-01 2.937166e+00 206 207 199
4.784497e-01 1.888710e-01 3.077825e+00 27 19 6
-5.409218e-01 3.849958e-01 3.169392e+00 36 26 24
7.048831e-02 5.575088e-01 3.197209e+00 196 184 169
-1.223599e+00 8.081110e-01 3.175872e+00 195 189 179
-1.504127e+00 9.026289e-01 3.189001e+00 171 158 145
2.384349e+00 1.283338e+00 3.000039e+00 83 67 51
-1.546743e+00 1.886408e+00 3.243114e+00 115 102 87
6.664722e-01 2.155176e+00 3.136655e+00 137 124 115
2.225648e+00 4.281453e+00 3.237677e+00 77 83 70
-1.912901e+00 3.825873e+00 3.431765e+00 85 82 77
-1.007826e+00 4.014001e+00 3.376711e+00 78 79 74
-1.118071e+00 4.153174e+00 3.397365e+00 72 66 60
3.797795e+00 -2.410649e+00 2.882603e+00 167 161 160
2.562123e+00 -2.138163e+00 2.907541e+00 115 110 98
2.229009e+00 -2.008942e+00 2.913552e+00 86 69 51
2.237214e+00 -2.029480e+00 2.914140e+00 86 69 51
3.873519e+00 -2.060172e+00 2.883991e+00 51 46 33
2.740201e-01 -1.228531e+00 2.987861e+00 162 149 133
1.418050e+00 -1.200089e+00 2.937291e+00 208 199 191
2.284747e+00 -6.271815e-01 2.925121e+00 134 125 115
2.486929e+00 -5.204291e-01 2.925115e+00 95 82 58
2.616031e+00 -4.462550e-01 2.925886e+00 138 120 96
1.741960e+00 -3.948497e-01 2.951142e+00 102 84 65
1.711366e+00 -4.097835e-01 2.954580e+00 95 78 61
1.579611e+00 -3.923847e-01 2.962077e+00 97 76 59
2.179554e+00 -2.094740e-01 2.939325e+00 103 93 80
2.563529e+00 -1.827792e-01 2.933804e+00 180 172 157
2.483252e+00 -1.670677e-01 2.934928e+00 188 179 162
1.469185e+00 2.205002e-01 2.996275e+00 90 78 58
6.612639e-01 3.342905e-01 3.080979e+00 106 91 72
2.152042e+00 5.510820e-01 2.968139e+00 177 166 152
-1.802557e+00 4.695538e-01 3.191892e+00 136 122 106
2.081305e+00 6.739320e-01 2.977822e+00 176 163 147
2.030829e+00 6.889082e-01 2.980977e+00 118 106 85
1.545118e+00 6.611649e-01 3.019024e+00 189 185 170
1.953497e+00 8.288860e-01 2.993426e+00 104 99 80
1.247002e+00 7.967265e-01 3.060576e+00 105 92 81
1.821802e+00 8.875686e-01 3.007530e+00 180 169 150
6.028676e-01 8.314139e-01 3.117992e+00 92 81 69
-1.929559e+00 7.482777e-01 3.212621e+00 89 84 73
1.449512e+00 9.018237e-01 3.045660e+00 181 165 143
5.737602e-01 8.663668e-01 3.123950e+00 95 84 74
1.732172e+00 9.276370e-01 3.018375e+00 173 156 141
1.462755e+00 9.332731e-01 3.045046e+00 97 89 74
1.510019e+00 9.502002e-01 3.041850e+00 102 91 78
1.559173e+00 9.655104e-01 3.037322e+00 105 95 82
1.672428e+00 9.824254e-01 3.030712e+00 100 95 80
2.902669e+00 2.006291e+00 3.037002e+00 169 173 161
9.848312e-01 2.063103e+00 3.109909e+00 167 151 140
1.576066e-01 2.103544e+00 3.166135e+00 87 75 63
-1.555916e+00 2.047912e+00 3.255155e+00 91 81 66
1.408070e+00 4.038752e+00 3.244414e+00 86 78 68
8.075096e-01 3.959732e+00 3.261193e+00 90 87 79
2.188596e+00 4.325965e+00 3.242765e+00 186 188 177
1.353482e+00 4.175584e+00 3.257235e+00 181 170 164
-7.501429e-01 3.906956e+00 3.345282e+00 98 93 88
-1.809255e+00 3.867521e+00 3.426822e+00 171 163 156
-1.667309e+00 3.976520e+00 3.424499e+00 164 151 142
1.413839e+00 -2.011226e+00 2.935755e+00 83 67 52
1.413839e+00 -2.011226e+00 2.935755e+00 83 67 52
1.292869e+00 -1.953636e+00 2.937188e+00 79 61 47
-1.844885e+00 -1.641340e+00 3.145277e+00 76 58 50
1.386678e+00 -1.754644e+00 2.932647e+00 117 99 76
1.386678e+00 -1.754644e+00 2.932647e+00 117 99 76
2.409320e+00 -1.773203e+00 2.911049e+00 196 187 176
4.322125e-01 -1.421236e+00 2.975603e+00 167 154 137
-1.531113e-01 -1.006316e+00 3.019238e+00 105 89 74
2.077480e+00 -8.507191e-01 2.924559e+00 195 185 179
2.038623e+00 -7.916950e-01 2.926263e+00 103 94 79
1.426613e+00 -6.424574e-01 2.956247e+00 104 94 84
2.252983e+00 -6.287173e-01 2.925870e+00 124 116 102
1.672728e+00 -6.125516e-01 2.944184e+00 104 93 84
2.010944e+00 -6.018971e-01 2.931811e+00 107 97 86
2.461722e+00 -6.105438e-01 2.923542e+00 203 202 184
8.138652e-01 -5.780447e-01 3.006031e+00 113 103 93
1.752503e+00 -5.086202e-01 2.946682e+00 145 133 120
2.075183e+00 -3.976525e-01 2.936253e+00 99 80 61
-2.332071e+00 -3.196049e-01 3.208477e+00 85 72 64
9.118000e-01 -1.763504e-01 3.055126e+00 165 148 138
-2.204280e+00 -1.123507e-01 3.201386e+00 202 197 192
2.364929e-03 3.823454e-01 3.158840e+00 26 14 3
1.161767e+00 7.079769e-01 3.064555e+00 98 90 77
1.161767e+00 7.079769e-01 3.064555e+00 98 90 77
1.217563e+00 7.668691e-01 3.062884e+00 95 87 77
1.213406e+00 7.664675e-01 3.061853e+00 95 87 77
-1.677745e+00 7.216737e-01 3.192424e+00 171 162 147
-1.255549e+00 7.550198e-01 3.174450e+00 136 122 109
6.167124e-01 8.641949e-01 3.117341e+00 127 123 112
2.069588e+00 9.507910e-01 2.992584e+00 116 104 88
-1.456329e+00 8.107662e-01 3.184652e+00 103 87 74
-3.930240e-01 9.370690e-01 3.176579e+00 183 169 160
-7.171551e-01 1.150385e+00 3.167260e+00 98 84 71
2.850231e+00 1.386610e+00 2.997322e+00 244 252 245
1.449142e+00 1.528831e+00 3.066122e+00 164 158 146
2.499154e+00 1.805990e+00 3.029140e+00 154 148 137
2.505979e+00 1.945942e+00 3.038328e+00 122 112 103
1.659223e+00 1.928626e+00 3.064552e+00 76 74 61
2.171234e+00 1.987183e+00 3.048035e+00 76 72 60
1.776690e+00 2.064536e+00 3.066439e+00 76 68 61
1.603305e+00 2.050233e+00 3.073845e+00 81 74 56
9.609312e-01 2.108271e+00 3.111902e+00 179 170 158
-1.827911e+00 1.876777e+00 3.268113e+00 187 181 176
-4.398270e-01 2.011720e+00 3.189071e+00 188 176 168
3.843765e-01 2.093507e+00 3.154771e+00 169 154 143
-5.900205e-01 2.034681e+00 3.196713e+00 159 145 132
-1.320790e+00 1.998813e+00 3.232877e+00 182 173 164
-1.416073e+00 2.014402e+00 3.241991e+00 112 104 94
-1.811867e+00 2.010725e+00 3.275728e+00 158 145 136
-2.099016e+00 2.249270e+00 3.316466e+00 67 58 53
2.896964e+00 4.053972e+00 3.199952e+00 249 247 246
2.617835e+00 4.210823e+00 3.218986e+00 158 144 139
2.023116e+00 4.146562e+00 3.232227e+00 134 123 109
1.087181e+00 4.086800e+00 3.258393e+00 191 193 180
1.099557e+00 4.127802e+00 3.261666e+00 176 167 160
-7.263072e-01 3.900638e+00 3.343035e+00 186 173 172
-9.678810e-01 3.930397e+00 3.366130e+00 99 95 86
-2.111245e+00 -2.266310e+00 3.168521e+00 112 98 93
-1.391433e+00 -2.030309e+00 3.104500e+00 123 103 91
2.970716e+00 -1.877692e+00 2.900071e+00 92 80 82
5.471359e-01 -1.645146e+00 2.968974e+00 116 102 84
-4.056641e-02 -9.220316e-01 3.018532e+00 94 77 61
2.504505e+00 -7.203947e-01 2.920905e+00 139 126 119
1.579875e+00 -6.744489e-01 2.945579e+00 107 95 76
1.820014e+00 -6.096990e-01 2.938041e+00 193 183 171
1.639879e+00 -5.333860e-01 2.950639e+00 120 107 86
1.739540e+00 -5.183395e-01 2.946174e+00 105 89 73
2.634220e+00 -5.184335e-01 2.923950e+00 146 134 115
-2.036811e-02 -4.872216e-01 3.059177e+00 144 127 118
-1.721900e+00 -4.610943e-01 3.143733e+00 105 91 80
2.621381e+00 -4.755932e-01 2.925274e+00 159 144 119
2.058837e+00 -4.104176e-01 2.936400e+00 131 111 87
-1.404922e+00 -3.440080e-01 3.117662e+00 99 78 64
-2.390795e+00 -2.137692e-01 3.218199e+00 193 186 178
1.996776e+00 2.095206e-02 2.945475e+00 179 169 159
2.489010e+00 1.021946e-01 2.943876e+00 125 123 111
9.272412e-01 1.337095e-01 3.077452e+00 128 121 106
6.613669e-01 5.059592e-01 3.072458e+00 171 164 146
1.457534e+00 7.457354e-01 3.037622e+00 173 161 147
1.813734e+00 8.598001e-01 3.006230e+00 168 159 140
2.125493e+00 8.893595e-01 2.986641e+00 189 184 165
1.234084e+00 8.505972e-01 3.063218e+00 116 107 92
-1.342361e+00 7.557016e-01 3.178418e+00 106 94 84
2.144582e+00 9.208954e-01 2.987744e+00 178 170 158
2.030884e+00 9.384089e-01 2.994255e+00 188 180 170
1.928354e+00 1.004014e+00 3.004162e+00 186 172 162
1.928354e+00 1.004014e+00 3.004162e+00 186 172 162
2.050157e+00 1.015683e+00 2.996825e+00 176 167 156
2.053660e+00 1.028264e+00 2.997102e+00 114 106 88
2.053660e+00 1.028264e+00 2.997102e+00 114 106 88
9.928594e-01 1.205171e+00 3.103339e+00 109 94 75
2.841145e+00 1.370294e+00 2.996639e+00 167 173 163
2.801365e+00 1.983765e+00 3.036604e+00 153 150 140
1.040776e+00 1.849511e+00 3.102385e+00 172 157 150
2.657198e+00 2.110280e+00 3.047403e+00 184 180 169
1.576511e+00 1.988536e+00 3.072210e+00 179 175 166
8.299649e-01 1.927495e+00 3.117095e+00 109 106 93
6.476311e-01 1.915383e+00 3.138724e+00 102 101 89
1.734707e+00 2.134129e+00 3.073222e+00 83 78 58
1.742735e+00 2.140504e+00 3.072594e+00 157 149 134
-1.579466e+00 1.857749e+00 3.245747e+00 127 124 107
9.665412e-01 2.095735e+00 3.115841e+00 87 76 58
1.429874e+00 2.145312e+00 3.087938e+00 161 150 136
4.702049e-01 2.070749e+00 3.149744e+00 197 192 188
1.000266e+00 2.155194e+00 3.114559e+00 179 176 161
2.555095e-02 2.039321e+00 3.171152e+00 73 71 56
9.940278e-01 2.142646e+00 3.110662e+00 137 131 114
-1.320370e+00 1.958027e+00 3.230636e+00 92 85 69
-3.725125e-01 2.039141e+00 3.187078e+00 172 167 157
-1.729265e+00 1.942010e+00 3.263592e+00 100 98 87
-1.871492e+00 1.920393e+00 3.273668e+00 153 149 137
-1.373654e+00 1.982095e+00 3.235411e+00 108 104 92
-7.914263e-01 2.046003e+00 3.196142e+00 110 102 91
-8.012382e-01 2.068463e+00 3.198026e+00 130 120 109
-2.220530e+00 2.000947e+00 3.311261e+00 185 179 170
8.486925e-01 2.397336e+00 3.126701e+00 66 62 59
-2.081973e+00 2.253033e+00 3.315083e+00 95 80 73
2.103727e+00 3.893366e+00 3.207228e+00 112 108 97
2.665867e+00 4.262931e+00 3.222212e+00 164 157 155
2.636907e+00 4.318324e+00 3.227932e+00 162 155 149
1.649131e+00 4.177491e+00 3.246962e+00 143 134 127
2.361239e+00 4.433498e+00 3.247210e+00 108 101 94
1.704328e+00 4.371186e+00 3.263086e+00 108 97 95
-7.218233e-01 3.999637e+00 3.351899e+00 102 99 96
-1.183671e+00 3.967269e+00 3.385872e+00 178 185 173
9.059131e-01 -1.290014e+00 2.914135e+00 183 181 186
1.331359e+00 3.813851e-01 3.124909e+00 98 89 90
4.913864e-01 -2.224226e-02 3.045117e+00 164 162 167
-7.713356e-01 1.322353e+00 2.967873e+00 188 190 202
9.375961e-01 -1.088128e+00 2.899955e+00 192 190 201
1.527149e+00 -8.975595e-01 2.758134e+00 93 90 97
-2.371457e-01 -2.637869e-01 3.083502e+00 182 180 191
1.198725e+00 -9.014778e-01 2.921245e+00 106 97 102
-1.295122e+00 -5.418649e-01 3.194992e+00 167 163 165
-1.295122e+00 -5.418649e-01 3.194992e+00 167 163 165
-4.122550e-01 -8.416348e-01 3.174336e+00 115 110 117
3.885687e-01 -8.544981e-01 3.054954e+00 103 101 105
-6.372062e-01 -6.839660e-01 3.193915e+00 163 157 159
6.185702e-01 -6.851856e-01 3.084363e+00 169 167 170
1.258416e+00 -5.516361e-01 2.950750e+00 141 134 141
1.241295e+00 -5.477025e-01 3.005027e+00 141 134 141
-2.393672e-01 -3.976918e-01 3.046648e+00 43 34 35
3.006575e+00 -3.739528e-01 2.221646e+00 79 74 80
2.110793e-01 2.178640e-01 3.105529e+00 67 71 82
1.509360e+00 2.219857e-01 3.157456e+00 116 114 119
-3.617737e+00 -8.643498e-01 2.086018e+01 57 58 62
-3.612284e+00 -8.539454e-01 2.073274e+01 50 49 54
-6.897560e-01 -9.506066e-01 3.233623e+00 154 145 148
1.321964e+00 -9.807854e-01 2.839556e+00 178 176 179
2.759493e+00 -9.265148e-01 2.158822e+00 125 124 130
2.479531e+00 -8.620132e-01 2.415550e+00 176 175 181
2.479531e+00 -8.620132e-01 2.415550e+00 176 175 181
1.180495e+00 -4.896781e-01 2.996938e+00 91 87 88
1.776159e+00 -3.687897e-01 2.839822e+00 108 103 109
-3.605014e-01 5.541182e-02 3.067405e+00 64 62 75
-1.974446e+00 2.659896e-01 2.852374e+00 132 130 135
-7.630850e-01 1.727517e-01 2.927409e+00 192 190 201
1.131471e+00 2.684049e-01 3.160619e+00 147 141 145
5.837557e-01 8.843763e-01 3.234423e+00 169 167 172
-3.599647e+00 -8.012103e-01 2.080357e+01 37 46 41
6.373349e-01 -1.583791e+00 2.943732e+00 172 165 173
2.011849e-01 -1.416130e+00 2.978885e+00 123 110 117
2.992358e-01 -1.330329e+00 3.070179e+00 94 83 87
-1.173540e+00 -6.048994e-01 3.143049e+00 87 80 87
-1.483974e+00 -4.463575e-01 3.148686e+00 65 56 59
6.303032e-01 -4.056191e-01 3.092953e+00 44 32 36
1.328455e+00 -4.398717e-01 3.011863e+00 157 147 151
1.907212e+00 -4.260580e-01 2.787110e+00 45 34 40
7.686007e-01 -1.937879e-01 3.129122e+00 165 161 164
-9.691016e-01 9.902714e-02 3.007347e+00 191 189 194
1.419488e+00 1.263302e-01 3.077798e+00 78 76 87
-2.283247e-01 2.589450e-01 3.040021e+00 187 186 192
2.872882e-01 2.547509e-01 3.110659e+00 175 174 180
2.959977e-01 2.510623e-01 3.080788e+00 175 174 180
1.800238e-02 4.708648e-01 3.140257e+00 71 73 84
1.800238e-02 4.708648e-01 3.140257e+00 71 73 84
1.229612e-01 5.624184e-01 3.051033e+00 163 160 167
-1.512490e+00 6.688387e-01 3.261964e+00 171 170 175
-6.965696e-01 1.097080e+00 3.000480e+00 190 193 202
1.306370e+00 1.303943e+00 3.168713e+00 175 178 188
-3.579894e+00 -8.184666e-01 2.088111e+01 70 78 65
-3.463636e+00 -7.979949e-01 2.116917e+01 23 32 15
-3.697060e+00 -7.805080e-01 2.064917e+01 49 46 55
-3.382559e+00 -8.783053e-01 1.978715e+01 14 29 9
-7.687956e-01 -1.361688e+00 3.295433e+00 124 115 116
-1.711505e+00 -1.212329e+00 3.518515e+00 144 138 140
-1.996314e+00 -1.165077e+00 3.642163e+00 163 157 159
-7.080301e-02 -1.192204e+00 3.191482e+00 83 72 76
2.296273e+00 -1.407409e+00 2.389669e+00 185 182 189
-2.123772e-01 -1.170290e+00 3.145317e+00 137 125 129
2.801992e+00 -1.463299e+00 1.782610e+00 136 133 144
3.067526e-01 -1.171930e+00 3.018074e+00 98 93 99
-6.144548e-04 -9.700318e-01 3.066002e+00 84 75 79
-9.955477e-01 -7.763941e-01 3.209387e+00 108 105 114
-9.955477e-01 -7.763941e-01 3.209387e+00 108 105 114
-1.229578e+00 -7.149594e-01 3.355903e+00 107 102 108
-5.737658e-01 -7.142323e-01 3.170649e+00 43 38 42
-1.197434e+00 -6.838609e-01 3.179371e+00 102 96 100
8.750675e-01 -8.221544e-01 3.020684e+00 110 107 116
1.090926e+00 -7.615116e-01 2.923093e+00 164 158 163
-2.363643e+00 -5.073213e-01 3.433166e+00 66 65 71
2.364194e+00 -8.066541e-01 2.511567e+00 53 50 53
2.275043e+00 -7.659493e-01 2.530006e+00 72 67 71
-2.283013e+00 -4.234046e-01 3.349445e+00 151 149 151
8.969458e-01 -6.197303e-01 3.041356e+00 97 91 93
-4.600987e-01 -5.089972e-01 3.107526e+00 156 151 157
-1.272064e+00 -4.470546e-01 3.260837e+00 83 76 81
-1.099519e+00 -4.554749e-01 3.223861e+00 68 62 64
-3.199287e-01 -4.797291e-01 3.102732e+00 89 84 88
-2.540335e+00 -3.148338e-01 3.391335e+00 95 95 105
-9.898515e-01 -3.996420e-01 3.116104e+00 50 41 44
1.136686e+00 -5.294538e-01 3.005760e+00 158 149 152
4.751828e-01 -4.447578e-01 3.024358e+00 173 162 166
2.229816e-01 -4.121659e-01 3.110201e+00 43 33 35
2.256792e-01 -4.150158e-01 3.095231e+00 43 33 35
8.174434e-01 -4.300389e-01 3.095320e+00 165 155 163
8.174434e-01 -4.300389e-01 3.095320e+00 165 155 163
1.027587e+00 -4.400010e-01 3.070523e+00 172 164 162
2.931994e-01 -3.769794e-01 3.139762e+00 135 127 125
1.300433e+00 -4.408826e-01 2.939187e+00 40 30 31
1.697679e+00 -4.587341e-01 2.827212e+00 169 160 163
1.925689e+00 -4.623464e-01 2.730395e+00 154 148 150
-3.668385e-01 -2.566559e-01 3.075759e+00 171 169 180
-1.231165e+00 -1.780649e-01 3.206788e+00 72 66 76
-7.985583e-01 -9.306778e-02 3.037397e+00 181 181 191
1.155600e+00 -1.011804e-01 3.092716e+00 176 171 178
-1.023602e-01 4.471877e-02 3.114196e+00 41 39 52
2.864115e-01 1.746701e-01 3.109710e+00 174 175 180
-6.834860e-02 2.615322e-01 3.029967e+00 39 37 50
3.204978e-01 4.677173e-01 3.022848e+00 174 175 180
2.036124e-01 5.682526e-01 3.050725e+00 176 174 186
-1.991912e-01 8.619188e-01 3.065798e+00 136 130 132
-1.991912e-01 8.619188e-01 3.065798e+00 136 130 132
1.123645e+00 9.016618e-01 3.127847e+00 90 88 93
5.881459e-01 9.357993e-01 3.113953e+00 104 99 105
-3.733742e+00 -7.607636e-01 2.069292e+01 137 136 144
-1.006850e+00 -1.783461e+00 3.131966e+00 116 115 121
6.963115e-01 -1.648683e+00 2.766635e+00 170 163 171
2.445280e+00 -1.816552e+00 1.785461e+00 129 119 118
-3.734339e-01 -1.271871e+00 3.172467e+00 144 134 133
1.827872e+00 -1.409640e+00 2.337971e+00 109 97 97
1.827615e-01 -1.206530e+00 3.054428e+00 85 74 78
1.525794e+00 -1.323447e+00 2.707269e+00 160 152 150
2.208676e-01 -1.146869e+00 3.056703e+00 147 138 141
-1.335995e-02 -1.113965e+00 3.120262e+00 129 120 119
-2.861348e-01 -1.075627e+00 3.203891e+00 65 56 57
2.031904e-01 -1.063069e+00 3.081716e+00 187 177 185
-4.136882e-02 -9.825630e-01 3.107782e+00 142 134 136
-1.239325e-01 -9.554695e-01 3.130144e+00 145 140 137
-8.805001e-01 -8.749251e-01 3.220933e+00 118 112 116
-1.238178e+00 -7.735172e-01 3.374899e+00 92 89 96
-9.698567e-01 -7.706799e-01 3.267289e+00 91 90 96
-1.808542e+00 -7.128901e-01 3.367775e+00 163 162 169
-1.734278e+00 -5.493753e-01 3.243637e+00 94 92 97
1.636336e+00 -7.861059e-01 2.765186e+00 66 64 68
2.246672e-01 -6.743209e-01 3.101366e+00 163 154 159
1.955052e-01 -6.489193e-01 3.101096e+00 80 71 76
1.024784e+00 -6.861923e-01 2.945421e+00 146 140 140
1.286558e+00 -6.917648e-01 2.929365e+00 172 166 168
5.627309e-01 -5.786422e-01 3.068776e+00 94 89 95
4.984943e-01 -5.769088e-01 3.111243e+00 73 64 67
-1.387849e+00 -4.299577e-01 3.156387e+00 117 109 110
2.031627e-01 -5.358486e-01 3.100354e+00 82 77 81
-1.929013e+00 -3.867441e-01 3.216025e+00 44 38 42
1.867478e+00 -6.451919e-01 2.703878e+00 49 44 50
1.867478e+00 -6.451919e-01 2.703878e+00 49 44 50
-1.632449e+00 -3.730755e-01 3.134176e+00 130 122 120
1.576931e+00 -5.285659e-01 3.553856e+00 154 148 152
-2.943652e-02 -4.109413e-01 3.065096e+00 39 28 32
-4.594214e-01 -3.696126e-01 3.091122e+00 119 109 110
4.917701e-02 -3.778229e-01 3.107855e+00 127 117 118
8.654730e-01 -3.758325e-01 3.089628e+00 129 120 119
1.187764e+00 -3.969088e-01 3.039981e+00 125 113 115
1.260261e+00 -3.956338e-01 3.041172e+00 135 125 126
1.933447e+00 -4.045534e-01 2.837312e+00 121 110 114
2.229630e+00 -4.116527e-01 2.601070e+00 125 118 115
-2.860797e-01 -2.382166e-01 3.101549e+00 133 130 137
2.763795e+00 -4.176168e-01 2.356039e+00 44 38 40
-7.422659e-01 -1.818254e-01 3.034551e+00 88 83 89
-7.426777e-01 -1.781837e-01 3.033386e+00 88 83 89
-7.883097e-01 -1.100235e-01 3.016395e+00 167 166 174
4.528609e-01 -1.814871e-01 3.134653e+00 110 104 108
7.297868e-01 -1.798741e-01 3.110731e+00 81 76 82
1.731103e+00 -2.417702e-01 2.946632e+00 171 169 174
1.688983e+00 -1.942108e-01 2.890894e+00 158 153 157
4.122228e-02 7.430565e-03 3.072062e+00 46 44 55
1.028129e-01 2.263962e-01 3.028688e+00 46 43 50
3.108943e-01 2.183686e-01 3.112234e+00 32 32 40
5.831305e-02 2.392724e-01 3.043730e+00 182 183 188
-5.867406e-01 3.522858e-01 2.994223e+00 132 127 133
1.397909e+00 2.674056e-01 3.174053e+00 77 77 81
5.261243e-01 3.155969e-01 3.104497e+00 152 151 156
9.369741e-01 2.988371e-01 3.152381e+00 120 118 129
1.074545e-01 3.907246e-01 3.091317e+00 175 175 180
2.779899e-01 4.463858e-01 3.083417e+00 42 39 48
1.195574e+00 4.075408e-01 3.194757e+00 153 145 143
4.448899e-01 5.579691e-01 3.183162e+00 145 143 146
-3.585298e-02 5.877665e-01 3.000359e+00 81 79 90
-1.649333e+00 7.523159e-01 3.285908e+00 170 165 171
-7.235831e-01 7.299725e-01 2.988943e+00 81 83 95
-1.330997e+00 8.097405e-01 2.855729e+00 82 76 80
-1.416389e+00 8.363821e-01 2.866665e+00 86 81 85
9.754753e-01 7.422736e-01 3.123187e+00 94 91 98
2.917497e-03 8.183886e-01 3.172273e+00 58 53 57
-5.535987e-01 9.396944e-01 3.023086e+00 170 165 172
-5.560333e-01 9.597549e-01 3.156328e+00 89 86 93
1.381026e+00 8.565392e-01 3.197908e+00 91 83 80
-6.285827e-01 1.040656e+00 3.042926e+00 155 148 155
1.649892e+00 1.177117e+00 3.207542e+00 76 70 77
1.649892e+00 1.177117e+00 3.207542e+00 76 70 77
-3.990033e-01 1.851893e+00 3.273710e+00 5 4 10
-3.387311e+00 -8.095127e-01 2.092526e+01 90 97 63
8.809687e-01 -1.873917e+00 2.933629e+00 188 187 194
-1.043153e+00 -1.671413e+00 3.587488e+00 103 100 109
-2.355602e-02 -1.596945e+00 3.027051e+00 157 147 145
2.048333e-01 -1.550621e+00 3.094581e+00 137 128 129
-1.590002e+00 -1.339024e+00 3.545362e+00 127 123 124
-5.816830e-01 -1.406426e+00 3.237195e+00 95 83 83
-3.948342e-01 -1.332349e+00 3.166646e+00 88 77 77
5.540893e-01 -1.417614e+00 2.905727e+00 177 175 180
2.371596e+00 -1.505515e+00 1.964794e+00 78 69 70
1.424249e-01 -1.211346e+00 3.067345e+00 127 117 119
3.617156e-01 -1.196607e+00 3.054966e+00 183 181 186
1.476251e+00 -1.267669e+00 2.612190e+00 194 188 192
2.005966e+00 -1.322331e+00 2.334389e+00 130 122 120
2.028495e+00 -1.302358e+00 2.308126e+00 76 68 65
1.747104e+00 -1.131350e+00 2.687680e+00 102 96 98
-1.587043e+00 -8.410504e-01 3.330193e+00 170 167 174
1.535036e-02 -8.593291e-01 3.079023e+00 100 95 102
-1.592940e+00 -7.122992e-01 3.279904e+00 83 77 81
-4.889960e-01 -7.676017e-01 3.149895e+00 163 160 169
7.364649e-01 -8.587005e-01 2.974888e+00 99 96 105
-5.043559e-01 -7.499351e-01 3.169720e+00 79 76 83
3.726757e-02 -7.850738e-01 3.092228e+00 178 176 181
3.313925e-01 -7.758591e-01 3.055929e+00 165 162 169
1.213533e+00 -8.407666e-01 2.884991e+00 69 67 78
1.225371e+00 -8.135267e-01 2.902310e+00 156 154 160
-1.500826e+00 -5.703798e-01 3.214220e+00 163 157 159
2.437797e+00 -8.630019e-01 2.409789e+00 185 184 189
2.044060e+00 -8.188819e-01 2.827251e+00 73 72 80
1.489701e+00 -7.635821e-01 3.655022e+00 160 159 165
-9.289273e-01 -4.860101e-01 3.173686e+00 159 154 158
-4.840662e-01 -4.810067e-01 3.075425e+00 54 48 52
-2.165455e-02 -5.060558e-01 3.087482e+00 86 77 78
1.726268e+00 -6.197026e-01 2.767158e+00 187 182 188
-8.344313e-01 -4.166812e-01 3.099655e+00 158 149 150
-1.194885e+00 -3.728634e-01 3.272078e+00 133 123 121
2.107497e+00 -5.854383e-01 2.665113e+00 141 138 145
9.858467e-02 -3.630990e-01 3.123445e+00 131 120 124
-6.408696e-02 -2.318393e-01 3.081997e+00 175 168 175
5.424591e-01 -2.703633e-01 3.054805e+00 173 170 184
-4.595472e-01 -1.434094e-01 3.073465e+00 182 182 184
3.930920e-01 -1.427673e-01 3.138291e+00 141 136 140
8.465281e-01 -1.740089e-01 2.993609e+00 130 124 128
-4.712120e-02 -1.083570e-01 3.099932e+00 172 173 179
6.517190e-01 -1.477974e-01 3.123271e+00 175 173 180
1.398173e-01 -1.101907e-01 3.060107e+00 149 143 153
-2.657935e-01 -7.696374e-02 3.047719e+00 183 183 195
9.135385e-01 -1.470000e-01 3.158110e+00 153 147 151
9.179694e-01 -1.486892e-01 3.140865e+00 153 147 151
1.053466e+00 -1.498058e-01 3.119261e+00 168 163 167
1.607155e+00 -1.643509e-01 2.940123e+00 80 75 79
1.056076e+00 -1.076000e-01 3.087397e+00 186 183 187
2.855901e+00 -1.809726e-01 2.387977e+00 129 128 136
-3.425044e-01 1.681739e-02 3.067024e+00 67 67 77
3.063932e-01 1.120161e-03 3.153108e+00 60 58 71
-4.527534e-01 2.308314e-01 3.020490e+00 183 181 191
2.615372e-01 1.960185e-01 3.095413e+00 58 59 64
1.091334e-01 2.423289e-01 3.081315e+00 154 151 160
-1.754250e-01 3.226979e-01 3.016564e+00 88 91 101
2.131241e+00 2.421067e-01 2.961588e+00 80 78 81
-6.251206e-01 4.332206e-01 3.137349e+00 115 113 118
1.274283e+00 3.293460e-01 3.185996e+00 111 108 119
-2.464905e-01 4.575579e-01 3.046168e+00 50 50 62
1.038042e+00 4.297967e-01 3.141953e+00 106 101 105
-1.414914e+00 6.431282e-01 2.830484e+00 154 152 157
-5.322270e-01 6.127351e-01 3.016367e+00 163 158 164
-8.357262e-02 5.956645e-01 3.057677e+00 76 72 87
-5.032023e-01 6.466533e-01 2.983899e+00 163 158 164
-1.462463e+00 7.376440e-01 2.815646e+00 114 113 119
-1.858902e+00 7.451511e-01 3.319622e+00 188 188 196
-2.463520e-01 6.830254e-01 3.083963e+00 29 22 29
4.618533e-01 7.773289e-01 3.227736e+00 128 126 131
1.171866e+00 7.618102e-01 3.203262e+00 109 108 113
1.171866e+00 7.618102e-01 3.203262e+00 109 108 113
1.618264e+00 7.614587e-01 3.213739e+00 100 96 97
1.226652e+00 7.961131e-01 3.138530e+00 111 109 113
1.297219e+00 8.520945e-01 3.145607e+00 108 102 104
-4.303786e-01 9.862609e-01 3.060494e+00 99 96 105
1.423356e+00 9.024245e-01 3.126984e+00 166 157 159
1.489383e+00 9.351554e-01 3.220416e+00 168 164 166
2.825886e-01 9.922094e-01 3.243866e+00 99 97 104
1.461887e+00 9.457413e-01 3.212116e+00 100 97 104
2.784937e-01 1.014127e+00 3.132414e+00 90 87 94
1.023345e+00 9.943399e-01 3.273367e+00 95 89 89
1.176288e+00 1.033770e+00 3.279895e+00 186 182 183
-7.116702e-01 1.178764e+00 3.003697e+00 80 79 86
1.760678e+00 1.185386e+00 3.182630e+00 86 81 88
-4.295026e-01 1.891066e+00 3.282843e+00 138 138 140
3.241261e-01 2.024560e+00 3.239043e+00 79 74 80
1.344116e+00 2.120677e+00 3.180646e+00 64 59 65
-1.565781e+00 3.893741e+00 3.472802e+00 162 163 176
-5.530557e-01 4.361986e+00 3.350952e+00 136 148 170
-3.481148e+00 -8.128732e-01 2.125797e+01 37 43 17
-2.844079e+00 -1.059723e+00 1.905641e+01 69 85 72
-1.367074e+00 -1.783277e+00 3.693625e+00 109 103 107
-1.198077e+00 -1.735142e+00 3.714344e+00 125 122 131
-5.204345e-01 -1.657072e+00 3.261029e+00 153 139 138
4.061395e-01 -1.676507e+00 2.841225e+00 78 69 70
4.061395e-01 -1.676507e+00 2.841225e+00 78 69 70
2.699522e-02 -1.425457e+00 3.009737e+00 70 55 52
-4.275665e-01 -1.352968e+00 3.177477e+00 88 79 80
-4.376213e-01 -1.355601e+00 3.203820e+00 88 79 80
-2.483978e-01 -1.293246e+00 3.142778e+00 85 72 69
-3.436494e-01 -1.274989e+00 3.165241e+00 82 70 70
-2.659787e-01 -1.277886e+00 3.157431e+00 151 137 136
2.166747e-01 -1.300560e+00 3.033433e+00 84 73 77
-1.556976e-01 -1.217054e+00 3.157335e+00 128 116 116
-2.350953e-01 -1.209164e+00 3.143905e+00 69 58 56
1.685888e+00 -1.317657e+00 2.482522e+00 83 73 71
-7.563286e-02 -1.081374e+00 3.139977e+00 131 123 121
2.506413e-01 -1.093772e+00 3.033612e+00 182 173 182
-2.171053e+00 -7.217188e-01 3.446328e+00 108 105 114
6.854643e-01 -8.823166e-01 2.987395e+00 61 58 64
-6.557958e-01 -7.646874e-01 3.190503e+00 167 165 170
2.133297e-01 -8.214014e-01 3.073487e+00 83 80 87
-4.038227e-01 -7.567017e-01 3.152210e+00 172 169 177
-2.909758e-01 -7.323271e-01 3.161102e+00 96 91 95
1.204131e+00 -8.152091e-01 2.898704e+00 66 64 71
8.351767e-01 -7.760527e-01 3.030677e+00 98 93 100
9.738481e-01 -7.602917e-01 3.256049e+00 158 151 158
1.523813e+00 -8.017585e-01 2.829656e+00 150 147 150
1.810994e+00 -8.198670e-01 2.703690e+00 172 172 180
4.964720e-01 -6.916787e-01 3.047110e+00 147 136 142
-1.495147e+00 -5.357743e-01 3.197441e+00 153 148 153
2.204870e+00 -8.164920e-01 2.498506e+00 156 150 160
-2.051378e+00 -4.912208e-01 3.294118e+00 99 97 102
2.814629e+00 -8.249059e-01 2.226019e+00 168 166 177
5.065509e-02 -6.132673e-01 3.105029e+00 172 167 171
5.536989e-01 -6.302675e-01 3.082841e+00 84 77 84
5.536989e-01 -6.302675e-01 3.082841e+00 84 77 84
-5.694096e-01 -5.279880e-01 3.143555e+00 149 144 148
9.846460e-01 -6.251350e-01 3.026258e+00 155 146 149
5.525208e-01 -4.869877e-01 3.112321e+00 82 72 80
-4.796003e-02 -4.451714e-01 3.109063e+00 87 77 78
4.274550e-01 -4.740547e-01 3.103351e+00 101 94 101
7.370273e-01 -4.956568e-01 3.087982e+00 60 50 58
2.116348e+00 -5.561925e-01 2.692881e+00 114 111 118
-6.537180e-02 -3.681671e-01 3.045808e+00 136 126 127
-5.149510e-01 -2.649429e-01 3.044082e+00 175 177 189
4.521769e-01 -2.278123e-01 3.129148e+00 128 122 128
1.324477e+00 -2.630696e-01 2.947260e+00 92 91 99
2.896928e-01 1.923840e-01 3.162754e+00 90 91 96
7.513793e-01 1.941945e-01 3.074655e+00 154 149 155
-2.560520e-01 2.724492e-01 3.033708e+00 59 56 65
3.144415e-01 2.462784e-01 3.091100e+00 182 181 187
1.626182e+00 2.236436e-01 3.128479e+00 98 93 97
-1.616948e+00 4.722261e-01 2.788980e+00 87 79 82
-1.187248e+00 4.767136e-01 2.857288e+00 85 75 76
6.799823e-01 3.389884e-01 3.153033e+00 78 73 77
6.353762e-02 3.841117e-01 3.044593e+00 133 132 138
9.891154e-01 4.299929e-01 3.148041e+00 133 132 138
-6.304114e-01 6.167140e-01 2.995847e+00 127 125 130
-1.022275e+00 6.721746e-01 2.920615e+00 111 108 117
-3.054094e-01 6.294079e-01 3.052318e+00 34 29 35
-3.020575e-01 6.188375e-01 3.062651e+00 34 29 35
-1.790784e+00 7.387918e-01 3.312053e+00 177 176 181
1.388380e+00 5.683083e-01 3.185078e+00 142 142 148
-1.767277e-01 6.793060e-01 3.102050e+00 173 171 182
-1.350172e+00 7.586322e-01 3.247990e+00 91 86 90
1.173625e+00 7.104903e-01 3.114607e+00 191 189 193
1.173625e+00 7.104903e-01 3.114607e+00 191 189 193
6.507952e-01 8.679619e-01 3.226404e+00 122 119 126
-1.694264e+00 1.108470e+00 2.795910e+00 78 78 80
-1.345591e+00 1.073593e+00 3.303482e+00 85 84 90
-7.264448e-02 1.037823e+00 3.139513e+00 99 97 102
-4.411223e-01 1.114991e+00 3.225408e+00 145 144 152
-8.879621e-01 1.178990e+00 3.272176e+00 151 150 156
1.590746e-01 1.133055e+00 3.218297e+00 155 156 164
1.590746e-01 1.133055e+00 3.218297e+00 155 156 164
6.749065e-01 1.145387e+00 3.287946e+00 112 110 115
-5.624253e-01 1.882337e+00 3.293323e+00 105 103 106
1.406622e+00 1.998106e+00 3.169798e+00 83 80 87
1.255208e+00 2.038210e+00 3.172772e+00 66 64 69
1.527559e+00 2.039407e+00 3.155912e+00 72 67 73
-8.153941e-01 -1.790720e+00 3.077475e+00 171 159 161
-6.948188e-01 -1.639396e+00 3.328733e+00 173 161 161
3.267747e-01 -1.570842e+00 2.887880e+00 120 110 118
3.941800e-01 -1.454437e+00 2.929806e+00 65 56 57
2.275477e-01 -1.367333e+00 2.988884e+00 122 112 113
1.219293e-01 -1.278092e+00 3.053162e+00 122 113 116
1.642202e+00 -1.423150e+00 2.439913e+00 94 84 83
1.628171e+00 -1.410133e+00 2.450593e+00 145 135 134
3.964549e-01 -1.231655e+00 3.007370e+00 179 177 180
-7.816514e-02 -1.159854e+00 3.115252e+00 61 51 52
1.456699e+00 -1.288254e+00 2.604875e+00 190 185 191
1.487031e+00 -1.281561e+00 2.610377e+00 135 126 129
-2.397702e-01 -8.986092e-01 3.148733e+00 131 121 129
-8.652298e-01 -8.183626e-01 3.239883e+00 73 68 75
-2.992051e-01 -7.912017e-01 3.127129e+00 114 113 119
2.266070e-01 -8.120711e-01 3.091143e+00 158 155 162
