ply
format ascii 1.0
element face 0
property list uchar int vertex_indices
element vertex 943
property float x
property float y
property float z
property uchar diffuse_red
property uchar diffuse_green
property uchar diffuse_blue
end_header
-6.383456e-01 1.247812e+00 2.983463e+00 95 85 68
-3.178175e-01 1.407805e+00 2.985411e+00 179 173 162
-1.361989e+00 1.173866e+00 2.981977e+00 98 85 70
2.925289e+00 -6.430622e-01 3.011895e+00 187 176 166
-8.535711e-02 5.088878e-01 2.987631e+00 197 191 179
-8.535711e-02 5.088878e-01 2.987631e+00 197 191 179
-8.535711e-02 5.088878e-01 2.987631e+00 197 191 179
-1.880389e-01 7.592956e-01 2.991174e+00 176 167 159
1.499305e-02 8.647321e-01 3.003205e+00 159 148 132
-9.567086e-01 6.891561e-01 2.977793e+00 106 97 93
6.808381e-01 1.133462e+00 2.985546e+00 166 157 146
2.081616e-01 1.387520e+00 2.988426e+00 156 146 134
-5.785685e-01 1.233360e+00 2.983372e+00 180 173 167
8.654897e-02 1.402038e+00 2.988208e+00 145 134 125
-2.705899e-01 1.338683e+00 2.985870e+00 146 139 129
-1.358734e+00 1.323980e+00 2.982027e+00 84 75 65
-1.319831e+00 1.343929e+00 2.982135e+00 182 178 166
1.198308e+00 2.588992e+00 2.989256e+00 120 108 90
1.164569e-01 2.674580e+00 2.988336e+00 146 136 127
-9.222661e-01 2.499051e+00 2.983345e+00 100 92 76
-1.511107e+00 2.483414e+00 2.984490e+00 175 170 158
4.673662e-01 4.613113e-01 2.981696e+00 25 21 17
-3.797491e-01 4.566667e-01 2.986063e+00 32 25 16
-1.071143e-01 5.761086e-01 3.000459e+00 37 26 23
1.409681e-01 7.584766e-01 3.010129e+00 26 17 9
-1.910303e-01 1.090449e+00 2.994238e+00 146 129 112
6.979946e-01 1.214510e+00 2.986025e+00 189 185 181
-1.290014e+00 8.608074e-01 2.981505e+00 190 182 171
7.995449e-01 1.305366e+00 2.985749e+00 102 91 81
-4.263985e-01 1.416787e+00 2.985155e+00 190 180 171
-3.821369e-01 1.437150e+00 2.985304e+00 125 110 100
-6.894890e-01 1.414369e+00 2.983685e+00 173 164 154
1.206168e+00 2.462571e+00 2.988953e+00 107 99 81
1.130664e+00 2.591971e+00 2.988959e+00 110 100 83
-1.438367e+00 2.116820e+00 2.985253e+00 162 157 143
-5.173093e-01 2.657825e+00 2.987130e+00 164 159 154
5.580095e-01 1.652121e-01 2.986539e+00 35 21 11
-4.448657e-01 9.262946e-02 2.985450e+00 222 210 205
-4.741575e-01 2.114210e-01 2.985159e+00 197 187 182
4.152663e-01 6.074974e-01 2.977242e+00 55 45 48
4.279264e-01 6.524471e-01 2.975558e+00 38 29 33
-6.435070e-02 5.770555e-01 3.002699e+00 229 223 220
-6.435070e-02 5.770555e-01 3.002699e+00 229 223 220
-3.303183e-01 6.040529e-01 2.987921e+00 41 29 25
-2.680739e-01 7.227518e-01 2.989819e+00 33 20 19
6.833158e-01 1.180691e+00 2.986012e+00 95 89 77
6.395412e-01 1.221549e+00 2.986709e+00 89 81 68
5.937525e-01 1.259364e+00 2.987054e+00 94 85 73
-1.440124e+00 1.339837e+00 2.982097e+00 207 204 197
1.974244e+00 2.410795e+00 2.992768e+00 199 188 182
8.406467e-01 2.601702e+00 2.989331e+00 161 150 141
6.026336e-01 2.610074e+00 2.989102e+00 53 48 40
2.439777e-01 2.630167e+00 2.988648e+00 75 71 59
-1.172741e-01 2.643700e+00 2.988033e+00 80 77 66
3.806997e-02 2.713779e+00 2.988028e+00 91 80 68
-6.419387e-02 2.717371e+00 2.987791e+00 91 83 71
-4.488105e-01 2.727935e+00 2.987012e+00 89 76 66
-6.906180e-01 2.738789e+00 2.986403e+00 70 60 48
-1.364402e+00 2.736929e+00 2.984993e+00 86 75 62
4.611722e-01 8.048780e-02 2.987445e+00 199 190 188
6.110012e-01 1.715622e-01 2.986451e+00 49 39 31
4.121580e-01 3.971069e-01 2.983796e+00 224 215 216
5.983431e-01 1.226581e+00 2.986926e+00 179 169 159
6.772594e-01 1.409070e+00 2.987618e+00 185 178 170
6.540217e-01 2.583262e+00 2.989187e+00 72 67 56
2.441521e-01 2.717694e+00 2.988418e+00 77 70 57
1.551690e-01 2.638100e+00 2.988452e+00 47 34 26
6.094940e-03 -2.292455e+00 3.003877e+00 71 53 39
-8.229721e-02 -1.895132e+00 3.000218e+00 144 128 113
5.897141e-01 2.180927e-01 2.986126e+00 51 41 39
1.604670e-02 5.461865e-01 2.989245e+00 135 119 109
1.604670e-02 5.461865e-01 2.989245e+00 135 119 109
3.485565e-02 8.937717e-01 3.004479e+00 38 28 36
5.602896e-01 1.252914e+00 2.987282e+00 175 162 153
4.856321e-01 1.303598e+00 2.988073e+00 165 151 138
3.011317e-01 1.379977e+00 2.989039e+00 166 154 144
8.052092e-01 2.398936e+00 2.988892e+00 170 167 155
3.320918e-01 2.628561e+00 2.988809e+00 43 34 25
4.825652e-01 2.669975e+00 2.988879e+00 169 154 143
-1.382624e-01 2.666610e+00 2.987854e+00 188 185 180
-9.754329e-01 2.516473e+00 2.983270e+00 104 102 91
-1.449400e+00 2.682736e+00 2.985038e+00 109 96 88
5.282849e-01 8.949254e-01 2.983163e+00 142 122 103
7.979251e-01 1.122498e+00 2.985103e+00 125 116 106
4.836619e-01 2.595645e+00 2.988922e+00 83 71 59
1.122176e+00 2.713938e+00 2.989173e+00 161 144 133
5.346965e-01 2.665293e+00 2.988968e+00 162 145 134
-9.330629e-01 2.626646e+00 2.983903e+00 159 151 136
-1.355737e+00 2.697426e+00 2.985080e+00 171 161 152
-6.005266e-02 5.033231e-01 2.987916e+00 150 138 132
-2.508718e-01 2.668956e+00 2.987563e+00 172 165 151
1.873349e+00 1.951163e+00 2.990722e+00 165 155 145
-1.800979e+00 5.086745e+00 2.991076e+00 104 94 89
2.143384e+00 1.263191e+00 2.993118e+00 194 186 173
-2.406568e+00 5.097370e+00 2.989856e+00 110 100 98
1.589442e+00 8.218171e-01 2.990214e+00 196 188 177
1.686161e+00 1.273007e+00 2.990275e+00 184 177 161
1.098521e+00 1.355706e+00 2.985951e+00 212 209 205
1.573305e+00 1.575091e+00 2.987940e+00 165 164 152
-1.823858e+00 5.196460e+00 2.990862e+00 191 192 187
-1.902863e+00 8.930963e-01 2.983369e+00 177 169 161
2.276566e+00 1.370092e+00 2.994714e+00 192 179 160
2.123553e+00 2.340661e+00 2.993315e+00 119 114 104
-2.454019e+00 2.551534e+00 2.984213e+00 30 27 22
1.788209e+00 2.478169e+00 2.992088e+00 49 42 30
2.125143e+00 2.472198e+00 2.993983e+00 48 39 32
2.280339e+00 1.130620e+00 2.994783e+00 200 192 178
1.491942e+00 1.658516e+00 2.987756e+00 48 42 43
1.532981e+00 2.288450e+00 2.990453e+00 37 30 31
-1.675513e+00 5.074352e+00 2.991118e+00 180 173 167
1.414037e+00 1.109479e+00 2.987707e+00 189 179 170
1.551844e+00 1.132277e+00 2.989433e+00 202 193 176
1.551844e+00 1.132277e+00 2.989433e+00 202 193 176
2.277194e+00 2.338911e+00 2.994092e+00 174 172 159
-1.680627e+00 4.785109e+00 2.991554e+00 163 158 150
-1.733089e+00 5.227935e+00 2.991139e+00 185 182 175
1.647933e+00 1.006603e+00 2.990009e+00 183 175 160
-6.247939e-01 1.322724e+00 2.984186e+00 182 172 162
-2.073196e+00 1.023463e+00 2.983086e+00 155 143 129
-1.995034e+00 1.089714e+00 2.983002e+00 147 139 126
-2.461406e+00 1.336226e+00 2.982527e+00 191 190 182
-1.787280e+00 4.946800e+00 2.990797e+00 175 175 167
1.050456e+00 2.637442e+00 2.988781e+00 188 184 172
-2.331061e+00 4.624968e+00 2.990600e+00 14 19 22
-2.712937e+00 4.855318e+00 2.987676e+00 184 177 174
1.114014e+00 2.463705e+00 2.988585e+00 125 119 102
-1.883133e+00 4.700686e+00 2.990353e+00 56 43 37
-1.469245e+00 5.144012e+00 2.991677e+00 169 163 155
-1.904938e+00 5.147759e+00 2.990645e+00 84 82 77
-1.972977e+00 5.196986e+00 2.990616e+00 89 91 85
-2.331474e+00 5.185072e+00 2.989991e+00 73 72 67
-2.155095e+00 5.115009e+00 2.990491e+00 60 63 54
-1.952982e+00 5.150112e+00 2.990650e+00 180 181 175
1.560183e+00 2.557278e+00 2.991182e+00 172 163 153
1.062102e+00 2.489315e+00 2.988412e+00 95 93 83
-1.501801e+00 5.125984e+00 2.991638e+00 70 73 64
1.325630e+00 2.969690e+00 2.990555e+00 76 67 63
-2.503046e+00 5.302967e+00 2.990013e+00 87 68 65
1.202527e+00 -1.386761e+00 3.005578e+00 191 185 170
-1.897533e+00 1.327064e-01 2.984869e+00 182 177 173
-1.897533e+00 1.327064e-01 2.984869e+00 182 177 173
-1.896479e+00 6.374749e-01 2.982265e+00 144 137 127
-1.572322e+00 8.667992e-01 2.982412e+00 179 170 157
-1.051278e+00 7.217113e-01 2.978067e+00 207 202 198
-1.403358e+00 7.781521e-01 2.982118e+00 186 176 165
2.443880e+00 -1.278820e+00 3.012607e+00 203 197 184
2.372474e+00 -1.143733e+00 3.011457e+00 115 99 83
7.156924e-01 -1.118783e+00 3.001437e+00 105 92 79
-2.306650e+00 -7.524999e-01 2.985906e+00 167 152 139
-2.513501e+00 -7.504991e-01 2.985983e+00 159 147 132
-2.086755e+00 -6.645284e-01 2.985155e+00 171 157 144
-2.086755e+00 -6.645284e-01 2.985155e+00 171 157 144
-2.436034e+00 7.218268e-01 2.983127e+00 190 180 170
-1.538045e+00 1.078737e+00 2.982070e+00 139 130 117
1.869644e+00 -2.648982e+00 3.016886e+00 126 112 93
-2.162374e+00 -2.139923e+00 2.996749e+00 75 53 42
-2.719645e+00 -7.610038e-01 2.986243e+00 171 157 144
-2.719645e+00 -7.610038e-01 2.986243e+00 171 157 144
-2.288621e+00 -6.201603e-01 2.984983e+00 173 163 153
-2.286184e+00 -5.204375e-01 2.984519e+00 173 163 153
2.207281e+00 6.776026e-01 2.995401e+00 97 79 63
-9.672330e-01 4.544589e-01 2.978560e+00 198 192 184
-1.972371e+00 6.764595e-01 2.982454e+00 203 196 190
-2.132015e+00 7.813335e-01 2.982757e+00 194 188 177
-8.554451e-01 9.174072e-01 2.977104e+00 204 196 187
1.266053e+00 -1.367406e+00 3.006415e+00 208 202 196
1.007517e+00 -1.352644e+00 3.004490e+00 199 192 182
8.947000e-01 -7.084493e-01 3.000390e+00 177 171 160
1.166705e+00 -6.956996e-01 3.002708e+00 181 174 163
1.033211e+00 -5.825775e-01 3.002001e+00 180 167 149
-9.567086e-01 6.891561e-01 2.977793e+00 106 97 93
-1.513008e+00 7.816724e-01 2.982193e+00 193 186 175
2.399346e+00 1.360124e+00 2.995495e+00 189 179 157
-2.471373e+00 1.128698e+00 2.982680e+00 186 178 167
-2.305491e+00 -2.057630e+00 2.996092e+00 156 148 134
-2.127719e+00 -7.188281e-01 2.985500e+00 175 163 151
7.368229e-01 -6.254941e-01 2.998789e+00 62 46 34
-2.788513e+00 -6.226519e-01 2.985471e+00 44 26 23
-2.119008e+00 -4.616115e-01 2.983873e+00 66 50 43
-1.509849e+00 -4.140678e-01 2.983317e+00 44 25 18
-2.939954e+00 -4.066958e-01 2.984278e+00 147 135 121
-2.403013e+00 3.333695e-01 2.984997e+00 159 154 143
2.886990e-01 7.050877e-01 3.009595e+00 192 182 177
2.473137e+00 1.228431e+00 2.996223e+00 172 163 146
-1.793494e+00 8.973162e-01 2.983060e+00 168 161 142
4.798115e-01 1.394632e+00 2.988128e+00 181 172 163
4.798115e-01 1.394632e+00 2.988128e+00 181 172 163
-3.178175e-01 1.407805e+00 2.985411e+00 179 173 162
8.978604e-01 -5.962876e-01 3.000464e+00 170 154 143
1.225778e+00 -5.727744e-01 3.003053e+00 43 28 20
-2.992029e+00 -3.392498e-01 2.983978e+00 134 123 116
1.193302e+00 6.623796e-01 2.996542e+00 107 100 92
-2.461540e+00 4.353661e-01 2.984334e+00 179 171 158
1.548778e+00 1.285195e+00 2.988493e+00 101 91 72
-1.418257e+00 9.563637e-01 2.981908e+00 105 92 75
-2.064068e+00 9.854666e-01 2.983130e+00 67 56 42
-1.524822e+00 1.044448e+00 2.981905e+00 110 96 83
-1.638600e+00 1.118519e+00 2.981968e+00 107 89 75
-1.840847e+00 1.316906e+00 2.982109e+00 201 191 182
-1.546371e+00 1.412850e+00 2.982082e+00 186 177 168
2.052348e+00 -5.531534e-01 3.006008e+00 56 36 26
-1.457932e+00 -3.825801e-01 2.983022e+00 40 20 11
3.749363e-01 3.528713e-01 2.984474e+00 195 189 178
2.272108e+00 5.935238e-01 2.996147e+00 128 115 98
-2.912848e-01 6.155573e-01 2.987452e+00 208 203 200
1.896718e+00 8.964929e-01 2.991845e+00 79 65 51
-1.293542e+00 7.975647e-01 2.981695e+00 105 92 76
2.161575e-02 1.113723e+00 3.002004e+00 154 144 127
-1.368281e+00 9.065856e-01 2.981767e+00 103 90 74
-1.719394e+00 9.004705e-01 2.982731e+00 82 70 54
-2.474404e+00 8.146852e-01 2.983017e+00 109 98 85
-2.826040e+00 7.238261e-01 2.981058e+00 104 99 95
-1.466017e+00 1.002905e+00 2.981854e+00 108 97 80
-2.400867e+00 9.204819e-01 2.982815e+00 102 92 75
-2.396566e+00 9.725004e-01 2.982490e+00 185 176 160
-1.722317e+00 1.094224e+00 2.982398e+00 90 73 58
-2.141914e+00 1.032406e+00 2.982606e+00 184 177 164
-2.085525e+00 1.069518e+00 2.982712e+00 91 77 64
-2.347198e+00 1.023896e+00 2.982423e+00 186 178 163
-1.866274e+00 1.376819e+00 2.982531e+00 111 102 87
-1.866274e+00 1.376819e+00 2.982531e+00 111 102 87
2.490749e+00 -1.591372e+00 3.014796e+00 199 191 179
8.059836e-01 -9.798147e-01 3.000680e+00 44 30 20
5.790851e-01 1.449463e-01 2.986842e+00 191 180 168
6.742448e-01 4.537672e-01 2.982049e+00 165 155 133
2.083609e+00 7.079354e-01 2.994636e+00 200 193 180
8.425391e-01 7.229789e-01 2.985500e+00 101 89 75
2.140894e+00 9.118858e-01 2.994104e+00 106 97 83
2.388228e+00 9.913978e-01 2.996387e+00 97 91 77
-1.615292e+00 1.151948e+00 2.981806e+00 180 171 154
-2.577601e-01 1.384319e+00 2.986463e+00 98 92 80
-1.585880e+00 1.167973e+00 2.981687e+00 89 82 69
-2.437665e+00 1.073968e+00 2.982625e+00 144 134 125
-2.220361e+00 1.119097e+00 2.982280e+00 189 176 161
-2.220361e+00 1.119097e+00 2.982280e+00 189 176 161
2.819277e-01 -2.631488e+00 3.007836e+00 43 28 21
-1.845528e+00 -2.145948e+00 2.997166e+00 151 137 114
7.791252e-01 -1.188558e+00 3.001790e+00 139 127 113
-2.748247e+00 -5.880467e-01 2.985246e+00 132 117 112
5.542321e-01 2.046752e-01 2.986114e+00 194 184 182
-1.892359e-01 6.896041e-01 2.989317e+00 186 178 175
-2.921456e-02 7.816473e-01 2.996877e+00 28 18 11
2.177264e+00 1.114386e+00 2.994079e+00 180 166 152
2.223257e+00 1.146071e+00 2.994403e+00 209 206 195
1.640250e+00 1.135322e+00 2.989491e+00 100 91 80
1.792036e+00 1.209102e+00 2.990684e+00 102 91 78
6.676151e-01 1.240603e+00 2.986256e+00 197 188 179
-1.515304e+00 1.054722e+00 2.981947e+00 104 90 77
-5.614296e-01 1.198051e+00 2.983544e+00 94 87 79
-5.709517e-01 1.422780e+00 2.984336e+00 197 187 180
1.815516e+00 2.081632e-01 2.994940e+00 167 158 141
-1.069896e+00 -4.970131e-02 2.980559e+00 151 138 122
2.529962e+00 1.301264e+00 2.996585e+00 104 99 82
-1.831332e+00 1.173200e+00 2.982370e+00 139 130 113
-2.623274e+00 1.214830e+00 2.982803e+00 173 165 154
4.278494e-01 -2.852674e+00 3.010308e+00 120 107 90
1.714015e+00 -1.161575e+00 3.007817e+00 112 96 82
9.660530e-01 -9.808095e-01 3.002351e+00 68 53 45
-1.532918e-01 -2.498152e+00 3.004803e+00 166 154 132
1.612506e+00 -1.004395e+00 3.006219e+00 164 151 134
-4.741575e-01 2.114210e-01 2.985159e+00 197 187 182
4.224581e-01 2.734715e-01 2.985754e+00 202 195 192
1.859809e+00 -1.033673e+00 3.007628e+00 71 57 44
8.646706e-01 -1.030635e+00 3.001629e+00 190 181 173
-2.188534e+00 1.304425e+00 2.981818e+00 195 185 175
-1.988775e+00 1.352641e+00 2.982067e+00 198 191 181
-1.400628e+00 1.507036e+00 2.981688e+00 124 112 99
-1.611883e+00 2.328143e+00 2.984678e+00 17 14 17
-1.512564e+00 2.481156e+00 2.984602e+00 176 170 159
2.114682e+00 -8.157674e-01 3.007792e+00 185 177 166
-2.377085e+00 9.581723e-01 2.982419e+00 134 127 109
-1.483100e+00 1.383788e+00 2.982189e+00 184 175 168
1.788690e+00 2.102868e+00 2.991158e+00 186 178 168
-1.074072e+00 2.302392e+00 2.982976e+00 190 181 172
1.067246e+00 2.261842e+00 2.987982e+00 181 173 162
-2.253787e+00 2.451447e+00 2.983838e+00 169 168 160
-1.877466e+00 2.472366e+00 2.984223e+00 174 170 159
2.339394e+00 -8.683712e-01 3.009397e+00 195 185 173
-2.741357e+00 1.010030e+00 2.980864e+00 76 67 58
-1.442473e+00 1.143120e+00 2.981524e+00 193 185 178
-2.363431e+00 2.400875e+00 2.984105e+00 38 28 27
1.783608e+00 2.358494e+00 2.991626e+00 83 75 67
-1.701670e+00 2.553784e+00 2.984721e+00 37 29 26
-1.701670e+00 2.553784e+00 2.984721e+00 37 29 26
-2.080726e+00 2.545188e+00 2.984420e+00 38 33 27
-2.080726e+00 2.545188e+00 2.984420e+00 38 33 27
-2.454019e+00 2.551534e+00 2.984213e+00 30 27 22
-2.454019e+00 2.551534e+00 2.984213e+00 30 27 22
-1.789936e+00 2.642573e+00 2.984561e+00 145 134 125
-1.926269e+00 5.017423e+00 2.990547e+00 154 146 143
2.944670e+00 -1.022359e+00 3.014387e+00 190 187 182
1.835183e+00 -9.830138e-01 3.007006e+00 177 167 147
2.870344e+00 -9.697093e-01 3.013318e+00 74 57 49
1.994675e+00 -5.639473e-01 3.005949e+00 177 163 144
-2.812510e+00 3.186326e-01 2.981923e+00 205 202 197
1.920185e+00 4.480130e-01 2.994672e+00 198 191 181
-1.082144e+00 1.460422e+00 2.979776e+00 197 187 175
-2.262589e+00 2.357809e+00 2.984082e+00 200 194 182
-1.992646e+00 2.419127e+00 2.984419e+00 74 61 54
-1.992646e+00 2.419127e+00 2.984419e+00 74 61 54
-2.449301e+00 2.428741e+00 2.984032e+00 178 170 159
-2.543034e+00 2.422045e+00 2.984201e+00 57 45 41
-1.695618e+00 2.435174e+00 2.984479e+00 189 185 174
-1.324197e+00 2.448058e+00 2.984907e+00 177 168 161
1.617208e+00 2.347499e+00 2.990586e+00 200 193 180
1.152233e+00 2.512805e+00 2.988743e+00 182 173 164
-9.683744e-01 2.642838e+00 2.983763e+00 148 140 127
2.981637e+00 -7.359655e-01 3.012678e+00 89 74 56
2.574963e+00 -6.720933e-01 3.009558e+00 196 187 179
1.473251e+00 1.147302e+00 2.988129e+00 103 87 70
1.612583e+00 2.268578e+00 2.990447e+00 155 145 136
1.866325e+00 2.320184e+00 2.992178e+00 77 68 61
1.866325e+00 2.320184e+00 2.992178e+00 77 68 61
-2.358680e+00 2.619959e+00 2.984131e+00 160 153 145
1.624657e+00 2.521687e+00 2.991472e+00 38 31 20
-1.922231e+00 5.221737e+00 2.990574e+00 182 177 177
2.266189e+00 -9.780190e-01 3.009475e+00 31 20 18
1.945121e+00 -9.894426e-01 3.007838e+00 105 89 75
2.982270e+00 -9.571390e-01 3.014068e+00 92 77 64
2.406223e+00 -8.703394e-01 3.009729e+00 84 71 62
1.641702e+00 -5.992820e-01 3.004416e+00 177 164 151
-9.573439e-01 5.267989e-01 2.977872e+00 192 184 177
-1.341090e+00 1.071812e+00 2.981989e+00 140 134 122
-1.319831e+00 1.343929e+00 2.982135e+00 182 178 166
-2.265929e+00 2.258993e+00 2.983794e+00 191 187 180
-1.772481e+00 2.515901e+00 2.984376e+00 142 135 129
-1.626198e+00 2.519526e+00 2.984627e+00 181 173 164
-1.030262e+00 2.501111e+00 2.983177e+00 110 107 87
2.678716e+00 2.395153e+00 2.997651e+00 142 140 127
2.664704e+00 2.441922e+00 2.997426e+00 60 52 40
1.802559e-02 2.672655e+00 2.988020e+00 106 100 88
1.952148e+00 -7.627617e-01 3.006746e+00 90 75 67
2.857648e+00 -7.087283e-01 3.011804e+00 211 201 201
2.676420e+00 -6.720069e-01 3.010139e+00 170 157 144
-4.114485e-01 7.121659e-02 2.985680e+00 210 197 185
-4.700033e-01 1.223628e-01 2.985184e+00 58 49 56
-1.184619e-01 4.800907e-01 2.987648e+00 33 23 22
-1.503698e-01 7.699386e-01 2.992188e+00 17 7 2
-1.737134e+00 9.438031e-01 2.983220e+00 161 153 142
-1.727498e+00 9.882485e-01 2.982803e+00 64 55 38
1.717532e+00 9.432145e-01 2.989887e+00 89 79 64
1.770529e+00 1.013092e+00 2.990299e+00 77 63 45
1.784529e+00 1.046664e+00 2.990318e+00 146 138 119
1.955908e+00 2.387267e+00 2.992734e+00 189 181 168
2.295573e+00 2.384991e+00 2.994893e+00 188 181 171
-1.548486e+00 2.578295e+00 2.984820e+00 187 178 174
-2.185655e+00 2.615167e+00 2.984176e+00 180 173 163
1.544778e+00 2.528926e+00 2.990973e+00 172 165 150
2.040477e+00 2.511485e+00 2.993420e+00 172 164 158
2.218908e+00 2.510749e+00 2.994532e+00 180 173 158
2.218908e+00 2.510749e+00 2.994532e+00 180 173 158
1.826598e+00 2.553895e+00 2.992309e+00 157 150 138
2.568048e+00 -1.007833e+00 3.011694e+00 88 73 67
1.927595e+00 -7.357267e-01 3.006485e+00 207 198 192
1.951435e+00 -7.047004e-01 3.006004e+00 71 57 41
1.901935e+00 -6.984260e-01 3.006254e+00 126 113 102
-2.060395e+00 8.128572e-01 2.982871e+00 181 177 168
1.862885e+00 8.709509e-01 2.991650e+00 189 185 170
1.356048e+00 1.092636e+00 2.987426e+00 139 128 116
2.226886e+00 1.115627e+00 2.994520e+00 94 89 70
-1.952899e+00 2.526899e+00 2.984286e+00 115 102 87
1.104726e+00 2.420001e+00 2.988419e+00 175 166 155
2.352460e+00 2.422059e+00 2.995304e+00 83 73 63
1.916395e+00 2.476517e+00 2.992782e+00 205 184 189
1.589220e+00 2.522193e+00 2.991275e+00 41 22 20
2.092696e+00 2.545846e+00 2.993756e+00 161 151 142
-5.526996e-01 2.728867e+00 2.986766e+00 89 77 61
-1.382382e+00 5.103141e+00 2.991767e+00 174 167 161
-2.256594e+00 5.103136e+00 2.990240e+00 180 178 168
-4.013487e-01 4.981199e-02 2.985680e+00 183 175 165
1.857618e+00 9.066100e-01 2.991449e+00 180 175 165
-2.282775e+00 1.074444e+00 2.982276e+00 189 179 167
1.635823e+00 1.069669e+00 2.989681e+00 107 94 75
2.403557e+00 1.628190e+00 2.994853e+00 65 56 59
2.206637e+00 1.978244e+00 2.993544e+00 18 8 16
-2.082552e+00 2.432670e+00 2.984116e+00 200 191 182
1.585523e+00 2.389643e+00 2.990746e+00 69 61 43
1.649023e+00 2.392816e+00 2.991088e+00 61 53 43
2.257925e+00 2.375921e+00 2.994451e+00 74 68 51
1.639301e+00 2.421598e+00 2.991163e+00 187 178 166
-2.151070e+00 2.564201e+00 2.984249e+00 84 74 68
-1.600052e+00 2.583875e+00 2.984631e+00 117 107 95
1.707781e+00 2.554786e+00 2.991736e+00 57 44 36
2.455931e+00 2.538203e+00 2.996015e+00 60 51 41
-1.872458e+00 -5.285258e-01 2.984240e+00 169 160 148
-2.335376e+00 1.136709e+00 2.982402e+00 200 192 182
-1.412117e+00 2.425219e+00 2.985041e+00 61 48 42
-1.701670e+00 2.553784e+00 2.984721e+00 37 29 26
-2.153320e+00 2.514755e+00 2.984200e+00 158 154 143
-2.323998e+00 2.758226e+00 2.984165e+00 135 123 117
2.079359e+00 1.223785e+00 2.992854e+00 210 207 196
-1.585731e+00 1.136836e+00 2.981833e+00 175 165 152
2.117225e+00 -1.411038e+00 3.011396e+00 104 91 78
1.041133e-01 7.686116e-01 3.006236e+00 196 184 169
2.044537e+00 1.178025e+00 2.992873e+00 173 156 141
-1.637126e+00 2.647840e+00 2.984676e+00 188 177 169
-1.762746e+00 2.646814e+00 2.984539e+00 181 174 164
-9.723801e-01 2.796750e+00 2.983836e+00 72 59 48
-2.398613e+00 2.637794e+00 2.984200e+00 182 179 165
2.471947e+00 1.734251e+00 2.995620e+00 51 48 48
1.919301e+00 2.382521e+00 2.992384e+00 77 73 55
2.530498e+00 1.694447e+00 2.995961e+00 71 60 69
5.939171e-01 2.763026e-01 2.985742e+00 55 44 56
-8.685618e-01 2.562216e+00 2.983185e+00 172 166 154
3.141632e+00 -2.379662e+00 3.024336e+00 185 183 171
1.066458e+00 -9.802092e-01 3.002960e+00 84 65 52
1.250320e+00 -6.612729e-01 3.002980e+00 50 32 21
1.141627e+00 2.346079e+00 2.988222e+00 116 108 97
-1.833618e+00 5.014693e+00 2.990515e+00 66 60 57
1.682121e-01 4.484058e-01 2.986496e+00 190 182 176
2.039200e-01 4.814090e-01 2.985416e+00 35 26 32
3.946952e-01 4.794313e-01 2.961914e+00 185 177 169
3.060811e+00 -2.248329e+00 3.023069e+00 67 51 49
3.060811e+00 -2.248329e+00 3.023069e+00 67 51 49
7.117275e-01 -1.012999e+00 3.000093e+00 71 53 44
4.142882e-01 3.616446e-01 2.984023e+00 24 16 14
4.289552e-01 4.233999e-01 2.982775e+00 44 30 38
-6.083745e-01 5.828942e-01 2.989541e+00 192 183 173
1.118903e-01 5.955551e-01 2.984673e+00 216 207 202
-1.859655e+00 8.744695e-01 2.983031e+00 78 70 56
3.290283e+00 2.344048e+00 3.002401e+00 127 135 137
3.266892e+00 2.926497e+00 3.002585e+00 110 118 120
3.266892e+00 2.926497e+00 3.002585e+00 110 118 120
-2.474898e+00 3.749302e-01 2.984561e+00 127 114 100
2.774711e+00 1.566031e+00 2.998676e+00 89 77 60
2.835445e+00 2.755501e+00 2.999051e+00 136 126 117
-2.354103e+00 5.035216e+00 2.989986e+00 178 175 168
-1.612295e+00 2.553907e+00 2.984705e+00 181 169 160
-3.776544e-02 4.945068e-01 2.987770e+00 146 132 129
2.638358e-01 2.649921e+00 2.988562e+00 196 189 181
-1.662144e+00 2.658756e+00 2.984755e+00 182 173 164
-1.584197e+00 2.961994e+00 2.985117e+00 59 52 42
-1.568294e+00 2.980164e+00 2.985123e+00 163 148 141
2.807193e+00 2.561146e+00 2.998604e+00 165 162 153
-1.555648e+00 3.897291e-01 2.984523e+00 60 57 64
2.529517e+00 -1.414609e+00 3.013710e+00 187 173 161
-2.188534e+00 1.304425e+00 2.981818e+00 195 185 175
-9.694155e-01 1.333886e+00 2.979838e+00 203 197 181
1.399546e+00 1.219632e+00 2.987593e+00 137 123 113
7.611480e-01 2.758886e-01 2.987771e+00 159 149 136
-2.224151e+00 8.765993e-01 2.982627e+00 196 186 176
-1.245052e+00 1.228632e+00 2.980201e+00 170 158 146
2.725378e+00 -1.732654e+00 3.016937e+00 185 175 165
2.690396e+00 -8.914639e-01 3.011875e+00 166 150 135
2.143592e+00 -2.746517e+00 3.019392e+00 15 9 13
2.799505e+00 6.491454e-01 3.002509e+00 206 203 198
1.916087e+00 9.682439e-01 2.991638e+00 169 158 145
-1.411254e+00 1.647108e+00 2.983414e+00 223 218 206
3.146453e+00 1.444151e+00 3.001171e+00 107 100 84
-2.080169e+00 2.139630e+00 2.983931e+00 186 184 174
-1.450835e+00 4.006702e+00 2.991516e+00 19 14 21
3.141632e+00 -2.379662e+00 3.024336e+00 185 183 171
3.249036e+00 -2.315135e+00 3.024581e+00 77 66 48
-1.658164e+00 -5.457616e-01 2.984420e+00 184 173 159
2.805039e+00 -6.861171e-01 3.011045e+00 183 172 160
3.059103e+00 -6.585363e-01 3.012860e+00 195 187 174
3.127335e+00 -5.741369e-01 3.012198e+00 66 49 34
6.301113e-01 4.265632e-01 2.982903e+00 55 45 54
9.153931e-01 5.100043e-01 2.989514e+00 128 115 99
-1.912074e+00 1.014789e+00 2.983282e+00 152 138 125
2.459865e+00 2.466023e+00 2.996193e+00 37 26 25
3.197867e+00 2.814030e+00 3.001623e+00 151 146 139
-1.221718e+00 4.957984e+00 2.991429e+00 142 138 131
1.626939e+00 -2.827448e+00 3.016891e+00 150 138 120
2.110606e+00 -1.068500e+00 3.009465e+00 146 141 137
1.409207e+00 -9.580695e-01 3.004776e+00 159 143 128
2.797834e+00 2.491984e+00 2.998504e+00 185 179 170
2.812483e+00 2.558740e+00 2.998498e+00 158 155 146
-1.209222e+00 4.871670e+00 2.991560e+00 167 162 157
-2.544955e+00 1.258022e+00 2.982920e+00 178 166 152
-1.999476e+00 -2.098689e+00 2.996800e+00 153 137 124
3.039518e+00 -8.931761e-01 3.014279e+00 187 183 171
3.064646e+00 -5.349799e-01 3.012255e+00 169 152 139
2.545947e+00 4.228605e-01 3.000019e+00 179 173 159
-6.383456e-01 1.247812e+00 2.983463e+00 95 85 68
2.454180e+00 1.161179e+00 2.996335e+00 107 91 75
1.152929e+00 -9.193925e-01 3.003182e+00 167 157 141
-2.741357e+00 1.010030e+00 2.980864e+00 76 67 58
1.690820e+00 -5.664625e-01 3.004437e+00 43 24 18
-1.424760e+00 4.914415e+00 2.992295e+00 106 96 86
-2.171076e+00 -7.635644e-01 2.985757e+00 58 38 30
-2.461487e+00 1.335955e+00 2.982550e+00 191 190 182
1.084336e+00 -2.099404e-01 3.002236e+00 175 161 146
4.925400e-01 6.264953e-02 2.987250e+00 198 189 182
-2.053185e+00 1.069340e+00 2.983057e+00 145 133 120
-1.784598e+00 3.539929e-01 2.983786e+00 98 85 74
3.682507e-01 4.321984e-01 2.983575e+00 45 30 28
-6.167535e-02 1.504441e+00 2.987266e+00 146 134 123
1.907518e+00 -1.031906e+00 3.007820e+00 78 64 56
1.027737e-01 4.564063e-01 2.999024e+00 36 23 15
8.708222e-02 5.432424e-01 2.989329e+00 34 20 10
7.808639e-01 1.107848e+00 2.985241e+00 185 175 159
1.536061e+00 2.563315e+00 2.991053e+00 56 43 32
-8.728526e-01 5.730712e+00 2.993791e+00 64 84 82
-4.663286e-01 1.373303e+00 2.983677e+00 181 172 165
2.790598e+00 -9.164115e-01 3.012285e+00 140 125 109
2.114682e+00 -8.157674e-01 3.007792e+00 185 177 166
1.868805e+00 -7.005373e-01 3.005687e+00 189 179 166
2.922265e+00 -5.336540e-01 3.011315e+00 160 146 130
1.426144e+00 -6.938936e-01 3.003063e+00 172 164 152
1.473251e+00 1.147302e+00 2.988129e+00 103 87 70
2.711109e+00 -3.226884e+00 3.026670e+00 149 136 118
2.708073e+00 -1.231124e+00 3.013929e+00 185 177 166
2.899037e+00 -1.184484e+00 3.014888e+00 90 77 60
9.379545e-01 -1.139628e+00 3.003049e+00 85 65 55
2.584856e+00 -9.016360e-01 3.011150e+00 183 170 161
-2.700564e+00 -4.397575e-01 2.984407e+00 145 132 124
2.782658e+00 -5.114362e-01 3.010010e+00 47 33 24
1.499305e-02 8.647321e-01 3.003205e+00 159 148 132
2.621724e+00 -3.013338e+00 3.024456e+00 151 142 127
2.832542e+00 -2.845436e+00 3.025011e+00 60 42 31
1.403382e+00 -5.442165e-01 3.003223e+00 43 22 17
2.743758e+00 -4.803072e-01 3.009550e+00 140 120 96
6.105323e-02 8.285934e-01 3.004917e+00 202 193 184
2.438359e+00 8.299689e-01 2.997373e+00 105 91 75
2.076238e+00 9.743507e-01 2.993049e+00 159 149 139
1.713878e+00 9.773006e-01 2.990348e+00 147 138 123
1.991105e+00 1.046972e+00 2.992054e+00 145 137 119
3.090783e+00 -2.220786e+00 3.023041e+00 202 196 187
-1.589501e-02 -2.569291e+00 3.006039e+00 115 99 81
-6.666795e-01 1.019497e+00 2.982557e+00 164 155 139
2.778428e+00 2.856221e+00 2.998571e+00 206 198 191
-6.284761e-01 1.072906e+00 2.982880e+00 168 156 144
2.280656e+00 1.324795e+00 2.994492e+00 207 200 189
1.875595e+00 2.605785e+00 2.992623e+00 157 145 128
-3.912451e-01 1.221384e-01 2.984470e+00 55 47 60
3.240163e+00 2.235661e+00 3.002148e+00 248 254 254
2.707437e+00 -3.099527e+00 3.025841e+00 155 140 122
2.311344e+00 -9.558137e-01 3.009373e+00 157 145 132
-3.505033e-01 4.866399e-01 2.986096e+00 196 187 180
1.412866e-01 5.645765e-01 2.989089e+00 216 207 202
3.197291e+00 -2.287405e+00 3.024193e+00 157 139 134
4.636312e-01 5.162990e-01 2.979620e+00 62 48 55
1.857989e+00 8.361535e-01 2.991610e+00 86 76 61
7.920312e-01 1.052185e+00 2.984980e+00 90 81 68
2.781945e+00 2.317419e+00 2.998305e+00 94 79 75
3.181499e+00 -2.262448e+00 3.023926e+00 86 74 68
2.867486e+00 -1.744875e-01 3.008195e+00 85 73 60
1.985932e+00 2.383909e+00 2.992830e+00 69 59 56
3.265319e+00 2.808121e+00 3.002342e+00 247 252 249
2.073576e+00 9.270492e-01 2.993118e+00 84 71 56
2.799977e+00 -7.930008e-01 3.011764e+00 159 151 131
7.896805e-01 -5.752837e-01 2.999702e+00 170 158 142
-1.361989e+00 1.173866e+00 2.981977e+00 98 85 70
-2.280319e+00 -2.195286e+00 2.997022e+00 111 92 78
2.778071e+00 -8.634370e-01 3.012172e+00 178 169 150
2.114848e+00 -7.363553e-01 3.007334e+00 142 131 121
4.080045e-01 5.232124e-01 2.981538e+00 196 186 174
1.742216e+00 1.063376e+00 2.990033e+00 97 83 66
2.311045e+00 1.085113e+00 2.995331e+00 197 190 178
2.850787e+00 1.564592e+00 2.999444e+00 83 75 60
2.119633e+00 -1.025937e+00 3.008984e+00 98 92 81
2.574392e+00 -9.655447e-01 3.011484e+00 103 94 79
1.411417e+00 3.340660e-01 2.990483e+00 97 89 70
2.611336e+00 5.534638e-01 3.000091e+00 176 167 149
2.573455e+00 6.686353e-01 2.999227e+00 184 173 158
2.573455e+00 6.686353e-01 2.999227e+00 184 173 158
2.547381e+00 7.309993e-01 2.998737e+00 177 166 152
1.382337e+00 8.380863e-01 2.988886e+00 186 178 161
1.490939e+00 9.821496e-01 2.989065e+00 192 184 170
2.131441e+00 9.618337e-01 2.993855e+00 107 95 76
2.302166e+00 1.025501e+00 2.995338e+00 183 167 153
2.257492e+00 1.060706e+00 2.994900e+00 182 169 149
2.267338e+00 1.087860e+00 2.994973e+00 106 98 82
-2.321489e+00 2.719572e+00 2.984177e+00 89 76 63
-2.463984e-01 -2.519107e+00 3.004604e+00 102 85 65
1.979659e+00 -2.521456e+00 3.016593e+00 166 149 132
2.509033e+00 -1.033708e+00 3.011514e+00 131 120 117
2.126570e+00 -7.682643e-01 3.007680e+00 204 191 182
2.500827e+00 -7.493159e-01 3.009559e+00 82 71 53
2.475720e+00 8.445414e-01 2.997552e+00 181 168 152
1.450993e+00 1.059760e+00 2.988375e+00 150 141 130
1.397200e+00 1.058940e+00 2.987749e+00 137 131 119
2.368014e+00 1.040702e+00 2.995852e+00 205 201 188
2.078759e+00 1.078920e+00 2.993053e+00 155 144 125
2.387745e+00 1.059813e+00 2.996125e+00 140 130 121
1.426814e+00 1.301960e+00 2.987963e+00 178 171 153
-1.946953e+00 2.725728e+00 2.984388e+00 91 81 66
1.639301e+00 2.421598e+00 2.991163e+00 187 178 166
2.239425e+00 2.423283e+00 2.994370e+00 63 56 40
1.509679e+00 7.102097e-01 2.989825e+00 187 180 164
1.994675e+00 -5.639473e-01 3.005949e+00 177 163 144
2.389409e+00 5.031357e-01 2.997578e+00 145 129 111
-3.156912e-01 9.875484e-01 2.991596e+00 34 22 12
2.401731e+00 1.315070e+00 2.995497e+00 192 186 180
8.739807e-01 5.684124e-01 2.987895e+00 100 92 80
-2.012908e+00 1.058400e+00 2.983068e+00 69 56 43
2.547381e+00 7.309993e-01 2.998737e+00 177 166 152
2.421290e+00 1.060531e+00 2.996255e+00 144 138 125
1.014357e-01 5.258527e-01 2.988512e+00 134 121 106
2.494562e+00 8.180335e-01 2.997877e+00 179 167 153
1.704519e+00 1.992903e+00 2.990298e+00 149 139 130
-1.506053e+00 2.689067e+00 2.984815e+00 152 140 130
3.915456e-02 1.528524e+00 2.987541e+00 84 75 63
2.855367e+00 2.397194e+00 2.998881e+00 173 167 160
-2.202277e+00 2.493545e+00 2.984121e+00 191 184 173
-1.504129e+00 5.039617e+00 2.991910e+00 55 48 39
-2.131130e+00 1.226668e+00 2.982088e+00 208 205 194
-2.077969e+00 2.640182e+00 2.984422e+00 112 106 92
-1.955332e+00 2.648643e+00 2.984405e+00 172 166 152
-1.400821e+00 2.480379e+00 2.984899e+00 126 115 98
-6.655343e-01 1.122847e+00 2.982364e+00 183 173 164
2.210034e+00 2.543783e+00 2.994514e+00 50 36 24
1.544778e+00 2.528926e+00 2.990973e+00 172 165 150
3.261888e+00 2.763848e+00 3.002271e+00 242 240 239
2.881342e+00 2.475962e+00 2.999116e+00 205 203 191
3.320918e-01 2.628561e+00 2.988809e+00 43 34 25
2.889834e+00 9.369642e-01 3.001937e+00 136 132 123
-1.857691e+00 9.253031e-01 2.982890e+00 184 177 166
1.305892e-01 2.633747e+00 2.988321e+00 171 164 155
1.560183e+00 2.557278e+00 2.991182e+00 172 163 153
-1.507412e+00 2.963412e+00 2.985230e+00 62 54 50
2.512733e+00 2.398388e+00 2.996303e+00 149 140 135
2.380510e+00 2.539190e+00 2.995669e+00 45 34 25
2.354633e+00 -2.709999e+00 3.020314e+00 25 13 6
2.260009e+00 2.344946e+00 2.994524e+00 173 167 153
3.188321e+00 2.279457e+00 3.001455e+00 248 247 245
1.449157e+00 2.370205e+00 2.990266e+00 67 61 49
-3.145671e-01 3.031696e-01 2.985487e+00 200 190 174
2.675063e+00 2.943013e+00 2.998137e+00 78 71 71
5.403456e-01 -1.989197e+00 3.004507e+00 153 138 118
2.800910e+00 1.376850e+00 2.999260e+00 209 205 202
2.799977e+00 -7.930008e-01 3.011764e+00 159 151 131
8.711764e-01 1.307340e+00 2.985417e+00 165 153 137
2.983188e+00 -2.783641e+00 3.026004e+00 175 170 157
9.490647e-01 -1.287413e+00 3.003494e+00 142 126 110
2.850542e+00 -1.230548e+00 3.014925e+00 165 156 141
2.672782e+00 -5.473677e-01 3.009520e+00 172 155 138
2.501660e+00 5.746174e-01 2.998780e+00 169 161 143
2.399235e+00 1.119453e+00 2.995929e+00 184 175 160
7.434659e-01 2.452422e+00 2.988622e+00 166 165 154
2.291093e+00 2.500935e+00 2.994942e+00 39 29 24
4.225022e-01 2.580575e+00 2.988918e+00 38 28 25
-1.354941e+00 5.606278e+00 2.992312e+00 82 79 76
9.591383e-01 -1.198642e+00 3.003162e+00 106 90 80
9.591383e-01 -1.198642e+00 3.003162e+00 106 90 80
6.819986e-01 -5.787082e-01 2.998798e+00 184 169 157
2.782658e+00 -5.114362e-01 3.010010e+00 47 33 24
2.580010e+00 1.273505e+00 2.997223e+00 169 155 146
2.786134e+00 2.332832e+00 2.998224e+00 111 98 92
2.786134e+00 2.332832e+00 2.998224e+00 111 98 92
1.056703e+00 2.351818e+00 2.987699e+00 123 110 97
2.628043e+00 -3.229436e+00 3.026064e+00 136 127 111
2.549898e+00 -3.168482e+00 3.024998e+00 134 125 110
2.587246e+00 -1.890430e+00 3.016995e+00 145 130 109
2.487712e+00 -1.772069e+00 3.015489e+00 147 131 115
7.337665e-01 -5.563999e-01 2.999173e+00 44 22 9
2.832381e+00 -4.806787e-01 3.010185e+00 118 96 72
-2.923960e+00 -5.734800e-02 2.983006e+00 97 88 80
-1.993541e+00 1.138600e+00 2.982862e+00 96 83 66
-1.663884e+00 1.450461e+00 2.982168e+00 120 104 92
1.059803e+00 2.445733e+00 2.988073e+00 179 170 161
2.794456e+00 -3.279480e+00 3.027690e+00 66 54 45
2.815229e+00 -2.531998e+00 3.022841e+00 160 142 122
-1.817386e+00 -2.184866e+00 2.997404e+00 163 153 139
2.543417e+00 -1.824846e+00 3.016330e+00 141 125 103
2.242894e+00 -1.541484e+00 3.012777e+00 90 73 56
1.937357e+00 -1.470595e+00 3.010664e+00 212 200 190
1.946963e+00 -1.171935e+00 3.009117e+00 153 140 123
1.885499e+00 -9.246976e-01 3.007297e+00 136 120 105
2.447246e+00 -6.676602e-01 3.008713e+00 180 164 149
2.494477e+00 -5.333739e-01 3.008232e+00 46 26 19
2.509196e+00 -4.907549e-01 3.008208e+00 140 119 100
1.923003e+00 -5.122908e-01 3.005339e+00 138 119 97
6.225011e-01 3.097339e-01 2.984370e+00 27 19 6
-6.006147e-01 5.682459e-01 2.985595e+00 36 26 24
-1.453960e+00 1.109781e+00 2.981712e+00 195 189 179
-1.815386e+00 1.237992e+00 2.982033e+00 171 158 145
2.713609e+00 1.565824e+00 2.998175e+00 83 67 51
2.747676e+00 2.401463e+00 2.998035e+00 179 170 164
1.098890e+00 2.366239e+00 2.988178e+00 170 162 152
-1.952899e+00 2.526899e+00 2.984286e+00 115 102 87
8.174585e-01 2.711120e+00 2.989306e+00 137 124 115
-2.472986e+00 5.062696e+00 2.989618e+00 85 82 77
-1.276854e+00 5.172135e+00 2.991896e+00 78 79 74
-1.435969e+00 5.364496e+00 2.991860e+00 72 66 60
3.245626e+00 -2.680947e+00 3.026917e+00 115 110 98
1.828705e+00 -2.578067e+00 3.016111e+00 152 137 118
2.857550e+00 -2.544109e+00 3.023223e+00 86 69 51
2.857550e+00 -2.544109e+00 3.023223e+00 86 69 51
1.852337e+00 -1.526417e+00 3.010457e+00 208 199 191
2.706654e+00 -1.156026e+00 3.013596e+00 152 135 123
2.794649e+00 -8.249494e-01 3.012092e+00 126 114 98
2.830890e+00 -7.399101e-01 3.011748e+00 134 125 115
3.032458e+00 -5.864852e-01 3.012188e+00 95 82 58
2.217061e+00 -4.739783e-01 3.006619e+00 102 84 65
2.169575e+00 -4.750148e-01 3.006301e+00 95 78 61
2.032033e+00 -4.793757e-01 3.005778e+00 97 76 59
2.672347e+00 -2.130207e-01 3.007023e+00 103 93 80
1.832686e+00 3.320203e-01 2.994192e+00 90 78 58
8.425160e-01 4.860034e-01 2.986654e+00 106 91 72
2.577326e+00 5.476223e-01 2.999845e+00 99 84 73
2.554225e+00 7.761404e-01 2.998710e+00 103 97 79
-2.182160e+00 6.944141e-01 2.983488e+00 136 122 106
2.456361e+00 8.763018e-01 2.997315e+00 176 163 147
2.400314e+00 8.947919e-01 2.996648e+00 118 106 85
1.447330e+00 9.345937e-01 2.988800e+00 203 193 183
2.309644e+00 1.056157e+00 2.995507e+00 104 99 80
1.508466e+00 1.036777e+00 2.989063e+00 105 92 81
2.148635e+00 1.129825e+00 2.993788e+00 180 169 150
7.590669e-01 1.095560e+00 2.985424e+00 92 81 69
-2.360309e+00 1.052111e+00 2.982310e+00 89 84 73
1.727115e+00 1.154382e+00 2.990236e+00 181 165 143
7.226364e-01 1.138370e+00 2.985681e+00 95 84 74
1.743343e+00 1.187809e+00 2.990291e+00 97 89 74
1.846682e+00 1.225696e+00 2.991081e+00 105 95 82
1.954864e+00 1.236908e+00 2.991991e+00 100 95 80
-8.981485e-01 1.535512e+00 2.979906e+00 104 95 78
3.174890e+00 2.320461e+00 3.001267e+00 169 173 161
1.187331e+00 2.562993e+00 2.989137e+00 167 151 140
2.068123e-01 2.706978e+00 2.988382e+00 87 75 63
-1.946953e+00 2.725728e+00 2.984388e+00 91 81 66
-9.548490e-01 4.996784e+00 2.990626e+00 98 93 88
-2.335636e+00 5.102412e+00 2.990005e+00 171 163 156
-2.150121e+00 5.223331e+00 2.990422e+00 164 151 142
1.844478e+00 -2.552485e+00 3.016020e+00 83 67 52
1.844478e+00 -2.552485e+00 3.016020e+00 83 67 52
1.725967e+00 -2.549183e+00 3.015279e+00 79 61 47
2.781443e+00 -2.466422e+00 3.022102e+00 112 97 75
-2.323558e+00 -2.098142e+00 2.996216e+00 76 58 50
1.839676e+00 -2.276568e+00 3.013937e+00 117 99 76
1.839676e+00 -2.276568e+00 3.013937e+00 117 99 76
3.051501e+00 -2.213782e+00 3.022779e+00 196 187 176
2.619904e+00 -1.030877e+00 3.012160e+00 195 185 179
2.574392e+00 -9.655447e-01 3.011484e+00 103 94 79
1.861785e+00 -8.102912e-01 3.006704e+00 104 94 84
2.796012e+00 -7.440899e-01 3.011628e+00 124 116 102
2.144158e+00 -7.535854e-01 3.007667e+00 104 93 84
2.533015e+00 -7.248177e-01 3.009870e+00 107 97 86
3.015122e+00 -7.037911e-01 3.012915e+00 203 202 184
1.111557e+00 -7.563305e-01 3.002691e+00 113 103 93
2.421958e+00 -5.953215e-01 3.008345e+00 129 117 95
2.226019e+00 -6.026738e-01 3.007388e+00 145 133 120
2.588576e+00 -4.608911e-01 3.008543e+00 99 80 61
-2.886762e+00 -3.151092e-01 2.983691e+00 85 72 64
1.192670e+00 -1.931694e-01 3.002188e+00 165 148 138
-2.708349e+00 -4.579383e-02 2.982789e+00 202 197 192
2.552545e+00 2.874546e-01 3.000738e+00 178 164 151
3.849496e-02 5.542817e-01 2.988997e+00 26 14 3
1.414453e+00 9.332151e-01 2.988701e+00 98 90 77
1.414453e+00 9.332151e-01 2.988701e+00 98 90 77
2.294995e+00 1.002888e+00 2.995359e+00 111 103 82
1.472687e+00 1.001588e+00 2.988870e+00 95 87 77
1.472687e+00 1.001588e+00 2.988870e+00 95 87 77
-2.657891e-01 1.021487e+00 2.993099e+00 25 16 7
-2.051398e+00 1.011482e+00 2.983076e+00 171 162 147
-1.490440e+00 1.043569e+00 2.981770e+00 136 122 109
7.743730e-01 1.134458e+00 2.985142e+00 127 123 112
2.414589e+00 1.193358e+00 2.995874e+00 116 104 88
-1.749368e+00 1.119941e+00 2.982466e+00 103 87 74
1.417396e+00 1.278808e+00 2.987592e+00 91 83 63
1.417396e+00 1.278808e+00 2.987592e+00 91 83 63
-4.520095e-01 1.255444e+00 2.984483e+00 183 169 160
-8.522689e-01 1.541331e+00 2.979998e+00 98 84 71
3.171072e+00 1.652435e+00 3.001399e+00 244 252 245
1.702592e+00 1.880228e+00 2.990017e+00 164 158 146
2.790659e+00 2.131571e+00 2.998280e+00 154 148 137
2.789472e+00 2.284746e+00 2.998316e+00 122 112 103
2.789472e+00 2.284746e+00 2.998316e+00 122 112 103
1.923542e+00 2.331509e+00 2.992288e+00 76 74 61
2.456888e+00 2.351671e+00 2.995873e+00 76 72 60
1.156301e+00 2.454653e+00 2.988691e+00 206 200 188
2.043162e+00 2.476444e+00 2.993312e+00 76 68 61
1.861063e+00 2.476887e+00 2.992305e+00 81 74 56
1.160142e+00 2.620725e+00 2.989139e+00 179 170 158
-2.291875e+00 2.514207e+00 2.984005e+00 187 181 176
-5.451000e-01 2.645729e+00 2.986979e+00 188 176 168
-7.239312e-01 2.672485e+00 2.986555e+00 159 145 132
-1.662144e+00 2.658756e+00 2.984755e+00 182 173 164
-1.766664e+00 2.677161e+00 2.984624e+00 112 104 94
-2.276863e+00 2.688462e+00 2.984339e+00 158 145 136
-9.246495e-01 4.985543e+00 2.990676e+00 186 173 172
-1.236476e+00 5.061083e+00 2.991819e+00 99 95 86
3.072356e+00 -8.348955e-01 3.014199e+00 139 126 119
2.039177e+00 -8.300031e-01 3.007276e+00 107 95 76
2.295036e+00 -7.553439e-01 3.008529e+00 112 103 87
2.312313e+00 -7.414766e-01 3.008539e+00 193 183 171
2.527888e+00 -6.576538e-01 3.009439e+00 126 117 108
2.098483e+00 -6.406429e-01 3.006689e+00 120 107 86
2.212195e+00 -6.160368e-01 3.007208e+00 105 89 73
-2.076346e+00 -4.896212e-01 2.984119e+00 105 91 80
2.569658e+00 -4.770157e-01 3.008496e+00 131 111 87
-1.657827e+00 -3.321886e-01 2.982624e+00 99 78 64
-2.964411e+00 -1.791092e-01 2.983590e+00 193 186 178
2.450123e+00 8.631397e-02 3.000594e+00 179 169 159
1.196301e+00 1.972060e-01 3.000458e+00 128 121 106
3.221924e+00 6.355011e-01 3.004764e+00 132 129 120
8.705552e-01 6.935656e-01 2.985990e+00 171 164 146
2.520519e+00 8.696626e-01 2.998071e+00 192 189 170
1.731062e+00 9.680338e-01 2.990051e+00 173 161 147
2.142780e+00 1.097960e+00 2.993722e+00 168 159 140
2.479436e+00 1.124295e+00 2.996645e+00 189 184 165
1.489165e+00 1.100937e+00 2.988485e+00 116 107 92
-1.600989e+00 1.046975e+00 2.982332e+00 106 94 84
2.496243e+00 1.159822e+00 2.996776e+00 178 170 158
2.372983e+00 1.183000e+00 2.995542e+00 188 180 170
2.843779e+00 1.283596e+00 3.000026e+00 138 134 125
2.843779e+00 1.283596e+00 3.000026e+00 138 134 125
2.255709e+00 1.260913e+00 2.994305e+00 186 172 162
2.255709e+00 1.260913e+00 2.994305e+00 186 172 162
2.386488e+00 1.270696e+00 2.995393e+00 176 167 156
2.389192e+00 1.284917e+00 2.995349e+00 114 106 88
2.389192e+00 1.284917e+00 2.995349e+00 114 106 88
1.755268e+00 1.375378e+00 2.990083e+00 157 140 123
1.197824e+00 1.526502e+00 2.987447e+00 109 94 75
3.083847e+00 1.601503e+00 3.000741e+00 110 101 94
3.163589e+00 1.635061e+00 3.001435e+00 167 173 163
3.114978e+00 2.152398e+00 3.000722e+00 111 93 88
3.137694e+00 2.196933e+00 3.000932e+00 76 69 57
3.077714e+00 2.302739e+00 3.000501e+00 153 150 140
1.252649e+00 2.299868e+00 2.988536e+00 172 157 150
2.929742e+00 2.453308e+00 2.999512e+00 184 180 169
1.839962e+00 2.405299e+00 2.992070e+00 179 175 166
1.013718e+00 2.418585e+00 2.987906e+00 109 106 93
7.971956e-01 2.420355e+00 2.988843e+00 102 101 89
1.997103e+00 2.552681e+00 2.993308e+00 83 78 58
2.005411e+00 2.566907e+00 2.993330e+00 157 149 134
-1.970236e+00 2.479982e+00 2.984309e+00 127 124 107
1.143312e+00 2.584756e+00 2.989036e+00 87 76 58
1.808245e+00 2.604127e+00 2.992389e+00 165 149 136
1.808245e+00 2.604127e+00 2.992389e+00 165 149 136
1.673711e+00 2.606177e+00 2.991732e+00 161 150 136
5.850012e-01 2.634055e+00 2.989022e+00 197 192 188
1.178882e+00 2.650343e+00 2.989234e+00 179 176 161
4.613813e-02 2.651265e+00 2.988313e+00 73 71 56
1.196872e+00 2.657706e+00 2.989371e+00 137 131 114
1.147431e+00 2.667206e+00 2.989138e+00 128 114 106
1.178198e+00 2.682590e+00 2.989356e+00 167 154 138
-1.659624e+00 2.608171e+00 2.984776e+00 92 85 69
-4.599003e-01 2.672149e+00 2.987052e+00 172 167 157
1.186646e+00 2.694485e+00 2.989306e+00 113 99 86
-2.166785e+00 2.595307e+00 2.984216e+00 100 98 87
-2.385535e+00 2.583184e+00 2.984133e+00 153 149 137
-1.736345e+00 2.639900e+00 2.984635e+00 108 104 92
-9.737335e-01 2.693344e+00 2.983706e+00 110 102 91
-9.865533e-01 2.722435e+00 2.983839e+00 130 120 109
2.973457e+00 2.940507e+00 3.000278e+00 82 84 77
1.027138e+00 2.981161e+00 2.989422e+00 66 62 59
-9.215209e-01 5.106951e+00 2.990918e+00 102 99 96
-1.515408e+00 5.139527e+00 2.991585e+00 178 185 173
-2.248140e+00 3.059320e-02 2.474924e+00 135 136 146
-1.394863e+00 -1.446202e+00 2.397570e+00 183 182 190
1.094095e+00 -1.480573e+00 2.542646e+00 183 181 186
2.023668e+00 -2.214177e+00 2.459591e+00 124 114 112
-1.393689e+00 -2.901276e+00 2.408534e+00 178 177 191
1.601174e+00 7.450164e-02 2.551550e+00 102 104 117
-2.200577e+00 7.160297e-02 2.957271e+00 62 63 84
-2.200577e+00 7.160297e-02 2.957271e+00 62 63 84
2.206193e+00 5.282928e-02 2.467699e+00 115 119 131
1.644816e+00 4.514666e-01 3.202133e+00 98 89 90
2.832029e-01 1.695142e+00 3.150670e+00 117 121 132
2.832029e-01 1.695142e+00 3.150670e+00 117 121 132
-1.975506e+00 3.070351e+00 3.242034e+00 11 9 22
-1.975506e+00 3.070351e+00 3.242034e+00 11 9 22
6.110470e-01 1.031751e-01 2.644513e+00 164 162 167
2.687833e+00 5.947158e-01 3.663167e+00 189 191 206
2.350571e+00 1.800475e+00 3.207633e+00 157 156 164
-2.283533e+00 -2.917508e+00 2.352430e+00 161 155 159
-2.283533e+00 -2.917508e+00 2.352430e+00 161 155 159
4.795127e-01 1.110523e+00 3.213218e+00 100 95 99
-8.898814e-01 1.613522e+00 3.451302e+00 188 190 202
-4.695439e-01 2.724716e+00 3.744975e+00 142 142 152
-1.115220e+00 -6.500200e-01 2.639983e+00 154 145 148
1.849022e+00 -7.694733e-01 2.814896e+00 148 144 147
-2.783935e+00 -1.528559e-01 2.974231e+00 119 114 121
-2.966768e-01 -2.214921e-01 2.657677e+00 182 180 191
1.342390e+00 8.494922e-01 3.309210e+00 190 187 194
-1.946233e+00 1.788223e+00 3.148845e+00 181 188 198
1.654996e-01 1.634524e+00 3.197060e+00 101 103 115
-2.558050e+00 2.747685e+00 3.098312e+00 43 44 49
-2.128510e+00 -2.929654e+00 2.403015e+00 53 48 54
1.442653e+00 -1.011828e+00 2.798183e+00 106 97 102
1.940411e+00 -6.202928e-01 2.305580e+00 176 174 179
5.654892e-01 -5.384043e-01 2.510627e+00 176 173 179
1.038488e+00 -5.223268e-01 2.524947e+00 165 162 169
-2.394815e+00 -1.778589e-01 2.777246e+00 106 104 116
-2.900676e+00 -2.615117e-02 3.041894e+00 190 189 203
1.613671e+00 8.215174e-01 2.715615e+00 185 184 190
1.382761e+00 6.814990e-01 3.312528e+00 162 157 162
6.252145e-01 2.161375e+00 3.833403e+00 140 138 143
1.970695e+00 -3.244905e+00 2.086447e+00 142 134 137
-5.631935e-01 -3.160836e+00 2.166087e+00 133 127 128
1.967156e+00 -2.773347e+00 2.051484e+00 138 129 130
1.967156e+00 -2.773347e+00 2.051484e+00 138 129 130
1.184652e+00 -2.427497e+00 2.347592e+00 171 168 175
-5.046392e-01 -9.732144e-01 2.500863e+00 115 110 117
4.677252e-01 -9.384075e-01 2.398384e+00 103 101 105
-3.337873e+00 -7.159652e-01 2.796193e+00 111 110 117
-8.059284e-01 -7.702638e-01 2.534960e+00 163 157 159
9.321705e-02 -7.369203e-01 2.423160e+00 139 130 133
8.157725e-01 -7.649080e-01 2.776895e+00 169 167 170
1.474916e+00 -5.921605e-01 2.354457e+00 175 170 174
1.518196e+00 -5.963636e-01 2.885218e+00 141 134 141
1.518196e+00 -5.963636e-01 2.885218e+00 141 134 141
-2.221777e+00 -2.894862e-01 2.870116e+00 145 147 160
-1.458963e+00 -1.670264e-02 2.821705e+00 69 75 89
-2.550032e+00 3.783352e-01 3.043900e+00 137 135 140
2.629005e-01 4.075094e-01 2.668899e+00 67 71 82
1.850987e+00 2.596625e-01 3.191473e+00 116 114 119
-1.385512e+00 7.439683e-01 2.892121e+00 174 172 177
-7.220337e-01 1.375572e+00 3.351126e+00 60 58 63
7.992280e-01 1.339404e+00 3.386833e+00 86 83 90
2.815496e-01 1.465698e+00 3.309520e+00 138 148 158
8.150257e-01 1.399025e+00 3.454012e+00 154 157 166
-3.140649e-01 2.111969e+00 3.555165e+00 148 148 156
1.885812e-01 2.105149e+00 3.611721e+00 154 158 167
-7.393684e-03 1.688854e+00 4.743338e+00 27 26 32
-1.260878e+00 -3.294099e+00 2.272823e+00 153 151 165
-8.703840e-01 -1.130342e+00 2.458597e+00 154 145 148
-2.154393e+00 -7.300081e-01 2.566085e+00 178 172 176
-1.162836e-01 -7.984814e-01 2.510809e+00 173 166 173
2.788121e+00 -9.679632e-01 2.927814e+00 125 124 130
2.628769e+00 -8.318578e-01 2.194707e+00 176 175 181
2.628769e+00 -8.318578e-01 2.194707e+00 176 175 181
-2.072237e+00 -5.657158e-01 2.775433e+00 152 149 156
-3.149335e+00 -4.171992e-01 2.728730e+00 171 170 176
1.408673e+00 -4.467129e-01 2.397947e+00 91 87 88
-1.808062e+00 1.688553e-01 2.822708e+00 167 162 168
-2.345415e+00 2.948553e-01 2.891622e+00 70 68 79
-2.565079e+00 3.890903e-01 3.047251e+00 132 130 135
-9.719205e-01 2.883909e-01 2.985600e+00 192 190 201
7.130875e-01 2.410561e-01 2.939752e+00 155 152 159
4.786167e-02 4.757932e-01 2.748768e+00 77 80 95
1.417004e+00 4.469910e-01 2.711722e+00 147 141 145
-1.756831e+00 6.580775e-01 2.955624e+00 112 104 102
9.872876e-01 1.071087e+00 2.942075e+00 180 182 197
-3.056528e+00 1.544732e+00 3.166190e+00 179 181 194
1.520973e+00 1.165156e+00 3.523284e+00 176 172 173
1.824681e+00 1.797720e+00 3.916254e+00 154 153 159
8.196638e-01 -2.651492e+00 2.387652e+00 97 92 96
1.609078e+00 -2.632524e+00 2.230666e+00 54 44 45
2.084211e+00 -2.402725e+00 2.156075e+00 94 88 89
-2.951967e+00 -1.995295e+00 2.371462e+00 153 147 147
-2.189130e+00 -1.414888e+00 2.441650e+00 164 159 165
2.898715e-01 -1.463158e+00 2.422492e+00 93 83 84
9.028963e-01 -1.186363e+00 2.574368e+00 194 189 196
-1.586351e+00 -8.965697e-01 2.657010e+00 170 169 177
-1.557599e+00 -6.734547e-01 2.546184e+00 87 80 87
1.337561e-01 -6.373202e-01 2.467876e+00 175 170 172
-1.031011e+00 -5.496483e-01 2.626047e+00 178 173 180
-2.367691e+00 -4.711128e-01 2.865644e+00 146 140 140
-2.240795e+00 -4.396816e-01 2.664131e+00 147 138 141
-1.971028e+00 -4.557413e-01 2.767854e+00 139 133 137
