ply
format ascii 1.0
element face 0
property list uchar int vertex_indices
element vertex 954
property float x
property float y
property float z
property uchar diffuse_red
property uchar diffuse_green
property uchar diffuse_blue
end_header
4.624785e-01 5.836514e-01 3.124587e+00 134 137 146
4.663073e-01 5.728668e-01 3.132723e+00 127 130 139
4.664200e-01 5.768196e-01 3.127973e+00 56 60 71
4.942912e-01 5.381523e-01 3.133857e+00 64 59 65
4.943257e-01 5.381580e-01 3.133790e+00 64 59 65
4.977787e-01 5.330964e-01 3.135187e+00 148 146 151
4.857261e-01 5.564050e-01 3.125131e+00 142 151 170
4.901652e-01 5.456558e-01 3.132772e+00 55 50 54
5.141216e-01 5.154282e-01 3.135001e+00 99 126 155
5.102024e-01 5.227577e-01 3.134145e+00 181 181 193
5.082522e-01 5.246453e-01 3.136005e+00 133 131 141
4.722414e-01 5.950972e-01 3.118225e+00 170 174 186
5.093448e-01 5.447422e-01 3.123602e+00 154 155 168
4.730398e-01 6.057635e-01 3.115616e+00 156 161 168
5.188179e-01 5.497676e-01 3.122598e+00 106 108 121
4.884491e-01 5.961605e-01 3.119222e+00 135 135 147
4.709261e-01 6.196615e-01 3.117759e+00 213 231 252
4.845169e-01 6.063306e-01 3.117645e+00 132 132 142
5.219416e-01 5.530729e-01 3.124856e+00 121 121 131
5.311082e-01 5.381165e-01 3.129431e+00 174 176 191
4.902885e-01 6.039557e-01 3.117035e+00 128 123 130
5.306405e-01 5.414297e-01 3.128668e+00 169 171 186
4.824594e-01 6.156551e-01 3.117992e+00 161 162 176
5.027311e-01 5.920158e-01 3.117367e+00 215 235 254
5.354063e-01 5.408234e-01 3.127108e+00 169 171 184
4.781830e-01 6.201734e-01 3.120284e+00 74 85 107
5.168554e-01 5.682638e-01 3.126223e+00 174 175 192
4.949763e-01 6.045225e-01 3.118069e+00 153 153 165
4.877236e-01 6.128660e-01 3.119087e+00 162 163 176
4.827889e-01 6.210481e-01 3.117533e+00 50 50 62
5.048169e-01 5.943166e-01 3.117632e+00 214 235 254
5.313655e-01 5.518972e-01 3.126399e+00 18 18 23
4.831270e-01 6.224106e-01 3.118009e+00 73 75 87
5.182704e-01 5.540527e-01 3.140765e+00 159 159 167
4.973632e-01 5.996061e-01 3.123711e+00 114 120 133
4.902901e-01 6.146894e-01 3.118211e+00 55 59 71
4.912181e-01 6.131180e-01 3.118893e+00 60 62 75
4.912181e-01 6.131180e-01 3.118893e+00 60 62 75
4.891658e-01 6.168955e-01 3.119075e+00 44 43 53
5.224756e-01 5.765445e-01 3.118463e+00 116 124 143
4.922426e-01 6.153025e-01 3.117843e+00 53 57 68
5.011498e-01 6.059264e-01 3.117028e+00 52 56 67
5.356087e-01 5.469649e-01 3.131177e+00 144 151 161
5.340264e-01 5.654420e-01 3.120756e+00 157 160 169
5.336879e-01 5.672986e-01 3.120084e+00 177 175 188
4.991171e-01 6.149941e-01 3.116266e+00 221 227 249
4.907302e-01 6.276794e-01 3.114805e+00 197 208 233
5.165499e-01 5.651198e-01 3.141506e+00 145 145 157
5.045800e-01 6.097743e-01 3.116580e+00 224 230 252
5.076552e-01 6.014995e-01 3.121104e+00 136 148 170
5.380456e-01 5.651751e-01 3.120605e+00 150 150 162
5.080148e-01 6.064521e-01 3.117238e+00 230 235 254
5.261488e-01 5.748119e-01 3.125130e+00 72 71 85
5.305046e-01 5.799416e-01 3.118007e+00 223 242 254
5.503928e-01 5.607162e-01 3.117133e+00 65 65 73
5.503928e-01 5.607162e-01 3.117133e+00 65 65 73
5.532266e-01 5.552556e-01 3.121316e+00 60 58 72
5.494216e-01 5.656246e-01 3.116959e+00 105 113 132
5.490241e-01 5.665226e-01 3.117158e+00 209 215 237
5.547619e-01 5.564060e-01 3.119574e+00 148 146 159
5.401903e-01 5.754461e-01 3.119269e+00 199 226 251
5.389097e-01 5.829843e-01 3.114688e+00 127 150 177
5.556164e-01 5.582945e-01 3.119071e+00 141 143 164
4.179806e-01 4.746027e-01 3.122798e+00 135 130 134
3.850870e-01 5.251880e-01 3.130423e+00 95 85 93
4.220671e-01 4.796423e-01 3.121546e+00 125 116 119
4.387784e-01 4.623868e-01 3.123422e+00 126 125 131
4.262842e-01 4.821106e-01 3.122705e+00 111 101 100
4.433071e-01 4.604592e-01 3.124340e+00 155 154 162
4.297403e-01 4.780456e-01 3.123676e+00 100 91 92
4.213525e-01 4.889635e-01 3.121879e+00 159 149 157
4.213525e-01 4.889635e-01 3.121879e+00 159 149 157
3.963487e-01 5.217055e-01 3.135559e+00 109 103 107
3.997422e-01 5.195253e-01 3.140556e+00 125 122 131
3.878501e-01 5.341631e-01 3.118950e+00 167 156 160
3.867385e-01 5.367150e-01 3.118544e+00 95 87 88
4.219978e-01 4.918051e-01 3.119952e+00 84 79 83
3.817370e-01 5.444944e-01 3.119074e+00 129 124 130
4.089572e-01 5.123797e-01 3.133874e+00 153 139 138
4.446561e-01 4.683643e-01 3.123757e+00 79 70 71
4.094752e-01 5.139736e-01 3.118438e+00 105 91 90
3.957470e-01 5.333355e-01 3.117897e+00 82 73 74
4.182582e-01 5.054098e-01 3.120298e+00 98 88 89
3.903322e-01 5.416615e-01 3.132209e+00 169 160 161
3.886296e-01 5.440807e-01 3.118458e+00 169 160 161
4.217129e-01 5.055140e-01 3.120387e+00 121 109 113
4.256569e-01 5.018308e-01 3.121113e+00 86 77 82
4.145435e-01 5.156391e-01 3.135532e+00 88 79 80
3.941589e-01 5.434192e-01 3.118491e+00 155 151 152
4.186309e-01 5.141755e-01 3.118700e+00 85 72 69
4.175511e-01 5.158989e-01 3.118233e+00 82 70 70
4.186950e-01 5.145867e-01 3.118307e+00 151 137 136
4.252400e-01 5.070535e-01 3.119436e+00 84 73 77
4.213934e-01 5.137347e-01 3.118894e+00 128 116 116
4.203175e-01 5.152810e-01 3.119019e+00 69 58 56
3.842799e-01 5.619495e-01 3.126011e+00 153 164 184
4.442963e-01 4.872699e-01 3.121450e+00 83 73 71
4.249594e-01 5.145675e-01 3.118921e+00 131 123 121
4.293516e-01 5.095325e-01 3.118251e+00 182 173 182
4.008873e-01 5.510273e-01 3.130878e+00 108 105 114
4.088151e-01 5.434239e-01 3.117694e+00 182 177 184
4.352339e-01 5.068985e-01 3.144511e+00 61 58 64
4.216751e-01 5.289408e-01 3.117544e+00 167 165 170
4.336583e-01 5.141652e-01 3.119063e+00 83 80 87
4.255957e-01 5.249892e-01 3.117592e+00 172 169 177
4.277731e-01 5.234272e-01 3.117892e+00 96 91 95
4.475972e-01 4.991939e-01 3.119815e+00 66 64 71
4.447626e-01 4.986746e-01 3.144564e+00 172 171 180
4.486369e-01 4.940651e-01 3.146599e+00 172 172 180
4.127112e-01 5.437713e-01 3.133048e+00 153 148 153
4.594855e-01 4.866205e-01 3.122375e+00 156 150 160
4.058958e-01 5.530908e-01 3.130903e+00 99 97 102
4.572834e-01 4.845621e-01 3.149897e+00 168 166 177
4.348349e-01 5.198745e-01 3.118812e+00 172 167 171
4.269609e-01 5.314299e-01 3.118687e+00 149 144 148
4.481273e-01 5.048102e-01 3.120045e+00 155 146 149
4.357184e-01 5.220178e-01 3.124348e+00 85 75 77
4.446325e-01 5.133820e-01 3.118561e+00 82 72 80
4.629145e-01 4.906610e-01 3.124171e+00 114 111 118
4.299044e-01 5.327324e-01 3.136471e+00 175 177 189
4.322848e-01 5.332854e-01 3.124125e+00 177 177 189
4.252323e-01 5.463928e-01 3.117897e+00 77 72 78
4.475912e-01 5.189683e-01 3.119470e+00 128 122 128
4.742404e-01 4.833494e-01 3.128818e+00 169 168 178
4.529605e-01 5.061323e-01 3.142290e+00 92 91 99
4.702058e-01 4.902391e-01 3.128093e+00 178 181 193
4.450167e-01 5.238664e-01 3.130986e+00 80 79 93
4.249500e-01 5.604182e-01 3.119079e+00 141 138 147
4.215424e-01 5.670760e-01 3.119346e+00 99 94 98
4.524179e-01 5.277321e-01 3.119755e+00 90 91 96
4.332030e-01 5.566218e-01 3.124731e+00 85 75 76
4.653109e-01 5.181825e-01 3.121344e+00 118 113 118
4.581248e-01 5.198233e-01 3.140858e+00 130 129 135
4.527252e-01 5.360689e-01 3.120181e+00 79 78 86
4.436205e-01 5.480616e-01 3.119182e+00 117 112 116
4.784920e-01 5.037830e-01 3.124052e+00 83 77 79
4.666114e-01 5.201193e-01 3.121191e+00 133 132 138
4.462747e-01 5.491093e-01 3.119393e+00 102 100 105
4.398524e-01 5.575069e-01 3.119283e+00 107 106 112
4.435425e-01 5.486675e-01 3.128946e+00 127 125 130
4.388292e-01 5.563367e-01 3.126929e+00 111 108 117
4.472250e-01 5.493418e-01 3.119488e+00 96 91 97
4.492810e-01 5.439156e-01 3.125878e+00 34 29 35
4.828582e-01 5.034067e-01 3.124596e+00 89 86 93
4.696030e-01 5.152964e-01 3.136024e+00 142 142 148
4.520023e-01 5.422774e-01 3.126904e+00 173 171 182
4.325502e-01 5.687905e-01 3.124925e+00 101 95 99
4.339514e-01 5.679251e-01 3.124726e+00 92 86 90
4.700555e-01 5.214234e-01 3.131179e+00 109 107 113
4.486796e-01 5.501987e-01 3.129305e+00 124 121 128
4.872215e-01 4.966573e-01 3.140997e+00 84 107 138
4.262305e-01 5.811245e-01 3.127889e+00 117 115 128
4.535005e-01 5.469347e-01 3.129113e+00 73 68 74
4.255151e-01 5.836148e-01 3.127466e+00 175 174 188
4.657689e-01 5.307877e-01 3.133129e+00 122 119 126
4.622605e-01 5.364154e-01 3.131425e+00 74 69 75
4.793708e-01 5.158003e-01 3.135924e+00 96 92 93
4.322482e-01 5.805933e-01 3.126390e+00 160 161 166
4.588302e-01 5.453577e-01 3.130408e+00 99 97 102
4.637397e-01 5.426486e-01 3.131542e+00 155 156 164
4.707629e-01 5.341837e-01 3.133613e+00 112 110 115
4.448246e-01 5.797821e-01 3.124930e+00 105 104 110
4.825785e-01 5.312925e-01 3.133731e+00 57 57 69
4.524555e-01 5.758639e-01 3.123730e+00 114 113 120
4.529224e-01 5.746462e-01 3.125825e+00 52 50 55
4.402683e-01 5.921647e-01 3.128827e+00 166 164 175
4.402683e-01 5.921647e-01 3.128827e+00 166 164 175
4.511218e-01 5.811804e-01 3.125295e+00 159 156 163
4.578822e-01 5.740491e-01 3.124486e+00 157 156 162
4.911445e-01 5.257395e-01 3.134232e+00 113 112 120
4.619774e-01 5.649875e-01 3.131196e+00 96 93 100
4.684840e-01 5.578352e-01 3.132571e+00 101 105 116
4.516096e-01 5.847095e-01 3.125418e+00 166 166 171
4.480581e-01 5.888173e-01 3.126033e+00 137 135 140
4.478860e-01 5.908725e-01 3.126583e+00 70 69 77
4.674705e-01 5.668142e-01 3.126860e+00 105 103 106
4.570410e-01 5.822619e-01 3.124140e+00 73 73 75
4.630517e-01 5.730429e-01 3.127445e+00 73 73 81
4.704747e-01 5.637877e-01 3.128089e+00 63 60 67
4.715878e-01 5.629288e-01 3.127722e+00 68 67 73
4.735249e-01 5.606454e-01 3.128231e+00 66 65 70
4.637203e-01 5.735262e-01 3.128230e+00 82 81 87
4.451898e-01 5.976906e-01 3.127146e+00 122 135 151
4.633576e-01 5.727706e-01 3.131538e+00 128 125 132
4.940699e-01 5.316310e-01 3.135059e+00 81 80 87
4.725985e-01 5.641177e-01 3.127884e+00 83 81 84
4.775926e-01 5.569653e-01 3.129370e+00 147 144 151
4.529598e-01 5.912314e-01 3.125786e+00 65 68 76
4.477506e-01 5.977883e-01 3.127242e+00 58 61 76
4.943824e-01 5.333950e-01 3.135161e+00 62 57 63
4.640580e-01 5.790553e-01 3.125778e+00 158 159 164
4.847016e-01 5.456413e-01 3.136155e+00 154 153 158
4.947611e-01 5.341302e-01 3.134732e+00 72 67 73
4.621373e-01 5.826291e-01 3.125537e+00 77 77 85
4.927267e-01 5.368996e-01 3.135137e+00 68 63 70
4.753701e-01 5.667684e-01 3.126801e+00 139 142 151
5.061361e-01 5.250658e-01 3.135000e+00 128 128 138
4.706042e-01 5.730745e-01 3.130972e+00 63 65 77
4.925150e-01 5.421385e-01 3.135493e+00 147 146 152
5.037138e-01 5.288373e-01 3.135878e+00 119 107 116
4.688587e-01 5.787225e-01 3.129644e+00 81 82 97
4.917933e-01 5.509872e-01 3.129217e+00 72 76 87
4.914840e-01 5.499226e-01 3.131877e+00 168 170 182
5.109915e-01 5.235934e-01 3.134483e+00 65 62 71
5.008822e-01 5.427734e-01 3.127282e+00 57 57 65
5.024772e-01 5.400437e-01 3.128778e+00 70 64 74
5.024772e-01 5.400437e-01 3.128778e+00 70 64 74
5.081877e-01 5.302973e-01 3.134539e+00 63 61 73
5.129171e-01 5.278120e-01 3.133994e+00 66 64 75
5.137126e-01 5.328255e-01 3.127112e+00 95 98 112
4.625178e-01 6.013675e-01 3.123649e+00 95 97 110
5.155867e-01 5.258857e-01 3.134423e+00 71 71 83
5.152555e-01 5.260990e-01 3.135403e+00 175 177 189
4.654468e-01 6.014629e-01 3.121078e+00 101 103 118
4.616130e-01 6.110801e-01 3.119493e+00 215 232 248
4.657135e-01 6.036679e-01 3.123883e+00 99 104 122
5.035673e-01 5.544105e-01 3.128477e+00 103 106 115
4.638007e-01 6.124113e-01 3.120477e+00 218 235 251
4.821107e-01 5.859492e-01 3.125001e+00 122 126 138
5.281106e-01 5.308515e-01 3.126989e+00 108 115 134
4.728821e-01 6.077620e-01 3.118919e+00 100 102 116
5.013805e-01 5.571869e-01 3.137729e+00 113 115 128
5.237663e-01 5.361628e-01 3.131351e+00 108 112 124
5.149170e-01 5.589483e-01 3.122903e+00 116 119 128
4.729239e-01 6.151078e-01 3.123074e+00 144 146 159
4.903200e-01 5.983854e-01 3.118725e+00 129 129 139
4.811694e-01 6.100227e-01 3.118981e+00 161 158 167
4.852245e-01 6.056349e-01 3.118842e+00 156 154 167
4.790376e-01 6.145575e-01 3.118714e+00 88 90 103
4.911190e-01 6.077019e-01 3.117828e+00 159 161 173
4.934028e-01 6.026855e-01 3.120583e+00 73 73 83
5.207556e-01 5.654340e-01 3.123717e+00 160 160 172
5.207556e-01 5.654340e-01 3.123717e+00 160 160 172
4.966938e-01 6.017016e-01 3.119596e+00 71 75 85
5.309752e-01 5.605997e-01 3.118339e+00 142 142 148
4.850815e-01 6.190559e-01 3.117052e+00 151 149 162
4.851192e-01 6.175424e-01 3.118557e+00 138 136 149
4.851361e-01 6.201131e-01 3.117313e+00 121 121 131
4.920475e-01 6.115069e-01 3.118362e+00 140 142 154
5.364015e-01 5.574053e-01 3.117768e+00 145 140 144
5.209424e-01 5.676458e-01 3.125933e+00 156 154 165
4.952732e-01 6.069421e-01 3.119680e+00 136 136 148
5.369052e-01 5.568702e-01 3.119370e+00 99 94 101
5.032382e-01 5.977987e-01 3.120548e+00 135 137 150
5.224078e-01 5.683841e-01 3.126102e+00 42 42 54
5.078462e-01 5.995606e-01 3.114679e+00 220 239 255
4.943091e-01 6.132893e-01 3.117568e+00 158 161 170
5.123568e-01 5.653671e-01 3.140334e+00 143 143 153
4.844228e-01 6.254988e-01 3.118104e+00 137 146 172
5.467998e-01 5.433759e-01 3.122475e+00 211 233 254
4.931861e-01 6.178456e-01 3.117797e+00 93 101 120
5.020787e-01 6.070701e-01 3.117836e+00 149 148 161
4.922362e-01 6.219550e-01 3.115503e+00 204 211 231
5.038981e-01 6.056510e-01 3.117588e+00 146 146 157
4.975031e-01 6.148346e-01 3.117121e+00 100 106 129
4.904771e-01 6.240921e-01 3.117299e+00 153 157 169
5.434828e-01 5.485296e-01 3.126264e+00 145 143 157
5.394003e-01 5.611021e-01 3.120137e+00 170 173 182
5.048895e-01 6.062774e-01 3.118217e+00 137 141 156
5.339184e-01 5.688562e-01 3.119584e+00 150 148 159
5.272140e-01 5.782807e-01 3.119855e+00 102 118 143
5.450941e-01 5.634858e-01 3.117093e+00 132 131 139
5.466907e-01 5.534943e-01 3.123681e+00 88 94 110
4.983145e-01 6.303241e-01 3.110608e+00 184 214 248
5.469033e-01 5.625142e-01 3.118166e+00 158 156 165
5.463946e-01 5.619502e-01 3.120105e+00 146 143 153
5.376630e-01 5.787877e-01 3.117615e+00 49 59 86
5.533459e-01 5.574920e-01 3.119836e+00 158 156 169
5.388541e-01 5.815340e-01 3.115784e+00 204 226 255
5.394631e-01 5.824928e-01 3.114410e+00 116 134 164
3.649021e-01 5.353296e-01 3.120917e+00 103 97 111
4.172298e-01 4.760660e-01 3.120876e+00 90 80 86
3.769760e-01 5.456997e-01 3.119156e+00 125 125 133
4.257245e-01 4.851145e-01 3.121246e+00 107 98 99
4.456520e-01 4.644683e-01 3.124446e+00 98 95 102
4.146518e-01 5.041662e-01 3.119956e+00 104 94 93
4.019750e-01 5.222413e-01 3.117333e+00 173 172 180
4.034312e-01 5.214340e-01 3.117655e+00 119 119 129
4.173346e-01 5.037923e-01 3.120300e+00 97 83 82
4.059857e-01 5.183162e-01 3.118063e+00 96 87 88
4.218986e-01 5.020952e-01 3.119552e+00 120 110 118
3.786964e-01 5.581897e-01 3.125556e+00 69 68 82
3.947661e-01 5.455977e-01 3.118126e+00 176 174 177
4.418551e-01 4.870588e-01 3.121594e+00 145 135 134
4.290592e-01 5.052735e-01 3.119020e+00 179 177 180
4.235000e-01 5.135243e-01 3.118742e+00 61 51 52
4.420489e-01 4.903393e-01 3.121075e+00 190 185 191
4.426495e-01 4.898818e-01 3.120653e+00 135 126 129
4.256333e-01 5.200408e-01 3.117707e+00 131 121 129
4.176469e-01 5.314743e-01 3.117887e+00 73 68 75
4.208225e-01 5.269874e-01 3.138276e+00 94 89 93
4.068677e-01 5.484006e-01 3.118025e+00 65 60 64
4.360605e-01 5.113697e-01 3.121440e+00 85 84 92
4.548282e-01 4.892719e-01 3.122877e+00 100 99 107
4.627116e-01 4.786345e-01 3.127105e+00 85 83 94
4.400823e-01 5.087529e-01 3.119162e+00 154 149 155
4.410611e-01 5.085499e-01 3.118961e+00 113 106 113
4.228310e-01 5.352702e-01 3.117640e+00 82 72 81
4.150860e-01 5.457454e-01 3.117169e+00 113 107 111
4.306857e-01 5.221780e-01 3.139281e+00 98 92 96
4.554438e-01 4.889034e-01 3.147675e+00 139 134 138
4.372359e-01 5.192210e-01 3.118252e+00 168 162 164
4.208380e-01 5.416706e-01 3.119914e+00 88 78 83
4.499321e-01 5.046739e-01 3.119693e+00 119 114 120
4.378654e-01 5.212422e-01 3.118166e+00 155 146 148
4.599910e-01 4.926208e-01 3.121880e+00 180 177 186
4.693168e-01 4.815059e-01 3.124090e+00 179 173 183
4.684014e-01 4.828299e-01 3.123666e+00 186 186 196
4.359554e-01 5.277925e-01 3.117815e+00 88 79 84
4.362069e-01 5.280413e-01 3.117945e+00 131 124 133
4.183865e-01 5.507593e-01 3.118420e+00 174 173 181
4.093806e-01 5.608500e-01 3.129820e+00 144 141 148
4.090531e-01 5.655452e-01 3.118364e+00 183 181 192
4.690267e-01 4.898965e-01 3.127933e+00 153 154 165
4.513373e-01 5.175076e-01 3.119259e+00 90 89 94
4.553464e-01 5.125645e-01 3.120165e+00 106 100 104
4.566156e-01 5.118339e-01 3.120651e+00 172 169 176
4.522722e-01 5.231801e-01 3.120239e+00 110 109 117
4.240549e-01 5.600191e-01 3.118477e+00 141 141 152
4.367781e-01 5.448789e-01 3.118417e+00 174 171 178
4.340201e-01 5.554900e-01 3.118873e+00 85 76 78
4.448443e-01 5.392917e-01 3.126324e+00 83 82 93
4.315415e-01 5.592762e-01 3.119043e+00 99 91 86
4.257020e-01 5.653367e-01 3.123236e+00 85 76 79
4.691128e-01 5.112796e-01 3.122512e+00 118 119 125
4.837686e-01 4.928002e-01 3.125079e+00 136 134 145
4.350802e-01 5.567345e-01 3.119121e+00 131 122 123
4.398187e-01 5.526511e-01 3.118551e+00 108 108 120
4.434374e-01 5.499824e-01 3.119152e+00 122 119 126
4.777138e-01 5.043458e-01 3.139808e+00 96 96 104
4.565130e-01 5.394057e-01 3.126381e+00 56 53 62
4.760573e-01 5.188369e-01 3.131917e+00 141 133 130
4.278052e-01 5.856968e-01 3.120993e+00 161 161 171
4.837529e-01 5.099682e-01 3.131971e+00 134 134 140
4.517170e-01 5.524471e-01 3.128433e+00 156 153 160
4.346440e-01 5.772227e-01 3.123820e+00 143 140 148
4.299484e-01 5.801674e-01 3.131360e+00 142 141 149
4.403049e-01 5.706160e-01 3.125302e+00 151 150 158
4.903380e-01 5.165551e-01 3.133521e+00 118 122 131
4.520817e-01 5.753953e-01 3.123921e+00 127 126 134
4.545336e-01 5.724311e-01 3.128136e+00 141 139 148
4.549967e-01 5.723499e-01 3.130196e+00 174 173 181
4.957876e-01 5.194749e-01 3.134618e+00 127 126 136
4.609777e-01 5.675121e-01 3.129726e+00 144 145 149
4.461891e-01 5.882579e-01 3.127043e+00 86 84 95
4.532869e-01 5.839776e-01 3.122916e+00 157 154 161
4.632140e-01 5.671468e-01 3.130951e+00 115 116 121
4.601069e-01 5.768033e-01 3.124891e+00 75 72 79
4.445995e-01 5.922072e-01 3.130605e+00 79 76 84
4.617921e-01 5.733951e-01 3.127614e+00 146 145 151
4.596760e-01 5.766911e-01 3.127255e+00 141 139 144
4.710581e-01 5.629009e-01 3.126716e+00 124 120 130
4.947489e-01 5.278661e-01 3.134533e+00 74 73 78
4.716277e-01 5.641615e-01 3.126536e+00 168 165 172
4.634071e-01 5.726557e-01 3.130023e+00 177 176 184
4.787229e-01 5.507783e-01 3.134022e+00 76 75 81
4.444012e-01 6.011277e-01 3.124518e+00 222 244 252
4.478417e-01 5.953843e-01 3.128064e+00 154 152 163
4.830526e-01 5.515842e-01 3.127860e+00 165 162 169
5.004057e-01 5.245331e-01 3.135338e+00 85 85 87
4.960077e-01 5.303743e-01 3.135308e+00 94 89 96
4.593853e-01 5.829083e-01 3.126724e+00 140 140 148
4.579802e-01 5.850100e-01 3.126394e+00 71 74 81
4.481145e-01 5.962900e-01 3.128113e+00 152 150 161
4.505533e-01 5.941418e-01 3.127271e+00 75 75 83
4.609515e-01 5.828801e-01 3.125367e+00 74 77 85
5.053348e-01 5.197117e-01 3.135105e+00 100 103 112
4.613442e-01 5.824134e-01 3.126191e+00 145 148 155
5.074427e-01 5.183442e-01 3.135443e+00 110 108 118
4.962975e-01 5.377486e-01 3.128967e+00 156 151 157
4.518221e-01 5.954862e-01 3.126676e+00 111 113 125
4.659125e-01 5.783060e-01 3.126419e+00 58 62 71
4.747025e-01 5.679104e-01 3.126927e+00 76 76 88
5.008207e-01 5.285815e-01 3.135867e+00 57 50 58
4.718812e-01 5.668555e-01 3.133319e+00 138 138 150
4.744744e-01 5.687871e-01 3.126730e+00 129 129 143
4.920392e-01 5.438597e-01 3.130766e+00 110 111 115
4.744697e-01 5.717772e-01 3.124699e+00 96 98 104
4.965167e-01 5.427058e-01 3.128893e+00 135 134 140
5.065333e-01 5.250903e-01 3.135123e+00 79 79 89
4.956264e-01 5.407397e-01 3.134066e+00 161 160 166
4.684785e-01 5.780620e-01 3.130411e+00 137 138 151
4.591957e-01 5.959085e-01 3.123743e+00 103 107 118
4.957555e-01 5.416412e-01 3.133983e+00 119 117 122
4.722685e-01 5.778967e-01 3.127698e+00 122 126 137
5.014253e-01 5.402635e-01 3.129157e+00 148 142 151
4.774097e-01 5.759197e-01 3.123686e+00 116 119 126
5.062435e-01 5.293739e-01 3.136452e+00 115 114 122
5.032496e-01 5.390729e-01 3.130330e+00 95 93 105
4.954698e-01 5.473236e-01 3.132784e+00 143 145 157
4.725217e-01 5.770402e-01 3.133583e+00 108 110 123
5.208719e-01 5.199268e-01 3.130163e+00 213 228 253
5.144659e-01 5.260808e-01 3.133293e+00 145 143 156
5.208232e-01 5.202244e-01 3.131389e+00 204 224 249
5.120373e-01 5.288848e-01 3.134360e+00 156 158 170
4.586639e-01 6.040477e-01 3.124997e+00 116 122 136
5.157296e-01 5.293397e-01 3.131538e+00 95 99 111
4.779894e-01 5.824816e-01 3.126974e+00 117 125 138
4.800307e-01 5.817450e-01 3.126803e+00 111 115 127
4.979800e-01 5.505266e-01 3.136850e+00 120 123 132
5.005665e-01 5.548533e-01 3.128897e+00 124 126 141
4.667902e-01 6.050786e-01 3.122142e+00 98 104 119
5.203917e-01 5.324688e-01 3.130193e+00 170 172 187
5.203917e-01 5.324688e-01 3.130193e+00 170 172 187
5.043886e-01 5.550458e-01 3.128188e+00 122 122 134
5.147534e-01 5.471462e-01 3.124024e+00 159 159 171
5.213816e-01 5.315941e-01 3.132394e+00 101 100 114
5.213816e-01 5.315941e-01 3.132394e+00 101 100 114
4.725762e-01 6.078149e-01 3.117997e+00 103 105 120
5.048970e-01 5.593539e-01 3.128627e+00 111 115 127
4.847134e-01 5.879334e-01 3.125421e+00 114 120 134
5.057290e-01 5.594949e-01 3.128547e+00 168 170 183
4.851688e-01 5.882047e-01 3.126161e+00 114 122 135
4.907176e-01 5.866934e-01 3.120970e+00 118 118 128
4.763091e-01 6.110361e-01 3.116276e+00 114 118 124
5.317278e-01 5.326227e-01 3.126154e+00 220 236 255
5.312524e-01 5.335853e-01 3.126993e+00 117 124 143
4.712322e-01 6.173273e-01 3.119125e+00 99 99 115
5.285769e-01 5.364809e-01 3.129372e+00 103 106 121
5.283514e-01 5.439747e-01 3.123609e+00 83 85 97
4.923286e-01 5.976707e-01 3.116644e+00 145 148 157
4.852594e-01 6.055904e-01 3.118242e+00 83 81 94
4.779501e-01 6.134645e-01 3.120444e+00 116 118 130
4.962880e-01 5.900234e-01 3.121516e+00 159 157 168
4.962634e-01 5.910845e-01 3.120603e+00 111 111 119
4.818357e-01 6.124479e-01 3.117412e+00 132 131 139
4.927135e-01 5.967739e-01 3.120254e+00 80 82 94
4.875206e-01 6.034973e-01 3.120129e+00 92 90 103
4.829941e-01 6.122894e-01 3.117136e+00 56 55 63
4.884324e-01 6.050128e-01 3.118884e+00 133 136 145
4.774811e-01 6.159622e-01 3.121913e+00 70 73 88
4.908953e-01 6.052660e-01 3.117305e+00 124 121 132
5.000178e-01 5.931908e-01 3.118603e+00 66 66 76
4.761483e-01 6.186098e-01 3.122427e+00 154 166 188
4.874113e-01 6.108473e-01 3.117000e+00 79 79 91
4.928196e-01 6.030207e-01 3.118475e+00 43 42 48
5.146582e-01 5.716809e-01 3.123622e+00 140 144 155
4.921328e-01 6.060300e-01 3.118170e+00 78 78 87
5.160932e-01 5.734735e-01 3.121073e+00 220 232 246
4.952694e-01 6.006900e-01 3.120422e+00 99 99 109
4.952694e-01 6.006900e-01 3.120422e+00 99 99 109
4.797303e-01 6.224059e-01 3.117996e+00 202 222 247
5.362151e-01 5.502145e-01 3.121401e+00 154 154 164
5.185106e-01 5.664914e-01 3.127036e+00 108 106 117
5.291673e-01 5.591467e-01 3.121623e+00 133 133 141
4.845922e-01 6.211296e-01 3.115867e+00 151 150 161
5.432979e-01 5.409979e-01 3.122401e+00 213 230 252
5.300403e-01 5.613268e-01 3.119313e+00 137 136 142
5.362138e-01 5.521478e-01 3.120737e+00 59 58 66
5.370234e-01 5.521668e-01 3.120199e+00 135 133 144
5.377960e-01 5.429356e-01 3.128204e+00 124 126 138
4.949574e-01 6.073553e-01 3.119351e+00 55 57 66
4.949574e-01 6.073553e-01 3.119351e+00 55 57 66
4.962149e-01 6.064232e-01 3.119147e+00 60 62 74
5.368827e-01 5.460320e-01 3.127854e+00 100 106 120
5.325282e-01 5.587393e-01 3.121452e+00 101 101 109
5.223838e-01 5.699519e-01 3.123714e+00 83 81 92
5.451337e-01 5.433125e-01 3.122604e+00 70 77 96
5.292044e-01 5.670405e-01 3.119496e+00 154 149 155
5.322230e-01 5.624014e-01 3.120925e+00 127 129 141
5.211924e-01 5.717259e-01 3.125127e+00 93 95 107
5.236089e-01 5.695333e-01 3.125121e+00 72 71 85
5.328098e-01 5.643931e-01 3.119669e+00 54 51 62
5.457039e-01 5.454516e-01 3.122203e+00 74 73 84
5.395557e-01 5.541732e-01 3.121569e+00 131 133 145
5.311387e-01 5.670860e-01 3.119631e+00 146 143 150
5.226626e-01 5.782336e-01 3.119113e+00 108 127 158
5.226626e-01 5.782336e-01 3.119113e+00 108 127 158
5.313625e-01 5.665557e-01 3.120378e+00 145 144 152
5.403433e-01 5.555694e-01 3.120769e+00 121 122 134
5.075005e-01 6.000637e-01 3.117869e+00 136 147 169
5.063198e-01 6.000459e-01 3.119442e+00 130 132 148
5.391212e-01 5.597290e-01 3.118995e+00 71 68 74
5.387630e-01 5.584579e-01 3.120958e+00 120 114 121
5.397888e-01 5.574434e-01 3.120814e+00 38 35 46
5.256887e-01 5.726045e-01 3.123283e+00 100 104 115
5.259094e-01 5.751427e-01 3.121099e+00 80 81 101
5.402117e-01 5.584782e-01 3.120243e+00 137 134 144
4.932052e-01 6.234438e-01 3.114530e+00 130 136 162
4.915256e-01 6.272921e-01 3.113441e+00 62 65 80
5.059759e-01 6.070293e-01 3.117571e+00 129 136 154
5.411423e-01 5.516228e-01 3.127937e+00 136 140 152
5.107612e-01 6.043123e-01 3.115886e+00 134 149 172
5.415499e-01 5.612261e-01 3.119999e+00 139 140 146
5.065000e-01 6.088897e-01 3.116649e+00 72 81 110
5.072280e-01 6.078874e-01 3.116987e+00 85 93 116
5.530573e-01 5.479397e-01 3.119299e+00 200 228 255
5.039797e-01 6.127928e-01 3.116504e+00 216 236 255
5.353944e-01 5.671327e-01 3.122868e+00 137 137 147
5.384233e-01 5.696723e-01 3.119063e+00 160 158 169
5.455572e-01 5.613283e-01 3.120075e+00 92 89 100
5.534338e-01 5.531045e-01 3.119778e+00 137 145 165
5.497585e-01 5.575800e-01 3.121529e+00 163 167 174
4.042542e-01 5.155085e-01 3.118052e+00 95 86 83
4.011900e-01 5.231022e-01 3.118457e+00 154 152 163
4.490574e-01 4.660656e-01 3.123953e+00 129 128 134
3.854540e-01 5.624655e-01 3.125826e+00 161 194 225
4.202871e-01 5.206101e-01 3.117467e+00 84 73 77
3.924861e-01 5.563048e-01 3.131388e+00 177 175 186
4.179638e-01 5.313793e-01 3.119342e+00 141 138 145
4.171422e-01 5.328405e-01 3.117891e+00 169 168 173
4.245885e-01 5.234822e-01 3.117740e+00 86 83 90
4.371644e-01 5.078869e-01 3.118894e+00 121 115 119
4.267756e-01 5.223912e-01 3.117796e+00 98 97 103
4.494666e-01 4.950119e-01 3.120570e+00 168 165 172
4.581915e-01 4.847037e-01 3.124500e+00 164 163 169
4.414189e-01 5.071625e-01 3.118898e+00 159 156 163
4.503619e-01 4.914018e-01 3.147203e+00 102 102 113
4.250271e-01 5.308691e-01 3.117375e+00 115 109 109
4.312509e-01 5.248270e-01 3.117742e+00 133 124 127
4.122841e-01 5.497548e-01 3.117980e+00 96 93 99
4.442236e-01 5.092980e-01 3.142926e+00 118 112 116
4.110559e-01 5.579090e-01 3.118461e+00 175 177 190
4.686947e-01 4.834341e-01 3.123649e+00 143 142 151
4.378846e-01 5.252914e-01 3.118005e+00 138 127 135
4.454074e-01 5.170904e-01 3.118724e+00 92 83 88
4.454074e-01 5.170904e-01 3.118724e+00 92 83 88
4.241926e-01 5.459418e-01 3.125321e+00 130 129 137
4.630211e-01 4.993455e-01 3.121495e+00 132 132 144
4.695125e-01 4.893695e-01 3.128280e+00 96 96 108
4.513988e-01 5.178320e-01 3.119191e+00 147 142 149
4.530228e-01 5.163402e-01 3.119429e+00 84 83 89
4.580302e-01 5.098605e-01 3.121004e+00 93 88 92
4.494445e-01 5.140773e-01 3.142948e+00 81 78 85
4.502112e-01 5.231448e-01 3.120364e+00 120 120 130
4.395622e-01 5.377444e-01 3.119148e+00 161 161 169
4.436824e-01 5.350493e-01 3.118673e+00 165 162 173
4.634808e-01 5.173700e-01 3.120451e+00 149 144 150
4.477849e-01 5.496522e-01 3.119631e+00 110 105 111
4.365545e-01 5.908054e-01 3.125904e+00 104 103 111
4.918757e-01 5.176770e-01 3.133809e+00 51 55 64
4.361487e-01 5.932001e-01 3.125277e+00 136 148 162
4.452286e-01 5.837827e-01 3.126337e+00 160 159 164
4.421595e-01 5.906563e-01 3.123734e+00 103 104 109
4.425841e-01 5.879829e-01 3.128274e+00 183 184 189
4.424306e-01 5.878622e-01 3.129152e+00 130 131 136
4.514530e-01 5.776299e-01 3.127623e+00 114 112 124
4.856984e-01 5.333912e-01 3.131473e+00 39 34 41
4.507073e-01 5.836331e-01 3.122683e+00 113 112 118
4.463273e-01 5.874900e-01 3.128921e+00 74 73 79
4.578260e-01 5.779447e-01 3.124388e+00 138 137 145
4.431604e-01 5.984522e-01 3.124415e+00 160 163 178
4.424005e-01 6.001578e-01 3.123566e+00 219 236 244
4.663999e-01 5.649926e-01 3.131243e+00 180 180 182
4.873432e-01 5.370571e-01 3.134249e+00 149 147 152
4.934968e-01 5.302046e-01 3.134521e+00 179 179 187
4.801167e-01 5.474270e-01 3.133830e+00 61 62 74
4.524400e-01 5.913053e-01 3.124666e+00 140 143 150
4.523178e-01 5.915703e-01 3.124799e+00 93 93 103
4.793262e-01 5.544203e-01 3.129266e+00 145 142 149
4.528513e-01 5.901608e-01 3.126089e+00 76 79 86
4.956879e-01 5.304154e-01 3.135027e+00 140 135 142
5.042190e-01 5.235797e-01 3.131275e+00 109 108 112
4.890297e-01 5.447852e-01 3.129759e+00 84 82 87
4.637743e-01 5.755721e-01 3.132006e+00 122 125 132
4.885546e-01 5.433033e-01 3.134786e+00 143 140 147
4.996329e-01 5.337759e-01 3.129947e+00 148 146 151
4.896922e-01 5.473791e-01 3.129638e+00 142 140 145
4.672051e-01 5.744728e-01 3.132212e+00 96 96 106
5.104291e-01 5.199034e-01 3.133306e+00 157 157 168
4.679644e-01 5.764765e-01 3.129369e+00 149 152 161
4.701486e-01 5.722106e-01 3.133321e+00 138 140 153
5.165338e-01 5.177376e-01 3.130676e+00 129 127 141
4.985269e-01 5.388435e-01 3.134213e+00 126 121 128
4.935253e-01 5.518054e-01 3.127727e+00 161 163 176
4.935083e-01 5.539089e-01 3.125918e+00 156 160 172
5.209766e-01 5.206995e-01 3.129668e+00 111 123 144
4.590870e-01 6.058988e-01 3.122457e+00 126 132 146
5.104420e-01 5.300157e-01 3.136769e+00 151 155 168
5.223017e-01 5.210242e-01 3.130246e+00 198 224 249
5.284762e-01 5.308707e-01 3.125701e+00 155 157 175
5.290066e-01 5.301009e-01 3.126060e+00 135 155 178
5.192808e-01 5.502782e-01 3.122513e+00 99 100 112
4.869546e-01 5.901910e-01 3.124673e+00 161 164 181
4.702338e-01 6.187194e-01 3.117561e+00 199 220 238
4.880396e-01 5.949650e-01 3.119707e+00 101 103 115
4.787625e-01 6.094288e-01 3.117102e+00 147 144 155
4.715042e-01 6.172043e-01 3.118392e+00 91 91 105
4.824036e-01 6.051880e-01 3.118249e+00 101 100 110
4.716659e-01 6.150644e-01 3.122092e+00 152 151 169
4.771467e-01 6.125547e-01 3.119606e+00 60 63 70
4.738377e-01 6.158623e-01 3.122819e+00 106 108 122
4.887485e-01 6.044187e-01 3.117808e+00 129 127 138
5.135725e-01 5.707931e-01 3.120532e+00 221 237 252
4.901927e-01 6.047549e-01 3.117207e+00 118 115 124
4.846020e-01 6.138302e-01 3.115324e+00 70 70 80
4.893311e-01 6.039735e-01 3.119327e+00 60 57 68
5.022098e-01 5.946986e-01 3.114932e+00 136 136 146
4.859602e-01 6.116214e-01 3.118115e+00 61 60 68
5.278306e-01 5.591547e-01 3.119551e+00 119 120 124
4.866991e-01 6.111898e-01 3.118753e+00 151 149 160
5.256215e-01 5.634274e-01 3.118352e+00 116 115 121
4.948237e-01 5.960662e-01 3.124033e+00 91 92 110
4.813474e-01 6.188700e-01 3.119248e+00 87 89 102
5.236162e-01 5.649697e-01 3.121192e+00 152 151 157
5.186655e-01 5.712640e-01 3.121129e+00 65 63 77
5.365030e-01 5.527043e-01 3.118798e+00 129 128 134
5.168059e-01 5.752321e-01 3.122617e+00 223 240 255
4.893879e-01 6.142346e-01 3.118331e+00 88 87 101
4.893879e-01 6.142346e-01 3.118331e+00 88 87 101
4.971449e-01 6.042070e-01 3.118922e+00 164 168 180
4.920099e-01 6.106205e-01 3.119190e+00 136 139 148
5.133349e-01 5.610648e-01 3.140515e+00 162 162 172
4.916486e-01 6.115072e-01 3.120102e+00 124 124 136
5.211292e-01 5.689164e-01 3.125835e+00 129 129 139
5.223475e-01 5.678801e-01 3.125501e+00 89 89 99
5.207978e-01 5.769734e-01 3.119583e+00 207 224 241
5.359821e-01 5.599810e-01 3.118502e+00 99 99 107
5.380123e-01 5.570637e-01 3.119013e+00 64 58 64
5.011495e-01 6.018415e-01 3.120130e+00 153 155 168
5.248000e-01 5.772886e-01 3.116204e+00 94 102 125
5.349819e-01 5.596624e-01 3.120839e+00 144 143 151
5.355429e-01 5.592060e-01 3.120920e+00 127 126 132
5.291245e-01 5.674202e-01 3.120755e+00 119 116 125
5.392103e-01 5.522621e-01 3.123573e+00 80 79 93
5.459967e-01 5.465186e-01 3.122057e+00 150 150 160
5.402478e-01 5.510932e-01 3.124344e+00 65 67 81
5.476292e-01 5.458198e-01 3.122061e+00 138 140 153
5.264386e-01 5.722911e-01 3.122384e+00 138 137 150
4.923097e-01 6.229055e-01 3.115376e+00 66 70 95
5.422362e-01 5.482308e-01 3.126377e+00 88 86 100
4.895920e-01 6.261271e-01 3.116161e+00 123 133 153
4.990785e-01 6.141980e-01 3.116826e+00 132 138 160
5.382283e-01 5.608201e-01 3.121091e+00 174 176 185
5.414135e-01 5.593866e-01 3.119226e+00 164 163 171
5.342713e-01 5.658319e-01 3.121483e+00 166 169 178
5.018505e-01 6.115428e-01 3.116978e+00 129 135 157
5.005461e-01 6.155627e-01 3.115364e+00 81 90 117
5.409551e-01 5.597928e-01 3.120351e+00 113 116 121
5.073852e-01 6.059137e-01 3.117762e+00 98 105 124
5.310111e-01 5.738375e-01 3.120879e+00 124 122 135
5.442812e-01 5.516946e-01 3.125845e+00 92 95 108
5.443547e-01 5.630520e-01 3.119538e+00 102 99 108
5.408062e-01 5.751523e-01 3.116320e+00 183 190 209
5.407689e-01 5.750887e-01 3.117414e+00 62 71 96
5.523386e-01 5.574169e-01 3.120588e+00 100 98 109
5.515041e-01 5.656827e-01 3.116630e+00 68 73 93
5.515041e-01 5.656827e-01 3.116630e+00 68 73 93
4.148516e-01 5.354480e-01 3.117804e+00 138 137 143
4.228288e-01 5.262321e-01 3.117397e+00 110 109 117
4.228288e-01 5.262321e-01 3.117397e+00 110 109 117
4.207374e-01 5.291160e-01 3.117542e+00 127 126 134
4.295934e-01 5.182257e-01 3.118884e+00 152 149 156
4.305859e-01 5.170932e-01 3.118973e+00 154 153 161
4.386255e-01 5.083263e-01 3.118642e+00 138 137 144
4.492332e-01 4.953310e-01 3.120356e+00 139 136 143
4.588257e-01 4.841090e-01 3.122528e+00 147 148 153
4.652915e-01 4.795703e-01 3.123681e+00 163 163 173
4.227727e-01 5.351586e-01 3.138436e+00 118 109 112
4.454366e-01 5.126308e-01 3.119158e+00 137 130 136
4.508136e-01 5.073030e-01 3.119665e+00 79 73 74
4.531529e-01 5.046213e-01 3.120152e+00 136 127 130
4.175475e-01 5.552636e-01 3.118041e+00 123 121 127
4.264705e-01 5.454613e-01 3.117837e+00 138 133 137
4.367211e-01 5.334320e-01 3.118594e+00 148 143 149
4.473448e-01 5.216059e-01 3.118991e+00 166 164 165
4.443038e-01 5.259137e-01 3.118394e+00 119 116 123
4.483677e-01 5.140039e-01 3.143039e+00 169 163 167
4.461241e-01 5.218780e-01 3.128052e+00 153 152 157
4.432928e-01 5.311330e-01 3.118354e+00 126 124 135
4.687843e-01 5.022219e-01 3.123286e+00 150 148 161
4.367919e-01 5.472541e-01 3.118077e+00 144 141 150
4.841427e-01 5.306163e-01 3.131774e+00 109 111 124
4.419544e-01 5.929459e-01 3.123272e+00 150 149 157
4.555206e-01 5.734902e-01 3.130427e+00 139 137 148
4.419344e-01 5.929475e-01 3.128408e+00 155 153 164
4.445285e-01 5.980753e-01 3.124355e+00 79 84 97
4.648924e-01 5.700540e-01 3.128798e+00 144 144 149
4.467877e-01 5.964925e-01 3.126668e+00 123 126 135
4.488809e-01 5.948020e-01 3.128073e+00 110 108 119
4.513046e-01 5.932871e-01 3.127437e+00 111 109 122
4.963478e-01 5.377221e-01 3.129480e+00 115 110 116
4.791449e-01 5.569022e-01 3.134166e+00 138 149 167
4.953125e-01 5.400278e-01 3.135844e+00 136 135 142
4.915855e-01 5.467168e-01 3.133599e+00 90 90 100
4.981303e-01 5.438538e-01 3.127763e+00 110 105 111
5.129797e-01 5.302228e-01 3.134157e+00 90 96 111
5.129797e-01 5.302228e-01 3.134157e+00 90 96 111
4.818687e-01 5.822399e-01 3.135697e+00 168 174 186
4.708260e-01 6.182415e-01 3.117797e+00 100 108 126
4.824777e-01 6.032951e-01 3.119359e+00 110 110 120
4.744555e-01 6.125227e-01 3.122713e+00 91 93 108
4.794384e-01 6.139454e-01 3.119092e+00 174 172 183
4.794384e-01 6.139454e-01 3.119092e+00 174 172 183
5.022440e-01 5.923027e-01 3.117035e+00 135 148 168
5.008643e-01 5.914730e-01 3.120030e+00 115 126 144
4.987696e-01 5.929119e-01 3.121630e+00 147 146 158
5.008251e-01 5.907999e-01 3.121264e+00 129 146 164
5.314882e-01 5.557201e-01 3.120740e+00 96 90 100
5.304043e-01 5.570872e-01 3.121893e+00 131 128 135
5.314573e-01 5.583574e-01 3.120317e+00 118 117 125
4.828035e-01 6.216088e-01 3.117738e+00 111 113 126
4.826801e-01 6.253567e-01 3.114807e+00 121 124 141
4.973943e-01 6.041691e-01 3.119079e+00 133 137 149
5.072991e-01 5.991784e-01 3.114996e+00 116 134 156
5.347462e-01 5.646671e-01 3.119872e+00 109 111 123
5.323472e-01 5.674567e-01 3.120086e+00 175 175 183
5.424785e-01 5.472319e-01 3.127389e+00 82 81 95
5.027176e-01 6.119883e-01 3.116355e+00 119 125 149
5.039078e-01 6.137091e-01 3.115916e+00 179 201 225
5.362254e-01 5.823371e-01 3.113988e+00 99 110 130
5.385935e-01 5.809587e-01 3.116876e+00 158 188 216
4.554603e-01 5.245829e-01 3.132193e+00 144 140 141
3.933311e-01 5.229020e-01 3.119226e+00 78 72 76
3.940934e-01 5.537369e-01 3.119565e+00 181 178 184
3.953173e-01 5.547149e-01 3.133084e+00 85 85 94
4.119510e-01 5.403088e-01 3.130696e+00 146 140 140
4.119815e-01 5.403334e-01 3.130515e+00 146 140 140
3.382355e-01 5.013838e-01 3.081966e+00 57 63 59
3.308611e-01 5.121084e-01 3.081519e+00 59 63 63
4.470711e-01 4.943360e-01 3.122102e+00 184 183 188
4.265936e-01 5.266980e-01 3.131184e+00 172 167 173
4.562371e-01 5.195408e-01 3.120923e+00 146 145 150
4.245175e-01 5.676933e-01 3.120186e+00 109 104 108
4.704219e-01 5.104866e-01 3.136794e+00 193 192 198
4.658791e-01 5.166286e-01 3.135276e+00 125 116 117
4.726563e-01 5.540801e-01 3.132948e+00 151 157 167
4.937599e-01 5.342782e-01 3.134268e+00 37 32 39
4.900192e-01 5.530582e-01 3.135722e+00 124 133 145
4.025889e-01 4.804032e-01 3.119611e+00 122 125 136
4.183651e-01 4.728095e-01 3.124529e+00 149 139 147
4.507961e-01 4.908262e-01 3.147458e+00 191 192 204
4.459987e-01 5.081051e-01 3.120533e+00 164 159 166
4.061655e-01 5.609531e-01 3.119770e+00 104 102 111
4.712991e-01 5.041908e-01 3.123425e+00 96 99 108
4.340365e-01 5.540029e-01 3.119196e+00 141 134 141
4.622202e-01 5.231089e-01 3.122275e+00 178 178 188
4.667526e-01 5.779539e-01 3.132537e+00 13 12 28
4.965075e-01 5.584886e-01 3.136684e+00 110 115 134
3.831561e-01 4.885350e-01 3.115023e+00 82 112 61
4.010202e-01 5.125929e-01 3.135636e+00 119 109 108
4.195173e-01 4.908366e-01 3.122370e+00 167 158 161
4.195173e-01 4.908366e-01 3.122370e+00 167 158 161
4.453516e-01 4.653372e-01 3.124318e+00 145 142 149
4.572768e-01 4.875226e-01 3.147862e+00 73 68 74
4.154766e-01 5.464986e-01 3.119075e+00 87 78 81
4.463040e-01 5.290822e-01 3.119116e+00 193 193 203
3.859155e-01 4.824333e-01 3.115674e+00 23 40 22
3.856138e-01 4.834059e-01 3.115597e+00 18 31 15
3.844356e-01 4.914630e-01 3.115837e+00 97 123 75
4.142716e-01 4.896136e-01 3.128632e+00 136 131 135
4.130578e-01 4.932168e-01 3.122750e+00 32 26 27
4.335948e-01 4.688988e-01 3.123210e+00 29 20 23
3.791866e-01 5.391091e-01 3.120253e+00 166 161 165
4.050005e-01 5.096132e-01 3.133187e+00 168 158 156
3.862132e-01 5.345810e-01 3.128085e+00 88 79 80
4.012539e-01 5.186947e-01 3.119082e+00 175 170 174
4.066920e-01 5.129202e-01 3.134403e+00 126 115 111
3.855579e-01 5.384021e-01 3.119841e+00 153 147 147
4.021928e-01 5.212416e-01 3.140632e+00 52 47 54
4.485644e-01 4.695513e-01 3.124512e+00 124 124 136
3.933260e-01 5.381386e-01 3.119504e+00 79 73 75
4.241727e-01 5.050848e-01 3.119823e+00 128 119 120
4.197638e-01 5.144425e-01 3.119833e+00 135 123 123
4.244504e-01 5.184370e-01 3.119116e+00 157 146 150
4.110961e-01 5.419449e-01 3.134016e+00 164 158 160
4.281546e-01 5.252258e-01 3.118670e+00 83 78 82
4.289223e-01 5.259175e-01 3.118853e+00 86 80 84
4.503079e-01 5.009671e-01 3.121839e+00 170 162 166
4.327480e-01 5.180629e-01 3.140968e+00 181 175 179
4.062034e-01 5.541681e-01 3.131031e+00 97 95 100
4.693214e-01 4.967721e-01 3.123562e+00 175 174 182
4.159256e-01 5.657390e-01 3.125003e+00 183 181 192
4.847562e-01 4.863921e-01 3.131792e+00 57 71 98
4.728061e-01 5.061994e-01 3.133936e+00 54 50 56
4.628776e-01 5.237524e-01 3.121540e+00 188 188 198
4.844689e-01 5.000479e-01 3.131331e+00 112 116 127
4.511916e-01 5.499072e-01 3.128823e+00 175 174 180
4.876850e-01 5.207306e-01 3.132952e+00 169 174 186
4.876850e-01 5.207306e-01 3.132952e+00 169 174 186
4.948440e-01 5.213752e-01 3.134063e+00 169 168 176
4.756610e-01 5.480894e-01 3.133113e+00 49 58 78
4.551969e-01 5.813762e-01 3.123225e+00 28 27 32
4.538225e-01 5.784672e-01 3.130124e+00 28 27 32
4.788781e-01 5.482602e-01 3.133635e+00 28 30 42
4.715292e-01 5.578630e-01 3.132147e+00 27 26 34
4.680542e-01 5.759810e-01 3.132333e+00 164 167 182
3.871846e-01 4.816174e-01 3.116059e+00 13 40 5
4.179151e-01 4.713977e-01 3.121225e+00 153 147 151
4.285213e-01 4.603656e-01 3.122513e+00 74 71 78
4.030515e-01 5.050988e-01 3.133558e+00 141 133 137
3.761840e-01 5.385628e-01 3.120616e+00 156 154 159
3.964554e-01 5.161356e-01 3.140794e+00 105 101 107
3.964968e-01 5.161246e-01 3.140708e+00 105 101 107
3.651910e-01 5.579556e-01 3.123600e+00 26 20 22
4.145030e-01 4.985008e-01 3.120437e+00 160 148 148
3.854226e-01 5.376347e-01 3.119829e+00 99 90 91
3.714664e-01 5.546633e-01 3.123485e+00 57 57 67
4.183465e-01 5.059243e-01 3.119027e+00 146 136 135
3.862236e-01 5.450941e-01 3.119835e+00 189 184 190
4.255735e-01 4.985867e-01 3.121960e+00 158 149 152
4.160082e-01 5.119663e-01 3.118705e+00 94 80 79
4.440900e-01 4.843344e-01 3.122811e+00 62 54 52
3.769849e-01 5.670560e-01 3.122971e+00 138 144 163
3.814643e-01 5.658004e-01 3.122877e+00 36 56 93
4.300772e-01 5.208155e-01 3.118967e+00 159 155 156
4.522958e-01 4.913055e-01 3.145205e+00 148 146 151
3.989021e-01 5.658442e-01 3.120066e+00 87 91 102
4.314229e-01 5.282069e-01 3.119017e+00 77 72 76
4.314229e-01 5.282069e-01 3.119017e+00 77 72 76
4.687198e-01 4.821503e-01 3.125111e+00 183 182 190
4.045585e-01 5.604980e-01 3.119511e+00 41 34 42
4.585895e-01 4.891446e-01 3.147750e+00 193 191 198
4.115617e-01 5.492671e-01 3.133225e+00 42 33 38
4.191950e-01 5.410737e-01 3.135055e+00 138 129 130
4.722506e-01 4.811469e-01 3.125922e+00 174 174 182
4.407187e-01 5.261880e-01 3.119389e+00 129 130 135
4.416188e-01 5.252772e-01 3.119456e+00 119 117 123
4.416188e-01 5.252772e-01 3.119456e+00 119 117 123
4.454700e-01 5.209218e-01 3.119816e+00 135 134 141
4.454700e-01 5.209218e-01 3.119816e+00 135 134 141
4.411895e-01 5.272052e-01 3.119719e+00 138 138 146
4.406609e-01 5.297078e-01 3.119377e+00 147 144 151
4.651279e-01 5.071344e-01 3.122856e+00 97 97 107
4.142363e-01 5.670098e-01 3.128982e+00 186 187 200
4.432733e-01 5.367252e-01 3.119943e+00 27 25 39
4.110267e-01 5.758249e-01 3.123934e+00 118 132 160
4.716363e-01 4.984156e-01 3.145244e+00 179 178 186
4.591157e-01 5.280371e-01 3.121088e+00 36 33 41
4.315362e-01 5.655389e-01 3.119797e+00 161 162 166
4.519438e-01 5.434224e-01 3.125876e+00 36 33 40
4.601799e-01 5.377062e-01 3.129886e+00 72 66 70
4.732179e-01 5.196741e-01 3.135023e+00 97 91 93
4.593601e-01 5.410940e-01 3.128383e+00 116 110 114
4.876481e-01 5.164958e-01 3.132891e+00 76 73 79
4.914965e-01 5.165579e-01 3.136887e+00 60 60 71
4.677729e-01 5.630427e-01 3.132178e+00 131 128 137
5.024873e-01 5.210029e-01 3.134893e+00 166 166 178
4.964189e-01 5.300992e-01 3.134825e+00 139 136 147
5.053922e-01 5.196705e-01 3.135326e+00 165 165 175
4.791924e-01 5.567004e-01 3.133785e+00 139 152 168
4.952413e-01 5.451008e-01 3.135621e+00 99 101 113
4.923606e-01 5.488075e-01 3.135316e+00 163 167 178
5.092254e-01 5.666477e-01 3.139225e+00 140 138 152
3.829158e-01 4.868466e-01 3.115012e+00 28 49 18
4.183122e-01 4.770607e-01 3.123739e+00 116 110 110
4.214218e-01 4.755691e-01 3.121309e+00 118 112 116
3.993216e-01 5.084912e-01 3.136715e+00 149 139 146
4.124805e-01 4.932781e-01 3.138335e+00 57 54 58
3.894215e-01 5.259152e-01 3.119618e+00 68 58 57
4.424077e-01 4.714249e-01 3.124216e+00 137 126 130
4.086838e-01 5.132979e-01 3.119476e+00 149 135 135
4.482413e-01 4.676951e-01 3.124749e+00 174 177 188
4.515467e-01 4.642187e-01 3.125584e+00 108 110 122
4.464819e-01 4.715145e-01 3.124594e+00 76 71 71
4.007759e-01 5.280146e-01 3.133625e+00 132 124 136
4.110782e-01 5.190588e-01 3.118420e+00 91 87 86
4.303443e-01 4.998899e-01 3.120650e+00 189 187 192
3.774482e-01 5.638715e-01 3.122970e+00 94 103 120
4.466062e-01 4.810443e-01 3.123744e+00 124 115 116
4.168588e-01 5.174328e-01 3.119136e+00 85 76 77
4.195614e-01 5.138100e-01 3.135805e+00 149 137 137
4.246760e-01 5.091190e-01 3.139510e+00 79 70 75
4.467858e-01 4.861666e-01 3.123176e+00 138 129 130
4.433935e-01 4.910562e-01 3.134730e+00 196 191 197
3.926781e-01 5.550717e-01 3.132510e+00 193 190 197
4.121464e-01 5.346081e-01 3.118188e+00 199 194 201
4.515718e-01 4.921990e-01 3.121926e+00 87 84 90
3.959653e-01 5.619028e-01 3.119886e+00 108 106 120
4.653878e-01 4.785909e-01 3.125224e+00 181 181 189
3.965690e-01 5.623293e-01 3.119877e+00 102 98 112
4.097380e-01 5.494226e-01 3.118721e+00 90 85 91
4.399246e-01 5.140555e-01 3.120065e+00 176 169 177
4.366024e-01 5.143967e-01 3.139928e+00 76 69 77
4.653079e-01 4.855645e-01 3.124083e+00 175 172 179
4.617630e-01 4.882315e-01 3.148501e+00 71 66 70
4.448447e-01 5.173055e-01 3.119937e+00 134 123 129
4.592497e-01 5.008222e-01 3.122213e+00 104 95 96
4.049305e-01 5.685175e-01 3.122405e+00 172 175 185
4.475372e-01 5.190868e-01 3.120788e+00 129 124 130
4.535831e-01 5.148588e-01 3.120688e+00 169 162 169
4.194824e-01 5.570479e-01 3.119002e+00 66 64 80
4.481586e-01 5.228359e-01 3.130439e+00 175 177 189
4.497837e-01 5.244712e-01 3.120386e+00 182 182 192
4.398736e-01 5.380143e-01 3.120602e+00 35 33 46
4.255366e-01 5.553907e-01 3.119534e+00 187 185 188
4.744415e-01 4.961439e-01 3.124621e+00 160 155 162
4.199799e-01 5.634440e-01 3.119829e+00 158 157 163
4.509522e-01 5.271891e-01 3.120484e+00 84 87 96
4.670452e-01 5.080938e-01 3.123001e+00 146 141 148
4.279517e-01 5.559878e-01 3.119298e+00 62 62 69
4.303041e-01 5.559800e-01 3.122576e+00 39 34 40
4.571329e-01 5.261206e-01 3.121087e+00 28 26 39
4.255266e-01 5.643076e-01 3.122747e+00 60 54 58
4.709913e-01 5.135531e-01 3.122820e+00 77 68 69
4.619988e-01 5.249391e-01 3.121094e+00 154 151 160
4.444566e-01 5.484897e-01 3.119744e+00 106 104 109
4.717627e-01 5.148661e-01 3.122911e+00 76 66 67
4.551936e-01 5.373832e-01 3.120638e+00 18 16 29
4.506281e-01 5.443159e-01 3.120326e+00 26 26 38
4.388360e-01 5.600877e-01 3.126631e+00 167 164 173
4.289877e-01 5.760062e-01 3.123160e+00 164 165 170
4.492965e-01 5.490187e-01 3.129376e+00 182 180 185
4.791572e-01 5.119033e-01 3.138267e+00 169 164 170
4.820237e-01 5.065708e-01 3.142979e+00 186 192 208
4.341184e-01 5.773094e-01 3.123609e+00 64 61 67
4.577214e-01 5.460954e-01 3.129500e+00 172 171 176
4.595703e-01 5.473996e-01 3.129517e+00 53 50 57
4.639629e-01 5.419786e-01 3.131085e+00 44 43 49
4.683228e-01 5.367794e-01 3.132474e+00 79 74 78
4.879484e-01 5.191948e-01 3.133075e+00 202 211 220
4.852363e-01 5.300596e-01 3.133502e+00 39 36 45
4.905662e-01 5.308126e-01 3.131842e+00 180 179 187
4.952643e-01 5.256036e-01 3.134547e+00 18 15 26
4.611734e-01 5.704439e-01 3.131029e+00 195 197 209
4.795828e-01 5.499066e-01 3.133689e+00 67 66 76
4.812491e-01 5.480238e-01 3.133812e+00 151 151 163
4.750121e-01 5.608931e-01 3.128420e+00 80 79 84
5.015315e-01 5.337444e-01 3.136412e+00 126 125 133
5.027472e-01 5.331736e-01 3.135843e+00 140 139 147
5.087655e-01 5.303075e-01 3.136486e+00 85 88 106
5.244470e-01 5.544493e-01 3.140717e+00 161 159 172
3.278322e-01 5.114626e-01 3.079054e+00 107 109 122
3.242681e-01 5.205732e-01 3.081580e+00 44 59 56
3.306085e-01 5.147501e-01 3.082076e+00 105 115 109
3.447737e-01 4.980867e-01 3.082615e+00 93 99 85
3.634471e-01 4.904048e-01 3.088331e+00 34 61 16
3.865899e-01 4.827935e-01 3.115936e+00 91 114 77
3.981861e-01 4.837827e-01 3.119233e+00 37 36 52
4.014838e-01 4.804311e-01 3.119064e+00 51 53 70
4.161740e-01 4.765429e-01 3.121140e+00 145 140 144
4.164325e-01 4.770783e-01 3.120912e+00 88 83 87
4.315507e-01 4.622793e-01 3.122922e+00 75 70 74
3.772698e-01 5.303391e-01 3.130694e+00 160 154 158
4.359665e-01 4.587470e-01 3.126217e+00 172 172 184
3.881021e-01 5.210883e-01 3.119541e+00 52 43 44
4.226163e-01 4.829373e-01 3.123800e+00 101 95 99
4.226163e-01 4.829373e-01 3.123800e+00 101 95 99
4.071723e-01 5.045050e-01 3.117108e+00 160 154 156
4.156167e-01 4.948201e-01 3.120457e+00 148 139 140
3.942111e-01 5.248717e-01 3.118389e+00 126 121 118
3.711493e-01 5.535325e-01 3.123386e+00 25 27 42
4.042429e-01 5.140004e-01 3.124695e+00 109 97 97
3.946209e-01 5.249132e-01 3.117910e+00 57 51 53
4.033207e-01 5.167474e-01 3.119001e+00 142 130 130
3.924401e-01 5.307385e-01 3.117592e+00 104 95 96
3.850907e-01 5.406585e-01 3.119868e+00 78 72 73
3.972000e-01 5.279505e-01 3.118716e+00 150 141 144
3.740749e-01 5.560741e-01 3.123454e+00 40 43 64
3.902054e-01 5.368773e-01 3.119557e+00 77 68 69
3.854058e-01 5.441628e-01 3.119548e+00 170 164 164
3.998605e-01 5.270930e-01 3.118790e+00 191 184 192
3.865525e-01 5.441244e-01 3.119839e+00 170 162 160
3.771822e-01 5.564232e-01 3.123347e+00 55 62 78
4.212704e-01 5.044259e-01 3.119648e+00 123 113 114
4.500042e-01 4.703703e-01 3.125401e+00 186 184 195
4.145506e-01 5.156375e-01 3.135510e+00 81 72 73
4.239843e-01 5.057686e-01 3.119612e+00 68 59 61
3.957872e-01 5.391832e-01 3.131207e+00 135 126 129
4.456240e-01 4.813310e-01 3.123815e+00 72 64 61
4.230144e-01 5.101123e-01 3.119906e+00 122 116 116
4.254432e-01 5.075261e-01 3.119886e+00 133 128 125
4.254425e-01 5.075148e-01 3.119789e+00 133 128 125
3.828804e-01 5.622159e-01 3.123526e+00 141 144 159
