ply
format ascii 1.0
element face 0
property list uchar int vertex_indices
element vertex 953
property float x
property float y
property float z
property uchar diffuse_red
property uchar diffuse_green
property uchar diffuse_blue
end_header
4.015761e-01 4.934448e-01 3.140547e+00 98 98 106
4.013662e-01 4.939918e-01 3.140423e+00 56 57 65
3.966404e-01 5.003923e-01 3.138878e+00 49 49 57
3.997515e-01 4.975562e-01 3.142199e+00 85 86 88
4.063413e-01 4.910396e-01 3.146102e+00 155 154 150
4.048056e-01 4.936298e-01 3.140653e+00 54 50 57
4.085017e-01 4.904591e-01 3.148974e+00 99 98 94
4.072203e-01 4.931873e-01 3.144656e+00 164 165 160
3.973234e-01 5.054064e-01 3.141052e+00 152 154 155
4.048402e-01 4.961208e-01 3.140080e+00 62 59 73
4.071548e-01 4.939844e-01 3.143737e+00 85 85 85
4.071548e-01 4.939844e-01 3.143737e+00 85 85 85
4.077030e-01 4.935656e-01 3.144619e+00 91 92 96
4.085146e-01 4.930426e-01 3.146209e+00 89 88 87
3.990979e-01 5.052429e-01 3.139167e+00 90 87 82
4.113946e-01 4.925106e-01 3.148811e+00 102 101 96
4.042762e-01 5.017536e-01 3.141383e+00 132 132 130
4.008670e-01 5.060527e-01 3.138981e+00 94 95 99
4.103386e-01 4.957036e-01 3.145023e+00 162 163 159
4.040101e-01 5.032367e-01 3.139852e+00 181 182 184
4.095024e-01 4.968129e-01 3.141473e+00 117 121 120
4.094038e-01 4.971349e-01 3.141361e+00 109 110 112
4.093738e-01 4.972736e-01 3.141289e+00 134 136 133
4.038961e-01 5.038591e-01 3.139877e+00 117 116 112
4.038961e-01 5.038591e-01 3.139877e+00 117 116 112
4.075295e-01 4.996867e-01 3.140924e+00 156 157 152
4.058844e-01 5.017048e-01 3.140444e+00 122 120 115
4.058787e-01 5.017076e-01 3.140461e+00 122 120 115
4.058087e-01 5.018422e-01 3.140443e+00 177 176 172
4.033579e-01 5.048622e-01 3.139608e+00 107 104 99
4.118526e-01 4.951185e-01 3.145824e+00 77 76 71
4.118571e-01 4.951133e-01 3.145810e+00 77 76 71
4.118828e-01 4.951781e-01 3.145802e+00 160 162 148
4.002211e-01 5.096354e-01 3.141197e+00 152 146 135
4.057558e-01 5.029734e-01 3.140366e+00 132 131 127
4.029983e-01 5.063955e-01 3.139370e+00 153 153 151
4.066956e-01 5.026459e-01 3.140579e+00 159 156 140
4.025503e-01 5.076718e-01 3.138964e+00 114 114 112
4.025368e-01 5.076772e-01 3.139004e+00 114 114 112
4.026052e-01 5.077359e-01 3.139063e+00 156 158 157
4.076366e-01 5.019442e-01 3.140714e+00 122 121 119
4.089244e-01 5.006578e-01 3.140809e+00 99 98 93
4.067401e-01 5.033093e-01 3.140270e+00 134 135 130
4.069226e-01 5.032667e-01 3.140358e+00 181 181 181
4.133985e-01 4.965887e-01 3.145618e+00 177 173 170
4.119034e-01 4.998147e-01 3.140984e+00 94 93 89
4.119034e-01 4.998147e-01 3.140984e+00 94 93 89
4.106364e-01 5.015947e-01 3.140454e+00 138 137 135
4.114307e-01 5.010346e-01 3.140654e+00 174 169 147
4.075635e-01 5.067973e-01 3.139393e+00 178 175 170
4.055056e-01 5.095047e-01 3.138792e+00 115 111 108
4.089707e-01 5.061123e-01 3.139609e+00 121 120 118
4.102377e-01 5.049422e-01 3.139887e+00 109 108 104
4.115289e-01 5.051211e-01 3.140358e+00 128 127 122
4.132599e-01 5.032966e-01 3.140489e+00 129 122 112
4.081034e-01 5.096151e-01 3.139004e+00 89 79 78
4.081700e-01 5.098564e-01 3.139071e+00 81 76 73
4.115563e-01 5.062801e-01 3.140083e+00 171 171 169
4.102687e-01 5.161576e-01 3.142934e+00 184 180 177
4.120502e-01 5.202910e-01 3.145046e+00 116 111 103
4.025737e-01 4.881615e-01 3.145644e+00 94 95 98
3.971359e-01 4.946861e-01 3.142661e+00 165 169 180
3.941400e-01 4.980410e-01 3.139319e+00 81 85 96
4.032885e-01 4.890908e-01 3.144816e+00 95 95 95
3.959662e-01 4.980897e-01 3.139348e+00 55 56 65
3.982671e-01 4.961461e-01 3.142434e+00 97 97 94
4.021792e-01 4.910955e-01 3.141060e+00 72 71 79
4.061515e-01 4.879443e-01 3.149258e+00 105 104 100
4.011856e-01 4.931190e-01 3.140498e+00 92 92 102
4.032842e-01 4.909339e-01 3.143306e+00 78 78 80
4.032842e-01 4.909339e-01 3.143306e+00 78 78 80
3.988507e-01 4.969475e-01 3.142189e+00 139 140 144
3.986880e-01 4.971880e-01 3.141940e+00 65 66 68
3.994776e-01 4.966828e-01 3.142482e+00 112 119 124
3.977827e-01 4.984420e-01 3.139225e+00 81 84 91
3.977827e-01 4.984420e-01 3.139225e+00 81 84 91
3.946812e-01 5.033496e-01 3.141042e+00 98 99 101
4.030897e-01 4.930378e-01 3.140720e+00 95 98 103
4.030897e-01 4.930378e-01 3.140720e+00 95 98 103
4.058774e-01 4.905700e-01 3.146641e+00 159 160 162
4.047560e-01 4.917063e-01 3.143813e+00 102 106 115
4.047431e-01 4.918041e-01 3.143707e+00 89 94 98
4.040855e-01 4.924923e-01 3.142085e+00 87 88 92
4.040635e-01 4.925501e-01 3.142029e+00 93 94 99
4.083845e-01 4.903058e-01 3.148947e+00 143 140 135
4.081941e-01 4.911910e-01 3.147745e+00 156 155 153
4.058061e-01 4.937021e-01 3.141886e+00 80 80 78
4.098366e-01 4.899729e-01 3.150457e+00 112 112 110
4.046064e-01 4.958907e-01 3.140062e+00 97 96 102
4.084359e-01 4.922135e-01 3.146818e+00 145 146 144
4.049172e-01 4.960389e-01 3.140048e+00 61 60 65
4.101511e-01 4.907987e-01 3.149366e+00 131 130 128
4.069629e-01 4.941083e-01 3.143407e+00 88 88 90
4.072545e-01 4.938200e-01 3.143799e+00 171 171 171
4.071858e-01 4.940363e-01 3.143787e+00 159 159 160
4.100302e-01 4.913883e-01 3.148980e+00 118 118 118
4.085233e-01 4.929635e-01 3.146304e+00 145 144 142
4.107785e-01 4.912169e-01 3.150160e+00 167 166 160
4.074896e-01 4.951304e-01 3.141669e+00 140 140 140
4.016823e-01 5.024289e-01 3.138615e+00 100 105 111
3.980441e-01 5.075744e-01 3.141707e+00 152 152 150
4.098034e-01 4.936868e-01 3.146126e+00 161 157 154
4.098609e-01 4.937804e-01 3.146143e+00 158 157 152
4.112535e-01 4.923490e-01 3.148739e+00 101 100 96
4.112550e-01 4.923469e-01 3.148737e+00 101 100 96
4.086773e-01 4.952390e-01 3.143408e+00 121 123 122
4.114336e-01 4.927213e-01 3.148785e+00 118 119 113
4.083607e-01 4.964576e-01 3.141393e+00 121 119 120
4.115575e-01 4.943450e-01 3.147565e+00 131 130 128
4.132363e-01 4.926988e-01 3.150706e+00 171 171 173
4.132356e-01 4.927674e-01 3.150687e+00 138 138 142
4.075005e-01 4.991981e-01 3.140879e+00 178 180 179
4.074281e-01 4.992933e-01 3.140890e+00 178 178 176
4.073703e-01 4.993974e-01 3.140829e+00 180 180 180
4.073633e-01 4.995302e-01 3.140823e+00 122 123 118
4.073823e-01 4.997460e-01 3.140889e+00 156 155 150
4.049716e-01 5.026547e-01 3.140196e+00 172 173 166
4.014293e-01 5.069410e-01 3.139013e+00 155 157 154
4.056488e-01 5.019192e-01 3.140340e+00 173 173 165
4.057751e-01 5.018007e-01 3.140410e+00 124 123 118
4.057491e-01 5.018639e-01 3.140404e+00 127 127 119
4.057491e-01 5.018639e-01 3.140404e+00 127 127 119
4.059592e-01 5.017213e-01 3.140505e+00 174 174 168
4.054394e-01 5.025060e-01 3.140290e+00 130 129 124
4.054394e-01 5.025060e-01 3.140290e+00 130 129 124
4.134955e-01 4.935709e-01 3.149911e+00 158 157 153
4.072160e-01 5.005457e-01 3.140696e+00 143 144 146
4.072160e-01 5.005457e-01 3.140696e+00 143 144 146
4.148217e-01 4.922084e-01 3.152890e+00 198 200 213
4.045543e-01 5.044462e-01 3.139805e+00 181 180 177
4.133167e-01 4.949125e-01 3.147073e+00 132 127 121
4.024633e-01 5.076437e-01 3.138943e+00 126 126 126
4.024882e-01 5.076807e-01 3.138997e+00 152 152 152
4.033283e-01 5.067645e-01 3.139182e+00 176 180 181
4.088918e-01 5.005985e-01 3.140917e+00 161 161 153
4.089896e-01 5.018582e-01 3.140723e+00 123 122 118
4.138523e-01 4.970390e-01 3.145583e+00 86 82 78
4.019225e-01 5.112344e-01 3.141026e+00 151 148 141
4.150709e-01 4.960640e-01 3.147098e+00 134 132 126
4.097505e-01 5.026253e-01 3.140287e+00 178 178 178
4.141195e-01 4.975970e-01 3.145101e+00 121 116 101
4.141195e-01 4.975970e-01 3.145101e+00 121 116 101
4.061719e-01 5.071253e-01 3.139260e+00 173 170 163
4.143026e-01 4.976191e-01 3.145396e+00 87 80 74
4.074941e-01 5.058913e-01 3.139583e+00 172 172 164
4.144715e-01 4.978152e-01 3.145576e+00 177 173 162
4.130166e-01 4.994863e-01 3.141111e+00 145 142 136
4.164126e-01 4.958710e-01 3.149113e+00 119 110 101
4.095190e-01 5.038183e-01 3.140140e+00 132 129 122
4.113074e-01 5.023447e-01 3.140446e+00 136 135 130
4.055042e-01 5.092805e-01 3.138803e+00 173 171 160
4.076349e-01 5.067930e-01 3.139439e+00 133 132 127
4.129859e-01 5.004844e-01 3.140892e+00 126 121 108
4.141954e-01 4.997080e-01 3.142574e+00 136 131 125
4.114937e-01 5.032320e-01 3.140398e+00 140 139 135
4.021839e-01 5.153584e-01 3.143820e+00 149 142 130
4.174399e-01 4.975064e-01 3.147959e+00 141 137 128
4.115600e-01 5.079566e-01 3.139156e+00 117 117 115
4.178798e-01 5.005792e-01 3.146206e+00 176 174 170
4.039557e-01 5.176181e-01 3.144679e+00 153 150 141
4.163494e-01 5.032320e-01 3.141942e+00 161 157 148
4.186640e-01 5.027324e-01 3.145848e+00 96 92 88
4.163353e-01 5.059013e-01 3.141079e+00 151 150 146
4.147629e-01 5.095199e-01 3.139407e+00 133 130 123
4.194166e-01 5.048920e-01 3.145414e+00 80 75 71
4.186955e-01 5.079684e-01 3.143427e+00 129 123 106
4.198008e-01 5.082428e-01 3.144947e+00 189 186 182
4.210619e-01 5.074050e-01 3.146230e+00 192 191 186
4.216849e-01 5.070004e-01 3.147462e+00 167 163 152
4.178065e-01 5.146831e-01 3.143594e+00 118 114 107
4.187271e-01 5.154697e-01 3.144347e+00 153 146 140
4.009182e-01 4.898377e-01 3.142566e+00 95 95 97
3.950882e-01 4.973909e-01 3.139455e+00 68 72 83
3.983189e-01 4.961077e-01 3.142372e+00 146 146 148
4.051581e-01 4.886976e-01 3.147174e+00 118 114 111
3.972131e-01 4.980190e-01 3.139343e+00 50 51 63
3.993029e-01 4.966206e-01 3.142440e+00 94 94 97
4.055152e-01 4.896659e-01 3.145401e+00 115 114 110
3.995443e-01 4.967208e-01 3.142347e+00 131 137 143
4.005538e-01 4.952965e-01 3.139997e+00 77 81 92
4.006996e-01 4.952516e-01 3.140053e+00 44 49 58
3.983925e-01 4.985524e-01 3.139290e+00 75 79 88
3.967316e-01 5.007157e-01 3.138823e+00 78 81 88
3.987279e-01 4.983586e-01 3.139294e+00 45 49 57
3.979505e-01 4.994938e-01 3.139074e+00 84 87 96
3.992947e-01 4.990177e-01 3.139165e+00 86 90 96
3.981694e-01 5.013800e-01 3.138724e+00 81 84 91
4.081304e-01 4.905150e-01 3.147910e+00 145 145 145
4.099466e-01 4.914554e-01 3.148860e+00 114 114 114
4.099466e-01 4.914554e-01 3.148860e+00 114 114 114
4.073623e-01 4.943926e-01 3.143638e+00 121 122 126
4.108801e-01 4.911106e-01 3.150273e+00 118 118 116
4.047288e-01 5.014190e-01 3.141768e+00 141 141 141
3.966258e-01 5.117165e-01 3.144734e+00 122 123 127
4.131917e-01 4.919521e-01 3.149660e+00 58 53 49
3.972959e-01 5.109464e-01 3.143742e+00 147 147 149
4.058731e-01 5.002610e-01 3.140505e+00 117 115 117
3.973715e-01 5.109620e-01 3.143755e+00 118 118 120
4.042119e-01 5.024616e-01 3.139944e+00 130 131 130
4.115716e-01 4.944660e-01 3.147510e+00 129 128 123
4.133245e-01 4.927300e-01 3.150673e+00 192 191 197
4.080618e-01 4.983888e-01 3.140996e+00 182 186 187
4.144847e-01 4.915210e-01 3.152664e+00 136 136 134
4.075512e-01 4.991645e-01 3.140891e+00 127 129 128
4.072762e-01 4.995013e-01 3.140769e+00 169 170 164
4.072762e-01 4.995013e-01 3.140769e+00 169 170 164
4.075957e-01 4.994737e-01 3.141045e+00 164 164 162
4.036761e-01 5.041897e-01 3.139778e+00 115 112 105
4.134769e-01 4.935319e-01 3.149922e+00 115 114 112
4.030433e-01 5.055904e-01 3.139376e+00 162 162 160
4.125003e-01 4.956805e-01 3.145898e+00 161 158 151
4.125054e-01 4.961738e-01 3.145633e+00 152 149 149
4.089555e-01 5.006538e-01 3.140876e+00 158 158 150
4.085141e-01 5.015060e-01 3.140723e+00 182 182 178
4.077862e-01 5.031837e-01 3.140119e+00 196 196 196
4.145945e-01 4.954454e-01 3.147983e+00 152 150 152
4.073748e-01 5.038433e-01 3.140432e+00 147 147 145
4.010142e-01 5.121956e-01 3.141972e+00 114 113 108
4.010240e-01 5.122377e-01 3.141976e+00 159 156 151
4.118710e-01 5.007976e-01 3.140886e+00 126 121 115
4.091044e-01 5.048766e-01 3.140019e+00 155 155 153
4.133894e-01 4.997941e-01 3.140859e+00 103 99 96
4.075541e-01 5.068457e-01 3.139364e+00 123 120 114
4.120892e-01 5.015693e-01 3.140648e+00 106 99 89
4.166398e-01 4.976564e-01 3.147955e+00 161 159 156
4.137125e-01 5.010229e-01 3.140881e+00 103 102 100
4.164429e-01 4.986047e-01 3.146539e+00 132 127 121
4.164507e-01 4.991636e-01 3.146190e+00 131 124 108
4.184949e-01 5.065850e-01 3.143762e+00 122 111 104
4.217653e-01 5.070370e-01 3.147542e+00 130 126 115
4.114279e-01 5.227735e-01 3.145150e+00 167 167 169
4.450815e-01 5.385806e-01 3.132792e+00 32 40 43
4.912306e-01 5.555024e-01 3.116866e+00 248 252 254
5.291179e-01 5.781987e-01 3.130148e+00 230 244 253
4.808363e-01 5.513747e-01 3.135806e+00 105 106 98
4.808363e-01 5.513747e-01 3.135806e+00 105 106 98
4.010239e-01 5.499492e-01 3.137704e+00 12 17 22
3.668601e-01 5.731074e-01 3.373752e+00 234 215 239
3.824317e-01 5.327764e-01 3.133526e+00 90 86 87
4.111820e-01 5.017464e-01 3.140546e+00 174 164 156
4.103494e-01 5.030727e-01 3.140210e+00 166 157 152
3.948547e-01 5.060048e-01 3.142786e+00 58 54 55
3.977093e-01 4.972842e-01 3.143535e+00 123 123 123
3.960662e-01 5.051250e-01 3.141836e+00 82 82 80
4.044335e-01 5.011326e-01 3.141838e+00 59 55 56
3.999269e-01 5.075608e-01 3.141699e+00 131 127 127
4.035499e-01 5.049294e-01 3.140255e+00 155 146 139
4.030511e-01 5.059770e-01 3.139605e+00 140 131 125
3.940658e-01 5.172990e-01 3.146455e+00 104 100 101
4.091905e-01 5.006667e-01 3.141292e+00 162 157 148
4.145005e-01 5.021649e-01 3.140486e+00 161 151 142
4.028304e-01 5.079256e-01 3.139257e+00 160 149 153
4.035959e-01 5.071164e-01 3.139398e+00 118 107 112
3.970553e-01 5.196454e-01 3.146430e+00 116 118 123
3.791623e-01 5.354182e-01 3.343023e+00 94 92 95
3.795019e-01 5.349776e-01 3.343034e+00 101 99 102
3.725815e-01 5.654281e-01 3.374217e+00 20 16 35
3.742527e-01 5.415089e-01 3.342330e+00 166 165 164
3.764778e-01 5.388437e-01 3.344343e+00 146 142 141
3.805068e-01 5.338539e-01 3.344252e+00 118 114 115
4.407765e-01 5.064807e-01 3.148313e+00 81 72 55
4.219485e-01 5.487729e-01 3.131861e+00 49 51 49
5.099533e-01 5.520439e-01 3.131315e+00 19 27 30
5.280084e-01 5.603613e-01 3.134848e+00 148 142 130
5.224120e-01 5.679195e-01 3.132208e+00 139 133 121
4.681577e-01 5.799236e-01 3.129609e+00 135 130 117
4.684913e-01 5.334267e-01 3.141868e+00 77 70 54
4.468789e-01 5.921298e-01 3.128499e+00 59 55 46
4.888310e-01 5.424707e-01 3.140947e+00 58 54 43
5.131891e-01 5.663579e-01 3.135450e+00 150 145 130
4.723127e-01 6.242358e-01 3.121151e+00 239 243 242
4.120869e-01 4.928533e-01 3.149193e+00 37 31 18
4.120869e-01 4.928533e-01 3.149193e+00 37 31 18
4.444091e-01 5.082469e-01 3.148931e+00 68 60 47
4.723092e-01 5.322190e-01 3.141901e+00 143 136 118
5.253206e-01 5.787803e-01 3.128144e+00 245 247 243
5.436159e-01 5.598678e-01 3.132186e+00 92 89 80
4.435870e-01 5.239371e-01 3.135765e+00 46 47 39
4.462271e-01 5.236480e-01 3.135804e+00 45 43 37
4.455641e-01 5.434205e-01 3.132751e+00 42 37 31
4.639897e-01 5.621758e-01 3.133402e+00 40 40 27
4.581425e-01 5.736606e-01 3.130256e+00 39 35 24
4.871947e-01 5.348982e-01 3.140165e+00 129 123 107
4.999094e-01 5.268897e-01 3.142188e+00 111 102 89
5.119499e-01 5.198090e-01 3.143559e+00 99 101 90
5.190071e-01 5.660675e-01 3.132173e+00 134 131 116
4.256499e-01 5.176032e-01 3.146686e+00 155 149 136
4.214969e-01 5.252974e-01 3.143463e+00 130 116 98
4.222885e-01 5.301680e-01 3.142739e+00 135 126 111
4.289840e-01 5.224269e-01 3.144761e+00 127 120 103
4.331880e-01 5.288617e-01 3.143337e+00 56 49 31
4.329979e-01 5.288338e-01 3.143455e+00 56 49 31
4.216486e-01 5.452044e-01 3.136257e+00 52 49 45
4.301728e-01 5.431875e-01 3.140583e+00 159 153 135
4.567130e-01 5.163781e-01 3.141372e+00 79 72 53
4.592761e-01 5.149357e-01 3.139116e+00 102 93 76
4.747840e-01 5.306409e-01 3.138800e+00 111 104 86
4.695924e-01 5.534488e-01 3.133602e+00 79 82 71
5.009570e-01 5.214113e-01 3.145678e+00 153 148 131
4.600586e-01 5.793682e-01 3.130771e+00 123 116 106
4.895908e-01 5.443885e-01 3.141578e+00 150 144 130
5.009112e-01 5.424573e-01 3.133707e+00 42 41 37
5.175342e-01 5.476078e-01 3.131773e+00 29 33 34
4.779423e-01 6.117211e-01 3.119912e+00 104 102 90
5.124936e-01 5.686491e-01 3.132508e+00 73 69 58
5.311644e-01 5.542258e-01 3.134654e+00 88 82 68
3.607480e-01 5.486053e-01 3.127166e+00 172 164 165
4.177473e-01 5.265507e-01 3.143735e+00 123 117 105
4.155402e-01 5.395881e-01 3.140513e+00 50 40 28
4.248421e-01 5.301029e-01 3.143933e+00 105 96 79
4.127641e-01 5.466864e-01 3.140116e+00 76 68 57
4.494699e-01 5.008259e-01 3.150509e+00 122 114 93
4.575483e-01 4.930604e-01 3.141733e+00 111 100 84
4.584219e-01 4.902114e-01 3.153922e+00 121 109 94
4.244054e-01 5.403362e-01 3.141776e+00 97 90 72
4.410608e-01 5.370578e-01 3.134057e+00 155 148 139
4.265770e-01 5.740049e-01 3.128724e+00 96 90 74
4.626140e-01 5.531449e-01 3.116013e+00 231 231 232
4.531612e-01 5.726458e-01 3.129741e+00 45 39 28
4.567028e-01 5.827772e-01 3.130395e+00 132 124 113
4.858219e-01 5.486175e-01 3.140295e+00 162 156 144
5.155001e-01 5.562915e-01 3.129110e+00 58 61 66
4.674266e-01 6.186662e-01 3.118778e+00 127 127 118
4.214023e-01 5.238834e-01 3.145109e+00 56 51 34
4.288911e-01 5.150368e-01 3.146005e+00 63 53 39
4.363850e-01 5.080729e-01 3.149876e+00 77 68 58
4.504645e-01 4.993327e-01 3.150747e+00 112 103 88
4.625061e-01 4.933810e-01 3.151928e+00 90 82 65
4.281712e-01 5.658807e-01 3.129575e+00 129 123 109
4.345088e-01 5.616491e-01 3.131723e+00 127 118 101
4.474651e-01 5.524603e-01 3.134262e+00 116 108 94
4.799863e-01 5.141039e-01 3.143194e+00 98 90 68
4.539303e-01 5.704899e-01 3.130473e+00 121 115 99
5.131989e-01 5.196002e-01 3.144002e+00 232 238 237
4.839620e-01 6.210271e-01 3.120358e+00 73 68 62
5.366085e-01 5.595985e-01 3.134234e+00 106 102 91
4.129281e-01 5.404970e-01 3.139056e+00 153 153 151
4.138811e-01 5.662595e-01 3.132975e+00 177 181 180
4.147924e-01 5.258346e-01 3.214665e+00 65 58 55
4.222156e-01 5.633060e-01 3.127940e+00 52 57 59
4.448784e-01 5.233043e-01 3.134883e+00 147 153 161
4.414027e-01 5.378384e-01 3.133071e+00 159 166 174
4.341508e-01 5.235050e-01 3.144795e+00 153 140 123
4.217617e-01 5.359663e-01 3.143499e+00 71 59 53
4.048349e-01 5.583331e-01 3.135777e+00 138 129 114
4.827387e-01 5.349079e-01 3.137220e+00 152 139 114
4.860488e-01 5.374778e-01 3.137957e+00 121 106 87
4.837916e-01 5.453475e-01 3.139839e+00 166 156 131
4.904783e-01 6.045606e-01 3.123014e+00 65 61 52
4.399719e-01 5.117725e-01 3.149654e+00 143 125 102
4.443662e-01 5.094994e-01 3.148171e+00 78 64 54
4.359287e-01 5.360771e-01 3.133029e+00 44 43 41
4.155504e-01 5.656003e-01 3.130315e+00 83 72 57
4.509838e-01 5.345944e-01 3.133591e+00 42 38 37
4.797105e-01 5.423602e-01 3.140233e+00 90 77 61
4.794962e-01 6.111255e-01 3.118512e+00 18 17 24
4.456690e-01 5.406458e-01 3.132838e+00 57 52 50
4.563782e-01 5.524563e-01 3.134620e+00 36 31 27
4.935927e-01 5.325464e-01 3.139609e+00 39 32 22
5.209428e-01 5.583371e-01 3.128983e+00 31 30 28
5.169489e-01 5.635145e-01 3.131502e+00 94 85 68
4.482991e-01 5.395975e-01 3.133000e+00 157 146 125
4.851292e-01 5.152645e-01 3.144281e+00 162 152 136
4.859219e-01 5.205015e-01 3.139319e+00 137 126 107
4.478937e-01 5.345470e-01 3.133967e+00 157 150 132
4.479082e-01 5.345594e-01 3.133811e+00 157 150 132
4.479456e-01 5.389952e-01 3.132856e+00 49 41 32
4.886405e-01 5.256393e-01 3.139221e+00 94 82 60
4.327495e-01 5.654401e-01 3.129471e+00 115 103 87
4.450005e-01 5.692633e-01 3.129547e+00 131 124 104
4.816792e-01 5.340723e-01 3.136855e+00 161 145 119
4.562943e-01 5.539571e-01 3.134413e+00 60 56 44
4.819801e-01 5.335865e-01 3.137420e+00 98 86 64
5.291469e-01 5.592305e-01 3.133591e+00 155 144 126
4.481295e-01 5.684939e-01 3.127205e+00 94 89 85
4.597645e-01 5.620122e-01 3.132684e+00 136 130 118
4.953467e-01 5.809946e-01 3.097381e+00 226 229 234
5.132892e-01 5.661556e-01 3.135572e+00 148 142 129
4.347495e-01 5.468513e-01 3.137083e+00 139 135 123
4.475698e-01 5.585900e-01 3.137240e+00 82 70 58
4.544722e-01 5.526887e-01 3.132986e+00 117 114 105
4.619838e-01 5.435900e-01 3.136698e+00 110 110 102
4.907535e-01 5.149808e-01 3.146361e+00 136 128 115
4.597109e-01 5.708964e-01 3.135162e+00 135 128 116
5.043620e-01 5.242021e-01 3.145624e+00 85 78 72
5.132102e-01 5.745966e-01 3.131724e+00 238 238 240
4.397976e-01 5.307397e-01 3.142339e+00 96 92 81
4.909041e-01 5.482913e-01 3.139005e+00 136 129 120
4.887935e-01 5.529486e-01 3.134213e+00 97 92 88
4.363128e-01 5.327921e-01 3.143805e+00 24 18 16
4.598211e-01 5.651431e-01 3.132153e+00 75 67 54
4.528884e-01 5.756027e-01 3.129685e+00 20 13 11
4.656922e-01 5.606084e-01 3.129942e+00 36 24 25
4.656922e-01 5.606084e-01 3.129942e+00 36 24 25
4.368090e-01 5.318466e-01 3.140655e+00 130 124 112
4.870053e-01 5.495830e-01 3.140740e+00 131 126 120
5.046942e-01 5.282268e-01 3.144772e+00 124 119 110
5.137721e-01 5.525830e-01 3.130300e+00 22 24 38
5.308469e-01 5.499289e-01 3.136211e+00 77 77 69
5.197219e-01 5.581690e-01 3.128575e+00 64 63 74
4.108519e-01 4.954569e-01 3.145083e+00 158 159 161
3.985416e-01 5.157021e-01 3.145216e+00 178 179 174
4.081485e-01 4.902286e-01 3.148337e+00 65 63 64
4.156304e-01 4.982837e-01 3.145323e+00 194 188 172
4.098654e-01 5.158812e-01 3.142466e+00 58 49 39
4.145310e-01 5.004443e-01 3.142149e+00 100 90 72
4.054424e-01 4.891158e-01 3.147203e+00 161 161 159
4.060817e-01 4.899745e-01 3.147936e+00 144 143 139
4.071209e-01 5.135309e-01 3.141390e+00 169 166 151
4.085280e-01 4.924772e-01 3.146362e+00 175 175 175
4.034670e-01 5.075662e-01 3.139108e+00 167 168 163
4.152802e-01 5.052225e-01 3.140279e+00 181 178 173
4.040697e-01 5.164050e-01 3.143683e+00 62 52 43
4.001038e-01 5.188997e-01 3.147391e+00 98 100 105
4.001038e-01 5.188997e-01 3.147391e+00 98 100 105
4.211106e-01 5.038412e-01 3.147499e+00 65 54 49
4.031114e-01 5.059873e-01 3.139333e+00 178 177 172
4.108358e-01 4.978431e-01 3.141771e+00 108 104 95
4.110556e-01 4.982049e-01 3.141493e+00 177 178 180
3.966280e-01 5.152773e-01 3.146219e+00 191 198 204
4.160534e-01 4.964385e-01 3.148155e+00 111 95 71
4.164761e-01 4.983476e-01 3.146531e+00 65 56 47
3.985693e-01 5.168181e-01 3.145844e+00 126 120 113
4.158014e-01 5.010582e-01 3.143509e+00 197 192 191
4.106961e-01 5.107238e-01 3.139014e+00 172 168 165
4.166494e-01 5.030334e-01 3.142943e+00 180 176 177
4.157516e-01 5.059771e-01 3.139914e+00 196 192 189
4.179864e-01 4.997334e-01 3.147163e+00 60 50 40
4.170297e-01 5.041763e-01 3.142830e+00 181 181 180
4.075023e-01 4.894268e-01 3.149531e+00 148 152 160
4.006686e-01 5.054877e-01 3.139892e+00 164 166 165
4.011296e-01 5.057747e-01 3.139221e+00 163 167 168
4.046277e-01 5.010296e-01 3.142238e+00 148 148 148
3.997228e-01 5.072625e-01 3.141180e+00 30 26 23
4.027849e-01 5.069263e-01 3.139037e+00 179 179 179
4.115397e-01 4.951781e-01 3.145865e+00 160 159 159
4.017323e-01 5.094903e-01 3.140281e+00 180 180 171
4.076876e-01 5.034710e-01 3.140376e+00 179 178 181
4.075418e-01 5.090106e-01 3.138955e+00 184 177 160
4.091520e-01 5.074196e-01 3.139428e+00 163 157 150
3.988608e-01 5.149174e-01 3.145305e+00 61 55 50
4.161151e-01 4.985742e-01 3.146048e+00 75 63 49
4.161151e-01 4.985742e-01 3.146048e+00 75 63 49
4.144384e-01 5.066866e-01 3.140004e+00 182 178 175
4.071201e-01 5.146108e-01 3.141733e+00 128 120 112
4.174002e-01 5.052747e-01 3.142548e+00 182 180 175
4.185128e-01 5.056032e-01 3.143740e+00 172 159 136
4.192509e-01 5.045970e-01 3.145196e+00 177 167 157
4.090266e-01 5.160715e-01 3.142672e+00 193 193 191
4.214146e-01 5.038288e-01 3.148147e+00 75 66 57
4.222702e-01 5.019788e-01 3.149502e+00 112 102 95
4.210540e-01 5.076862e-01 3.146063e+00 179 175 173
4.220406e-01 5.062765e-01 3.147650e+00 65 57 47
4.058300e-01 4.898945e-01 3.146513e+00 146 147 149
4.065118e-01 4.903163e-01 3.146549e+00 33 32 31
4.039667e-01 5.044429e-01 3.140088e+00 157 158 159
4.116899e-01 4.937413e-01 3.147727e+00 156 153 147
4.079324e-01 5.016348e-01 3.141151e+00 194 193 189
4.038842e-01 5.076005e-01 3.139374e+00 98 95 90
4.043862e-01 5.074734e-01 3.139093e+00 167 166 161
4.134230e-01 4.968816e-01 3.145344e+00 162 158 154
4.000166e-01 5.127138e-01 3.142925e+00 159 163 166
4.061280e-01 5.089859e-01 3.138918e+00 170 167 158
3.998490e-01 5.140693e-01 3.144024e+00 180 180 180
4.149902e-01 4.979106e-01 3.145372e+00 98 93 90
4.157104e-01 4.949631e-01 3.149730e+00 168 164 161
4.162480e-01 4.996214e-01 3.145211e+00 111 105 84
4.066021e-01 5.139338e-01 3.141876e+00 72 64 60
4.170080e-01 5.049384e-01 3.141551e+00 166 157 143
4.178213e-01 5.016674e-01 3.145815e+00 97 85 73
4.177545e-01 5.033617e-01 3.144220e+00 186 177 163
4.077077e-01 5.147789e-01 3.141623e+00 126 114 97
4.098273e-01 5.135735e-01 3.140914e+00 180 180 178
4.083829e-01 5.145204e-01 3.141892e+00 70 65 52
4.084085e-01 5.145414e-01 3.141825e+00 70 65 52
4.195455e-01 5.057889e-01 3.145390e+00 201 196 192
4.185935e-01 5.091028e-01 3.143274e+00 184 171 148
4.075031e-01 5.011436e-01 3.141293e+00 84 81 72
4.103563e-01 4.985101e-01 3.141136e+00 172 171 167
4.221016e-01 5.096519e-01 3.147107e+00 125 114 100
4.481245e-01 5.920515e-01 3.135583e+00 122 124 137
4.077052e-01 4.935819e-01 3.143942e+00 19 19 21
4.042084e-01 5.030515e-01 3.139934e+00 71 69 70
4.100494e-01 4.986916e-01 3.141224e+00 72 70 73
4.151601e-01 4.960863e-01 3.148120e+00 62 57 54
4.938612e-01 5.411475e-01 3.134318e+00 139 138 146
4.983930e-01 5.346706e-01 3.137838e+00 141 140 148
5.165339e-01 5.412989e-01 3.131598e+00 26 31 50
5.146297e-01 5.412105e-01 3.131791e+00 69 74 93
4.428163e-01 4.703100e-01 3.147933e+00 109 109 121
4.730198e-01 5.007634e-01 3.144110e+00 84 83 91
4.985457e-01 5.270007e-01 3.139949e+00 149 144 150
5.464164e-01 5.545318e-01 3.131921e+00 134 137 161
4.135850e-01 4.788317e-01 3.146648e+00 81 75 77
4.720614e-01 5.241673e-01 3.141037e+00 100 95 101
5.587066e-01 5.895849e-01 2.982362e+00 79 111 149
4.018050e-01 4.989022e-01 3.142194e+00 68 69 71
4.127410e-01 4.984139e-01 3.142724e+00 109 106 101
4.104210e-01 4.988337e-01 3.140967e+00 186 187 191
3.928027e-01 5.042014e-01 3.140542e+00 114 114 116
4.056226e-01 5.028095e-01 3.140515e+00 199 200 204
4.031186e-01 5.062860e-01 3.139461e+00 173 174 178
4.100784e-01 5.069086e-01 3.140046e+00 176 177 181
3.893793e-01 5.059337e-01 3.144610e+00 148 146 151
4.123416e-01 5.072990e-01 3.140128e+00 125 124 122
3.893617e-01 5.074705e-01 3.145231e+00 167 166 172
4.015752e-01 5.053217e-01 3.139319e+00 103 102 107
4.047032e-01 5.032990e-01 3.140070e+00 191 192 196
4.101046e-01 5.000184e-01 3.141045e+00 176 177 179
4.060825e-01 4.904486e-01 3.146084e+00 60 60 60
4.071615e-01 4.923476e-01 3.147427e+00 104 103 99
4.040197e-01 4.911825e-01 3.143763e+00 51 52 57
4.403572e-01 4.715864e-01 3.154776e+00 71 72 64
4.341850e-01 4.689892e-01 3.153404e+00 130 128 118
4.541002e-01 4.940352e-01 3.150291e+00 65 64 59
4.565433e-01 4.912842e-01 3.151070e+00 69 70 60
4.476840e-01 4.609964e-01 3.147204e+00 53 55 53
4.020731e-01 5.004619e-01 3.141513e+00 131 138 129
4.009588e-01 5.062313e-01 3.139176e+00 130 127 120
4.091849e-01 5.053184e-01 3.139780e+00 207 207 176
4.081026e-01 5.063190e-01 3.139679e+00 208 203 184
3.895964e-01 5.031956e-01 3.153507e+00 196 196 178
4.097301e-01 5.045129e-01 3.140033e+00 191 193 179
4.096084e-01 5.048686e-01 3.139814e+00 181 188 165
3.926062e-01 5.136341e-01 3.147350e+00 181 182 177
4.038292e-01 5.043675e-01 3.139847e+00 143 144 127
4.069906e-01 5.037681e-01 3.140283e+00 206 206 177
4.180183e-01 5.043215e-01 3.144253e+00 143 134 113
3.969825e-01 5.026769e-01 3.139336e+00 121 116 92
4.062360e-01 4.942832e-01 3.141805e+00 108 110 96
4.090069e-01 5.076403e-01 3.139292e+00 122 116 90
4.124634e-01 5.312876e-01 3.145152e+00 173 172 152
4.034886e-01 5.041147e-01 3.139692e+00 146 146 121
4.028754e-01 5.056967e-01 3.139300e+00 130 131 117
4.101863e-01 5.000016e-01 3.140835e+00 188 184 155
4.143671e-01 5.066326e-01 3.139875e+00 190 185 183
3.879421e-01 5.042354e-01 3.145364e+00 160 148 132
4.221633e-01 4.936873e-01 3.153142e+00 171 176 174
4.092644e-01 5.078982e-01 3.139364e+00 193 188 174
4.083931e-01 5.190387e-01 3.144508e+00 202 195 148
3.740707e-01 5.180636e-01 3.296076e+00 253 254 255
4.260090e-01 5.386158e-01 3.140802e+00 71 95 140
4.272992e-01 5.262134e-01 3.146542e+00 141 150 191
4.535269e-01 4.972460e-01 3.151456e+00 95 83 71
5.130176e-01 5.170847e-01 3.132360e+00 131 134 140
5.066831e-01 5.241025e-01 3.139658e+00 124 122 118
5.158802e-01 5.595103e-01 3.134463e+00 49 44 67
4.407311e-01 4.863644e-01 3.154199e+00 126 115 96
4.722452e-01 5.289595e-01 3.138311e+00 121 114 98
5.176879e-01 5.168019e-01 3.127071e+00 240 245 251
3.769746e-01 5.310282e-01 3.149563e+00 151 144 130
4.555324e-01 4.801746e-01 3.150527e+00 120 117 111
4.373419e-01 5.318568e-01 3.138384e+00 195 187 188
4.404386e-01 5.328965e-01 3.139132e+00 76 77 78
4.821979e-01 5.034439e-01 3.147148e+00 213 213 203
4.604437e-01 5.484261e-01 3.132513e+00 105 104 99
4.521424e-01 4.964570e-01 3.148104e+00 97 87 77
4.593840e-01 4.988595e-01 3.150334e+00 161 158 151
4.604855e-01 5.009359e-01 3.139039e+00 99 96 100
4.547714e-01 5.117377e-01 3.143357e+00 169 162 148
4.452859e-01 5.278712e-01 3.135062e+00 187 184 180
4.641090e-01 5.074424e-01 3.141544e+00 128 119 104
4.698105e-01 5.555168e-01 3.130382e+00 231 231 239
4.698105e-01 5.555168e-01 3.130382e+00 231 231 239
4.699187e-01 5.579945e-01 3.133813e+00 221 221 224
4.693677e-01 5.613168e-01 3.133445e+00 70 67 63
5.064920e-01 5.172507e-01 3.143433e+00 172 168 164
5.110606e-01 5.165175e-01 3.135848e+00 98 102 112
5.115797e-01 5.210388e-01 3.144727e+00 241 248 255
4.069735e-01 4.871927e-01 3.147781e+00 136 126 114
4.320594e-01 4.691742e-01 3.155126e+00 104 97 87
4.099877e-01 4.943778e-01 3.139488e+00 70 61 48
4.411034e-01 4.709372e-01 3.157934e+00 196 189 181
4.266713e-01 5.143105e-01 3.149532e+00 113 110 101
4.598530e-01 4.885002e-01 3.154083e+00 149 141 129
4.434237e-01 5.081973e-01 3.149809e+00 71 64 46
4.240281e-01 5.317153e-01 3.145185e+00 70 58 48
4.529508e-01 5.100144e-01 3.142409e+00 170 161 156
4.797530e-01 4.851959e-01 3.136442e+00 223 235 246
4.704710e-01 4.948712e-01 3.153074e+00 205 201 191
4.415831e-01 5.322533e-01 3.139667e+00 181 178 173
4.726304e-01 4.948601e-01 3.148871e+00 134 130 120
4.442048e-01 5.310627e-01 3.139536e+00 57 61 64
4.843323e-01 5.005433e-01 3.139442e+00 198 190 179
4.681501e-01 5.324563e-01 3.139190e+00 202 196 184
4.672573e-01 5.405250e-01 3.133890e+00 170 168 171
4.844750e-01 5.204756e-01 3.144391e+00 161 160 155
4.825122e-01 5.399083e-01 3.143814e+00 173 167 155
4.821187e-01 5.465363e-01 3.134637e+00 119 113 102
4.839701e-01 5.466566e-01 3.136546e+00 105 98 90
5.106489e-01 5.205161e-01 3.136555e+00 158 159 154
5.068069e-01 5.220614e-01 3.146699e+00 98 98 97
5.059061e-01 5.274548e-01 3.144081e+00 113 110 106
5.223819e-01 5.523882e-01 3.134599e+00 59 55 69
5.347195e-01 5.482832e-01 3.140771e+00 179 174 171
5.379471e-01 5.471991e-01 3.138001e+00 213 212 220
5.397714e-01 5.470223e-01 3.136180e+00 137 140 149
5.415743e-01 5.454770e-01 3.135802e+00 230 239 248
5.406463e-01 5.478771e-01 3.137289e+00 160 169 184
5.399484e-01 5.492407e-01 3.138852e+00 156 161 168
4.117567e-01 4.945991e-01 3.151031e+00 142 130 114
4.396129e-01 4.737535e-01 3.158911e+00 172 163 154
4.469525e-01 5.018946e-01 3.147311e+00 94 88 74
4.659240e-01 4.910554e-01 3.151733e+00 150 146 137
4.319181e-01 5.331339e-01 3.135661e+00 189 182 172
4.595885e-01 5.018627e-01 3.140638e+00 170 163 156
4.545585e-01 5.183207e-01 3.148336e+00 158 152 139
4.635700e-01 5.318129e-01 3.139489e+00 136 132 121
4.931584e-01 5.057857e-01 3.144065e+00 197 197 192
4.915406e-01 5.261676e-01 3.140256e+00 78 68 63
4.683627e-01 5.588562e-01 3.128237e+00 124 126 129
5.060283e-01 5.133131e-01 3.144005e+00 198 206 214
4.705399e-01 5.605529e-01 3.132303e+00 174 171 166
5.051937e-01 5.201986e-01 3.144975e+00 101 91 89
4.878982e-01 5.481631e-01 3.132444e+00 116 117 113
4.987149e-01 5.344620e-01 3.141179e+00 111 101 89
5.248061e-01 5.586018e-01 3.135576e+00 125 121 119
4.115102e-01 4.953272e-01 3.144376e+00 143 149 146
4.134877e-01 5.127058e-01 3.139725e+00 137 132 112
4.192958e-01 5.119965e-01 3.143663e+00 71 64 56
4.184476e-01 5.133671e-01 3.142466e+00 137 136 120
4.121099e-01 4.948467e-01 3.146005e+00 141 146 143
4.117145e-01 4.982355e-01 3.141203e+00 114 117 112
4.035040e-01 5.113067e-01 3.140351e+00 91 81 71
4.117117e-01 5.176758e-01 3.143835e+00 116 108 104
3.974097e-01 5.108488e-01 3.143825e+00 119 118 116
4.104003e-01 4.982781e-01 3.141106e+00 81 79 83
4.079288e-01 5.086065e-01 3.139133e+00 133 136 129
4.098024e-01 5.069475e-01 3.139577e+00 77 71 68
4.070535e-01 5.142153e-01 3.141867e+00 137 137 132
4.190446e-01 5.043279e-01 3.145122e+00 90 89 85
4.153921e-01 5.167099e-01 3.143989e+00 147 146 134
4.179335e-01 5.164444e-01 3.144150e+00 79 71 64
4.056634e-01 4.905785e-01 3.146763e+00 82 82 84
3.934386e-01 5.055667e-01 3.142607e+00 62 63 66
3.963831e-01 5.027520e-01 3.139958e+00 90 86 78
4.071529e-01 4.934079e-01 3.144356e+00 74 78 80
4.097416e-01 4.933416e-01 3.145813e+00 93 94 99
4.112806e-01 4.920305e-01 3.147830e+00 82 82 84
4.130951e-01 4.925605e-01 3.150531e+00 73 69 64
4.130951e-01 4.925605e-01 3.150531e+00 73 69 64
4.145048e-01 4.923743e-01 3.150305e+00 128 129 129
4.149352e-01 4.923878e-01 3.150881e+00 133 134 134
4.120490e-01 5.049832e-01 3.140055e+00 149 155 146
4.187309e-01 4.988358e-01 3.148751e+00 160 162 160
4.196043e-01 5.053991e-01 3.145397e+00 150 150 145
4.104737e-01 5.164558e-01 3.142707e+00 117 113 110
4.137882e-01 5.144899e-01 3.142116e+00 153 147 138
4.144967e-01 5.147977e-01 3.142016e+00 111 103 99
4.149266e-01 5.147832e-01 3.142036e+00 117 112 101
4.153863e-01 5.159786e-01 3.143077e+00 108 101 91
4.032979e-01 4.900752e-01 3.144309e+00 84 85 83
4.059986e-01 4.895186e-01 3.145596e+00 99 108 111
4.057523e-01 4.900076e-01 3.145882e+00 111 115 115
4.059027e-01 4.996921e-01 3.140534e+00 45 45 41
4.147157e-01 4.921447e-01 3.152833e+00 170 182 191
4.132522e-01 4.943177e-01 3.148479e+00 150 155 148
4.075761e-01 5.015537e-01 3.140627e+00 82 82 77
4.078076e-01 5.018290e-01 3.140815e+00 108 112 108
3.944516e-01 5.167446e-01 3.147203e+00 143 147 146
4.161513e-01 4.918878e-01 3.152440e+00 146 151 144
4.124973e-01 4.983405e-01 3.142487e+00 116 114 110
4.176947e-01 4.950198e-01 3.150377e+00 101 102 100
4.057398e-01 5.110154e-01 3.139656e+00 132 133 123
4.173611e-01 4.974030e-01 3.147903e+00 144 148 144
4.057325e-01 5.123708e-01 3.140648e+00 135 136 121
4.050567e-01 5.151750e-01 3.142728e+00 70 69 67
4.139937e-01 5.132332e-01 3.140781e+00 130 117 100
4.192625e-01 5.094167e-01 3.143265e+00 100 91 82
4.178486e-01 5.133489e-01 3.142445e+00 135 129 126
4.150566e-01 5.169493e-01 3.143959e+00 159 160 150
4.045156e-01 4.905025e-01 3.143640e+00 100 101 105
4.074391e-01 5.009236e-01 3.140646e+00 179 179 179
4.058639e-01 4.863975e-01 3.149849e+00 161 162 157
4.029631e-01 4.899686e-01 3.143228e+00 152 151 149
4.056834e-01 4.907735e-01 3.144929e+00 139 147 151
4.069846e-01 5.009930e-01 3.140688e+00 115 114 110
4.213173e-01 4.994900e-01 3.150023e+00 200 200 198
4.069797e-01 4.867519e-01 3.150733e+00 158 155 148
4.011218e-01 4.992189e-01 3.142078e+00 103 104 106
4.139115e-01 4.967278e-01 3.145623e+00 116 117 119
4.068390e-01 5.026458e-01 3.140666e+00 111 108 96
4.162203e-01 4.936267e-01 3.150656e+00 107 103 104
4.161387e-01 4.976271e-01 3.146554e+00 139 137 143
4.099009e-01 5.065334e-01 3.139746e+00 157 154 147
4.157080e-01 4.997675e-01 3.144911e+00 167 160 151
4.191710e-01 5.044762e-01 3.145268e+00 177 172 166
4.046354e-01 4.865138e-01 3.149174e+00 108 107 112
4.069123e-01 4.869147e-01 3.150652e+00 159 156 146
4.058721e-01 4.933213e-01 3.141906e+00 83 79 76
4.076730e-01 4.926296e-01 3.145181e+00 155 155 153
4.018456e-01 5.055240e-01 3.139285e+00 164 161 156
4.145523e-01 4.921229e-01 3.150446e+00 138 134 130
4.145523e-01 4.921229e-01 3.150446e+00 138 134 130
4.130297e-01 4.941321e-01 3.148359e+00 170 167 162
4.121663e-01 4.951819e-01 3.145759e+00 73 71 74
4.121663e-01 4.951819e-01 3.145759e+00 73 71 74
4.136691e-01 4.942578e-01 3.148563e+00 67 65 68
4.137536e-01 4.943349e-01 3.148631e+00 162 161 157
4.075056e-01 5.071772e-01 3.139271e+00 181 178 172
4.064804e-01 5.088991e-01 3.139093e+00 162 157 151
4.144728e-01 5.069627e-01 3.139907e+00 125 122 113
3.884243e-01 5.045137e-01 3.149163e+00 93 94 114
3.932664e-01 5.014644e-01 3.140475e+00 85 85 87
4.068328e-01 4.869847e-01 3.150443e+00 156 153 143
4.078374e-01 4.862594e-01 3.151207e+00 113 114 118
4.081664e-01 4.870512e-01 3.150973e+00 149 149 141
4.037712e-01 5.008163e-01 3.141741e+00 165 167 164
4.128853e-01 4.942539e-01 3.148194e+00 171 169 154
4.137351e-01 4.940378e-01 3.148618e+00 152 153 145
4.077310e-01 5.016645e-01 3.140670e+00 108 108 106
4.126609e-01 4.966397e-01 3.144347e+00 97 95 96
4.094036e-01 5.034856e-01 3.139947e+00 148 148 140
4.194399e-01 4.968199e-01 3.150342e+00 99 97 101
4.180103e-01 5.002738e-01 3.146194e+00 89 88 84
4.076445e-01 5.157784e-01 3.142768e+00 97 92 88
4.183125e-01 5.064605e-01 3.143710e+00 179 176 157
4.232254e-01 5.141547e-01 3.147337e+00 137 135 140
3.961399e-01 4.956348e-01 3.142463e+00 99 100 104
4.060077e-01 4.859021e-01 3.150575e+00 110 108 111
3.973195e-01 4.964492e-01 3.141905e+00 74 78 81
3.990014e-01 4.960436e-01 3.142492e+00 82 83 88
4.079039e-01 4.863307e-01 3.151202e+00 175 176 181
4.034929e-01 4.907736e-01 3.143350e+00 101 102 107
4.074222e-01 4.907463e-01 3.142928e+00 164 162 164
4.084988e-01 4.903542e-01 3.149075e+00 98 96 97
4.096321e-01 4.896350e-01 3.150459e+00 88 86 87
4.087383e-01 4.919593e-01 3.147625e+00 112 112 110
4.107211e-01 4.911261e-01 3.150287e+00 162 163 157
3.991659e-01 5.052227e-01 3.139210e+00 138 137 135
3.957064e-01 5.131082e-01 3.145617e+00 182 194 199
4.033022e-01 5.048075e-01 3.139634e+00 160 159 157
4.033890e-01 5.048073e-01 3.139653e+00 113 114 108
4.125666e-01 4.948739e-01 3.147146e+00 163 158 141
4.026254e-01 5.066790e-01 3.139098e+00 104 104 106
4.143160e-01 4.935302e-01 3.149964e+00 157 157 159
4.087460e-01 5.004195e-01 3.140802e+00 112 111 109
4.163345e-01 4.935345e-01 3.150903e+00 122 118 120
4.083036e-01 5.028324e-01 3.140467e+00 179 180 173
4.152832e-01 4.960331e-01 3.148180e+00 81 76 80
4.149669e-01 4.971377e-01 3.146669e+00 94 85 80
4.078184e-01 5.063543e-01 3.139515e+00 123 123 116
4.078184e-01 5.063543e-01 3.139515e+00 123 123 116
4.075853e-01 5.072797e-01 3.139342e+00 125 124 117
4.075853e-01 5.072797e-01 3.139342e+00 125 124 117
4.115457e-01 5.029935e-01 3.140431e+00 136 135 127
4.098808e-01 5.064687e-01 3.139730e+00 165 162 157
4.177987e-01 4.984263e-01 3.147861e+00 116 114 109
4.178028e-01 5.042356e-01 3.144103e+00 184 177 169
3.896734e-01 5.046844e-01 3.143744e+00 132 137 140
4.033697e-01 4.889358e-01 3.145009e+00 136 136 136
4.067643e-01 4.865106e-01 3.150713e+00 110 107 102
4.077311e-01 4.867098e-01 3.150931e+00 151 153 153
3.997551e-01 4.975424e-01 3.142154e+00 85 86 88
4.061961e-01 4.928131e-01 3.144007e+00 85 85 85
4.026868e-01 4.988691e-01 3.142146e+00 113 116 121
4.104599e-01 4.905319e-01 3.150590e+00 152 151 147
4.058710e-01 4.983627e-01 3.139644e+00 107 106 112
4.042472e-01 5.027889e-01 3.139950e+00 186 192 192
4.059298e-01 5.014780e-01 3.140375e+00 124 124 120
4.007157e-01 5.095118e-01 3.141342e+00 167 164 157
4.138751e-01 4.946897e-01 3.148398e+00 147 143 141
4.088316e-01 5.006359e-01 3.140796e+00 167 167 159
4.122201e-01 5.004399e-01 3.140870e+00 124 120 109
4.122201e-01 5.004399e-01 3.140870e+00 124 120 109
4.024298e-01 5.126362e-01 3.141969e+00 172 169 154
4.108737e-01 5.050118e-01 3.140242e+00 91 88 83
4.081955e-01 5.096083e-01 3.139070e+00 107 101 89
3.885936e-01 5.049385e-01 3.152181e+00 90 99 108
3.896502e-01 5.024153e-01 3.145353e+00 121 133 143
4.044444e-01 4.873113e-01 3.147839e+00 161 160 163
4.078212e-01 4.947086e-01 3.141691e+00 106 105 103
4.087068e-01 4.951953e-01 3.143284e+00 121 123 122
4.139244e-01 4.970823e-01 3.145576e+00 125 122 115
4.046055e-01 4.864884e-01 3.149128e+00 98 97 102
4.196229e-01 5.077459e-01 3.144820e+00 108 102 104
4.196112e-01 5.077985e-01 3.144851e+00 116 111 108
4.400548e-01 5.341861e-01 3.136923e+00 13 22 32
4.432909e-01 5.311727e-01 3.140051e+00 14 24 30
4.366197e-01 5.862508e-01 3.130074e+00 58 60 72
4.421186e-01 6.004734e-01 3.124520e+00 64 90 113
4.097135e-01 4.911686e-01 3.148851e+00 168 158 159
3.850882e-01 5.203730e-01 3.139995e+00 139 133 134
4.205765e-01 5.033103e-01 3.147162e+00 153 142 137
4.240143e-01 5.010419e-01 3.149824e+00 208 204 203
4.159044e-01 5.824708e-01 3.126913e+00 245 248 254
3.739313e-01 5.420599e-01 3.342100e+00 181 179 180
3.787541e-01 5.357966e-01 3.342777e+00 121 119 122
3.626593e-01 5.574650e-01 3.351126e+00 211 207 204
3.639493e-01 5.556890e-01 3.350237e+00 196 193 188
3.641834e-01 5.555890e-01 3.350278e+00 179 178 176
3.665377e-01 5.521801e-01 3.348439e+00 150 146 145
3.833865e-01 5.294346e-01 3.338893e+00 74 69 75
3.619949e-01 5.583600e-01 3.351304e+00 203 199 198
3.620034e-01 5.582783e-01 3.351062e+00 164 160 159
3.660699e-01 5.527974e-01 3.348764e+00 153 148 145
3.693438e-01 5.484715e-01 3.346668e+00 115 114 112
3.695332e-01 5.479442e-01 3.344497e+00 60 54 65
3.744882e-01 5.414713e-01 3.344242e+00 124 122 123
3.582092e-01 5.629994e-01 3.351481e+00 180 176 177
3.581217e-01 5.631970e-01 3.351539e+00 128 124 123
3.608459e-01 5.598159e-01 3.351520e+00 158 156 157
3.631793e-01 5.568014e-01 3.350760e+00 228 224 221
3.650549e-01 5.544612e-01 3.349793e+00 187 183 179
3.695877e-01 5.477431e-01 3.344125e+00 189 188 187
3.736003e-01 5.423971e-01 3.342165e+00 114 113 109
3.735695e-01 5.423888e-01 3.342080e+00 120 119 114
3.738767e-01 5.420067e-01 3.341909e+00 124 122 123
3.780372e-01 5.368554e-01 3.342987e+00 165 163 164
3.826236e-01 5.308486e-01 3.340681e+00 155 151 149
4.069447e-01 5.116731e-01 3.139536e+00 79 75 64
4.211051e-01 5.530709e-01 3.129536e+00 107 98 81
4.297611e-01 5.504598e-01 3.134224e+00 121 109 87
4.219839e-01 5.088610e-01 3.146587e+00 77 67 57
4.170335e-01 5.002632e-01 3.144816e+00 164 160 151
4.170335e-01 5.002632e-01 3.144816e+00 164 160 151
4.161782e-01 5.037132e-01 3.141492e+00 68 55 39
4.191449e-01 5.047620e-01 3.145109e+00 87 75 66
4.120789e-01 5.156680e-01 3.142921e+00 59 48 31
4.120789e-01 5.156680e-01 3.142921e+00 59 48 31
4.153588e-01 5.163354e-01 3.144227e+00 86 72 57
4.103453e-01 5.030678e-01 3.140231e+00 184 184 178
4.115762e-01 5.056436e-01 3.140055e+00 179 175 164
4.076303e-01 5.124471e-01 3.140344e+00 154 142 126
4.110772e-01 5.139617e-01 3.141078e+00 155 149 137
4.187878e-01 5.137030e-01 3.143371e+00 54 43 38
3.982985e-01 5.076134e-01 3.141761e+00 159 161 163
4.017505e-01 5.057858e-01 3.139261e+00 175 174 170
4.116931e-01 4.953142e-01 3.144204e+00 177 174 169
4.053319e-01 5.039426e-01 3.139985e+00 177 177 175
3.978799e-01 5.147844e-01 3.145025e+00 169 169 168
4.162315e-01 4.991666e-01 3.145296e+00 184 178 166
4.065969e-01 5.121456e-01 3.140284e+00 157 147 127
4.161962e-01 5.154949e-01 3.143131e+00 183 179 170
4.173293e-01 5.165280e-01 3.144047e+00 177 168 161
4.235449e-01 5.089129e-01 3.148258e+00 98 88 73
4.045099e-01 5.011117e-01 3.141602e+00 19 17 18
4.089389e-01 5.019621e-01 3.140585e+00 137 133 123
4.072111e-01 5.041620e-01 3.140202e+00 109 105 102
4.094169e-01 5.025395e-01 3.139675e+00 200 200 197
4.059353e-01 5.098740e-01 3.138686e+00 179 170 154
4.103805e-01 5.056129e-01 3.139764e+00 172 169 162
4.104793e-01 5.069280e-01 3.139622e+00 156 153 141
4.084733e-01 5.097934e-01 3.138692e+00 68 55 50
4.064461e-01 5.134302e-01 3.140834e+00 164 161 146
4.172692e-01 4.998643e-01 3.146258e+00 209 209 211
4.082588e-01 5.134425e-01 3.140507e+00 76 55 39
4.089064e-01 5.133227e-01 3.140646e+00 161 158 147
4.118239e-01 5.129179e-01 3.139626e+00 174 165 146
4.199432e-01 5.032589e-01 3.146882e+00 196 191 191
4.159405e-01 5.122455e-01 3.140591e+00 61 43 31
4.159405e-01 5.122455e-01 3.140591e+00 61 43 31
4.137955e-01 5.154759e-01 3.143130e+00 105 91 78
4.078262e-01 5.203526e-01 3.145262e+00 140 132 121
4.198836e-01 5.111613e-01 3.144103e+00 183 182 174
4.190713e-01 5.136034e-01 3.143379e+00 59 50 43
4.083725e-01 5.207288e-01 3.145573e+00 217 222 227
4.149926e-01 5.170577e-01 3.143863e+00 169 163 163
4.234853e-01 5.069568e-01 3.148585e+00 147 137 127
4.133520e-01 5.201895e-01 3.145179e+00 185 181 169
4.217397e-01 5.163051e-01 3.146006e+00 193 189 185
3.905112e-01 5.058427e-01 3.144792e+00 136 140 141
4.076431e-01 5.001818e-01 3.139951e+00 189 191 190
4.094297e-01 4.986095e-01 3.141060e+00 186 185 181
4.079100e-01 5.025579e-01 3.140418e+00 180 180 180
4.122586e-01 4.961090e-01 3.145861e+00 176 170 158
4.132120e-01 4.955492e-01 3.147284e+00 190 183 167
4.125454e-01 4.976976e-01 3.144361e+00 51 46 42
4.132775e-01 4.959639e-01 3.146827e+00 135 131 120
4.126229e-01 5.001725e-01 3.142839e+00 158 151 133
4.147063e-01 4.957043e-01 3.148095e+00 168 162 149
4.071990e-01 5.085663e-01 3.138980e+00 165 159 145
4.076881e-01 5.081924e-01 3.139030e+00 151 150 147
4.086310e-01 5.093324e-01 3.138797e+00 174 162 138
4.159484e-01 4.968417e-01 3.148106e+00 176 169 161
4.160243e-01 4.971567e-01 3.147759e+00 95 87 77
4.104880e-01 5.085575e-01 3.139053e+00 177 160 135
4.051059e-01 5.128624e-01 3.140781e+00 182 175 165
4.062989e-01 5.129547e-01 3.140736e+00 77 70 56
4.108089e-01 5.103804e-01 3.139368e+00 82 74 63
4.176334e-01 5.003509e-01 3.146381e+00 76 69 59
4.176334e-01 5.003509e-01 3.146381e+00 76 69 59
4.183984e-01 4.999510e-01 3.147669e+00 163 160 155
4.098079e-01 5.132476e-01 3.140691e+00 168 165 162
4.148804e-01 5.125882e-01 3.140460e+00 85 66 49
4.198132e-01 5.035713e-01 3.146404e+00 81 67 54
4.172859e-01 5.100633e-01 3.141131e+00 61 51 42
4.121565e-01 5.162723e-01 3.142848e+00 54 45 37
4.160985e-01 5.162682e-01 3.143822e+00 89 76 62
4.156291e-01 5.169605e-01 3.144118e+00 61 50 46
4.126695e-01 5.201176e-01 3.145645e+00 101 87 69
4.163965e-01 5.202239e-01 3.145908e+00 222 225 230
3.992827e-01 4.959723e-01 3.141391e+00 147 151 154
3.946779e-01 5.035410e-01 3.141606e+00 109 116 124
4.053674e-01 5.003964e-01 3.140812e+00 152 152 150
4.041756e-01 5.020397e-01 3.140467e+00 160 159 155
4.041941e-01 5.014989e-01 3.142278e+00 159 158 153
3.997549e-01 5.072766e-01 3.141009e+00 30 26 23
4.063547e-01 5.001559e-01 3.140109e+00 168 165 160
3.988763e-01 5.083069e-01 3.142188e+00 33 28 26
4.031337e-01 5.044046e-01 3.139588e+00 175 174 170
4.067207e-01 5.009717e-01 3.140589e+00 191 190 186
4.018902e-01 5.075104e-01 3.138706e+00 103 102 97
4.113695e-01 4.965297e-01 3.144106e+00 104 100 90
4.113695e-01 4.965297e-01 3.144106e+00 104 100 90
4.017755e-01 5.089744e-01 3.140122e+00 147 141 128
4.043981e-01 5.066883e-01 3.139297e+00 185 187 186
4.129344e-01 4.953452e-01 3.146545e+00 117 113 105
4.121017e-01 4.977931e-01 3.142920e+00 154 150 141
4.127743e-01 4.967553e-01 3.144341e+00 122 119 110
4.110963e-01 5.006961e-01 3.140760e+00 155 152 138
4.141451e-01 4.977490e-01 3.144901e+00 118 110 96
4.150920e-01 4.957501e-01 3.148498e+00 91 81 65
4.090371e-01 5.066340e-01 3.139514e+00 180 178 176
3.986432e-01 5.150670e-01 3.144799e+00 168 165 160
4.043318e-01 5.118169e-01 3.140006e+00 141 141 141
4.140894e-01 5.014402e-01 3.140697e+00 157 150 145
4.159083e-01 4.984042e-01 3.146634e+00 188 177 168
4.160653e-01 4.985873e-01 3.146113e+00 75 63 49
4.158134e-01 4.998789e-01 3.144907e+00 182 173 165
4.160931e-01 4.999124e-01 3.145150e+00 171 165 149
4.115686e-01 5.084881e-01 3.138515e+00 168 164 151
4.112899e-01 5.092766e-01 3.139115e+00 164 152 126
4.165232e-01 5.011406e-01 3.144911e+00 155 150 140
4.130647e-01 5.092624e-01 3.138663e+00 100 96 84
4.172769e-01 5.004303e-01 3.146151e+00 182 174 154
4.172769e-01 5.004303e-01 3.146151e+00 182 174 154
4.134373e-01 5.092388e-01 3.138658e+00 177 174 169
4.149378e-01 5.079579e-01 3.138946e+00 175 168 150
4.172217e-01 5.021616e-01 3.144573e+00 67 58 43
4.103348e-01 5.121997e-01 3.139745e+00 100 88 65
4.163391e-01 5.071101e-01 3.139415e+00 84 68 53
4.119682e-01 5.119474e-01 3.139298e+00 119 106 88
4.097739e-01 5.136060e-01 3.140350e+00 76 69 59
4.184564e-01 5.024643e-01 3.145731e+00 172 167 149
4.114742e-01 5.132046e-01 3.140397e+00 66 49 30
4.191848e-01 5.016184e-01 3.147110e+00 189 180 173
4.165816e-01 5.112283e-01 3.140417e+00 152 142 126
4.205146e-01 5.014919e-01 3.148597e+00 66 57 51
4.085842e-01 5.172541e-01 3.143575e+00 186 179 159
4.085842e-01 5.172541e-01 3.143575e+00 186 179 159
4.090635e-01 5.170139e-01 3.143760e+00 143 137 122
4.153929e-01 5.141400e-01 3.142106e+00 171 163 152
4.135819e-01 5.154778e-01 3.142686e+00 193 190 187
4.110925e-01 5.174958e-01 3.143692e+00 57 48 40
4.144305e-01 5.154445e-01 3.142724e+00 70 61 45
4.143816e-01 5.157319e-01 3.142918e+00 179 173 154
4.145361e-01 5.159871e-01 3.143020e+00 57 50 43
4.155078e-01 5.164306e-01 3.143892e+00 82 66 55
4.135033e-01 5.181548e-01 3.144669e+00 66 53 45
4.152994e-01 5.199969e-01 3.145621e+00 97 79 65
4.233352e-01 5.116282e-01 3.147638e+00 88 71 53
4.229795e-01 5.138454e-01 3.147265e+00 92 76 54
