ply
format ascii 1.0
element face 0
property list uchar int vertex_indices
element vertex 968
property float x
property float y
property float z
property uchar diffuse_red
property uchar diffuse_green
property uchar diffuse_blue
end_header
3.738570e-01 4.944597e-01 3.069188e+00 83 110 67
3.721808e-01 4.952869e-01 3.068870e+00 83 106 75
3.400976e-01 5.112957e-01 3.060166e+00 37 65 14
3.685461e-01 4.971274e-01 3.068195e+00 48 74 49
4.136343e-01 4.751432e-01 3.072505e+00 65 82 62
4.030373e-01 4.803059e-01 3.072220e+00 103 123 86
3.831868e-01 4.899932e-01 3.070686e+00 50 61 27
3.661885e-01 4.983572e-01 3.067625e+00 79 106 73
3.492536e-01 5.068155e-01 3.063125e+00 84 103 75
3.492536e-01 5.068155e-01 3.063125e+00 84 103 75
3.434840e-01 5.097023e-01 3.061361e+00 80 107 64
3.919354e-01 4.857553e-01 3.071650e+00 109 131 92
3.389313e-01 5.120403e-01 3.059695e+00 54 85 26
4.090919e-01 4.774237e-01 3.072517e+00 44 66 45
4.053819e-01 4.792354e-01 3.072389e+00 91 108 89
3.982211e-01 4.827043e-01 3.072132e+00 112 135 91
3.982211e-01 4.827043e-01 3.072132e+00 112 135 91
3.834129e-01 4.899983e-01 3.070692e+00 107 118 88
3.770833e-01 4.930889e-01 3.069768e+00 68 86 59
3.665407e-01 4.983287e-01 3.067690e+00 61 87 57
3.300471e-01 5.165952e-01 3.056361e+00 101 130 76
3.556124e-01 5.037872e-01 3.065005e+00 87 100 70
3.556124e-01 5.037872e-01 3.065005e+00 87 100 70
4.000476e-01 4.819452e-01 3.072246e+00 111 131 103
3.976378e-01 4.831083e-01 3.072123e+00 112 134 95
3.740069e-01 4.947185e-01 3.069248e+00 53 79 40
3.980496e-01 4.829610e-01 3.072124e+00 105 127 88
4.315198e-01 4.668171e-01 3.071535e+00 44 61 45
4.057422e-01 4.792471e-01 3.072455e+00 90 103 86
4.057422e-01 4.792471e-01 3.072455e+00 90 103 86
4.055646e-01 4.793136e-01 3.072429e+00 46 60 43
4.055646e-01 4.793136e-01 3.072429e+00 46 60 43
3.960147e-01 4.840268e-01 3.072021e+00 45 72 29
3.933622e-01 4.853053e-01 3.071822e+00 62 80 42
3.814659e-01 4.911466e-01 3.070407e+00 61 85 52
3.814659e-01 4.911466e-01 3.070407e+00 61 85 52
3.964269e-01 4.838784e-01 3.071987e+00 11 37 3
3.767259e-01 4.935438e-01 3.069638e+00 34 57 32
3.564525e-01 5.035603e-01 3.065210e+00 23 38 5
3.472768e-01 5.081549e-01 3.062539e+00 33 59 22
4.411359e-01 4.623038e-01 3.070586e+00 90 108 86
4.137266e-01 4.755054e-01 3.072500e+00 21 38 20
3.982802e-01 4.830107e-01 3.072158e+00 63 86 46
3.867135e-01 4.886400e-01 3.071098e+00 59 85 47
3.723054e-01 4.957098e-01 3.068881e+00 79 102 73
3.363299e-01 5.136904e-01 3.058880e+00 89 118 73
3.810920e-01 4.914512e-01 3.070423e+00 47 68 38
3.744048e-01 4.947365e-01 3.069269e+00 46 73 38
3.544252e-01 5.046561e-01 3.064662e+00 21 41 14
3.812795e-01 4.913823e-01 3.070382e+00 107 127 99
3.893111e-01 4.875058e-01 3.071419e+00 75 100 61
3.889525e-01 4.877668e-01 3.071430e+00 83 111 71
3.653782e-01 4.993862e-01 3.067441e+00 35 54 24
4.026257e-01 4.811209e-01 3.072359e+00 52 72 35
4.026257e-01 4.811209e-01 3.072359e+00 52 72 35
3.750105e-01 4.946550e-01 3.069428e+00 85 114 86
3.877009e-01 4.884918e-01 3.071209e+00 90 116 79
3.586991e-01 5.027955e-01 3.065830e+00 34 56 19
4.061754e-01 4.795168e-01 3.072538e+00 37 50 33
4.060090e-01 4.796221e-01 3.072474e+00 83 97 80
3.930913e-01 4.859031e-01 3.071775e+00 98 119 88
3.927217e-01 4.860622e-01 3.071759e+00 93 116 87
3.725324e-01 4.960296e-01 3.068940e+00 29 53 20
3.392986e-01 5.125878e-01 3.059875e+00 44 77 20
4.039484e-01 4.807076e-01 3.072480e+00 36 59 30
3.734019e-01 4.956920e-01 3.069087e+00 55 77 38
4.030741e-01 4.811959e-01 3.072389e+00 50 71 40
3.645240e-01 5.001037e-01 3.067238e+00 76 93 57
3.645240e-01 5.001037e-01 3.067238e+00 76 93 57
3.626928e-01 5.010083e-01 3.066824e+00 82 111 66
3.884613e-01 4.883460e-01 3.071341e+00 83 112 71
3.786864e-01 4.932005e-01 3.070044e+00 28 46 22
3.786864e-01 4.932005e-01 3.070044e+00 28 46 22
3.963555e-01 4.845802e-01 3.072024e+00 50 73 45
4.474733e-01 4.599640e-01 3.069965e+00 80 109 79
3.975018e-01 4.840537e-01 3.072149e+00 69 90 71
4.335211e-01 4.666843e-01 3.071510e+00 81 104 76
4.305643e-01 4.680814e-01 3.071777e+00 73 88 69
4.305643e-01 4.680814e-01 3.071777e+00 73 88 69
4.130989e-01 4.765105e-01 3.072555e+00 79 97 75
3.500390e-01 5.075252e-01 3.063397e+00 65 83 57
4.037936e-01 4.810757e-01 3.072431e+00 48 71 42
3.903781e-01 4.876161e-01 3.071532e+00 100 125 86
3.903781e-01 4.876161e-01 3.071532e+00 100 125 86
3.581447e-01 5.035438e-01 3.065625e+00 59 80 48
3.314736e-01 5.169047e-01 3.056987e+00 127 155 96
4.371844e-01 4.650325e-01 3.071169e+00 77 98 67
4.246025e-01 4.710753e-01 3.072150e+00 30 50 26
4.379750e-01 4.646909e-01 3.071056e+00 78 100 64
3.936696e-01 4.861508e-01 3.071840e+00 38 57 35
4.270371e-01 4.700116e-01 3.072064e+00 73 95 66
3.837641e-01 4.910338e-01 3.070715e+00 86 100 77
3.801049e-01 4.928572e-01 3.070225e+00 37 54 27
3.762028e-01 4.947750e-01 3.069585e+00 48 70 51
3.796366e-01 4.931379e-01 3.070143e+00 29 48 20
3.725321e-01 4.966165e-01 3.068919e+00 75 101 66
3.992400e-01 4.836888e-01 3.072293e+00 81 97 73
3.992400e-01 4.836888e-01 3.072293e+00 81 97 73
3.462199e-01 5.098700e-01 3.062221e+00 14 29 6
3.412442e-01 5.123706e-01 3.060517e+00 84 109 68
3.215024e-01 5.223325e-01 3.052885e+00 111 129 102
3.215024e-01 5.223325e-01 3.052885e+00 111 129 102
3.616964e-01 5.021848e-01 3.066599e+00 92 119 73
3.972942e-01 4.846961e-01 3.072127e+00 74 92 78
3.575964e-01 5.042630e-01 3.065533e+00 65 93 52
3.187152e-01 5.238153e-01 3.051780e+00 120 140 139
3.861049e-01 4.902322e-01 3.071067e+00 84 107 70
3.222706e-01 5.220699e-01 3.053203e+00 138 157 113
4.170400e-01 4.752263e-01 3.072547e+00 82 106 90
3.578147e-01 5.042381e-01 3.065600e+00 30 56 17
3.491785e-01 5.085461e-01 3.063127e+00 80 109 70
4.099802e-01 4.786580e-01 3.072599e+00 75 96 68
3.167550e-01 5.249306e-01 3.050915e+00 57 78 71
4.303468e-01 4.688712e-01 3.071892e+00 68 91 65
4.196518e-01 4.740344e-01 3.072498e+00 39 62 44
3.422678e-01 5.120844e-01 3.060895e+00 59 83 49
3.429281e-01 5.117856e-01 3.061095e+00 69 94 61
3.429281e-01 5.117856e-01 3.061095e+00 69 94 61
3.551904e-01 5.057354e-01 3.064879e+00 71 97 60
4.542376e-01 4.575701e-01 3.069182e+00 48 80 39
3.595852e-01 5.035942e-01 3.066085e+00 30 48 22
3.239956e-01 5.214733e-01 3.054012e+00 73 95 56
3.909278e-01 4.881875e-01 3.071604e+00 80 108 64
3.878041e-01 4.897101e-01 3.071298e+00 66 85 59
4.395907e-01 4.646771e-01 3.071080e+00 29 54 14
4.043230e-01 4.816597e-01 3.072523e+00 58 81 53
3.675648e-01 4.997160e-01 3.067944e+00 35 52 20
4.102930e-01 4.788348e-01 3.072702e+00 65 89 53
4.102930e-01 4.788348e-01 3.072702e+00 65 89 53
3.566194e-01 5.051752e-01 3.065236e+00 85 113 65
3.566194e-01 5.051752e-01 3.065236e+00 85 113 65
3.367216e-01 5.151493e-01 3.058951e+00 72 100 42
3.294138e-01 5.188948e-01 3.056213e+00 53 81 20
3.284243e-01 5.193809e-01 3.055807e+00 76 99 37
3.235705e-01 5.218113e-01 3.053897e+00 90 110 81
3.884946e-01 4.895244e-01 3.071315e+00 59 75 52
3.848006e-01 4.913899e-01 3.070926e+00 85 100 77
4.141442e-01 4.771283e-01 3.072629e+00 45 66 35
4.141442e-01 4.771283e-01 3.072629e+00 45 66 35
3.938054e-01 4.869962e-01 3.071883e+00 79 101 78
3.678151e-01 4.998394e-01 3.067897e+00 36 51 22
3.850326e-01 4.913563e-01 3.070966e+00 39 58 34
3.278179e-01 5.199165e-01 3.055580e+00 134 147 93
3.278179e-01 5.199165e-01 3.055580e+00 134 147 93
3.253261e-01 5.211809e-01 3.054479e+00 121 140 94
4.003490e-01 4.839671e-01 3.072433e+00 84 108 77
3.854187e-01 4.912751e-01 3.071050e+00 49 72 46
3.854187e-01 4.912751e-01 3.071050e+00 49 72 46
3.698876e-01 4.989312e-01 3.068440e+00 29 44 21
3.506509e-01 5.084649e-01 3.063555e+00 77 101 69
3.457502e-01 5.109736e-01 3.062018e+00 59 85 46
4.086982e-01 4.799903e-01 3.072707e+00 87 105 70
3.937658e-01 4.872426e-01 3.071858e+00 38 61 34
3.701970e-01 4.988437e-01 3.068475e+00 33 48 27
3.444861e-01 5.116766e-01 3.061621e+00 84 109 66
3.526654e-01 5.076362e-01 3.064142e+00 68 92 59
4.250651e-01 4.722674e-01 3.072320e+00 55 80 33
3.859365e-01 4.912874e-01 3.071008e+00 22 43 16
3.794035e-01 4.944849e-01 3.070134e+00 30 51 12
3.494900e-01 5.093462e-01 3.063207e+00 76 108 69
3.391793e-01 5.145695e-01 3.059823e+00 103 134 75
3.245574e-01 5.219171e-01 3.054250e+00 93 106 88
4.066377e-01 4.812863e-01 3.072633e+00 35 57 18
3.264895e-01 5.209736e-01 3.055013e+00 72 90 47
3.856281e-01 4.915467e-01 3.071094e+00 22 46 19
3.933496e-01 4.878014e-01 3.071853e+00 93 118 82
3.914933e-01 4.887366e-01 3.071694e+00 77 103 64
3.740699e-01 4.973414e-01 3.069256e+00 24 53 9
3.841580e-01 4.923966e-01 3.070836e+00 79 97 61
3.615464e-01 5.035662e-01 3.066510e+00 43 59 22
3.507269e-01 5.090222e-01 3.063593e+00 79 105 66
3.759628e-01 4.965231e-01 3.069622e+00 72 93 75
4.358726e-01 4.674380e-01 3.071629e+00 98 129 70
4.071193e-01 4.813415e-01 3.072698e+00 83 106 60
3.847645e-01 4.922602e-01 3.070959e+00 99 118 86
3.847645e-01 4.922602e-01 3.070959e+00 99 118 86
3.830102e-01 4.931352e-01 3.070702e+00 60 83 40
3.577989e-01 5.056237e-01 3.065568e+00 13 39 1
3.279150e-01 5.206274e-01 3.055552e+00 82 87 51
3.253925e-01 5.218955e-01 3.054566e+00 36 48 32
4.140614e-01 4.780784e-01 3.072758e+00 99 127 78
3.807777e-01 4.943079e-01 3.070351e+00 47 68 29
3.722808e-01 4.984779e-01 3.068884e+00 21 43 7
4.563432e-01 4.577626e-01 3.069147e+00 57 82 75
4.155523e-01 4.774176e-01 3.072760e+00 81 108 65
3.858549e-01 4.918905e-01 3.071091e+00 24 47 18
4.163523e-01 4.770594e-01 3.072749e+00 87 115 71
3.277303e-01 5.208576e-01 3.055522e+00 89 94 63
3.935024e-01 4.882328e-01 3.071874e+00 93 116 74
3.851342e-01 4.923277e-01 3.070978e+00 53 75 39
4.334500e-01 4.689144e-01 3.071904e+00 102 132 78
4.157597e-01 4.774406e-01 3.072771e+00 31 58 15
3.401270e-01 5.146976e-01 3.060147e+00 127 156 98
3.539011e-01 5.078417e-01 3.064505e+00 50 75 33
3.270828e-01 5.213261e-01 3.055283e+00 144 153 126
4.191163e-01 4.758926e-01 3.072696e+00 85 109 76
3.901662e-01 4.900033e-01 3.071575e+00 83 103 66
3.267032e-01 5.216579e-01 3.055146e+00 21 33 12
4.114528e-01 4.797825e-01 3.072798e+00 88 118 66
4.238134e-01 4.739296e-01 3.072626e+00 92 119 74
3.952428e-01 4.877964e-01 3.072069e+00 96 113 70
3.952428e-01 4.877964e-01 3.072069e+00 96 113 70
3.272142e-01 5.216684e-01 3.055293e+00 133 140 123
4.117773e-01 4.799213e-01 3.072831e+00 57 87 35
3.895480e-01 4.907592e-01 3.071555e+00 32 53 20
3.815882e-01 4.946629e-01 3.070458e+00 51 73 28
3.704043e-01 5.001544e-01 3.068492e+00 87 101 68
3.533197e-01 5.086425e-01 3.064397e+00 59 87 38
3.271026e-01 5.218302e-01 3.055263e+00 45 52 39
4.544285e-01 4.594249e-01 3.069588e+00 67 87 88
4.119940e-01 4.798577e-01 3.072817e+00 96 126 74
3.824972e-01 4.942513e-01 3.070655e+00 59 78 36
3.824972e-01 4.942513e-01 3.070655e+00 59 78 36
3.818076e-01 4.946084e-01 3.070484e+00 102 124 78
3.513296e-01 5.097554e-01 3.063743e+00 108 135 92
4.427553e-01 4.651235e-01 3.071042e+00 106 136 82
4.049100e-01 4.834289e-01 3.072673e+00 66 95 41
3.535502e-01 5.087191e-01 3.064383e+00 112 140 88
3.875114e-01 4.919471e-01 3.071309e+00 75 98 57
3.830569e-01 4.941273e-01 3.070732e+00 114 136 89
3.830569e-01 4.941273e-01 3.070732e+00 114 136 89
3.617132e-01 5.047301e-01 3.066561e+00 46 67 26
3.826949e-01 4.943753e-01 3.070675e+00 94 115 72
3.826949e-01 4.943753e-01 3.070675e+00 94 115 72
4.051087e-01 4.835487e-01 3.072698e+00 108 137 83
3.504515e-01 5.104720e-01 3.063467e+00 51 78 35
3.330091e-01 5.192394e-01 3.057588e+00 42 69 20
4.014243e-01 4.853806e-01 3.072502e+00 64 94 40
4.014243e-01 4.853806e-01 3.072502e+00 64 94 40
3.423048e-01 5.146025e-01 3.060918e+00 135 160 105
3.880419e-01 4.919771e-01 3.071249e+00 57 84 34
3.334344e-01 5.190967e-01 3.057763e+00 64 93 38
3.827566e-01 4.945837e-01 3.070675e+00 62 86 38
3.628996e-01 5.043916e-01 3.066811e+00 56 78 35
3.627052e-01 5.045314e-01 3.066828e+00 87 108 67
3.936638e-01 4.893105e-01 3.071936e+00 87 117 63
3.845411e-01 4.937866e-01 3.070929e+00 91 115 63
3.443826e-01 5.137267e-01 3.061543e+00 54 76 38
3.585735e-01 5.066948e-01 3.065713e+00 78 102 53
3.477321e-01 5.120709e-01 3.062675e+00 84 114 63
3.315906e-01 5.201806e-01 3.057044e+00 123 146 141
3.621878e-01 5.049259e-01 3.066662e+00 71 92 50
3.589252e-01 5.065582e-01 3.065813e+00 68 94 46
3.570158e-01 5.075009e-01 3.065325e+00 96 122 77
3.426887e-01 5.147012e-01 3.061025e+00 118 145 92
3.853524e-01 4.935524e-01 3.071025e+00 74 101 50
3.636794e-01 5.042534e-01 3.067051e+00 91 117 70
3.636794e-01 5.042534e-01 3.067051e+00 91 117 70
4.183906e-01 4.776832e-01 3.072841e+00 93 120 65
4.183906e-01 4.776832e-01 3.072841e+00 93 120 65
3.392731e-01 5.166402e-01 3.059847e+00 60 87 34
4.489991e-01 4.629736e-01 3.070451e+00 128 156 107
3.837789e-01 4.945521e-01 3.070799e+00 53 81 30
3.367186e-01 5.179788e-01 3.058969e+00 132 157 115
4.001973e-01 4.865701e-01 3.072518e+00 95 124 70
3.425374e-01 5.150731e-01 3.060952e+00 113 140 87
3.768976e-01 4.980592e-01 3.069717e+00 66 96 46
4.400279e-01 4.674224e-01 3.071529e+00 45 73 33
3.697251e-01 5.016705e-01 3.068382e+00 44 72 14
4.004442e-01 4.866059e-01 3.072509e+00 51 82 27
4.089824e-01 4.824856e-01 3.072851e+00 65 94 43
4.089824e-01 4.824856e-01 3.072851e+00 65 94 43
3.773863e-01 4.980033e-01 3.069793e+00 106 137 78
4.428301e-01 4.662639e-01 3.071267e+00 131 156 99
3.502817e-01 5.115121e-01 3.063446e+00 85 115 65
3.887212e-01 4.925412e-01 3.071461e+00 106 137 77
4.333268e-01 4.709096e-01 3.072212e+00 71 100 42
3.860110e-01 4.938925e-01 3.071148e+00 149 174 117
3.228832e-01 5.253837e-01 3.053522e+00 123 123 144
3.370982e-01 5.182842e-01 3.059130e+00 138 162 135
3.728716e-01 5.004886e-01 3.068948e+00 110 139 72
4.538175e-01 4.612525e-01 3.070015e+00 119 134 165
4.508103e-01 4.626856e-01 3.070355e+00 45 69 64
3.999328e-01 4.872440e-01 3.072461e+00 45 75 21
3.826610e-01 4.957109e-01 3.070689e+00 72 97 42
3.484773e-01 5.127286e-01 3.062882e+00 109 135 88
3.973945e-01 4.886071e-01 3.072356e+00 37 60 6
4.298929e-01 4.729153e-01 3.072474e+00 71 100 44
3.371155e-01 5.185114e-01 3.059047e+00 57 78 63
4.384449e-01 4.688329e-01 3.071816e+00 80 101 44
4.284525e-01 4.737460e-01 3.072608e+00 62 95 38
3.795969e-01 4.975765e-01 3.070207e+00 123 154 87
4.126022e-01 4.815005e-01 3.073000e+00 60 88 32
3.380996e-01 5.182840e-01 3.059470e+00 118 140 132
4.075308e-01 4.840776e-01 3.072877e+00 124 151 98
3.929641e-01 4.911544e-01 3.071969e+00 113 143 83
3.861448e-01 4.945006e-01 3.071093e+00 47 70 24
3.898087e-01 4.927700e-01 3.071632e+00 56 84 33
3.623017e-01 5.063214e-01 3.066709e+00 104 129 74
4.063496e-01 4.847206e-01 3.072887e+00 132 157 101
3.885439e-01 4.934569e-01 3.071429e+00 111 142 85
3.653724e-01 5.048874e-01 3.067459e+00 101 129 68
3.619259e-01 5.066717e-01 3.066694e+00 107 132 75
4.433234e-01 4.670239e-01 3.071417e+00 101 129 80
4.334021e-01 4.718126e-01 3.072314e+00 117 145 87
3.889130e-01 4.933810e-01 3.071495e+00 90 119 63
3.889130e-01 4.933810e-01 3.071495e+00 90 119 63
4.342223e-01 4.714611e-01 3.072298e+00 89 114 59
4.047872e-01 4.857072e-01 3.072764e+00 80 101 45
4.487690e-01 4.645335e-01 3.070807e+00 42 68 45
4.430151e-01 4.673478e-01 3.071552e+00 64 92 49
3.945791e-01 4.908546e-01 3.072093e+00 47 74 23
3.945791e-01 4.908546e-01 3.072093e+00 47 74 23
4.048111e-01 4.859381e-01 3.072817e+00 137 156 101
3.851706e-01 4.955510e-01 3.071013e+00 90 117 71
3.531427e-01 5.113962e-01 3.064285e+00 105 133 82
3.531427e-01 5.113962e-01 3.064285e+00 105 133 82
4.204137e-01 4.784126e-01 3.073025e+00 122 142 83
3.951052e-01 4.907328e-01 3.072165e+00 106 134 85
3.191583e-01 5.284843e-01 3.052034e+00 79 80 98
3.191583e-01 5.284843e-01 3.052034e+00 79 80 98
3.883121e-01 4.941297e-01 3.071412e+00 115 143 94
3.753248e-01 5.005716e-01 3.069431e+00 132 163 104
3.292990e-01 5.235072e-01 3.056193e+00 68 79 109
3.262516e-01 5.250973e-01 3.054951e+00 47 39 54
3.528600e-01 5.118381e-01 3.064145e+00 101 129 81
3.882276e-01 4.943901e-01 3.071490e+00 67 94 45
4.229966e-01 4.775257e-01 3.072967e+00 135 155 96
3.952536e-01 4.910653e-01 3.072150e+00 99 126 81
3.408956e-01 5.179682e-01 3.060386e+00 107 121 121
3.408956e-01 5.179682e-01 3.060386e+00 107 121 121
3.744304e-01 5.013243e-01 3.069291e+00 113 140 82
3.424869e-01 5.172369e-01 3.060982e+00 69 82 77
3.863680e-01 4.955652e-01 3.071090e+00 46 71 31
3.513762e-01 5.129363e-01 3.063695e+00 101 128 83
3.279383e-01 5.247152e-01 3.055650e+00 93 100 118
3.715043e-01 5.029999e-01 3.068703e+00 130 152 88
4.431318e-01 4.682026e-01 3.071651e+00 83 102 81
4.054348e-01 4.864766e-01 3.072852e+00 156 175 120
4.058315e-01 4.863425e-01 3.072853e+00 124 144 93
3.678521e-01 5.049956e-01 3.067975e+00 66 91 36
3.678521e-01 5.049956e-01 3.067975e+00 66 91 36
3.832734e-01 4.974248e-01 3.070734e+00 78 101 43
3.832734e-01 4.974248e-01 3.070734e+00 78 101 43
3.473140e-01 5.153039e-01 3.062471e+00 76 93 68
3.460984e-01 5.159305e-01 3.062090e+00 67 84 67
3.729033e-01 5.026227e-01 3.068994e+00 73 97 37
3.531776e-01 5.124381e-01 3.064255e+00 65 90 50
3.445123e-01 5.168328e-01 3.061620e+00 116 130 118
4.271732e-01 4.763802e-01 3.072896e+00 123 145 98
3.688542e-01 5.048468e-01 3.068142e+00 76 103 47
4.139162e-01 4.828369e-01 3.073115e+00 106 130 79
3.677424e-01 5.055020e-01 3.067884e+00 111 138 87
3.581690e-01 5.102402e-01 3.065643e+00 67 92 35
3.571450e-01 5.107703e-01 3.065308e+00 96 120 68
3.229409e-01 5.279046e-01 3.053605e+00 102 111 135
4.204125e-01 4.797486e-01 3.073185e+00 130 149 94
3.674895e-01 5.056537e-01 3.067904e+00 118 146 95
4.193121e-01 4.803379e-01 3.073160e+00 79 96 44
3.822944e-01 4.984158e-01 3.070649e+00 131 151 88
4.409084e-01 4.699726e-01 3.071965e+00 55 83 63
3.281571e-01 5.254313e-01 3.055737e+00 76 78 90
4.024756e-01 4.886820e-01 3.072741e+00 74 100 53
4.292659e-01 4.757157e-01 3.072865e+00 117 141 94
3.177497e-01 5.307603e-01 3.051511e+00 125 136 164
3.678432e-01 5.057649e-01 3.067894e+00 69 96 51
4.149633e-01 4.827091e-01 3.073225e+00 75 95 43
3.871827e-01 4.962553e-01 3.071271e+00 90 117 64
3.284082e-01 5.255119e-01 3.055784e+00 55 58 69
3.513111e-01 5.141157e-01 3.063687e+00 86 112 89
3.854051e-01 4.973252e-01 3.071024e+00 110 134 83
3.283399e-01 5.257330e-01 3.055744e+00 69 69 77
4.026040e-01 4.889666e-01 3.072749e+00 119 145 99
4.026040e-01 4.889666e-01 3.072749e+00 119 145 99
3.575970e-01 5.111401e-01 3.065473e+00 58 75 38
3.894275e-01 4.954447e-01 3.071551e+00 89 119 59
3.729360e-01 5.036061e-01 3.068972e+00 105 133 84
3.613775e-01 5.093292e-01 3.066403e+00 119 113 81
3.475281e-01 5.162554e-01 3.062565e+00 59 62 66
3.475281e-01 5.162554e-01 3.062565e+00 59 62 66
3.578561e-01 5.111731e-01 3.065456e+00 123 133 104
3.498683e-01 5.151263e-01 3.063274e+00 84 101 90
4.045075e-01 4.883219e-01 3.072885e+00 112 127 86
3.823055e-01 4.992165e-01 3.070590e+00 86 107 50
3.230675e-01 5.287356e-01 3.053650e+00 40 43 58
3.637349e-01 5.084516e-01 3.067000e+00 95 111 83
4.194653e-01 4.812046e-01 3.073229e+00 106 119 89
3.562685e-01 5.122690e-01 3.065081e+00 30 45 25
4.351493e-01 4.737116e-01 3.072582e+00 29 39 43
3.261822e-01 5.273688e-01 3.054949e+00 103 114 135
4.190162e-01 4.815355e-01 3.073301e+00 46 61 30
4.104306e-01 4.856987e-01 3.073131e+00 90 86 45
3.679159e-01 5.065483e-01 3.067952e+00 79 101 87
3.566870e-01 5.121270e-01 3.065211e+00 25 45 33
3.566870e-01 5.121270e-01 3.065211e+00 25 45 33
3.531244e-01 5.139087e-01 3.064198e+00 150 166 191
4.194336e-01 4.814744e-01 3.073257e+00 40 54 29
3.714707e-01 5.049749e-01 3.068672e+00 36 55 35
3.705647e-01 5.054143e-01 3.068444e+00 18 42 18
3.782220e-01 5.016590e-01 3.069892e+00 115 140 87
3.699132e-01 5.057742e-01 3.068326e+00 85 110 80
3.570464e-01 5.121669e-01 3.065281e+00 148 163 159
3.570464e-01 5.121669e-01 3.065281e+00 148 163 159
4.009700e-01 4.905695e-01 3.072728e+00 102 126 90
3.649263e-01 5.082869e-01 3.067284e+00 88 104 93
3.896269e-01 4.961267e-01 3.071603e+00 95 122 69
3.407993e-01 5.203602e-01 3.060326e+00 112 119 137
3.580315e-01 5.118366e-01 3.065558e+00 64 64 64
4.173320e-01 4.827906e-01 3.073304e+00 48 64 26
4.173320e-01 4.827906e-01 3.073304e+00 48 64 26
3.762873e-01 5.028713e-01 3.069622e+00 31 55 22
3.571076e-01 5.123662e-01 3.065344e+00 27 37 37
3.847038e-01 4.987585e-01 3.070969e+00 103 120 77
3.779890e-01 5.020607e-01 3.069831e+00 93 110 76
3.325988e-01 5.246501e-01 3.057477e+00 95 101 127
4.065495e-01 4.880963e-01 3.073021e+00 77 90 73
3.884569e-01 4.970086e-01 3.071451e+00 50 74 21
3.877897e-01 4.972999e-01 3.071316e+00 122 143 98
3.863855e-01 4.980329e-01 3.071226e+00 123 140 106
3.772611e-01 5.025249e-01 3.069774e+00 79 101 73
4.225097e-01 4.804784e-01 3.073254e+00 93 102 112
4.154456e-01 4.839198e-01 3.073307e+00 109 124 93
3.970435e-01 4.928749e-01 3.072379e+00 129 145 115
3.799867e-01 5.012429e-01 3.070272e+00 47 66 37
3.756938e-01 5.033368e-01 3.069508e+00 44 56 50
4.097386e-01 4.867234e-01 3.073228e+00 168 162 146
3.792976e-01 5.016456e-01 3.070068e+00 39 56 33
3.804021e-01 5.011583e-01 3.070293e+00 48 61 42
3.726194e-01 5.049885e-01 3.068872e+00 97 111 114
3.726194e-01 5.049885e-01 3.068872e+00 97 111 114
4.181046e-01 4.827749e-01 3.073331e+00 41 55 33
4.153349e-01 4.841137e-01 3.073299e+00 44 58 40
4.153349e-01 4.841137e-01 3.073299e+00 44 58 40
3.839103e-01 4.994531e-01 3.070789e+00 99 112 87
4.161711e-01 4.837738e-01 3.073329e+00 97 109 94
3.188226e-01 5.319090e-01 3.052006e+00 179 194 225
3.242247e-01 5.292636e-01 3.054146e+00 25 33 52
4.160092e-01 4.838998e-01 3.073305e+00 43 53 41
4.160092e-01 4.838998e-01 3.073305e+00 43 53 41
3.641496e-01 5.093480e-01 3.067043e+00 128 135 153
3.772529e-01 5.029052e-01 3.069748e+00 85 104 84
3.614162e-01 5.107526e-01 3.066394e+00 139 77 92
4.069505e-01 4.883683e-01 3.073070e+00 76 86 86
3.603978e-01 5.112863e-01 3.066210e+00 167 49 69
3.299103e-01 5.264872e-01 3.056458e+00 60 63 78
4.003320e-01 4.916685e-01 3.072676e+00 58 78 68
3.362190e-01 5.233957e-01 3.058777e+00 27 32 45
3.724707e-01 5.053839e-01 3.068847e+00 138 145 159
3.701262e-01 5.065193e-01 3.068392e+00 72 80 83
3.574260e-01 5.128276e-01 3.065389e+00 32 35 44
3.322109e-01 5.254249e-01 3.057288e+00 101 106 128
4.422310e-01 4.714305e-01 3.072250e+00 57 62 65
4.422310e-01 4.714305e-01 3.072250e+00 57 62 65
4.486503e-01 4.683639e-01 3.071531e+00 46 49 68
3.789198e-01 5.022637e-01 3.070073e+00 73 82 81
3.789198e-01 5.022637e-01 3.070073e+00 73 82 81
3.964168e-01 4.937233e-01 3.072395e+00 136 146 142
3.964168e-01 4.937233e-01 3.072395e+00 136 146 142
4.206737e-01 4.819735e-01 3.073337e+00 69 81 78
4.200649e-01 4.822768e-01 3.073319e+00 61 67 67
4.200649e-01 4.822768e-01 3.073319e+00 61 67 67
3.243891e-01 5.295262e-01 3.054228e+00 36 43 62
4.435672e-01 4.709312e-01 3.072138e+00 66 60 62
4.435672e-01 4.709312e-01 3.072138e+00 66 60 62
3.576409e-01 5.129118e-01 3.065413e+00 96 95 107
3.291538e-01 5.271528e-01 3.056120e+00 44 47 56
3.432239e-01 5.201512e-01 3.061131e+00 128 129 134
4.043288e-01 4.900216e-01 3.072923e+00 143 151 154
4.027463e-01 4.907812e-01 3.072825e+00 81 95 100
3.439340e-01 5.198573e-01 3.061418e+00 117 122 136
3.844904e-01 4.997730e-01 3.070938e+00 122 124 119
4.005178e-01 4.919485e-01 3.072694e+00 43 58 61
3.578721e-01 5.130297e-01 3.065580e+00 19 17 30
4.244806e-01 4.805964e-01 3.073328e+00 109 114 136
4.244806e-01 4.805964e-01 3.073328e+00 109 114 136
3.228271e-01 5.308247e-01 3.053652e+00 106 110 139
3.228271e-01 5.308247e-01 3.053652e+00 106 110 139
4.014894e-01 4.918438e-01 3.072706e+00 60 74 83
3.511864e-01 5.166652e-01 3.063608e+00 108 107 122
4.223514e-01 4.817252e-01 3.073356e+00 111 118 129
3.457988e-01 5.193799e-01 3.062001e+00 78 70 78
3.230093e-01 5.307820e-01 3.053721e+00 37 39 64
3.982062e-01 4.935162e-01 3.072478e+00 90 95 101
3.239155e-01 5.303858e-01 3.054072e+00 30 29 47
3.984506e-01 4.934334e-01 3.072524e+00 59 65 78
3.832299e-01 5.009054e-01 3.070682e+00 113 123 143
4.213505e-01 4.823707e-01 3.073366e+00 91 102 104
4.009720e-01 4.923397e-01 3.072698e+00 126 138 154
3.353810e-01 5.247907e-01 3.058394e+00 37 37 51
3.365409e-01 5.242200e-01 3.059146e+00 25 28 43
3.248609e-01 5.301261e-01 3.054454e+00 57 64 83
4.470283e-01 4.701746e-01 3.071932e+00 135 147 163
4.237551e-01 4.814482e-01 3.073353e+00 118 122 145
3.850001e-01 5.004013e-01 3.070986e+00 99 96 113
3.716689e-01 5.069969e-01 3.068652e+00 107 100 115
3.716689e-01 5.069969e-01 3.068652e+00 107 100 115
3.276961e-01 5.290123e-01 3.055596e+00 59 73 100
3.276961e-01 5.290123e-01 3.055596e+00 59 73 100
3.454952e-01 5.202172e-01 3.061846e+00 100 99 113
3.337345e-01 5.260927e-01 3.057922e+00 19 22 37
3.704353e-01 5.079170e-01 3.068434e+00 117 121 144
3.449988e-01 5.205559e-01 3.061674e+00 131 134 151
3.449988e-01 5.205559e-01 3.061674e+00 131 134 151
4.458368e-01 4.711656e-01 3.072127e+00 117 94 116
4.383224e-01 4.748000e-01 3.072780e+00 66 71 91
4.471701e-01 4.706167e-01 3.072024e+00 89 103 120
4.471701e-01 4.706167e-01 3.072024e+00 89 103 120
4.118980e-01 4.878234e-01 3.073338e+00 170 168 178
4.009574e-01 4.931609e-01 3.072728e+00 127 135 158
4.222713e-01 4.829623e-01 3.073410e+00 44 46 59
3.951617e-01 4.962200e-01 3.072177e+00 137 143 157
3.620826e-01 5.125354e-01 3.066478e+00 53 58 78
3.361953e-01 5.254605e-01 3.058720e+00 23 23 33
3.558904e-01 5.156735e-01 3.064942e+00 37 29 44
4.061775e-01 4.910084e-01 3.073106e+00 64 67 83
3.282323e-01 5.295854e-01 3.055759e+00 83 95 116
3.550475e-01 5.162701e-01 3.064682e+00 103 96 113
4.017725e-01 4.932989e-01 3.072769e+00 54 66 97
3.359809e-01 5.258625e-01 3.058825e+00 17 18 29
4.503734e-01 4.698176e-01 3.071754e+00 96 83 93
3.531703e-01 5.173796e-01 3.064192e+00 105 122 152
4.117291e-01 4.886103e-01 3.073358e+00 151 154 173
4.117291e-01 4.886103e-01 3.073358e+00 151 154 173
4.570165e-01 4.668069e-01 3.071098e+00 46 53 46
4.570165e-01 4.668069e-01 3.071098e+00 46 53 46
4.519843e-01 4.692290e-01 3.071629e+00 98 90 103
4.271873e-01 4.812738e-01 3.073444e+00 93 104 126
4.438684e-01 4.732781e-01 3.072488e+00 137 119 145
4.050405e-01 4.921256e-01 3.073062e+00 137 135 156
3.559914e-01 5.163773e-01 3.064930e+00 38 28 37
3.993320e-01 4.950268e-01 3.072672e+00 53 59 81
3.387301e-01 5.250217e-01 3.059627e+00 36 48 74
4.108775e-01 4.894432e-01 3.073324e+00 114 119 139
4.108775e-01 4.894432e-01 3.073324e+00 114 119 139
4.458171e-01 4.726124e-01 3.072359e+00 134 75 100
4.275765e-01 4.814345e-01 3.073503e+00 63 69 91
4.223335e-01 4.840290e-01 3.073568e+00 50 43 59
4.111156e-01 4.895326e-01 3.073368e+00 30 35 55
3.523584e-01 5.184576e-01 3.063956e+00 88 104 130
3.552039e-01 5.170623e-01 3.064803e+00 104 101 118
3.246168e-01 5.324672e-01 3.054393e+00 125 125 146
3.456510e-01 5.219973e-01 3.061959e+00 122 129 150
3.391033e-01 5.252657e-01 3.059772e+00 85 98 124
4.533270e-01 4.693403e-01 3.071641e+00 80 74 81
4.051508e-01 4.927050e-01 3.073082e+00 132 133 154
4.103947e-01 4.902564e-01 3.073479e+00 120 125 144
4.507566e-01 4.707509e-01 3.071948e+00 115 94 103
4.390814e-01 4.765116e-01 3.073035e+00 177 175 196
4.109898e-01 4.902179e-01 3.073388e+00 81 87 109
4.101939e-01 4.906957e-01 3.073345e+00 138 143 163
3.730916e-01 5.088736e-01 3.068897e+00 51 50 71
4.588784e-01 4.671904e-01 3.071094e+00 75 85 93
4.111977e-01 4.902767e-01 3.073467e+00 26 32 56
3.393501e-01 5.257474e-01 3.059862e+00 98 106 125
4.377293e-01 4.774528e-01 3.073133e+00 69 75 97
3.203156e-01 5.352991e-01 3.052641e+00 177 196 229
3.559578e-01 5.176348e-01 3.064882e+00 25 23 42
3.254010e-01 5.329138e-01 3.054719e+00 102 90 114
3.330264e-01 5.292179e-01 3.057630e+00 86 82 96
3.330264e-01 5.292179e-01 3.057630e+00 86 82 96
3.303507e-01 5.305351e-01 3.056611e+00 108 109 133
4.483592e-01 4.726121e-01 3.072332e+00 118 107 118
3.873187e-01 5.023523e-01 3.071268e+00 63 68 87
4.570896e-01 4.685449e-01 3.071346e+00 86 98 94
3.641096e-01 5.139207e-01 3.066938e+00 110 118 138
3.334292e-01 5.292638e-01 3.057745e+00 60 57 68
3.309818e-01 5.305118e-01 3.056810e+00 112 108 141
4.444343e-01 4.747898e-01 3.072757e+00 83 73 96
3.968156e-01 4.979574e-01 3.072370e+00 54 52 65
4.473710e-01 4.735010e-01 3.072482e+00 109 93 104
3.505532e-01 5.208961e-01 3.063435e+00 97 105 136
3.638154e-01 5.144149e-01 3.066853e+00 112 120 142
4.486446e-01 4.730230e-01 3.072411e+00 108 92 105
4.321292e-01 4.810135e-01 3.073483e+00 96 97 117
4.278864e-01 4.831737e-01 3.073647e+00 35 40 68
4.278864e-01 4.831737e-01 3.073647e+00 35 40 68
4.077395e-01 4.929396e-01 3.073277e+00 74 79 95
4.067895e-01 4.934085e-01 3.073196e+00 76 80 96
4.067895e-01 4.934085e-01 3.073196e+00 76 80 96
3.858796e-01 5.037426e-01 3.071060e+00 117 119 134
3.729725e-01 5.100939e-01 3.068755e+00 120 118 139
4.015541e-01 4.961146e-01 3.072693e+00 92 95 114
3.261186e-01 5.334624e-01 3.055006e+00 146 131 154
3.723607e-01 5.105907e-01 3.068718e+00 83 86 101
3.263477e-01 5.334800e-01 3.055086e+00 203 185 211
3.200249e-01 5.366320e-01 3.052495e+00 174 171 196
3.200249e-01 5.366320e-01 3.052495e+00 174 171 196
4.147077e-01 4.898965e-01 3.073552e+00 109 119 130
3.898533e-01 5.019963e-01 3.071548e+00 80 81 98
3.762878e-01 5.086999e-01 3.069449e+00 89 89 109
4.154875e-01 4.895264e-01 3.073591e+00 94 100 112
4.154875e-01 4.895264e-01 3.073591e+00 94 100 112
3.733275e-01 5.101870e-01 3.068911e+00 90 78 100
3.836287e-01 5.051532e-01 3.070680e+00 85 92 110
3.836287e-01 5.051532e-01 3.070680e+00 85 92 110
3.827751e-01 5.055808e-01 3.070517e+00 75 81 96
3.811467e-01 5.063741e-01 3.070290e+00 82 89 108
3.552657e-01 5.191853e-01 3.064642e+00 103 105 118
3.548297e-01 5.193886e-01 3.064541e+00 107 109 122
3.801418e-01 5.068894e-01 3.070091e+00 76 77 98
3.654714e-01 5.141463e-01 3.067221e+00 64 68 80
4.083865e-01 4.931167e-01 3.073325e+00 93 95 110
3.840342e-01 5.050449e-01 3.070757e+00 75 81 103
3.840342e-01 5.050449e-01 3.070757e+00 75 81 103
3.819853e-01 5.060314e-01 3.070441e+00 80 87 104
3.819853e-01 5.060314e-01 3.070441e+00 80 87 104
4.450002e-01 4.753915e-01 3.072816e+00 49 48 66
4.425438e-01 4.765629e-01 3.073046e+00 73 66 84
4.421243e-01 4.767703e-01 3.073068e+00 107 104 121
3.983456e-01 4.980664e-01 3.072529e+00 119 112 130
4.135591e-01 4.906959e-01 3.073536e+00 130 136 150
3.642791e-01 5.149644e-01 3.066942e+00 120 125 144
4.099535e-01 4.925646e-01 3.073410e+00 69 71 86
3.721117e-01 5.111684e-01 3.068606e+00 107 109 122
4.186889e-01 4.883645e-01 3.073713e+00 144 136 149
3.451620e-01 5.245801e-01 3.061759e+00 117 116 137
4.235946e-01 4.860459e-01 3.073777e+00 48 54 91
4.137925e-01 4.907824e-01 3.073578e+00 133 135 150
4.228442e-01 4.864495e-01 3.073757e+00 29 29 63
3.673779e-01 5.135896e-01 3.067627e+00 110 110 122
4.545051e-01 4.711661e-01 3.071985e+00 131 111 123
3.846001e-01 5.052081e-01 3.070767e+00 45 51 73
3.206111e-01 5.370062e-01 3.052720e+00 133 138 163
4.516099e-01 4.726546e-01 3.072364e+00 130 117 135
4.310559e-01 4.826272e-01 3.073690e+00 67 78 98
3.842858e-01 5.054826e-01 3.070733e+00 70 75 94
4.076868e-01 4.940497e-01 3.073267e+00 105 104 112
3.929064e-01 5.012846e-01 3.071942e+00 103 104 117
3.929064e-01 5.012846e-01 3.071942e+00 103 104 117
3.615366e-01 5.167399e-01 3.066291e+00 103 110 118
3.615366e-01 5.167399e-01 3.066291e+00 103 110 118
4.432542e-01 4.768061e-01 3.073065e+00 138 127 144
4.398879e-01 4.784515e-01 3.073263e+00 138 131 147
3.799881e-01 5.076386e-01 3.070099e+00 87 89 104
3.799881e-01 5.076386e-01 3.070099e+00 87 89 104
3.722477e-01 5.114771e-01 3.068667e+00 112 112 123
4.390391e-01 4.789202e-01 3.073327e+00 95 101 117
4.244581e-01 4.859792e-01 3.073796e+00 65 73 110
4.153123e-01 4.904205e-01 3.073623e+00 106 106 116
3.795892e-01 5.078756e-01 3.070073e+00 93 95 109
3.839051e-01 5.058216e-01 3.070715e+00 110 114 126
3.822985e-01 5.066392e-01 3.070357e+00 114 114 124
3.667287e-01 5.143433e-01 3.067513e+00 112 118 132
3.597246e-01 5.178402e-01 3.065911e+00 75 70 76
4.131846e-01 4.916040e-01 3.073522e+00 131 133 149
3.956862e-01 5.001280e-01 3.072248e+00 106 108 118
4.414865e-01 4.779040e-01 3.073271e+00 130 130 148
3.205350e-01 5.374289e-01 3.052765e+00 165 161 178
4.219680e-01 4.874258e-01 3.073738e+00 93 90 117
4.219680e-01 4.874258e-01 3.073738e+00 93 90 117
4.069034e-01 4.947299e-01 3.073118e+00 102 102 112
3.701909e-01 5.127792e-01 3.068235e+00 93 95 107
3.672027e-01 5.142678e-01 3.067549e+00 97 99 111
3.586973e-01 5.184593e-01 3.065590e+00 123 110 120
3.583122e-01 5.186605e-01 3.065472e+00 85 72 89
3.166326e-01 5.394441e-01 3.051105e+00 53 37 47
4.426063e-01 4.774543e-01 3.073196e+00 67 65 87
4.035178e-01 4.964237e-01 3.072996e+00 64 67 84
3.953090e-01 5.004216e-01 3.072217e+00 101 101 111
3.953090e-01 5.004216e-01 3.072217e+00 101 101 111
4.385759e-01 4.794533e-01 3.073392e+00 86 89 106
4.309115e-01 4.832050e-01 3.073750e+00 40 52 88
3.646504e-01 5.156511e-01 3.066968e+00 130 133 152
3.425256e-01 5.266276e-01 3.060910e+00 86 93 112
4.525421e-01 4.727626e-01 3.072343e+00 58 49 70
3.894834e-01 5.034124e-01 3.071503e+00 42 41 49
4.520376e-01 4.730658e-01 3.072367e+00 88 82 103
4.018649e-01 4.974363e-01 3.072827e+00 58 58 73
3.627251e-01 5.166978e-01 3.066565e+00 141 147 162
3.828692e-01 5.068141e-01 3.070618e+00 124 122 133
3.864605e-01 5.050794e-01 3.070981e+00 115 114 130
4.422718e-01 4.779326e-01 3.073202e+00 133 135 156
4.282409e-01 4.847188e-01 3.073809e+00 117 131 158
4.137617e-01 4.917577e-01 3.073603e+00 191 190 205
4.099414e-01 4.936225e-01 3.073441e+00 123 119 128
4.132068e-01 4.920798e-01 3.073581e+00 141 142 160
3.785952e-01 5.090175e-01 3.069799e+00 69 68 76
3.252627e-01 5.355323e-01 3.054712e+00 120 122 143
4.427716e-01 4.777601e-01 3.073101e+00 92 90 112
4.234215e-01 4.871765e-01 3.073829e+00 98 118 171
4.134294e-01 4.920375e-01 3.073572e+00 112 114 129
3.803171e-01 5.082512e-01 3.070012e+00 71 69 80
4.391895e-01 4.795589e-01 3.073443e+00 95 99 113
4.108292e-01 4.933276e-01 3.073453e+00 114 105 118
3.937538e-01 5.016807e-01 3.071990e+00 84 83 89
3.674061e-01 5.146867e-01 3.067633e+00 88 90 102
3.968040e-01 5.002162e-01 3.072392e+00 144 147 162
4.307883e-01 4.837462e-01 3.073779e+00 28 43 86
4.307883e-01 4.837462e-01 3.073779e+00 28 43 86
3.764684e-01 5.102487e-01 3.069527e+00 111 105 120
3.764684e-01 5.102487e-01 3.069527e+00 111 105 120
3.255130e-01 5.355826e-01 3.054871e+00 188 189 209
3.207717e-01 5.379394e-01 3.052823e+00 57 51 66
4.053867e-01 4.961269e-01 3.073143e+00 121 124 139
3.717130e-01 5.126568e-01 3.068508e+00 93 91 102
3.666540e-01 5.151719e-01 3.067447e+00 125 131 143
3.606655e-01 5.181543e-01 3.066088e+00 86 85 92
4.319691e-01 4.832686e-01 3.073716e+00 120 128 145
3.614992e-01 5.177851e-01 3.066198e+00 110 116 122
3.245502e-01 5.362013e-01 3.054376e+00 56 54 76
3.656650e-01 5.157790e-01 3.067248e+00 54 56 69
4.394463e-01 4.797390e-01 3.073461e+00 82 84 97
3.967380e-01 5.004890e-01 3.072305e+00 109 111 124
3.653766e-01 5.159459e-01 3.067169e+00 46 48 63
4.145939e-01 4.918254e-01 3.073674e+00 142 139 150
4.135791e-01 4.923092e-01 3.073595e+00 123 122 140
3.952156e-01 5.012859e-01 3.072031e+00 88 87 92
3.746424e-01 5.114153e-01 3.069072e+00 143 113 143
3.510585e-01 5.231167e-01 3.063468e+00 142 147 159
3.388136e-01 5.291854e-01 3.059656e+00 107 85 110
4.022146e-01 4.979813e-01 3.072856e+00 96 99 116
3.570581e-01 5.202381e-01 3.065144e+00 47 37 50
4.432872e-01 4.780544e-01 3.073236e+00 122 125 143
4.432872e-01 4.780544e-01 3.073236e+00 122 125 143
4.303538e-01 4.843212e-01 3.073799e+00 31 47 81
4.167014e-01 4.909770e-01 3.073702e+00 130 127 133
3.986590e-01 4.997493e-01 3.072520e+00 85 87 102
4.157636e-01 4.914613e-01 3.073671e+00 95 93 98
4.058727e-01 4.962973e-01 3.073070e+00 83 87 99
4.058727e-01 4.962973e-01 3.073070e+00 83 87 99
3.888895e-01 5.046041e-01 3.071377e+00 132 141 140
3.888895e-01 5.046041e-01 3.071377e+00 132 141 140
3.878654e-01 5.050842e-01 3.071264e+00 202 203 208
3.723175e-01 5.127471e-01 3.068654e+00 92 90 101
4.398989e-01 4.797707e-01 3.073450e+00 78 80 93
4.016581e-01 4.983652e-01 3.072845e+00 89 91 106
3.396223e-01 5.290207e-01 3.059952e+00 172 176 201
4.407966e-01 4.794102e-01 3.073465e+00 160 162 175
4.133744e-01 4.927082e-01 3.073619e+00 143 141 162
3.975498e-01 5.004408e-01 3.072441e+00 164 169 181
3.531436e-01 5.223511e-01 3.064080e+00 148 148 158
3.302046e-01 5.337596e-01 3.056586e+00 129 126 143
3.255718e-01 5.361240e-01 3.054829e+00 124 129 151
3.755030e-01 5.113252e-01 3.069224e+00 145 107 143
4.395837e-01 4.800818e-01 3.073607e+00 77 81 93
4.136209e-01 4.926916e-01 3.073600e+00 124 123 141
3.907939e-01 5.038402e-01 3.071503e+00 88 87 91
3.760442e-01 5.111028e-01 3.069345e+00 160 136 163
3.472573e-01 5.253818e-01 3.062373e+00 85 78 86
3.873191e-01 5.056069e-01 3.071188e+00 177 175 186
3.432146e-01 5.274341e-01 3.061096e+00 67 60 76
4.167900e-01 4.912458e-01 3.073729e+00 128 126 131
4.167900e-01 4.912458e-01 3.073729e+00 128 126 131
4.115754e-01 4.937801e-01 3.073514e+00 143 131 146
4.042040e-01 4.973825e-01 3.073027e+00 102 104 121
4.398276e-01 4.801036e-01 3.073500e+00 124 128 140
4.265895e-01 4.865383e-01 3.073876e+00 76 46 77
4.128238e-01 4.932008e-01 3.073574e+00 151 146 168
4.117677e-01 4.937367e-01 3.073585e+00 108 95 112
4.074035e-01 4.958679e-01 3.073312e+00 113 112 118
3.271152e-01 5.355512e-01 3.055464e+00 138 134 154
3.271152e-01 5.355512e-01 3.055464e+00 138 134 154
3.985533e-01 5.001869e-01 3.072633e+00 38 40 53
3.248177e-01 5.367207e-01 3.054541e+00 66 65 86
4.336242e-01 4.831715e-01 3.073818e+00 109 115 131
4.159257e-01 4.918036e-01 3.073665e+00 102 97 103
3.292877e-01 5.345362e-01 3.056226e+00 144 146 159
4.163986e-01 4.915693e-01 3.073823e+00 132 131 136
3.694229e-01 5.146274e-01 3.068026e+00 59 58 65
3.984500e-01 5.003757e-01 3.072498e+00 113 117 128
3.425196e-01 5.280234e-01 3.060901e+00 61 52 71
4.397393e-01 4.803213e-01 3.073481e+00 54 60 72
4.115853e-01 4.940651e-01 3.073530e+00 131 118 132
3.498721e-01 5.244499e-01 3.063170e+00 41 42 53
4.420940e-01 4.792877e-01 3.073397e+00 123 127 139
4.169337e-01 4.914839e-01 3.073732e+00 131 128 133
3.631329e-01 5.178784e-01 3.066659e+00 123 125 137
3.451381e-01 5.268198e-01 3.061739e+00 126 119 126
3.371846e-01 5.307987e-01 3.059080e+00 115 109 124
4.348131e-01 4.828404e-01 3.073780e+00 119 127 140
4.127141e-01 4.935912e-01 3.073595e+00 152 144 165
3.826654e-01 5.082860e-01 3.070475e+00 57 56 61
3.971406e-01 5.012164e-01 3.072386e+00 199 199 209
3.623345e-01 5.183739e-01 3.066336e+00 128 130 137
4.131432e-01 4.934479e-01 3.073655e+00 206 201 224
3.627864e-01 5.182297e-01 3.066406e+00 123 124 136
3.396656e-01 5.297190e-01 3.059933e+00 100 100 124
3.266590e-01 5.361865e-01 3.055201e+00 166 171 191
3.270340e-01 5.360303e-01 3.055407e+00 147 153 172
4.352405e-01 4.828305e-01 3.073752e+00 69 76 92
3.453859e-01 5.269433e-01 3.061732e+00 80 75 81
3.453859e-01 5.269433e-01 3.061732e+00 80 75 81
4.265016e-01 4.870922e-01 3.073919e+00 148 144 166
4.129665e-01 4.937394e-01 3.073574e+00 183 175 198
4.115170e-01 4.944202e-01 3.073560e+00 78 65 77
3.461429e-01 5.266656e-01 3.062061e+00 87 80 87
3.614572e-01 5.190897e-01 3.066212e+00 157 154 163
3.612790e-01 5.191707e-01 3.066121e+00 88 85 94
4.156708e-01 4.924833e-01 3.073725e+00 66 57 66
3.373394e-01 5.310969e-01 3.059132e+00 118 113 125
4.090581e-01 4.957526e-01 3.073384e+00 106 103 112
4.066697e-01 4.969561e-01 3.073164e+00 117 119 131
4.010140e-01 4.997366e-01 3.072743e+00 85 86 104
4.010140e-01 4.997366e-01 3.072743e+00 85 86 104
3.653593e-01 5.172918e-01 3.067086e+00 173 176 191
3.828492e-01 5.086603e-01 3.070475e+00 57 56 61
4.065105e-01 4.971050e-01 3.073199e+00 140 143 152
3.770839e-01 5.115769e-01 3.069491e+00 113 113 113
3.672596e-01 5.164298e-01 3.067553e+00 122 128 140
3.426509e-01 5.286535e-01 3.060981e+00 76 65 79
4.138622e-01 4.936570e-01 3.073628e+00 91 89 111
3.907592e-01 5.049197e-01 3.071568e+00 111 112 110
3.603383e-01 5.199580e-01 3.065890e+00 111 104 111
3.256730e-01 5.371869e-01 3.054877e+00 122 129 148
4.151345e-01 4.930651e-01 3.073727e+00 51 41 52
3.637056e-01 5.183306e-01 3.066697e+00 38 40 52
4.093642e-01 4.959189e-01 3.073352e+00 135 129 139
3.632726e-01 5.185778e-01 3.066647e+00 139 139 151
3.199160e-01 5.401399e-01 3.052570e+00 78 80 101
4.017118e-01 4.997070e-01 3.072848e+00 53 55 69
3.833004e-01 5.087240e-01 3.070459e+00 108 107 112
3.429333e-01 5.287233e-01 3.060980e+00 140 132 145
3.416559e-01 5.293869e-01 3.060595e+00 97 90 98
3.410756e-01 5.296527e-01 3.060451e+00 122 118 126
3.368658e-01 5.317492e-01 3.058947e+00 112 108 118
3.979942e-01 5.016001e-01 3.072476e+00 97 96 102
3.352020e-01 5.326334e-01 3.058443e+00 87 75 89
4.019213e-01 4.996999e-01 3.072840e+00 126 126 138
3.892656e-01 5.058889e-01 3.071403e+00 48 44 49
3.366718e-01 5.319576e-01 3.058916e+00 141 135 145
4.326497e-01 4.848104e-01 3.073937e+00 106 111 123
3.635175e-01 5.186498e-01 3.066651e+00 74 73 85
3.626670e-01 5.190707e-01 3.066515e+00 102 100 108
3.201462e-01 5.402002e-01 3.052611e+00 46 50 70
4.101879e-01 4.957790e-01 3.073471e+00 98 93 100
4.101879e-01 4.957790e-01 3.073471e+00 98 93 100
3.377536e-01 5.314937e-01 3.059302e+00 83 81 92
4.068820e-01 4.974178e-01 3.073236e+00 99 99 107
4.068820e-01 4.974178e-01 3.073236e+00 99 99 107
4.064807e-01 4.976607e-01 3.073232e+00 104 104 112
3.896035e-01 5.059082e-01 3.071447e+00 46 44 45
3.360059e-01 5.324454e-01 3.058734e+00 62 58 72
3.335545e-01 5.336765e-01 3.057826e+00 61 49 71
4.051721e-01 4.983332e-01 3.073148e+00 103 103 112
4.032265e-01 4.992903e-01 3.073009e+00 91 81 90
3.721264e-01 5.145729e-01 3.068528e+00 82 79 90
3.721264e-01 5.145729e-01 3.068528e+00 82 79 90
3.704047e-01 5.154113e-01 3.068188e+00 92 89 96
3.413627e-01 5.298171e-01 3.060495e+00 80 74 81
3.368008e-01 5.321186e-01 3.058963e+00 84 83 91
3.258634e-01 5.376146e-01 3.054959e+00 119 126 145
4.257550e-01 4.884124e-01 3.073999e+00 172 171 185
4.020619e-01 5.000132e-01 3.072856e+00 136 136 148
3.637511e-01 5.188547e-01 3.066770e+00 118 116 131
3.401430e-01 5.306082e-01 3.060083e+00 164 162 176
4.359659e-01 4.835262e-01 3.073872e+00 115 116 134
4.034553e-01 4.993421e-01 3.072935e+00 129 120 128
3.765738e-01 5.125519e-01 3.069352e+00 75 74 79
3.765738e-01 5.125519e-01 3.069352e+00 75 74 79
3.405001e-01 5.304516e-01 3.060207e+00 166 163 174
4.023687e-01 4.999286e-01 3.072925e+00 113 110 121
4.256864e-01 4.886173e-01 3.073985e+00 115 113 126
3.271626e-01 5.371775e-01 3.055454e+00 158 166 185
3.994293e-01 5.014459e-01 3.072478e+00 50 52 69
3.313253e-01 5.351313e-01 3.057008e+00 113 121 132
3.277594e-01 5.369320e-01 3.055654e+00 148 159 177
4.000483e-01 5.012197e-01 3.072674e+00 45 46 64
4.057656e-01 4.984522e-01 3.073158e+00 111 110 118
4.046174e-01 4.990772e-01 3.073054e+00 137 132 139
3.660550e-01 5.181419e-01 3.067190e+00 102 99 111
3.380437e-01 5.320433e-01 3.059361e+00 92 92 102
3.347778e-01 5.336584e-01 3.058208e+00 81 67 80
3.274058e-01 5.373296e-01 3.055579e+00 88 96 115
4.022342e-01 5.003905e-01 3.072827e+00 147 145 156
3.775830e-01 5.125454e-01 3.069555e+00 102 98 95
3.351282e-01 5.336026e-01 3.058445e+00 87 75 87
3.293815e-01 5.364641e-01 3.056337e+00 99 102 117
3.293815e-01 5.364641e-01 3.056337e+00 99 102 117
3.201923e-01 5.410083e-01 3.052691e+00 56 61 81
3.418197e-01 5.303262e-01 3.060646e+00 156 145 151
4.009743e-01 5.011658e-01 3.072698e+00 63 57 74
3.785012e-01 5.122209e-01 3.069801e+00 94 88 90
3.403858e-01 5.310892e-01 3.060228e+00 160 158 166
3.273904e-01 5.375734e-01 3.055572e+00 161 169 190
3.265354e-01 5.380748e-01 3.055241e+00 113 119 141
3.597751e-01 5.215791e-01 3.065847e+00 95 85 84
4.433134e-01 4.807364e-01 3.073590e+00 132 130 141
3.914424e-01 5.059871e-01 3.071705e+00 144 140 139
3.406091e-01 5.311446e-01 3.060248e+00 101 97 105
3.281556e-01 5.373699e-01 3.055870e+00 103 116 134
3.204503e-01 5.411672e-01 3.052821e+00 132 136 157
4.261001e-01 4.891223e-01 3.074068e+00 181 173 184
4.261001e-01 4.891223e-01 3.074068e+00 181 173 184
3.654870e-01 5.188192e-01 3.067064e+00 102 96 110
3.950144e-01 5.043338e-01 3.072101e+00 95 90 96
3.656846e-01 5.187757e-01 3.067164e+00 62 54 67
3.656846e-01 5.187757e-01 3.067164e+00 62 54 67
3.613646e-01 5.209653e-01 3.066157e+00 85 79 81
3.288926e-01 5.370926e-01 3.056136e+00 114 121 139
3.196061e-01 5.416741e-01 3.052473e+00 135 122 140
3.318764e-01 5.356352e-01 3.057173e+00 170 178 191
3.285746e-01 5.372975e-01 3.056031e+00 117 125 144
3.285746e-01 5.372975e-01 3.056031e+00 117 125 144
3.998368e-01 5.020859e-01 3.072292e+00 104 102 123
3.481481e-01 5.276008e-01 3.062589e+00 66 53 60
3.405556e-01 5.313871e-01 3.060234e+00 154 152 157
4.268062e-01 4.889762e-01 3.074119e+00 127 125 136
3.748197e-01 5.144251e-01 3.069021e+00 111 104 111
3.748197e-01 5.144251e-01 3.069021e+00 111 104 111
3.660702e-01 5.187175e-01 3.067248e+00 70 58 68
3.659506e-01 5.188494e-01 3.067176e+00 102 91 102
3.662873e-01 5.187188e-01 3.067304e+00 124 111 122
3.655076e-01 5.191019e-01 3.067071e+00 71 65 79
3.270405e-01 5.381975e-01 3.055458e+00 127 133 157
3.683993e-01 5.177100e-01 3.067682e+00 123 117 129
3.267059e-01 5.384082e-01 3.055298e+00 139 144 168
4.020284e-01 5.012085e-01 3.072857e+00 118 110 123
4.436492e-01 4.809909e-01 3.073621e+00 118 118 128
4.431898e-01 4.812300e-01 3.073703e+00 113 113 125
4.431898e-01 4.812300e-01 3.073703e+00 113 113 125
4.413313e-01 4.822046e-01 3.073807e+00 101 101 111
3.192520e-01 5.422696e-01 3.052343e+00 72 31 59
3.674167e-01 5.184108e-01 3.067550e+00 158 155 169
3.650309e-01 5.195918e-01 3.066968e+00 46 43 62
3.272426e-01 5.383310e-01 3.055541e+00 180 186 210
3.265947e-01 5.386522e-01 3.055255e+00 191 193 216
3.265947e-01 5.386522e-01 3.055255e+00 191 193 216
3.288870e-01 5.375839e-01 3.056166e+00 185 193 212
3.280671e-01 5.380194e-01 3.055674e+00 141 152 176
3.268136e-01 5.386656e-01 3.055386e+00 153 157 182
3.268136e-01 5.386656e-01 3.055386e+00 153 157 182
3.271514e-01 5.385493e-01 3.055453e+00 151 157 181
3.271514e-01 5.385493e-01 3.055453e+00 151 157 181
3.274664e-01 5.384265e-01 3.055621e+00 153 159 185
3.276759e-01 5.384037e-01 3.055568e+00 192 199 225
4.445325e-01 4.809538e-01 3.073611e+00 132 131 145
4.417204e-01 4.823525e-01 3.073786e+00 119 119 129
4.048141e-01 5.002972e-01 3.073086e+00 175 173 178
4.013820e-01 5.019658e-01 3.072742e+00 80 66 83
3.291401e-01 5.377106e-01 3.056081e+00 147 155 176
3.209247e-01 5.417483e-01 3.052984e+00 96 97 115
3.209247e-01 5.417483e-01 3.052984e+00 96 97 115
3.838126e-01 5.106484e-01 3.070459e+00 66 61 67
3.281762e-01 5.382201e-01 3.055846e+00 156 168 192
4.393378e-01 4.836152e-01 3.073939e+00 121 120 128
4.393378e-01 4.836152e-01 3.073939e+00 121 120 128
4.171174e-01 4.943885e-01 3.073811e+00 100 94 98
3.953689e-01 5.050387e-01 3.072123e+00 104 99 105
3.617235e-01 5.216179e-01 3.066173e+00 108 102 104
3.274047e-01 5.386497e-01 3.055650e+00 205 212 237
3.288603e-01 5.379676e-01 3.056231e+00 151 163 186
3.214281e-01 5.416383e-01 3.053266e+00 106 108 123
3.196329e-01 5.425412e-01 3.052479e+00 118 50 99
4.002097e-01 5.027323e-01 3.072610e+00 62 56 84
3.706983e-01 5.172742e-01 3.068170e+00 123 116 123
4.628390e-01 4.723480e-01 3.071984e+00 91 94 111
3.670180e-01 5.191653e-01 3.067341e+00 92 84 100
3.282438e-01 5.385273e-01 3.055825e+00 199 211 235
3.271379e-01 5.390837e-01 3.055522e+00 174 176 197
4.013846e-01 5.024467e-01 3.072680e+00 133 120 137
3.649336e-01 5.203817e-01 3.067007e+00 89 88 104
3.649206e-01 5.203895e-01 3.067091e+00 89 88 104
4.630680e-01 4.724500e-01 3.072016e+00 41 44 61
3.672838e-01 5.193002e-01 3.067432e+00 143 139 154
3.663424e-01 5.197525e-01 3.067235e+00 138 129 146
4.116203e-01 4.975571e-01 3.073501e+00 145 136 141
3.480296e-01 5.289240e-01 3.062553e+00 99 90 93
3.194113e-01 5.431611e-01 3.052344e+00 72 27 62
3.206224e-01 5.425910e-01 3.052876e+00 118 69 109
3.447049e-01 5.307187e-01 3.061538e+00 113 108 119
4.542491e-01 4.771954e-01 3.073064e+00 145 149 161
4.000053e-01 5.035770e-01 3.072617e+00 99 96 115
4.532784e-01 4.777010e-01 3.073187e+00 163 169 184
4.313952e-01 4.883332e-01 3.074130e+00 76 73 82
4.017719e-01 5.028396e-01 3.072789e+00 109 96 118
3.429955e-01 5.319029e-01 3.061086e+00 143 136 143
3.999125e-01 5.038185e-01 3.072635e+00 60 56 73
4.001514e-01 5.037767e-01 3.072528e+00 91 89 103
3.446625e-01 5.311618e-01 3.061562e+00 79 78 86
3.189661e-01 5.439526e-01 3.052183e+00 102 81 100
3.673269e-01 5.202492e-01 3.067390e+00 48 47 68
3.210900e-01 5.431467e-01 3.053125e+00 73 48 71
4.006133e-01 5.038961e-01 3.072592e+00 104 100 122
3.417882e-01 5.330881e-01 3.062754e+00 143 142 147
3.434457e-01 5.321864e-01 3.061124e+00 144 139 145
3.916087e-01 5.084323e-01 3.071424e+00 82 72 73
3.436638e-01 5.322281e-01 3.062964e+00 141 136 143
3.203545e-01 5.437531e-01 3.052719e+00 55 28 51
