ply
format ascii 1.0
element face 0
property list uchar int vertex_indices
element vertex 926
property float x
property float y
property float z
property uchar diffuse_red
property uchar diffuse_green
property uchar diffuse_blue
end_header
-8.803785e+00 4.342020e+00 1.678821e+01 204 209 204
-2.382608e+00 -3.594816e+00 9.483939e+00 92 90 103
-1.415521e+00 -3.282446e+00 4.997691e+00 164 166 157
-2.682295e+00 -2.405557e+00 4.330222e+00 197 197 174
-7.825732e+00 2.364890e+00 1.596461e+01 156 169 153
-7.825732e+00 2.364890e+00 1.596461e+01 156 169 153
-7.885178e+00 3.087057e+00 1.572862e+01 97 107 99
-8.418571e+00 4.202204e+00 1.592646e+01 209 219 208
-8.588588e+00 3.946566e+00 1.629443e+01 194 195 187
-8.660082e+00 4.357308e+00 1.660136e+01 107 105 108
-7.815723e+00 4.124220e+00 1.951885e+01 170 170 171
1.786462e+00 6.754984e+00 2.848423e+00 137 127 99
2.555516e-01 6.353558e+00 2.917381e+00 236 229 208
-1.734247e-01 6.427369e+00 2.893765e+00 212 205 169
-3.304065e+00 5.829010e+00 2.837137e+00 136 129 113
-7.526814e+00 4.047518e+00 2.005355e+01 106 108 95
1.449867e+00 6.686902e+00 2.859149e+00 129 118 96
2.902696e-01 6.431358e+00 2.898167e+00 140 134 108
-2.119043e+00 6.025068e+00 2.887552e+00 151 142 111
-2.812674e+00 -7.179199e-01 2.886582e+00 50 49 45
-2.559579e+00 8.048903e-01 2.505626e+00 55 46 46
9.964380e-02 -3.989361e+00 3.008126e+00 21 21 19
-3.599718e+00 -2.044560e+00 3.233198e+00 60 56 47
-2.039363e+00 1.303131e+00 2.991117e+00 62 51 51
-1.570913e+00 1.736635e+00 2.977430e+00 116 102 92
-9.475285e-01 -2.783387e+00 3.763768e+00 60 56 60
-9.357152e-01 -2.793554e+00 3.697943e+00 60 56 60
-3.937633e+00 -2.535093e+00 4.133564e+00 84 75 65
-3.524247e+00 -9.550121e-01 3.106322e+00 132 121 115
-2.402016e+00 8.246810e-01 2.990625e+00 110 101 101
-1.867825e+00 1.427038e+00 2.988880e+00 113 110 100
-1.867825e+00 1.427038e+00 2.988880e+00 113 110 100
-1.266453e+00 1.934024e+00 3.119572e+00 87 83 74
-1.310218e+00 -1.531324e-02 3.039304e+00 51 41 39
-1.393719e+00 1.380608e+00 3.000837e+00 51 41 40
5.295562e+00 -3.690529e+00 3.570533e+00 22 21 24
8.051352e+00 7.948901e+00 3.890424e+00 58 57 62
2.565070e+00 -3.737798e+00 8.629803e+00 61 61 60
3.019832e+00 -1.100636e-01 1.227475e+01 76 72 69
-9.287130e+00 -4.978781e-01 1.180228e+01 106 103 96
-1.300399e+01 1.544046e+01 2.160397e+00 64 63 61
-1.226097e+01 4.900038e+00 1.517877e+01 73 70 65
-1.239990e+01 5.734321e+00 1.489183e+01 83 78 75
2.611754e+00 3.759671e-01 1.343638e+01 67 64 54
-9.584895e+00 -2.873861e-01 1.420138e+01 92 91 86
-1.017042e+01 7.503118e-01 1.567532e+01 95 95 95
-1.244185e+01 5.957231e+00 1.478268e+01 151 150 146
-5.785222e+00 1.458912e+01 2.113257e+00 143 144 148
-5.071460e+00 1.570742e+01 1.302371e+00 55 54 66
-1.340066e+01 -5.355856e-01 1.159491e-01 108 105 100
-9.775161e+00 -2.699099e+00 5.738689e+00 73 73 73
-1.062973e+01 1.189660e+00 1.621663e+01 119 118 114
1.585434e+00 -3.117788e+00 8.459693e+00 46 46 46
-6.677357e+00 1.696634e+00 1.968480e+01 104 104 106
-8.478867e+00 -1.372195e+00 7.687623e+00 57 53 50
-9.876167e+00 -9.026390e-01 1.279902e+01 54 50 47
-6.620776e+00 1.551695e+00 1.976186e+01 102 101 99
-6.620776e+00 1.551695e+00 1.976186e+01 102 101 99
-1.046608e+01 8.491729e-01 1.619610e+01 89 89 90
4.415922e+00 9.081030e+00 -3.390970e-01 126 126 128
-8.353266e+00 -9.977850e-01 1.595848e+01 132 132 128
-8.161348e+00 -6.997841e-01 1.481450e+01 131 130 129
-8.408273e+00 2.513699e+00 1.481572e+01 186 183 172
-8.274540e+00 2.415663e+00 1.495755e+01 186 183 172
-8.538405e+00 -8.195236e-01 1.623079e+01 144 145 147
-8.310107e+00 -9.233990e-01 1.581253e+01 71 65 67
-8.330600e+00 -9.661118e-01 1.592377e+01 138 138 137
-8.220482e+00 -8.246057e-01 1.519283e+01 117 113 109
-8.455704e+00 -6.080015e-01 1.549202e+01 64 57 56
-8.704354e+00 -5.786640e-01 1.653075e+01 60 55 51
-8.704354e+00 -5.786640e-01 1.653075e+01 60 55 51
-8.645501e+00 -4.931653e-01 1.601421e+01 113 106 96
-8.283452e+00 -9.282173e-01 1.574002e+01 129 123 118
-7.673670e+00 -8.350246e-01 1.287308e+01 90 86 80
-7.996650e+00 -5.451237e-01 1.419516e+01 79 74 66
-8.616035e+00 -6.236896e-01 1.602938e+01 111 108 102
-8.643157e+00 -6.195258e-01 1.631761e+01 70 61 59
-7.315600e+00 3.242392e+00 1.324320e+01 108 103 109
1.787027e+00 -9.953490e-01 8.597997e+00 161 146 122
4.932781e+00 -3.059681e-01 1.026917e+01 145 129 108
1.719627e+00 -2.075981e+00 4.614722e+00 81 64 44
2.020497e+00 -1.896732e+00 5.347213e+00 143 129 103
1.858847e+00 -1.652740e+00 5.961690e+00 96 75 55
1.014717e+00 6.257749e-02 9.938083e+00 182 173 154
4.181845e+00 1.107194e-01 1.193257e+01 90 72 56
4.181845e+00 1.107194e-01 1.193257e+01 90 72 56
-2.199660e+00 -1.061212e+00 5.468301e+00 154 139 120
9.049943e-01 -1.560039e+00 5.026821e+00 89 68 48
2.323667e+00 -6.014109e-01 1.059870e+01 212 208 192
2.138051e+00 5.916126e-02 1.181275e+01 89 72 54
-3.778075e-01 -1.488560e+00 1.868233e+00 173 168 161
-5.027855e+00 5.175726e+00 2.098500e+00 167 162 157
-3.271793e+00 6.868007e+00 3.037315e+00 59 60 62
8.809407e-01 9.990943e+00 2.181717e+00 147 146 150
1.986454e+00 -2.316271e-02 2.709009e+00 172 171 167
3.458811e+00 2.053586e+00 1.293837e+00 83 78 75
-1.758028e-01 -1.778611e+00 2.200264e+00 169 169 167
-7.577357e+00 6.857052e+00 6.478357e+00 238 238 225
-3.006090e+00 6.336195e+00 1.343129e+01 223 232 227
-3.752408e+00 7.841785e+00 6.579512e+00 73 70 52
-8.882061e+00 4.463592e+00 1.753139e+01 223 228 221
-4.811239e+00 5.644953e+00 1.599044e+01 239 237 222
-8.441450e+00 5.617699e+00 1.457633e+01 204 206 195
-7.878426e+00 7.471010e+00 1.549229e+01 148 140 128
-7.671828e+00 8.537241e+00 1.483074e+01 244 243 238
-8.554723e+00 5.677069e+00 7.185218e+00 234 227 206
-4.545021e+00 5.684012e+00 1.575821e+01 227 234 218
-5.273841e+00 1.211839e+01 1.333878e+01 238 235 226
-6.990887e+00 1.051623e+01 1.368006e+01 230 230 210
-7.937241e+00 7.738939e+00 1.848762e+01 62 62 74
-4.340446e+00 -1.807200e+00 7.040947e+00 111 94 86
-6.523297e+00 5.836711e+00 6.590576e+00 240 231 198
-4.734157e+00 5.549965e+00 1.596167e+01 227 228 212
-1.937330e+00 2.359738e+01 -5.801288e-01 246 250 239
-4.042880e+00 1.779624e+01 7.438068e+00 125 113 91
-4.042880e+00 1.779624e+01 7.438068e+00 125 113 91
-5.982156e+00 1.318298e+01 1.087372e+01 189 175 148
-6.255564e+00 1.241599e+01 1.135389e+01 199 180 161
-8.784206e+00 4.594963e+00 1.744066e+01 140 141 133
-4.594519e+00 4.753648e+00 7.318218e+00 251 250 230
-8.401906e+00 5.015773e+00 1.289139e+01 248 248 245
-4.926922e+00 5.521120e+00 1.603401e+01 205 209 196
-4.507309e+00 5.316715e+00 1.695303e+01 193 191 178
-4.582821e+00 5.313276e+00 1.694810e+01 42 40 44
-5.667140e+00 5.983950e+00 1.543276e+01 238 242 236
1.275786e+00 2.970220e+01 -6.521272e+00 91 104 115
-6.625681e+00 1.149805e+01 1.168133e+01 168 151 113
-6.261584e+00 1.275559e+01 1.086876e+01 134 116 99
-6.703373e+00 5.170233e+00 1.771596e+01 150 134 104
-7.281811e+00 8.282171e+00 1.592654e+01 121 119 105
-8.787801e+00 5.051349e+00 1.767361e+01 97 99 94
-6.235392e+00 4.481425e+00 2.066110e+01 97 103 91
-8.700418e+00 4.735292e+00 1.934393e+01 182 202 201
-4.274531e+00 3.923973e+00 1.038651e+01 252 254 241
-8.790505e-01 7.027665e+00 7.501839e+00 248 242 213
-3.810936e+00 5.769295e+00 1.524394e+01 34 38 36
-3.336330e+00 5.839447e+00 1.632210e+01 200 206 196
-6.171852e+00 6.133880e+00 1.425775e+01 134 138 148
-6.341608e+00 1.184142e+01 1.205825e+01 127 114 84
-7.110693e+00 9.716265e+00 1.424823e+01 244 236 222
-5.992189e+00 1.076136e+01 1.426931e+01 128 118 108
-8.757621e+00 4.461270e+00 1.748838e+01 200 211 205
-8.138180e+00 7.224203e+00 1.846903e+01 69 58 108
-8.812909e+00 4.680841e+00 1.902667e+01 201 214 203
3.859643e+00 9.406526e+00 7.011467e+00 246 241 221
-7.356178e+00 3.341927e+00 1.564842e+01 135 118 99
-5.721890e+00 8.871110e+00 8.475480e+00 83 85 71
-4.344373e+00 5.407649e+00 1.669906e+01 35 37 33
-5.506221e+00 6.035961e+00 1.519744e+01 30 25 18
-7.822845e+00 6.760952e+00 1.583650e+01 238 236 225
-7.908296e+00 6.728545e+00 1.581854e+01 241 240 223
-8.726873e+00 4.832143e+00 1.707014e+01 95 102 111
-7.836371e+00 7.203275e+00 1.640059e+01 218 216 204
-8.800643e+00 4.498811e+00 1.767702e+01 116 118 122
-8.891613e+00 4.618810e+00 1.756932e+01 95 93 82
-8.964104e+00 4.376665e+00 1.824106e+01 152 154 157
-7.718822e+00 4.837920e+00 1.967424e+01 237 236 251
-7.835462e+00 6.160353e+00 1.712292e+01 145 138 119
-8.000565e+00 5.939695e+00 1.719544e+01 229 217 205
-7.846675e+00 3.785956e+00 2.002762e+01 204 196 177
-6.527758e+00 -6.936277e-01 1.072991e+01 162 162 161
-8.021061e+00 3.647988e+00 1.296078e+01 244 232 206
-8.021061e+00 3.647988e+00 1.296078e+01 244 232 206
-3.165185e+00 7.333052e+00 1.363970e+01 79 92 107
-8.476535e+00 4.818393e+00 1.561691e+01 189 208 202
-7.938486e+00 6.205224e+00 1.680948e+01 95 88 74
-7.193739e+00 7.481986e+00 1.632869e+01 236 229 212
-7.555598e+00 6.719020e+00 1.677081e+01 234 225 218
-7.310243e+00 4.085408e+00 1.273148e+01 149 133 96
-7.310243e+00 4.085408e+00 1.273148e+01 149 133 96
-7.477274e+00 6.875129e+00 1.668318e+01 239 232 214
-7.705066e+00 6.458120e+00 1.691659e+01 229 220 213
2.535201e+00 -2.707618e+00 1.306628e+01 18 16 19
-7.905927e+00 -5.259344e+00 9.567705e+00 45 43 44
-6.662443e+00 -2.993747e+00 1.518570e+01 83 87 109
-9.486285e+00 -4.280318e-01 1.220123e+01 106 102 99
-1.114136e+01 1.065529e+01 7.812667e+00 81 78 76
-3.249035e+00 7.175297e+00 1.631069e+01 101 101 101
-5.675536e+00 6.573130e+00 1.675324e+01 86 81 77
-8.124942e+00 -5.281037e+00 9.482764e+00 88 89 91
-8.188629e+00 -5.281779e+00 9.428609e+00 35 35 36
-8.188629e+00 -5.281779e+00 9.428609e+00 35 35 36
-5.820611e+00 7.785644e+00 1.578319e+01 130 127 118
-8.686150e+00 -4.489163e+00 9.242553e+00 46 46 48
-8.859891e+00 -1.349468e+00 1.720395e+01 41 41 41
-9.492685e+00 -1.314949e+00 7.024506e+00 97 96 91
-6.669717e+00 -5.931280e+00 8.280480e+00 105 114 123
-6.669717e+00 -5.931280e+00 8.280480e+00 105 114 123
-1.149119e+01 -3.315256e-01 8.654525e+00 60 59 55
-1.235572e+01 1.910201e-01 7.836207e+00 51 50 46
-9.489523e+00 -3.445109e+00 9.496879e+00 69 71 69
-1.261033e+01 -7.524478e-01 7.139506e+00 49 48 44
-1.261033e+01 -7.524478e-01 7.139506e+00 49 48 44
-4.125456e+00 1.008859e+01 1.145397e+01 36 36 36
-8.848794e+00 3.505950e+00 1.828833e+01 152 151 147
-6.840877e+00 2.172058e+01 -1.847975e+00 59 59 71
-8.307827e+00 3.944835e+00 1.846199e+01 75 71 70
-2.372905e+00 8.177171e+00 1.310778e+01 127 125 126
-6.399972e+00 2.324247e+00 1.832469e+01 150 152 154
-7.033052e+00 9.669608e+00 1.583522e+01 106 106 108
-8.992597e+00 3.012693e+00 1.897785e+01 149 148 140
-6.729984e+00 9.954148e+00 1.584885e+01 144 144 146
-6.729984e+00 9.954148e+00 1.584885e+01 144 144 146
-9.652264e+00 -3.373836e-01 1.375036e+01 95 91 88
3.168956e+00 7.018323e+00 5.953030e+00 111 108 105
-4.416667e+00 3.189502e+00 1.879523e+01 147 138 123
-4.666080e+00 3.636743e+00 1.798326e+01 201 201 200
-4.666080e+00 3.636743e+00 1.798326e+01 201 201 200
-4.666080e+00 3.636743e+00 1.798326e+01 201 201 200
-3.752717e+00 3.800619e+00 1.882940e+01 209 203 200
-7.863123e+00 -2.310395e-01 1.545474e+01 108 101 94
-9.390275e+00 1.280840e+01 1.120723e+01 216 214 220
-7.895623e+00 1.488214e+00 1.767091e+01 176 179 185
-7.895623e+00 1.488214e+00 1.767091e+01 176 179 185
-4.870534e+00 3.564216e+00 1.815577e+01 210 210 211
-9.280924e+00 1.265268e+01 1.070229e+01 118 107 109
-4.887780e+00 2.781620e+00 1.963533e+01 197 198 200
-5.194186e+00 3.292478e+00 1.911224e+01 128 122 119
-5.355612e+00 3.481995e+00 1.929004e+01 197 198 200
-8.130635e+00 1.800655e+00 1.601811e+01 174 174 172
-8.297879e+00 2.124620e+00 1.525015e+01 174 174 172
-8.361976e+00 2.287273e+00 1.522896e+01 78 74 70
-7.888744e+00 1.972514e+00 1.622527e+01 165 160 159
-4.836403e+00 3.422296e+00 1.874896e+01 194 192 186
-4.998579e+00 2.766537e+00 1.960120e+01 193 192 196
-4.725615e+00 2.958709e+00 1.962225e+01 107 115 131
-5.029819e+00 2.719164e+00 1.969144e+01 77 89 111
-8.510817e+00 1.371001e+01 1.127545e+01 192 188 190
-6.012649e+00 1.243038e+01 1.375255e+01 189 190 195
-7.683284e+00 -5.022099e-01 1.419533e+01 159 156 147
-8.279819e+00 3.218188e-01 1.598992e+01 189 190 194
-5.850271e+00 2.331239e+00 1.123212e+01 164 153 143
-7.892405e+00 1.759713e+00 1.667359e+01 57 54 53
-7.968327e+00 1.123030e+00 1.778644e+01 170 165 153
-7.815957e+00 2.354511e+00 1.568028e+01 60 54 59
-7.963976e+00 1.138668e+00 1.788154e+01 58 53 55
-4.750102e+00 3.912891e+00 1.850864e+01 137 131 128
-8.204936e+00 1.780437e+00 1.911941e+01 179 171 160
-8.197187e+00 1.502898e+00 1.934973e+01 89 79 84
-8.285901e+00 1.965891e+00 1.901243e+01 88 80 83
-5.231419e+00 3.322490e+00 1.918808e+01 194 194 196
-5.081242e+00 4.504202e+00 1.841440e+01 213 208 204
-6.605644e+00 -1.424155e+00 1.317628e+01 153 161 171
-8.097545e+00 1.610574e-01 1.582798e+01 179 179 179
-8.110157e+00 1.016953e+00 1.863359e+01 76 65 65
-8.110157e+00 1.016953e+00 1.863359e+01 76 65 65
-8.120870e+00 9.871169e-01 1.869847e+01 153 146 135
-8.117196e+00 8.758554e-01 1.886068e+01 182 180 165
-8.117196e+00 8.758554e-01 1.886068e+01 182 180 165
-3.772146e+00 4.120828e+00 1.788328e+01 120 121 115
-7.554803e+00 2.278844e-02 2.047229e+01 190 189 181
-3.859718e+00 4.031642e+00 1.807982e+01 119 113 114
-8.210353e+00 1.555062e+00 1.923906e+01 96 86 91
-8.204182e+00 1.440669e+00 1.934177e+01 88 80 81
-8.853887e+00 3.955133e+00 1.746084e+01 195 187 183
-8.139458e+00 1.286112e+00 1.965144e+01 84 75 73
-9.059156e+00 1.394630e+01 1.068759e+01 99 89 99
-5.155773e+00 3.477562e+00 1.925459e+01 174 175 179
-8.609138e+00 -6.771287e-02 1.642758e+01 67 58 58
-8.556350e+00 4.904318e-01 1.651124e+01 188 180 178
-8.117834e+00 9.279844e-01 1.877951e+01 80 74 76
-4.130471e+00 4.084532e+00 1.771183e+01 147 141 134
-4.280957e+00 3.841796e+00 1.799621e+01 144 135 134
-4.280957e+00 3.841796e+00 1.799621e+01 144 135 134
-3.731937e+00 4.097166e+00 1.807306e+01 177 169 159
-3.881911e+00 3.914693e+00 1.825385e+01 118 110 106
-4.256877e+00 3.575987e+00 1.848089e+01 123 114 111
-4.256877e+00 3.575987e+00 1.848089e+01 123 114 111
-8.101947e+00 9.446871e+00 1.320661e+01 196 192 183
-8.197750e+00 1.411750e+00 1.942745e+01 112 110 116
-8.228653e+00 2.449884e+00 1.876413e+01 188 181 171
-5.172515e+00 3.051742e+00 1.942766e+01 165 166 171
-5.326476e+00 3.367259e+00 1.920358e+01 118 112 111
-5.235511e+00 3.247769e+00 1.938993e+01 105 104 113
-7.013214e+00 1.542293e+01 1.134144e+01 103 99 102
-5.319129e+00 3.413687e+00 1.938916e+01 80 84 104
-5.395512e+00 3.173744e+00 1.961446e+01 95 95 105
-5.397453e+00 3.383894e+00 1.950369e+01 77 79 91
-5.426900e+00 3.169450e+00 1.966305e+01 90 90 103
-5.426900e+00 3.169450e+00 1.966305e+01 90 90 103
-8.636936e+00 -1.483510e-01 1.655926e+01 136 133 130
-5.956074e+00 2.526778e+00 1.081839e+01 203 204 205
-8.048434e+00 1.998606e+00 1.578351e+01 141 140 140
-8.605958e+00 9.964270e+00 -6.802605e-01 149 149 150
-4.338413e+00 3.833202e+00 1.801802e+01 200 196 193
-3.670883e+00 4.043316e+00 1.820682e+01 118 112 110
-8.894090e+00 3.683960e+00 1.682201e+01 110 97 86
-4.530442e+00 3.256636e+00 1.886278e+01 199 190 178
-4.755396e+00 3.698208e+00 1.845162e+01 133 127 127
-8.121337e+00 1.087283e+00 1.970900e+01 126 121 127
-5.031477e+00 2.886568e+00 1.941134e+01 130 126 120
-8.720370e+00 2.582890e+00 1.881071e+01 163 153 143
-8.910207e+00 1.415772e+01 1.124730e+01 105 102 106
-5.370199e+00 3.369677e+00 1.923101e+01 178 169 164
-5.244619e+00 3.302836e+00 1.937640e+01 175 170 172
-5.309312e+00 4.187787e+00 1.877093e+01 151 145 138
-5.185676e+00 2.832860e+00 1.987144e+01 79 76 91
-3.350265e+00 -1.047436e+00 1.075062e+01 82 79 76
-8.656784e+00 -2.553331e-01 1.673890e+01 111 106 97
-8.691176e+00 1.008209e-02 1.711486e+01 172 172 170
-8.661692e+00 1.265693e-01 1.702581e+01 174 169 165
-8.676545e+00 1.669118e-01 1.699037e+01 147 144 141
-7.921810e+00 1.388702e+00 1.735411e+01 57 53 53
-7.995102e+00 1.085676e+00 1.817866e+01 84 86 100
-4.923735e+00 3.318879e+00 1.892198e+01 144 146 145
-8.146417e+00 1.136312e+00 1.961294e+01 182 178 176
-8.145331e+00 1.118090e+00 1.963605e+01 115 117 124
-8.702745e+00 2.529439e+00 1.888470e+01 124 115 108
-5.421251e+00 3.457409e+00 1.945904e+01 107 105 110
-4.231966e+00 1.127257e+01 8.134789e+00 156 147 136
-6.076063e+00 3.676556e+00 1.238851e+01 191 180 163
-6.569840e+00 3.665855e+00 9.104102e+00 209 199 193
-7.068735e+00 1.161748e+00 1.966672e+01 30 21 22
-1.514051e+00 7.211973e+00 1.357503e+01 187 176 165
-1.885942e+00 3.475246e+00 1.255389e+01 188 177 169
-5.375585e+00 4.535708e+00 1.536486e+01 192 184 173
1.660071e+00 -4.480080e-01 2.288616e+00 203 193 192
-2.174674e-02 -3.550333e+00 2.626953e+00 175 172 178
-1.086046e+01 -1.960827e+00 4.291287e+00 179 178 183
-1.023085e+01 -1.916795e+00 4.228869e+00 122 124 131
-1.102391e+01 -1.727330e+00 4.236863e+00 73 63 65
-1.098117e+01 -1.722151e+00 4.337190e+00 73 63 65
-1.026387e+01 -1.586006e+00 4.271197e+00 171 171 170
-1.026387e+01 -1.586006e+00 4.271197e+00 171 171 170
-1.116689e+01 -1.123481e+00 4.375354e+00 97 88 84
-1.060941e+01 -1.002501e+00 4.348369e+00 110 96 89
-1.068201e+01 -7.235823e-01 4.362110e+00 183 182 179
-1.095305e+01 -6.704767e-01 4.380053e+00 102 92 91
2.422750e+00 -2.018039e-01 2.018163e+00 128 102 86
1.835631e+00 5.756101e-02 2.212267e+00 130 109 84
-9.043797e-01 -4.185458e+00 2.756392e+00 36 34 40
-1.134070e+01 -1.353964e+00 4.334452e+00 96 86 81
-1.108376e+01 -1.348232e+00 4.225080e+00 171 171 177
-1.104287e+01 -1.349098e+00 4.320195e+00 171 171 177
-1.149638e+01 -1.415513e-01 4.294814e+00 208 220 234
2.718275e-01 -2.200714e+00 2.605033e+00 198 192 194
3.387236e-01 -6.590677e-01 2.689757e+00 191 179 172
2.357858e+00 -4.461189e-01 2.025148e+00 127 114 110
2.357858e+00 -4.461189e-01 2.025148e+00 127 114 110
2.244310e+00 1.901340e-01 2.080840e+00 85 68 56
-1.057725e+01 -3.111828e+00 4.115569e+00 137 135 146
-9.119323e+00 -3.148047e+00 4.172428e+00 86 75 75
-9.293721e+00 -3.046362e+00 4.113771e+00 156 155 160
-7.176484e-01 -3.958814e+00 2.754281e+00 181 179 180
-1.618916e+00 -3.037172e+00 3.100803e+00 193 189 185
-1.534020e+00 -2.669363e+00 3.108950e+00 204 200 199
-1.196891e+01 3.620804e-01 4.264177e+00 220 228 241
7.980479e-01 -8.911283e-01 2.534971e+00 149 134 130
7.980479e-01 -8.911283e-01 2.534971e+00 149 134 130
1.060763e+00 -3.006019e-01 2.477115e+00 159 140 126
2.580504e+00 -6.896968e-03 1.968988e+00 163 151 148
2.007247e+00 2.537904e-01 2.166418e+00 165 145 134
2.007247e+00 2.537904e-01 2.166418e+00 165 145 134
-1.071867e+01 -2.332536e+00 4.191247e+00 94 86 90
-1.032148e+01 -2.163347e+00 4.206663e+00 98 92 96
-1.032148e+01 -2.163347e+00 4.206663e+00 98 92 96
-1.081262e+01 -1.745377e+00 4.212393e+00 167 166 162
-1.169290e+01 -4.335017e-01 4.257838e+00 195 207 210
-1.090355e+00 -2.847825e+00 2.974182e+00 201 200 198
-1.098710e+01 -2.770129e-01 4.292889e+00 191 191 187
-1.115900e+01 1.476471e-01 4.306413e+00 205 215 217
-4.204705e-01 -2.279339e+00 2.835409e+00 174 163 160
2.067054e-01 -1.920458e+00 2.679739e+00 175 171 168
2.778185e-01 -1.543458e+00 2.681230e+00 116 97 92
2.778185e-01 -1.543458e+00 2.681230e+00 116 97 92
2.778185e-01 -1.543458e+00 2.681230e+00 116 97 92
1.235958e-01 -1.503536e+00 2.726714e+00 182 173 173
-1.644899e-01 -1.158879e+00 2.837180e+00 196 187 180
2.395761e+00 -7.214463e-01 2.024956e+00 183 171 163
-1.033315e+01 -3.121140e+00 4.124167e+00 74 63 63
-1.033315e+01 -3.121140e+00 4.124167e+00 74 63 63
-1.075487e+01 -3.036941e+00 4.125397e+00 72 63 60
-1.075487e+01 -3.036941e+00 4.125397e+00 72 63 60
-9.331138e+00 -3.267945e+00 4.100366e+00 171 180 187
-9.466891e+00 -2.918448e+00 4.132976e+00 167 165 168
-1.183909e+00 -4.459828e+00 2.829092e+00 77 78 90
-9.897210e+00 -2.215203e+00 4.206045e+00 91 86 94
-9.897210e+00 -2.215203e+00 4.206045e+00 91 86 94
-9.798088e-01 -4.346448e+00 2.764827e+00 40 34 46
-1.074624e+01 -1.948967e+00 4.232284e+00 171 172 168
-1.059890e+01 -1.890853e+00 4.221837e+00 117 106 110
-1.046466e+01 -1.469782e+00 4.251471e+00 101 88 95
-5.852885e-01 -3.708230e+00 2.738861e+00 166 168 165
-5.852885e-01 -3.708230e+00 2.738861e+00 166 168 165
-9.964690e-01 -3.299644e+00 2.899940e+00 102 87 82
-7.634022e-01 -3.326185e+00 2.833417e+00 178 169 160
-1.702134e+00 -2.791610e+00 3.140473e+00 193 187 185
4.335813e-01 -2.847024e+00 2.529908e+00 195 190 182
-1.135976e+01 -9.270564e-02 4.314729e+00 209 219 220
1.904885e-01 -2.732736e+00 2.618940e+00 196 195 195
-7.138927e-01 -2.474956e+00 2.909779e+00 205 200 197
-1.022848e+00 -2.331552e+00 3.006777e+00 152 135 128
-1.022848e+00 -2.331552e+00 3.006777e+00 152 135 128
-8.887883e-01 -2.168629e+00 2.980303e+00 216 212 211
-1.168858e+01 7.805114e-01 4.286146e+00 163 176 192
5.245568e-01 -1.007523e+00 2.629308e+00 202 194 186
9.541894e-01 -9.918658e-01 2.503412e+00 202 197 193
2.312380e+00 -1.096768e+00 2.042668e+00 40 22 19
2.183860e+00 -8.336352e-01 2.096924e+00 181 171 165
2.554762e+00 -7.827461e-01 1.993745e+00 167 166 173
2.710515e+00 -5.497206e-01 1.945494e+00 197 189 171
1.957212e+00 -2.445683e-01 2.186640e+00 187 175 171
2.898495e+00 -1.325606e-01 1.885195e+00 132 128 142
2.353585e+00 3.554197e-01 2.071554e+00 186 173 164
2.970763e+00 5.241789e-01 1.847238e+00 189 174 168
-1.049916e+01 -3.196111e+00 4.118587e+00 64 61 58
-9.183753e+00 -3.348972e+00 4.083436e+00 185 192 192
-9.443903e+00 -3.147703e+00 4.108857e+00 123 117 128
-9.691854e+00 -2.930601e+00 4.134530e+00 100 96 105
-9.691854e+00 -2.930601e+00 4.134530e+00 100 96 105
-9.784707e+00 -2.910756e+00 4.128843e+00 178 178 182
-7.417929e-01 -4.193221e+00 2.728447e+00 174 179 182
-8.337824e-01 -3.920951e+00 2.774289e+00 39 38 42
-1.037228e+01 -1.530127e+00 4.262660e+00 168 167 164
-1.088623e+01 -1.394208e+00 4.258460e+00 89 78 85
-1.088623e+01 -1.394208e+00 4.258460e+00 89 78 85
-9.472451e-01 -3.503335e+00 2.886357e+00 174 175 170
-1.166741e+01 -5.378190e-01 4.243691e+00 137 128 127
-1.140128e+00 -2.727549e+00 2.995234e+00 147 124 115
1.532146e-01 -2.887371e+00 2.611265e+00 146 129 126
1.532146e-01 -2.887371e+00 2.611265e+00 146 129 126
-1.164002e+00 -2.280109e+00 3.048053e+00 201 200 204
-1.164002e+00 -2.280109e+00 3.048053e+00 201 200 204
2.733387e-01 -2.425067e+00 2.617067e+00 207 203 204
-7.805457e-01 -2.174906e+00 2.938588e+00 213 210 207
1.610853e-02 -1.960551e+00 2.736282e+00 192 184 173
-2.638478e-01 -1.709794e+00 2.837806e+00 194 184 176
5.279570e-01 -1.182631e+00 2.627889e+00 185 175 161
6.678445e-02 -1.079274e+00 2.771997e+00 181 173 170
2.105567e+00 -1.150239e+00 2.125273e+00 96 77 77
4.014432e-01 -7.711186e-01 2.670151e+00 201 188 179
2.462063e+00 -1.019582e+00 2.013972e+00 178 171 159
2.464932e+00 -9.279513e-01 2.002225e+00 175 167 160
1.481046e+00 -6.891792e-01 2.318050e+00 148 142 150
2.214519e+00 -7.259068e-01 2.090483e+00 119 91 89
2.345256e+00 -1.124700e-01 2.052040e+00 71 52 45
2.763793e+00 -1.246939e-01 1.922884e+00 186 184 185
2.258781e+00 -2.582276e-02 2.093031e+00 185 173 163
2.612606e+00 2.006154e-01 1.964717e+00 181 169 154
2.105472e+00 3.091289e-01 2.136241e+00 187 177 168
2.673393e+00 5.097965e-01 1.922863e+00 139 116 114
2.673393e+00 5.097965e-01 1.922863e+00 139 116 114
-9.193558e+00 -3.602763e+00 4.043510e+00 187 194 204
-1.003597e+01 -3.256465e+00 4.107110e+00 32 30 37
-9.448377e+00 -3.219094e+00 4.112996e+00 145 153 164
-1.044205e+01 -2.375015e+00 4.198249e+00 148 138 129
-1.071588e+01 -2.153622e+00 4.199506e+00 151 160 165
-1.010882e+00 -4.419624e+00 2.772875e+00 51 52 71
-1.116703e+01 -1.914862e+00 4.199489e+00 68 63 69
-1.120096e+01 -1.858583e+00 4.210877e+00 173 182 175
-6.896642e-01 -4.274509e+00 2.706337e+00 91 79 82
-6.896642e-01 -4.274509e+00 2.706337e+00 91 79 82
-8.187105e-01 -4.230361e+00 2.745188e+00 54 54 66
-1.030839e+01 -1.941714e+00 4.221708e+00 99 85 81
-1.141489e+01 -1.689387e+00 4.220165e+00 169 171 175
-4.721243e-01 -4.285627e+00 2.647149e+00 84 74 83
-1.053486e+01 -1.604043e+00 4.248637e+00 106 94 98
-7.994928e-01 -3.703289e+00 2.807990e+00 177 172 168
-3.397530e-01 -3.810411e+00 2.666327e+00 147 142 139
-1.136107e+01 -1.157197e+00 4.243610e+00 156 159 147
-2.721001e-01 -3.760320e+00 2.658611e+00 67 54 65
-6.759793e-01 -3.651674e+00 2.762219e+00 43 36 44
-4.441972e-01 -3.705847e+00 2.697425e+00 34 35 39
-4.778204e-01 -3.536823e+00 2.723596e+00 189 190 195
-1.123672e+01 -1.018118e+00 4.259178e+00 166 163 154
-5.848163e-01 -3.503126e+00 2.752739e+00 177 175 178
-1.573571e+00 -3.196269e+00 3.067316e+00 199 199 197
-3.827815e-01 -3.498006e+00 2.708253e+00 110 97 106
-1.758999e+00 -3.106241e+00 3.124591e+00 89 65 62
-1.824034e+00 -3.071524e+00 3.130520e+00 188 183 180
-9.479637e-01 -3.186266e+00 2.892490e+00 198 194 187
-1.091462e+01 -7.538322e-01 4.282486e+00 172 166 157
-1.071692e+00 -2.967704e+00 2.951388e+00 170 159 154
-1.125111e+01 -4.879914e-01 4.270981e+00 196 198 204
-1.097911e+01 -5.138453e-01 4.292441e+00 183 185 180
-1.080673e+01 -5.055787e-01 4.285016e+00 107 96 101
-7.521081e-02 -2.334580e+00 2.728204e+00 198 190 187
-1.146040e-01 -2.275813e+00 2.739377e+00 146 132 124
2.316845e-01 -2.345555e+00 2.643026e+00 160 148 144
4.764364e-01 -2.284099e+00 2.573525e+00 149 143 149
-2.269948e-01 -1.909444e+00 2.801031e+00 150 132 124
-2.269948e-01 -1.909444e+00 2.801031e+00 150 132 124
-9.277385e-02 -1.853597e+00 2.771761e+00 185 178 168
2.682686e-01 -1.912985e+00 2.671641e+00 178 164 157
9.021524e-02 -1.578349e+00 2.705020e+00 193 186 178
9.180780e-02 -1.563843e+00 2.760599e+00 193 186 178
3.280655e-01 -1.320659e+00 2.671410e+00 187 184 181
1.751409e-01 -1.266826e+00 2.727031e+00 180 176 172
1.070073e-01 -1.247875e+00 2.748820e+00 143 125 121
1.316979e+00 -1.237016e+00 2.376347e+00 191 178 167
1.316979e+00 -1.237016e+00 2.376347e+00 191 178 167
4.210373e-01 -1.011001e+00 2.655979e+00 192 182 172
1.781801e+00 -1.226070e+00 2.234460e+00 187 176 166
3.891775e-01 -9.047193e-01 2.685495e+00 187 183 172
1.670608e+00 -7.871229e-01 2.276907e+00 185 174 175
2.752170e+00 -6.415735e-01 1.913447e+00 187 176 159
2.028966e+00 -4.060745e-01 2.154871e+00 196 178 162
2.168124e+00 -3.634280e-01 2.114792e+00 116 93 80
2.262499e+00 -2.438381e-01 2.078620e+00 93 66 70
2.644086e+00 -2.941120e-01 1.952732e+00 182 168 149
2.020870e+00 9.348805e-02 2.159085e+00 180 166 152
1.790101e+00 1.680260e-01 2.261427e+00 69 47 37
2.390945e+00 1.104270e-01 2.036594e+00 130 103 80
3.058365e+00 2.549217e-01 1.810218e+00 158 152 158
3.037776e+00 3.228581e-01 1.814732e+00 74 51 63
3.037776e+00 3.228581e-01 1.814732e+00 74 51 63
-8.842199e+00 -3.716983e+00 4.017063e+00 135 137 135
-1.068348e+01 -2.982597e+00 4.129746e+00 146 146 143
-1.068348e+01 -2.982597e+00 4.129746e+00 146 146 143
-9.722113e+00 -3.141046e+00 4.123507e+00 106 98 112
-9.722113e+00 -3.141046e+00 4.123507e+00 106 98 112
-9.722113e+00 -3.141046e+00 4.123507e+00 106 98 112
-1.088409e+00 -5.145522e+00 2.715108e+00 50 52 64
-9.949337e+00 -2.923590e+00 4.143221e+00 174 177 184
-1.067158e+00 -4.784973e+00 2.749514e+00 81 71 75
-1.016789e+01 -2.519550e+00 4.175232e+00 91 79 85
-1.053701e+01 -1.818364e+00 4.224075e+00 104 93 110
-1.072500e+01 -1.743818e+00 4.226669e+00 97 93 99
-1.106451e+01 -1.618443e+00 4.230758e+00 159 158 152
-1.068748e+01 -1.650350e+00 4.241732e+00 76 66 68
-1.131644e+01 -1.497760e+00 4.239467e+00 164 164 158
-1.141500e+01 -1.481155e+00 4.225230e+00 162 168 167
-1.137405e+01 -1.364463e+00 4.231685e+00 79 67 69
-8.129545e-01 -3.836911e+00 2.786619e+00 139 135 131
-1.146304e+01 -1.342862e+00 4.216864e+00 72 64 68
-1.135103e+01 -1.249819e+00 4.244615e+00 169 170 156
-2.924089e-01 -3.849647e+00 2.653776e+00 44 39 38
-1.141867e+01 -1.182404e+00 4.242888e+00 124 123 129
-8.416990e-01 -3.635258e+00 2.819252e+00 125 116 115
-1.036499e+01 -1.228761e+00 4.267240e+00 95 88 95
-1.090429e+01 -1.114482e+00 4.267120e+00 186 185 175
-1.290822e+00 -3.246537e+00 2.976524e+00 192 191 187
-1.086859e+01 -9.969853e-01 4.260907e+00 177 175 164
-3.372881e-01 -3.457982e+00 2.700545e+00 203 210 206
-1.022721e+00 -3.195080e+00 2.913324e+00 197 192 189
-1.022721e+00 -3.195080e+00 2.913324e+00 197 192 189
-1.096545e+01 -8.545562e-01 4.277406e+00 173 169 157
-1.111094e+01 -7.957905e-01 4.269908e+00 170 173 166
-1.110418e+01 -7.382987e-01 4.278110e+00 82 70 71
-1.147873e+01 -6.440005e-01 4.263253e+00 90 78 96
-1.118713e+00 -2.979596e+00 2.973225e+00 193 192 188
8.368631e-02 -3.277919e+00 2.600516e+00 201 197 198
-1.244374e+00 -2.930481e+00 3.007407e+00 205 195 186
-1.175972e+00 -2.826156e+00 2.996219e+00 198 193 190
-9.536656e-02 -3.027856e+00 2.667390e+00 190 187 184
-1.087573e+01 -5.049338e-01 4.294083e+00 173 171 157
-1.087573e+01 -5.049338e-01 4.294083e+00 173 171 157
-4.979721e-01 -2.865496e+00 2.802933e+00 144 127 126
-1.307923e+00 -2.667437e+00 3.042917e+00 215 210 204
-7.299727e-01 -2.797238e+00 2.877192e+00 196 191 183
-1.093656e+01 -3.672700e-01 4.305075e+00 116 105 91
-1.087932e+01 -3.758735e-01 4.299657e+00 98 83 83
-1.068301e-01 -2.848900e+00 2.693744e+00 86 66 66
-3.451485e-01 -2.769149e+00 2.772349e+00 119 96 86
-3.451485e-01 -2.769149e+00 2.772349e+00 119 96 86
-1.108043e+01 -2.334908e-01 4.312638e+00 115 98 108
-1.108043e+01 -2.334908e-01 4.312638e+00 115 98 108
-1.044568e+00 -2.526175e+00 2.988474e+00 132 124 121
-4.719826e-01 -2.647510e+00 2.810661e+00 162 152 150
-6.472599e-01 -2.574330e+00 2.881037e+00 132 122 122
6.152416e-01 -2.652547e+00 2.500422e+00 197 195 187
4.840661e-01 -2.465867e+00 2.545953e+00 192 185 181
9.270671e-02 -2.347987e+00 2.674833e+00 187 180 180
9.270671e-02 -2.347987e+00 2.674833e+00 187 180 180
-2.095803e-01 -1.827436e+00 2.808721e+00 207 199 190
-1.278740e-03 -1.654086e+00 2.762375e+00 197 191 179
6.132058e-01 -1.665116e+00 2.561645e+00 200 190 181
3.395993e-01 -1.588190e+00 2.647999e+00 176 166 157
-8.307390e-02 -1.408162e+00 2.811263e+00 128 112 111
1.805695e+00 -1.524964e+00 2.201925e+00 190 182 167
1.876208e+00 -1.246432e+00 2.180798e+00 131 107 97
1.876208e+00 -1.246432e+00 2.180798e+00 131 107 97
7.618495e-01 -1.005228e+00 2.562585e+00 198 189 182
1.155364e+00 -1.030496e+00 2.423924e+00 196 184 171
2.209690e+00 -1.006911e+00 2.075548e+00 183 165 154
2.393310e+00 -9.437652e-01 2.037239e+00 120 100 86
2.580934e+00 -9.502185e-01 1.983368e+00 165 150 148
1.717261e+00 -7.198683e-01 2.248888e+00 141 126 130
1.093777e+00 -4.030830e-01 2.445320e+00 193 181 167
2.270558e+00 -5.786794e-01 2.075618e+00 88 68 60
9.993770e-01 -3.304832e-01 2.492089e+00 113 87 88
2.819138e+00 -6.466181e-01 1.890992e+00 70 46 49
2.123036e+00 -1.208272e-01 2.142090e+00 201 193 187
2.123036e+00 -1.208272e-01 2.142090e+00 201 193 187
2.093348e+00 -6.286935e-02 2.129222e+00 197 190 171
2.491246e+00 -1.045979e-01 2.005551e+00 97 83 79
3.122416e+00 -1.915500e-01 1.787156e+00 191 185 169
2.306484e+00 5.370711e-02 2.065432e+00 95 70 72
2.598193e+00 1.120723e-01 1.969342e+00 76 49 68
2.598193e+00 1.120723e-01 1.969342e+00 76 49 68
1.860057e+00 2.483216e-01 2.211099e+00 105 85 78
2.436042e+00 1.605269e-01 1.995923e+00 191 187 163
3.272959e+00 4.099007e-01 1.744892e+00 75 60 46
2.857867e+00 5.761278e-01 1.866977e+00 141 123 120
-8.632639e+00 -3.798631e+00 4.018783e+00 11 21 25
-9.242062e+00 -3.536632e+00 4.061412e+00 167 169 171
-9.368368e+00 -3.445392e+00 4.077583e+00 167 166 165
-9.239696e+00 -3.421863e+00 4.074196e+00 57 49 75
-1.085464e+01 -3.066706e+00 4.121313e+00 152 143 137
-1.055168e+01 -2.991690e+00 4.125543e+00 145 136 152
-1.065368e+01 -2.880139e+00 4.143999e+00 20 18 34
-1.005509e+01 -2.876529e+00 4.147597e+00 102 94 111
-9.478198e+00 -2.799457e+00 4.146288e+00 152 147 143
-9.660125e+00 -2.573800e+00 4.164387e+00 69 57 66
-9.660125e+00 -2.573800e+00 4.164387e+00 69 57 66
-1.122261e+01 -2.004614e+00 4.200667e+00 49 46 53
-9.954929e+00 -2.205052e+00 4.190461e+00 146 145 133
-1.103339e+00 -4.343991e+00 2.801083e+00 79 76 93
-1.042586e+01 -1.949109e+00 4.224397e+00 173 173 166
-1.057237e+01 -1.908306e+00 4.207036e+00 101 88 106
-1.148000e+01 -1.503326e+00 4.222596e+00 100 93 109
-1.009853e+01 -1.770152e+00 4.239010e+00 159 160 162
-1.060788e+01 -1.659677e+00 4.232443e+00 163 162 155
-1.049148e+01 -1.641712e+00 4.234723e+00 173 167 169
-1.103299e+01 -1.469618e+00 4.241154e+00 200 207 199
-3.056169e-01 -3.967642e+00 2.635740e+00 154 138 131
-8.981056e-01 -3.640348e+00 2.829996e+00 160 151 143
-9.424433e-01 -3.598492e+00 2.845204e+00 43 30 37
-1.127545e+01 -1.082486e+00 4.255369e+00 158 148 140
-1.127545e+01 -1.082486e+00 4.255369e+00 158 148 140
-1.043777e+01 -1.217198e+00 4.266154e+00 80 75 85
-1.129024e+01 -1.042058e+00 4.247426e+00 54 45 54
-1.040430e+01 -1.190151e+00 4.266262e+00 170 169 164
-1.048615e+01 -1.144624e+00 4.273139e+00 174 175 165
-1.113013e+01 -9.827944e-01 4.264040e+00 156 147 146
-1.463337e+00 -3.149299e+00 3.036038e+00 153 144 145
-1.100189e+01 -9.102646e-01 4.272371e+00 171 163 156
-1.094678e+01 -9.082744e-01 4.276047e+00 113 104 104
-1.119814e+01 -8.391273e-01 4.262929e+00 194 194 199
-1.119814e+01 -8.391273e-01 4.262929e+00 194 194 199
-1.120499e+01 -7.117162e-01 4.276566e+00 193 195 182
-1.107047e+01 -7.142217e-01 4.270551e+00 156 152 140
-1.645028e+00 -2.827521e+00 3.114697e+00 172 160 162
4.403132e-01 -3.048294e+00 2.515527e+00 201 189 190
-1.196576e+00 -2.552239e+00 3.027648e+00 134 127 130
-1.196576e+00 -2.552239e+00 3.027648e+00 134 127 130
6.478118e-02 -2.843247e+00 2.644207e+00 138 124 116
-1.084021e+01 -2.175353e-01 4.301430e+00 104 95 91
6.223438e-01 -2.842385e+00 2.473841e+00 203 198 195
-1.129866e+01 4.476324e-01 4.304545e+00 119 118 150
1.273752e-01 -2.015763e+00 2.682237e+00 155 141 142
-9.502191e-02 -1.914715e+00 2.766843e+00 114 89 84
1.001281e-01 -1.900493e+00 2.705011e+00 37 24 19
-6.926399e-01 -1.705708e+00 2.962464e+00 203 192 190
1.704608e-02 -1.703563e+00 2.755011e+00 26 12 8
1.156466e+00 -1.577806e+00 2.401540e+00 143 123 121
1.546885e+00 -1.644168e+00 2.257096e+00 192 182 167
7.813547e-01 -1.436547e+00 2.526343e+00 204 195 191
1.400033e-01 -1.227697e+00 2.732312e+00 130 114 107
4.627028e-01 -1.221072e+00 2.625673e+00 91 77 77
1.867082e+00 -1.472445e+00 2.181576e+00 194 180 174
9.665769e-01 -1.280116e+00 2.473599e+00 201 191 189
4.651372e-01 -1.175387e+00 2.649382e+00 104 90 83
1.921193e+00 -1.275692e+00 2.163581e+00 181 168 158
2.132942e-01 -8.670604e-01 2.734536e+00 162 149 147
2.018569e+00 -1.229734e+00 2.140780e+00 108 87 84
5.596414e-01 -8.326919e-01 2.622949e+00 143 124 128
1.783560e+00 -9.007870e-01 2.238481e+00 132 119 120
2.355718e+00 -8.072472e-01 2.036799e+00 118 102 101
2.901759e+00 -7.556193e-01 1.861257e+00 57 39 34
2.314195e+00 -5.722903e-01 2.065507e+00 207 199 180
2.606609e+00 -4.990949e-01 1.958505e+00 48 34 30
2.717681e+00 -4.576055e-01 1.927923e+00 86 68 64
2.717681e+00 -4.576055e-01 1.927923e+00 86 68 64
2.554199e+00 -3.651164e-01 1.965658e+00 93 72 71
2.592189e+00 -2.016737e-01 1.973126e+00 190 185 164
2.248882e+00 -1.112099e-01 2.084963e+00 123 99 95
2.565673e+00 -1.486861e-01 1.980721e+00 187 185 166
3.080134e+00 -1.227482e-01 1.802949e+00 192 179 162
2.360789e+00 5.753283e-02 2.046782e+00 173 161 147
2.756152e+00 1.782037e-02 1.925760e+00 113 100 104
2.096455e+00 1.379387e-01 2.128933e+00 89 66 69
2.001617e+00 3.242591e-01 2.163405e+00 185 164 150
3.287137e+00 4.673780e-01 1.737239e+00 177 173 162
-9.173569e+00 -3.730622e+00 4.031018e+00 78 77 82
-9.173569e+00 -3.730622e+00 4.031018e+00 78 77 82
-9.267859e+00 -3.557289e+00 4.082903e+00 36 28 43
-1.070888e+01 -3.254537e+00 4.101581e+00 42 37 34
-1.081319e+01 -3.233094e+00 4.104448e+00 61 55 57
-1.007991e+01 -3.248597e+00 4.107820e+00 168 173 158
-1.004446e+01 -3.232987e+00 4.118187e+00 23 25 24
-9.458286e+00 -3.207226e+00 4.098441e+00 158 166 184
-1.070902e+01 -2.914745e+00 4.143808e+00 151 155 158
-1.002556e+01 -3.023620e+00 4.139709e+00 97 95 105
-1.002556e+01 -3.023620e+00 4.139709e+00 97 95 105
-9.250431e+00 -3.065046e+00 4.114535e+00 172 174 174
-1.037627e+00 -4.936521e+00 2.720520e+00 169 173 178
-1.041393e+01 -2.460278e+00 4.176575e+00 79 74 77
-1.054866e+01 -2.408432e+00 4.182965e+00 60 50 51
-1.097653e+01 -2.303628e+00 4.188605e+00 165 172 167
-9.844901e+00 -2.428522e+00 4.185651e+00 178 181 188
-1.118939e+01 -2.118160e+00 4.191085e+00 143 145 156
-1.123126e+01 -1.972632e+00 4.193525e+00 137 138 126
-1.096062e+01 -1.862020e+00 4.228951e+00 161 154 165
-1.066361e+01 -1.867028e+00 4.220037e+00 145 134 124
-1.123836e+01 -1.746713e+00 4.219832e+00 151 146 140
-1.100163e+01 -1.743592e+00 4.221302e+00 139 130 131
-1.006253e+01 -1.905124e+00 4.241404e+00 182 177 183
-7.996474e-01 -4.098726e+00 2.764032e+00 22 23 27
-1.024807e+01 -1.792002e+00 4.238872e+00 183 183 173
-1.020430e+01 -1.794462e+00 4.238996e+00 56 44 54
-1.020430e+01 -1.794462e+00 4.238996e+00 56 44 54
-1.042322e+01 -1.710052e+00 4.257393e+00 167 163 164
-1.097911e+01 -1.589282e+00 4.236219e+00 166 165 167
-1.097911e+01 -1.589282e+00 4.236219e+00 166 165 167
-1.062030e+01 -1.621068e+00 4.246279e+00 71 66 69
-1.106653e+01 -1.504919e+00 4.240608e+00 27 26 21
-1.057905e+01 -1.583657e+00 4.246859e+00 166 172 161
-1.971755e+00 -3.539243e+00 3.123873e+00 150 133 130
-1.140902e+01 -1.252905e+00 4.241201e+00 49 38 44
-3.590151e-01 -3.831610e+00 2.679467e+00 156 151 145
-1.092632e+01 -1.317195e+00 4.247224e+00 172 158 151
-1.093833e+01 -1.293690e+00 4.269987e+00 93 80 80
-1.093833e+01 -1.293690e+00 4.269987e+00 93 80 80
-6.453564e-01 -3.697366e+00 2.757200e+00 196 193 186
-1.128462e+01 -1.170143e+00 4.253148e+00 55 50 44
-1.161515e+01 -1.094194e+00 4.239887e+00 186 192 210
-1.123344e+01 -1.092090e+00 4.254236e+00 56 48 46
-1.035448e+01 -1.271622e+00 4.255140e+00 169 167 164
-1.084802e+01 -1.128427e+00 4.273652e+00 47 43 42
-1.115580e+01 -1.041295e+00 4.258845e+00 179 172 173
-1.103194e+01 -1.047691e+00 4.256222e+00 99 90 99
-1.103194e+01 -1.047691e+00 4.256222e+00 99 90 99
-1.119396e+01 -1.008288e+00 4.265120e+00 150 149 140
-1.119396e+01 -1.008288e+00 4.265120e+00 150 149 140
-1.942652e+00 -3.074544e+00 3.169518e+00 139 125 122
-1.108412e+01 -9.300810e-01 4.274078e+00 147 141 149
-1.074447e+01 -9.912785e-01 4.274266e+00 163 157 143
-7.563153e-01 -3.290189e+00 2.834515e+00 108 93 93
-9.775983e-01 -3.217530e+00 2.911918e+00 125 122 117
-1.105635e+01 -8.306359e-01 4.275439e+00 152 151 152
-1.236857e+00 -3.043256e+00 2.984802e+00 202 205 210
-1.105008e+01 -6.586679e-01 4.278066e+00 189 182 177
-1.604693e+00 -2.814703e+00 3.126805e+00 59 47 53
-1.488068e+00 -2.794350e+00 3.097769e+00 71 58 70
-1.222122e+00 -2.853383e+00 3.000193e+00 136 126 123
-1.100817e+01 -5.762335e-01 4.288566e+00 60 54 52
-1.091773e+01 -5.915970e-01 4.294347e+00 159 148 140
-1.103461e+01 -5.613725e-01 4.284757e+00 194 192 180
1.354221e-01 -3.148077e+00 2.612206e+00 104 93 87
1.354221e-01 -3.148077e+00 2.612206e+00 104 93 87
-1.277178e+00 -2.773149e+00 3.025164e+00 102 90 92
-2.700726e-01 -3.005847e+00 2.723297e+00 127 115 118
-1.094398e+01 -4.855804e-01 4.287090e+00 76 70 75
-6.516104e-01 -2.797187e+00 2.848940e+00 182 173 167
-1.059712e+00 -2.647661e+00 2.983660e+00 198 187 183
-1.156412e+01 -2.282646e-01 4.278277e+00 140 141 162
4.508459e-01 -2.974496e+00 2.524121e+00 180 179 183
4.931776e-01 -2.951303e+00 2.519428e+00 194 195 191
-9.815234e-01 -2.354816e+00 2.988806e+00 199 196 184
-9.365049e-01 -2.227557e+00 2.995898e+00 133 133 135
-1.209668e-02 -2.357541e+00 2.711032e+00 210 200 190
6.156408e-01 -2.473228e+00 2.515585e+00 111 112 120
9.271898e-01 -2.356163e+00 2.424605e+00 182 167 164
9.940197e-01 -2.361442e+00 2.408735e+00 177 165 153
7.668148e-01 -2.309036e+00 2.472827e+00 131 122 125
-9.675086e-04 -2.099305e+00 2.712898e+00 207 200 208
1.757152e-01 -2.115442e+00 2.677152e+00 147 139 146
-5.270175e-02 -2.000691e+00 2.747947e+00 65 53 52
1.939824e-01 -2.052811e+00 2.667871e+00 197 191 186
3.058978e-01 -2.036677e+00 2.636878e+00 60 45 55
-6.165314e-01 -1.579777e+00 2.943725e+00 163 152 157
-6.165314e-01 -1.579777e+00 2.943725e+00 163 152 157
-2.831384e-01 -1.621567e+00 2.842933e+00 190 185 186
9.967141e-01 -1.714882e+00 2.439680e+00 157 136 133
2.900062e-01 -1.524874e+00 2.665101e+00 151 134 122
1.192657e+00 -1.652583e+00 2.386959e+00 96 71 64
-2.686801e-01 -1.179442e+00 2.871021e+00 71 53 51
4.217424e-01 -1.275924e+00 2.654436e+00 194 186 185
1.088765e-01 -1.178254e+00 2.753953e+00 181 163 146
4.882030e-01 -1.240799e+00 2.630758e+00 190 178 178
3.381919e-01 -1.199218e+00 2.675058e+00 190 177 166
1.651091e+00 -1.411030e+00 2.254117e+00 124 99 92
8.033624e-01 -1.229068e+00 2.533694e+00 92 79 74
1.362442e+00 -1.292039e+00 2.350338e+00 111 86 89
1.362442e+00 -1.292039e+00 2.350338e+00 111 86 89
1.285758e+00 -1.264813e+00 2.378059e+00 200 189 182
4.736888e-01 -8.852318e-01 2.656222e+00 208 201 187
2.387443e-01 -8.361998e-01 2.700963e+00 196 189 195
7.256038e-01 -8.453993e-01 2.572447e+00 218 207 202
2.484796e+00 -8.929135e-01 1.993280e+00 182 164 175
2.731955e+00 -7.062141e-01 1.921809e+00 82 68 56
2.898069e+00 -7.208761e-01 1.867812e+00 213 200 177
2.845916e+00 -6.185400e-01 1.891244e+00 190 178 156
2.524680e+00 -5.443843e-01 1.992614e+00 77 60 51
2.811143e+00 -5.404965e-01 1.892996e+00 114 91 87
1.947208e+00 2.921907e-02 2.189787e+00 162 148 142
2.715110e+00 -5.931409e-02 1.938662e+00 104 83 83
2.238826e+00 2.500460e-01 2.080453e+00 64 46 45
2.120914e+00 3.759735e-01 2.123019e+00 108 83 84
-1.044142e+01 -3.405762e+00 4.093238e+00 19 14 20
-9.291432e+00 -3.632093e+00 4.052068e+00 138 124 154
-9.291432e+00 -3.632093e+00 4.052068e+00 138 124 154
-1.022856e+01 -3.427848e+00 4.096638e+00 126 113 119
-1.026270e+01 -3.417874e+00 4.098832e+00 135 127 127
-1.045030e+01 -3.380248e+00 4.099676e+00 141 131 134
-9.323319e+00 -3.553215e+00 4.063925e+00 170 158 161
-1.004530e+01 -3.229931e+00 4.117558e+00 26 26 25
-1.086684e+01 -3.033316e+00 4.126871e+00 60 61 56
-9.348111e+00 -3.304762e+00 4.087523e+00 99 98 110
-9.384298e+00 -3.282098e+00 4.098285e+00 204 203 218
-9.138071e+00 -3.310840e+00 4.085228e+00 64 64 80
-1.103063e+00 -5.325759e+00 2.710207e+00 33 41 44
-1.077693e+00 -5.334793e+00 2.672234e+00 164 167 165
-9.106594e+00 -3.293280e+00 4.086382e+00 195 195 210
-9.292169e+00 -3.238710e+00 4.089522e+00 162 161 162
-1.030530e+01 -3.031090e+00 4.126632e+00 70 62 67
-1.077312e+01 -2.923974e+00 4.134176e+00 44 46 57
-1.056472e+01 -2.891790e+00 4.131666e+00 68 69 85
-9.179156e+00 -3.164197e+00 4.104237e+00 187 175 175
-1.061369e+01 -2.858580e+00 4.149769e+00 178 176 179
-1.063788e+01 -2.812873e+00 4.111456e+00 115 113 115
-1.063788e+01 -2.812873e+00 4.111456e+00 115 113 115
-9.828016e+00 -2.875462e+00 4.163265e+00 169 169 176
-9.849591e+00 -2.829995e+00 4.149422e+00 63 60 63
-9.610504e+00 -2.872044e+00 4.153544e+00 87 82 95
-1.093052e+01 -2.592748e+00 4.163864e+00 116 113 108
-1.093345e+01 -2.384252e+00 4.160637e+00 105 103 116
-1.097709e+01 -2.339530e+00 4.187961e+00 159 163 167
-1.037974e+01 -2.458773e+00 4.178312e+00 146 142 139
-1.030061e+01 -2.447481e+00 4.173925e+00 154 145 158
-9.900009e+00 -2.402814e+00 4.205133e+00 153 156 159
-1.046512e+01 -2.293800e+00 4.194383e+00 175 174 164
-9.723914e+00 -2.436962e+00 4.187060e+00 177 173 173
-1.125525e+01 -2.109412e+00 4.193584e+00 65 67 70
-1.042581e+01 -2.129058e+00 4.193916e+00 91 84 82
-1.157544e+00 -4.331201e+00 2.825352e+00 199 200 203
-9.235000e-01 -4.371764e+00 2.747056e+00 190 200 209
-1.039134e+01 -2.071905e+00 4.200322e+00 102 94 97
-1.031057e+01 -2.076295e+00 4.224381e+00 141 137 136
-1.076020e+01 -1.986112e+00 4.212293e+00 188 189 177
-8.959945e-01 -4.335999e+00 2.742726e+00 175 184 193
-1.122786e+01 -1.867390e+00 4.203295e+00 196 198 200
-1.121016e+01 -1.744023e+00 4.213951e+00 63 53 67
-1.027060e+01 -1.908174e+00 4.228302e+00 153 148 152
-1.066193e+01 -1.826049e+00 4.226877e+00 167 160 158
-1.135006e+01 -1.649674e+00 4.220139e+00 112 112 120
-7.725280e-01 -4.119516e+00 2.736422e+00 186 188 183
-1.142378e+01 -1.599355e+00 4.219900e+00 159 156 171
-1.100061e+01 -1.678015e+00 4.230508e+00 124 108 105
-7.409424e-01 -4.106920e+00 2.737757e+00 106 100 102
-1.027573e+01 -1.810517e+00 4.239597e+00 59 52 47
-1.146105e+01 -1.519389e+00 4.220780e+00 105 97 108
-1.149002e+01 -1.472381e+00 4.233005e+00 176 181 185
-1.131438e+01 -1.402620e+00 4.242615e+00 74 65 66
-8.083474e-01 -3.867719e+00 2.787979e+00 164 162 157
-7.525218e-01 -3.854497e+00 2.766734e+00 66 64 71
-1.142388e+01 -1.307870e+00 4.228609e+00 69 66 68
-1.145132e+01 -1.299530e+00 4.233384e+00 192 194 191
-1.052048e+01 -1.484310e+00 4.257549e+00 90 79 75
-1.144700e+01 -1.249197e+00 4.233036e+00 195 197 184
-5.958979e-01 -3.769602e+00 2.740380e+00 171 166 157
-3.589499e-01 -3.795095e+00 2.676076e+00 168 167 164
-1.088151e+01 -1.289563e+00 4.262289e+00 175 171 167
-1.088151e+01 -1.289563e+00 4.262289e+00 175 171 167
-4.881233e-01 -3.733034e+00 2.717619e+00 165 150 155
-1.132595e+01 -1.133395e+00 4.272044e+00 162 164 152
-1.003572e+00 -3.532104e+00 2.875682e+00 43 44 40
-1.131042e+01 -1.118657e+00 4.251900e+00 96 89 82
-1.050738e+01 -1.244673e+00 4.281699e+00 71 63 59
-1.050738e+01 -1.244673e+00 4.281699e+00 71 63 59
-1.111387e+01 -1.100434e+00 4.270516e+00 90 80 80
-1.337072e+00 -3.327880e+00 2.984424e+00 93 74 74
-5.324098e-01 -3.530159e+00 2.749309e+00 103 92 102
-1.101156e+01 -1.019133e+00 4.273095e+00 105 92 99
-9.692541e-01 -3.353233e+00 2.862097e+00 133 124 121
-1.122987e+01 -9.397266e-01 4.259275e+00 216 218 207
-1.614681e+00 -3.154550e+00 3.074400e+00 132 126 120
-1.876692e+00 -3.073570e+00 3.149694e+00 131 125 125
-1.111366e+01 -9.058236e-01 4.272389e+00 54 44 54
-7.605969e-01 -3.315317e+00 2.843809e+00 191 178 172
-1.116374e+01 -8.792491e-01 4.266768e+00 103 97 98
-1.880757e+00 -2.990329e+00 3.158686e+00 98 88 87
-9.559937e-01 -3.206751e+00 2.912192e+00 200 202 196
-1.104070e+01 -8.626531e-01 4.275222e+00 86 75 85
-1.123161e+01 -8.256383e-01 4.260929e+00 117 117 121
-2.935292e-01 -3.376450e+00 2.696609e+00 138 127 121
-1.118347e+01 -8.072211e-01 4.269974e+00 71 66 77
-2.453441e-01 -3.337731e+00 2.689359e+00 200 190 181
-1.118950e+01 -7.830347e-01 4.271178e+00 187 188 192
-1.010276e+00 -3.133384e+00 2.915128e+00 191 174 164
-3.789325e-01 -3.288564e+00 2.725805e+00 207 194 186
-1.470373e+00 -3.008845e+00 3.052296e+00 189 171 160
-1.079105e+01 -8.472600e-01 4.279294e+00 190 188 191
-1.351986e+00 -3.017321e+00 3.014504e+00 118 106 102
-2.918024e-01 -3.285116e+00 2.703776e+00 118 102 95
-3.905186e-01 -3.261450e+00 2.734137e+00 154 141 130
-9.014600e-01 -3.114575e+00 2.897839e+00 120 107 106
-1.353590e+00 -2.988279e+00 3.017348e+00 180 169 161
-1.059301e+01 -8.332774e-01 4.288477e+00 173 164 162
-7.827574e-01 -3.097544e+00 2.857149e+00 150 137 132
-1.656088e+00 -2.863389e+00 3.119826e+00 108 90 84
1.288289e-01 -3.301235e+00 2.584705e+00 133 128 134
-1.377895e+00 -2.887547e+00 3.039306e+00 188 175 170
-1.064270e+01 -7.370345e-01 4.304646e+00 140 138 139
-1.498053e+00 -2.816324e+00 3.100545e+00 189 175 188
-1.354070e+00 -2.849826e+00 3.039246e+00 214 202 193
-1.398078e+00 -2.817102e+00 3.054569e+00 184 177 167
-1.056290e+00 -2.735771e+00 2.970257e+00 125 112 101
-8.092944e-01 -2.751114e+00 2.889435e+00 144 133 131
-1.141515e+00 -2.633320e+00 3.006032e+00 147 138 129
-1.224774e+00 -2.565093e+00 3.021519e+00 187 182 184
1.657948e-01 -2.899429e+00 2.612783e+00 184 165 162
2.096584e-01 -2.877196e+00 2.596224e+00 202 194 180
-7.520976e-02 -2.777157e+00 2.689648e+00 144 135 130
-1.103493e+00 -2.521866e+00 3.005755e+00 139 129 128
-1.103493e+00 -2.521866e+00 3.005755e+00 139 129 128
-1.082144e+01 -2.743629e-01 4.302652e+00 112 104 103
1.072366e-01 -2.738737e+00 2.630484e+00 116 106 105
6.566718e-02 -2.702092e+00 2.658743e+00 131 125 129
-6.466167e-02 -2.666608e+00 2.687535e+00 129 121 118
-3.851551e-01 -2.553700e+00 2.795913e+00 153 153 155
-4.541848e-01 -2.516889e+00 2.823776e+00 209 202 199
-1.061138e+00 -2.298741e+00 3.019585e+00 192 179 170
-1.098501e+00 -2.290552e+00 3.015665e+00 154 148 150
-1.740534e-01 -2.445018e+00 2.745430e+00 141 134 135
-3.955228e-01 -2.250214e+00 2.834773e+00 102 90 92
2.247275e-03 -2.331592e+00 2.707622e+00 144 135 136
-6.767926e-03 -2.308174e+00 2.706805e+00 188 187 192
3.049172e-01 -2.337611e+00 2.618099e+00 125 117 114
8.158016e-01 -2.434827e+00 2.451757e+00 139 129 129
-3.565052e-02 -2.105446e+00 2.735876e+00 102 95 101
-3.565052e-02 -2.105446e+00 2.735876e+00 102 95 101
7.031370e-02 -2.111776e+00 2.695837e+00 113 100 113
1.009955e-01 -2.110911e+00 2.693968e+00 191 183 192
-7.022190e-02 -2.055888e+00 2.750289e+00 198 188 197
