ply
format ascii 1.0
element face 0
property list uchar int vertex_indices
element vertex 870
property float x
property float y
property float z
property uchar diffuse_red
property uchar diffuse_green
property uchar diffuse_blue
end_header
1.827988e+00 4.414092e+00 3.100638e+00 193 189 167
1.606766e+00 -3.866229e+00 3.088460e+00 11 10 6
-1.715324e+00 -3.355281e+00 2.956667e+00 193 183 176
-3.609195e-01 -1.952167e+00 2.335392e+00 147 125 108
1.419750e+00 -3.568013e+00 2.995808e+00 203 197 186
-1.723357e+00 -2.755124e+00 2.810940e+00 212 199 173
-2.861272e+00 -3.839090e-01 2.875146e+00 199 162 115
-2.661670e+00 1.845598e+00 2.978204e+00 85 59 21
-2.661670e+00 1.845598e+00 2.978204e+00 85 59 21
-2.033383e+00 3.054007e+00 3.023328e+00 92 72 37
-5.200954e-01 3.304594e+00 2.967039e+00 70 54 38
1.990662e+00 -4.211490e+00 3.208980e+00 26 26 24
-9.269280e-01 -3.592986e+00 2.924071e+00 217 206 192
-1.159503e+00 -3.017047e+00 2.781181e+00 218 209 197
-2.111633e+00 -2.742580e+00 2.889341e+00 203 190 172
1.000978e+00 -1.986267e+00 2.608830e+00 212 200 188
3.200265e-01 -1.919073e+00 2.449506e+00 210 202 183
3.200265e-01 -1.919073e+00 2.449506e+00 210 202 183
-2.467576e+00 9.058740e-01 2.870078e+00 225 193 154
2.198307e+00 -4.467757e+00 3.286494e+00 143 134 121
-2.410636e+00 -3.426689e+00 3.090489e+00 211 199 173
-2.141883e+00 -3.362700e+00 3.029823e+00 219 212 194
1.471149e+00 -2.809595e+00 2.838214e+00 197 183 173
1.788905e+00 -2.415776e+00 2.827872e+00 210 202 191
-1.395851e-01 -2.333830e+00 2.485773e+00 217 209 195
-5.427384e+00 -1.593670e+00 3.468323e+00 241 228 201
3.553317e+00 -1.371951e+00 3.035742e+00 179 177 165
-3.016147e+00 -7.080125e-01 2.909066e+00 205 170 131
2.622197e+00 5.195430e-01 2.867426e+00 177 169 156
-2.056613e+00 6.184022e-01 2.779065e+00 218 185 143
-1.679253e+00 7.309805e-01 2.736812e+00 111 82 52
2.568711e+00 4.723468e+00 3.158523e+00 108 93 70
-2.471431e+00 -3.131716e+00 3.040587e+00 218 205 188
-1.240699e+00 -2.999934e+00 2.788834e+00 221 212 193
-1.735953e+00 -2.848011e+00 2.836741e+00 219 207 193
4.691388e+00 -2.626278e+00 3.320137e+00 111 99 84
-2.558508e+00 -1.572343e+00 2.827603e+00 230 206 169
2.804780e+00 -9.801639e-01 2.891678e+00 167 161 149
-2.792336e+00 1.619376e-01 2.878231e+00 231 202 167
2.948204e+00 1.841851e+00 2.975655e+00 191 191 183
5.560390e-01 3.306509e+00 2.961596e+00 185 178 168
-4.210550e-01 3.364029e+00 2.971496e+00 79 66 52
-2.652501e+00 4.170982e+00 3.169969e+00 244 240 231
-4.105020e-01 4.938889e+00 3.128451e+00 203 192 185
2.205726e+00 -4.264347e+00 3.243841e+00 180 169 159
-2.523734e+00 -3.559171e+00 3.138573e+00 202 194 172
-2.459240e+00 -3.266780e+00 3.066223e+00 169 151 125
9.070455e-02 -3.362235e+00 2.824446e+00 217 208 191
-2.204735e+00 -3.082457e+00 2.979360e+00 204 191 175
1.612346e+00 -3.221365e+00 2.943642e+00 202 197 188
2.573457e-01 -3.154764e+00 2.769391e+00 221 207 194
2.073504e+00 -3.164395e+00 3.001993e+00 196 195 193
1.256641e+00 -3.156672e+00 2.880086e+00 211 202 185
-2.189907e+00 -2.949218e+00 2.948464e+00 113 86 68
-2.311715e+00 -2.824898e+00 2.947570e+00 219 207 193
-2.321771e+00 -2.607159e+00 2.908474e+00 211 199 184
1.720762e+00 -2.746120e+00 2.868109e+00 114 94 78
3.625626e+00 -2.382480e+00 3.135225e+00 101 96 91
1.369975e+00 -2.261994e+00 2.724824e+00 176 162 150
-1.765471e+00 -1.502244e+00 2.615353e+00 193 180 166
5.322690e+00 -1.296548e+00 3.303694e+00 85 74 46
4.319277e+00 -4.168430e-02 3.106006e+00 141 133 107
-2.572148e+00 3.687673e-01 2.847774e+00 225 202 168
3.579925e+00 1.161078e+00 3.015854e+00 205 206 201
-1.843740e+00 3.141894e+00 3.016729e+00 105 76 46
-2.118318e+00 3.206335e+00 3.044855e+00 79 60 45
3.114838e+00 3.665087e+00 3.112819e+00 70 61 52
1.555150e+00 4.355065e+00 3.086421e+00 221 215 211
7.801485e-01 -4.354475e+00 3.138096e+00 119 94 90
2.131492e+00 -4.052714e+00 3.188442e+00 187 181 169
-2.241895e+00 -3.587588e+00 3.095660e+00 197 177 155
3.131190e-01 -3.674572e+00 2.925236e+00 59 41 35
-1.225541e+00 -3.494903e+00 2.925767e+00 209 198 184
-1.772501e+00 -3.443986e+00 2.987523e+00 209 201 185
-1.110011e+00 -3.433371e+00 2.896126e+00 122 104 80
1.111360e+00 -3.302655e+00 2.893971e+00 217 208 199
-1.616564e+00 -3.056154e+00 2.865096e+00 210 197 176
3.525894e+00 -3.154087e+00 3.215604e+00 117 108 95
-2.234948e+00 -2.850101e+00 2.937117e+00 220 208 192
-1.261347e+00 -2.883434e+00 2.759843e+00 152 133 101
-1.365721e-01 -2.866869e+00 2.663584e+00 175 162 146
3.981188e+00 -2.705236e+00 3.222107e+00 178 176 164
-2.192923e+00 -2.556985e+00 2.869638e+00 103 76 57
-4.134292e+00 -2.337718e+00 3.277731e+00 220 197 161
1.615920e+00 -2.653460e+00 2.834601e+00 132 126 115
-2.308450e+00 -2.446014e+00 2.876028e+00 205 190 169
1.608135e-01 -2.538820e+00 2.578210e+00 214 210 198
4.044688e+00 -2.490342e+00 3.206588e+00 164 156 153
6.820324e+00 -2.227488e+00 3.588383e+00 125 123 114
3.510340e+00 -2.112533e+00 3.087685e+00 71 55 40
4.068086e+00 -1.963478e+00 3.160309e+00 172 173 163
2.100930e+00 -2.024688e+00 2.837916e+00 194 183 165
-4.988848e+00 -1.570146e+00 3.383616e+00 236 213 179
-2.755331e-01 -1.868316e+00 2.306930e+00 57 38 31
-2.574617e-01 -1.877828e+00 2.314698e+00 57 38 31
1.028505e+00 -1.870441e+00 2.600254e+00 212 202 188
-5.351413e+00 -1.376980e+00 3.439273e+00 229 200 158
-1.110019e+00 -1.684406e+00 2.440045e+00 142 120 96
-5.319193e+00 -1.300557e+00 3.429326e+00 93 71 49
3.445040e+00 -1.542633e+00 3.028049e+00 124 109 77
-1.068337e+00 -1.480104e+00 2.412656e+00 213 201 188
-1.873267e+00 -1.428589e+00 2.640051e+00 122 95 67
-4.474696e+00 -1.245906e+00 3.257684e+00 243 224 187
-1.305993e+00 -1.393037e+00 2.481155e+00 103 87 76
-1.995118e+00 -1.364701e+00 2.669366e+00 223 198 167
-1.995118e+00 -1.364701e+00 2.669366e+00 223 198 167
-1.110936e+00 -1.384374e+00 2.424029e+00 102 86 71
-1.418698e+00 -1.312273e+00 2.512245e+00 213 197 174
-1.039289e+00 -1.288681e+00 2.405934e+00 209 191 171
-1.242115e+00 -1.284596e+00 2.463064e+00 206 189 168
-2.959107e+00 -1.188552e+00 2.906872e+00 117 91 64
5.937690e+00 -1.113441e+00 3.378841e+00 173 167 148
-8.245210e-01 -1.185351e+00 2.360801e+00 139 117 96
-2.766796e-01 -1.160434e+00 2.312203e+00 139 117 94
-3.611450e-01 -1.077929e+00 2.326387e+00 207 195 183
-5.475547e+00 -6.513966e-02 3.399742e+00 246 228 187
-2.863961e+00 -2.077578e-02 2.885022e+00 216 185 140
-2.182407e+00 1.131658e-01 2.756314e+00 117 89 57
-2.182228e+00 7.164965e-01 2.807381e+00 95 65 44
4.507208e+00 1.269234e+00 3.137237e+00 145 134 121
-3.816064e+00 1.384061e+00 3.120388e+00 219 188 141
-3.816064e+00 1.384061e+00 3.120388e+00 219 188 141
3.416084e+00 2.461993e+00 3.058694e+00 182 175 162
-1.509581e+00 2.244151e+00 2.896226e+00 169 147 129
-3.093053e+00 2.146607e+00 3.058760e+00 224 190 145
2.226892e+00 3.106509e+00 3.008367e+00 71 50 32
-2.023350e+00 3.032570e+00 3.019834e+00 100 81 74
-2.861315e+00 3.832922e+00 3.161013e+00 118 92 66
-2.556170e+00 3.986726e+00 3.148211e+00 127 94 63
-1.029351e+00 4.309441e+00 3.087064e+00 224 194 159
1.515060e+00 5.003375e+00 3.141787e+00 108 87 64
-2.011775e-01 5.042925e+00 3.134907e+00 126 103 87
6.815908e-01 5.166175e+00 3.142275e+00 112 90 66
8.198494e-01 5.226933e+00 3.148623e+00 90 77 50
1.128015e+00 -5.058919e+00 3.337203e+00 125 108 95
9.756857e-01 -4.462624e+00 3.178113e+00 52 49 48
9.756857e-01 -4.462624e+00 3.178113e+00 52 49 48
-2.708952e+00 -4.017890e+00 3.266989e+00 127 105 87
1.559367e+00 -4.419556e+00 3.214310e+00 106 91 93
2.385630e+00 -4.362224e+00 3.283479e+00 155 154 149
3.257769e-01 -3.783979e+00 2.957044e+00 178 163 145
-1.116404e+00 -3.575455e+00 2.936104e+00 82 61 50
-1.116404e+00 -3.575455e+00 2.936104e+00 82 61 50
-1.261904e+00 -3.407209e+00 2.905808e+00 136 105 88
1.161431e+00 -3.481138e+00 2.944096e+00 204 197 187
-2.569842e+00 -3.167417e+00 3.067145e+00 113 97 85
-1.319405e+00 -3.110330e+00 2.831350e+00 158 146 128
5.712041e-01 -3.036526e+00 2.763551e+00 204 197 189
3.597021e+00 -2.978007e+00 3.204045e+00 76 74 62
2.168673e+00 -2.993478e+00 2.986508e+00 171 171 166
-2.113727e+00 -2.616484e+00 2.863754e+00 217 211 199
-3.226573e+00 -2.511888e+00 3.098471e+00 112 83 59
3.479846e-01 -2.658699e+00 2.635053e+00 210 200 189
-2.200970e+00 -2.418779e+00 2.847351e+00 221 209 192
-2.200970e+00 -2.418779e+00 2.847351e+00 221 209 192
2.418844e+00 -2.538138e+00 2.960481e+00 180 176 165
-2.721087e-01 -2.427166e+00 2.513094e+00 140 122 108
2.458517e+00 -2.459113e+00 2.957443e+00 115 103 86
5.371281e+00 -2.290166e+00 3.384616e+00 183 183 175
7.334303e-01 -2.362089e+00 2.620199e+00 218 209 200
-5.381282e+00 -1.803226e+00 3.475551e+00 227 201 167
4.746432e+00 -2.172862e+00 3.283289e+00 66 45 35
1.943123e-01 -2.144449e+00 2.473383e+00 202 194 182
-1.964401e-01 -2.107349e+00 2.403385e+00 209 195 178
-2.744342e-01 -2.089593e+00 2.390895e+00 89 65 54
-3.570305e+00 -1.857292e+00 3.101715e+00 234 207 162
-2.992280e-01 -1.994701e+00 2.354826e+00 198 182 157
-4.609874e+00 -1.692467e+00 3.315949e+00 229 208 163
-5.357650e-01 -1.953131e+00 2.344751e+00 72 44 36
-4.945125e+00 -1.418399e+00 3.365272e+00 241 217 188
6.382585e-01 -1.662151e+00 2.491122e+00 153 135 111
4.563365e+00 -1.567088e+00 3.204806e+00 179 169 159
4.563365e+00 -1.567088e+00 3.204806e+00 179 169 159
3.963766e+00 -1.405801e+00 3.102440e+00 181 170 149
-4.595095e+00 -1.200011e+00 3.278944e+00 240 220 183
-2.245572e+00 -1.288750e+00 2.730924e+00 155 131 95
-2.245572e+00 -1.288750e+00 2.730924e+00 155 131 95
-3.555466e+00 -1.176651e+00 3.048822e+00 135 104 53
5.317424e+00 -1.122730e+00 3.292662e+00 47 37 34
-5.800970e-01 -1.151541e+00 2.322472e+00 137 118 86
5.803831e+00 -1.012249e+00 3.351851e+00 183 174 165
-5.892107e-01 -1.070918e+00 2.340411e+00 217 201 186
1.663641e+00 -9.493291e-01 2.687698e+00 139 126 118
-2.778172e+00 -8.257713e-01 2.853538e+00 91 61 35
4.235622e+00 -4.396538e-01 3.099329e+00 68 44 29
-2.445583e+00 -3.806842e-01 2.781862e+00 180 151 109
-2.369459e+00 2.580044e-02 2.786459e+00 131 108 75
5.824449e+00 3.364904e-01 3.313343e+00 184 183 164
-4.969137e+00 2.995395e-01 3.303831e+00 232 210 170
4.201103e+00 5.724356e-01 3.089154e+00 178 181 171
-3.391075e+00 5.349081e-01 3.009641e+00 239 215 168
-1.838829e+00 5.772242e-01 2.742248e+00 202 180 156
-1.661615e+00 1.240834e+00 2.793817e+00 116 90 61
2.534213e+00 1.606476e+00 2.917878e+00 185 182 171
-3.303114e+00 2.073451e+00 3.081194e+00 85 59 47
8.797796e-01 2.521533e+00 2.882351e+00 191 180 166
-8.240783e-01 2.730873e+00 2.912311e+00 192 168 144
-4.888542e+00 2.355112e+00 3.308653e+00 100 79 85
-1.601868e+00 2.945075e+00 2.979199e+00 229 215 188
-1.047819e+00 3.222243e+00 2.976822e+00 93 67 44
-3.123851e+00 2.987186e+00 3.124556e+00 249 234 211
3.361200e+00 3.554083e+00 3.124016e+00 148 139 123
-8.944228e-02 3.414826e+00 2.971866e+00 91 73 48
-8.419655e-01 3.423550e+00 2.990448e+00 203 183 165
-1.432133e+00 3.592134e+00 3.035112e+00 198 174 140
1.562422e-01 3.974866e+00 3.029188e+00 101 84 68
-6.126344e-02 4.012566e+00 3.034413e+00 96 80 57
-3.130211e+00 3.617168e+00 3.170352e+00 233 197 141
1.848735e+00 4.255838e+00 3.088211e+00 138 112 89
-7.167462e-01 4.043449e+00 3.050807e+00 211 205 177
-2.561610e+00 3.908708e+00 3.142744e+00 218 177 131
-4.295832e+00 3.499889e+00 3.279233e+00 214 196 184
-8.611681e-01 4.354442e+00 3.085486e+00 219 194 161
-2.585210e+00 4.140142e+00 3.162160e+00 160 127 86
2.863885e+00 -4.773834e+00 3.414061e+00 176 173 165
2.709387e+00 -4.760513e+00 3.395100e+00 166 167 164
2.830390e+00 -4.731461e+00 3.401868e+00 80 61 66
7.574830e-01 -4.524702e+00 3.181589e+00 125 104 84
-2.660668e+00 -3.923922e+00 3.239496e+00 111 87 81
2.055852e+00 -3.962710e+00 3.161267e+00 106 106 102
1.775982e+00 -3.897150e+00 3.114639e+00 127 126 120
-2.692130e+00 -3.455127e+00 3.147046e+00 123 99 96
3.659759e-01 -3.531233e+00 2.886803e+00 157 149 136
-2.019115e+00 -3.335091e+00 3.002154e+00 152 136 121
-1.416358e+00 -3.372195e+00 2.916795e+00 211 203 182
-1.195545e+00 -3.374847e+00 2.888401e+00 207 197 189
-1.745976e+00 -3.326308e+00 2.954387e+00 214 204 193
-1.988568e+00 -3.278485e+00 2.983951e+00 208 189 157
1.218470e+00 -3.375746e+00 2.924709e+00 212 200 189
-1.187024e+00 -3.105853e+00 2.810910e+00 175 159 133
-2.512131e+00 -2.795986e+00 2.982968e+00 83 62 59
-1.345479e-01 -2.961432e+00 2.694120e+00 90 68 51
2.357279e+00 -2.985270e+00 3.017081e+00 78 63 49
-1.915054e+00 -2.728942e+00 2.845052e+00 164 146 130
-1.915054e+00 -2.728942e+00 2.845052e+00 164 146 130
5.950608e-01 -2.745459e+00 2.688996e+00 211 203 185
-2.242774e+00 -2.482627e+00 2.867394e+00 152 136 116
-2.242774e+00 -2.482627e+00 2.867394e+00 152 136 116
-9.539614e-03 -2.527560e+00 2.559047e+00 150 127 109
5.251937e+00 -2.443772e+00 3.380797e+00 103 88 78
5.251937e+00 -2.443772e+00 3.380797e+00 103 88 78
-2.368270e+00 -2.355328e+00 2.874922e+00 127 106 88
-1.851010e-01 -2.463668e+00 2.527966e+00 206 199 184
5.273967e+00 -2.296810e+00 3.369945e+00 136 123 106
-5.392378e+00 -1.741311e+00 3.472864e+00 95 68 64
-5.392378e+00 -1.741311e+00 3.472864e+00 95 68 64
-5.442660e+00 -1.676433e+00 3.476162e+00 243 233 198
2.342007e+00 -2.047029e+00 2.886211e+00 179 168 152
2.810982e+00 -1.970806e+00 2.955756e+00 185 176 165
-1.792161e-01 -1.915023e+00 2.340155e+00 203 191 166
-4.575007e+00 -1.548625e+00 3.297759e+00 111 82 61
-5.667926e+00 -1.401655e+00 3.495854e+00 248 240 203
1.555397e+00 -1.756821e+00 2.701964e+00 196 183 161
-8.611517e-01 -1.662951e+00 2.357680e+00 223 207 184
1.653495e+00 -1.638584e+00 2.711652e+00 187 170 144
3.310076e+00 -1.340941e+00 2.992326e+00 55 34 18
-2.481345e+00 -1.284021e+00 2.790006e+00 163 133 104
1.256821e+00 -1.332896e+00 2.611779e+00 197 184 168
1.794940e+00 -1.313333e+00 2.721896e+00 193 179 167
-5.640185e+00 -9.855109e-01 3.466167e+00 233 201 160
1.315540e-01 -1.247055e+00 2.364455e+00 191 181 167
-3.847050e+00 -9.800554e-01 3.106341e+00 225 195 155
3.446004e+00 -5.229298e-01 2.977412e+00 179 167 151
4.585273e+00 -3.877575e-01 3.154903e+00 190 185 169
-5.485452e+00 -3.045703e-01 3.408337e+00 115 81 81
-3.511056e+00 -1.712446e-01 3.019778e+00 232 196 162
-5.443996e+00 5.267259e-02 3.391081e+00 243 221 179
2.769512e+00 1.811949e-01 2.879202e+00 112 88 60
3.544357e+00 3.297499e-01 2.994438e+00 181 174 167
-2.209789e+00 3.235098e-01 2.777776e+00 222 190 139
2.205943e+00 5.655336e-01 2.813894e+00 149 120 96
2.602576e+00 1.040746e+00 2.887774e+00 63 50 23
-1.946909e+00 8.895107e-01 2.790287e+00 218 199 170
-1.851954e+00 1.107951e+00 2.801486e+00 122 87 58
-1.916853e+00 1.142551e+00 2.812992e+00 194 169 133
-1.658811e+00 1.159212e+00 2.783947e+00 218 189 159
3.216598e+00 1.410791e+00 2.980285e+00 110 102 82
-2.807359e+00 1.281499e+00 2.952119e+00 240 213 171
3.056153e+00 1.672073e+00 2.975330e+00 206 197 190
-1.631114e+00 1.439018e+00 2.813705e+00 196 164 134
-1.270391e+00 1.749530e+00 2.819379e+00 74 49 18
3.650094e+00 2.204425e+00 3.069182e+00 187 184 192
3.334404e+00 2.302449e+00 3.041035e+00 65 37 26
-1.466174e+00 2.336969e+00 2.903450e+00 76 51 43
1.853937e-01 2.629389e+00 2.881900e+00 164 148 124
2.599854e+00 2.936512e+00 3.020147e+00 149 141 128
-9.236893e-01 2.774119e+00 2.921304e+00 213 198 169
-4.892592e+00 2.317441e+00 3.308675e+00 238 231 224
9.456188e-01 3.093144e+00 2.946158e+00 115 104 74
-1.349303e+00 2.954612e+00 2.963469e+00 81 60 42
-1.349303e+00 2.954612e+00 2.963469e+00 81 60 42
1.837120e+00 3.388705e+00 3.010451e+00 88 68 38
9.590987e-01 3.851408e+00 3.024000e+00 189 177 163
3.394095e+00 4.038786e+00 3.160304e+00 164 160 153
-3.010214e+00 3.606765e+00 3.158152e+00 135 102 82
-9.524184e-01 4.363287e+00 3.089619e+00 91 70 40
3.980849e-01 4.803568e+00 3.109310e+00 122 99 83
9.874664e-01 4.964552e+00 3.128360e+00 89 67 56
1.510428e+00 5.041985e+00 3.145260e+00 121 104 77
1.130779e+00 5.193172e+00 3.149618e+00 109 91 69
1.678736e+00 -5.044627e+00 3.370567e+00 57 46 60
9.386864e-01 -4.946893e+00 3.299319e+00 48 38 45
-1.461725e+00 -4.562900e+00 3.236530e+00 51 35 46
2.937373e+00 -4.772337e+00 3.421753e+00 151 148 129
2.784240e+00 -4.763959e+00 3.403557e+00 161 162 143
1.535507e+00 -4.723080e+00 3.283936e+00 124 106 97
1.089553e+00 -4.679934e+00 3.240584e+00 113 99 90
1.614083e+00 -4.600657e+00 3.261629e+00 60 44 49
9.998286e-01 -4.536341e+00 3.198550e+00 113 102 93
1.606096e+00 -4.560234e+00 3.251422e+00 100 92 75
4.440391e-01 -4.473610e+00 3.154215e+00 109 83 70
1.552588e+00 -4.400326e+00 3.209212e+00 114 96 89
1.521210e+00 -4.329215e+00 3.188918e+00 65 56 60
1.626521e+00 -4.264537e+00 3.184649e+00 69 54 56
-1.110042e+00 -3.689004e+00 2.968083e+00 164 156 145
-2.601707e+00 -3.518506e+00 3.144087e+00 117 96 104
1.326014e-01 -3.470981e+00 2.858222e+00 144 131 122
5.034951e-03 -3.350986e+00 2.818271e+00 165 155 146
-2.161389e+00 -3.094555e+00 2.973258e+00 202 189 168
-1.608087e-01 -3.018692e+00 2.711862e+00 206 195 174
2.789954e+00 -2.939407e+00 3.071314e+00 182 179 167
2.170641e+00 -2.908953e+00 2.974276e+00 87 74 73
2.808811e+00 -2.655267e+00 3.034688e+00 170 157 138
-4.416055e-01 -2.528151e+00 2.550698e+00 227 216 195
-2.434965e+00 -2.381554e+00 2.895482e+00 207 197 179
-1.207452e+00 -2.470046e+00 2.635883e+00 128 101 87
-1.215466e+00 -2.471090e+00 2.638224e+00 128 101 87
5.281640e+00 -2.394745e+00 3.380035e+00 195 193 181
5.840037e+00 -2.238150e+00 3.442830e+00 85 75 65
-1.957437e+00 -2.037965e+00 2.725662e+00 132 107 82
-1.957437e+00 -2.037965e+00 2.725662e+00 132 107 82
6.778010e+00 -1.958993e+00 3.556576e+00 167 167 163
3.944534e+00 -2.081241e+00 3.150238e+00 191 189 181
7.379606e+00 -1.888795e+00 3.621898e+00 54 37 54
6.145718e+00 -1.899361e+00 3.463011e+00 192 186 172
-3.880412e-01 -1.980958e+00 2.345576e+00 132 111 82
-3.880412e-01 -1.980958e+00 2.345576e+00 132 111 82
-4.001918e-01 -1.975954e+00 2.343068e+00 132 111 82
-2.577752e+00 -1.775035e+00 2.850832e+00 231 212 177
3.899263e+00 -1.848392e+00 3.121100e+00 167 153 142
2.791987e+00 -1.859171e+00 2.940136e+00 207 200 183
1.378590e+00 -1.810355e+00 2.669664e+00 191 177 143
-5.713234e+00 -1.296000e+00 3.497425e+00 110 76 67
2.149222e+00 -1.714164e+00 2.817911e+00 126 104 78
-5.631066e+00 -1.256228e+00 3.480032e+00 126 83 67
-5.631066e+00 -1.256228e+00 3.480032e+00 126 83 67
-5.607513e+00 -1.239177e+00 3.474786e+00 237 210 168
1.833994e+00 -1.619688e+00 2.748404e+00 199 187 171
-1.691424e+00 -1.548293e+00 2.598029e+00 110 87 72
6.271628e-01 -1.573579e+00 2.479945e+00 207 194 177
1.616495e+00 -1.565040e+00 2.698531e+00 141 119 95
-5.639348e+00 -1.084584e+00 3.471207e+00 240 222 183
4.526193e+00 -1.359965e+00 3.186079e+00 202 199 193
-1.172307e+00 -1.272008e+00 2.443647e+00 137 116 94
-5.565226e+00 -9.785386e-01 3.452015e+00 232 199 156
2.171576e+00 -1.139945e+00 2.790632e+00 111 94 78
1.156408e+00 -1.125820e+00 2.586224e+00 201 185 159
9.631558e-01 -1.108241e+00 2.548075e+00 142 116 96
1.224920e+00 -1.084249e+00 2.600894e+00 127 110 94
1.224920e+00 -1.084249e+00 2.600894e+00 127 110 94
-1.974938e+00 -1.038735e+00 2.658319e+00 201 172 144
-4.330236e+00 -7.702853e-01 3.204608e+00 242 210 168
-4.394782e+00 -7.396860e-01 3.216206e+00 226 197 158
-5.581151e+00 -6.183678e-01 3.437580e+00 223 190 136
-5.541980e+00 -5.096661e-01 3.426220e+00 246 224 181
-4.161180e+00 -5.180169e-01 3.160830e+00 232 214 174
-3.073458e+00 -5.697127e-01 2.920320e+00 140 105 70
-5.891345e+00 -2.625089e-01 3.477425e+00 151 117 91
-5.502520e+00 -2.612951e-01 3.410336e+00 238 219 189
-2.057858e+00 -9.131313e-02 2.716514e+00 215 183 135
-2.111887e+00 -4.267634e-02 2.731066e+00 98 66 43
-5.431239e+00 9.664501e-02 3.387863e+00 118 84 76
-5.431239e+00 9.664501e-02 3.387863e+00 118 84 76
5.440174e+00 2.087798e-01 3.258624e+00 164 153 141
5.868736e+00 2.563643e-01 3.321414e+00 189 188 165
5.553832e+00 2.696027e-01 3.273635e+00 181 174 161
-5.450867e+00 1.956990e-01 3.389216e+00 254 238 212
4.835318e+00 3.019881e-01 3.174005e+00 198 198 183
-5.331194e+00 4.157604e-01 3.364490e+00 240 201 145
3.141385e+00 6.885636e-01 2.943029e+00 147 129 118
4.481255e+00 9.560034e-01 3.126323e+00 189 177 161
-2.895915e+00 8.630353e-01 2.937999e+00 114 80 48
-2.885281e+00 9.118210e-01 2.940417e+00 230 208 180
-1.995216e+00 9.419229e-01 2.802771e+00 212 187 147
3.269331e+00 1.360274e+00 2.983669e+00 160 150 139
-2.411008e+00 1.537201e+00 2.917287e+00 235 220 188
3.718801e+00 2.028837e+00 3.066668e+00 56 41 26
-1.279922e+00 2.286270e+00 2.884117e+00 185 162 130
3.019703e+00 2.770073e+00 3.041892e+00 137 121 108
-9.555425e-01 2.768440e+00 2.922077e+00 217 196 176
-1.773453e+00 2.726562e+00 2.969019e+00 123 90 65
-1.773453e+00 2.726562e+00 2.969019e+00 123 90 65
-2.535585e+00 2.685496e+00 3.036433e+00 227 195 153
4.054615e+00 3.080277e+00 3.155768e+00 174 173 152
1.246726e+00 3.217781e+00 2.970059e+00 94 76 56
-1.382642e+00 3.058386e+00 2.977222e+00 59 41 29
-1.385569e+00 3.128911e+00 2.985384e+00 235 220 193
-2.847441e+00 3.085697e+00 3.102657e+00 204 169 130
3.206781e+00 3.739810e+00 3.125234e+00 184 176 153
2.798835e+00 3.733300e+00 3.094779e+00 203 190 168
1.013104e+00 3.761728e+00 3.016146e+00 167 157 133
1.076176e+00 3.810265e+00 3.022498e+00 183 166 146
2.988677e+00 3.877050e+00 3.119920e+00 195 190 170
2.080851e+00 4.046893e+00 3.079973e+00 85 59 43
1.737142e+00 4.164318e+00 3.075233e+00 98 81 57
-6.255620e-01 4.009052e+00 3.044797e+00 63 40 23
-2.257867e+00 3.821516e+00 3.111489e+00 233 210 167
1.037497e+00 4.308219e+00 3.068816e+00 93 72 45
-2.091555e-01 4.590268e+00 3.092919e+00 111 85 63
4.314223e-03 4.669327e+00 3.097904e+00 116 92 67
2.467962e+00 4.835905e+00 3.162239e+00 126 110 97
-6.812276e-01 4.774305e+00 3.119916e+00 219 194 161
-4.381849e-01 4.828732e+00 3.119407e+00 186 181 160
7.910323e-01 4.995930e+00 3.128694e+00 94 71 59
4.989363e-01 5.027033e+00 3.129916e+00 90 69 48
9.815146e-01 5.225468e+00 3.150277e+00 136 116 97
1.753798e+00 -5.054543e+00 3.378782e+00 48 37 53
1.753798e+00 -5.054543e+00 3.378782e+00 48 37 53
1.615602e+00 -5.024239e+00 3.360924e+00 59 44 49
1.111636e+00 -4.950626e+00 3.309229e+00 118 103 101
1.573181e+00 -4.902618e+00 3.328967e+00 68 56 62
1.021389e+00 -4.708166e+00 3.243317e+00 121 103 94
1.489659e+00 -4.722196e+00 3.280011e+00 60 46 49
-1.248994e+00 -4.411919e+00 3.177861e+00 123 104 99
1.032989e+00 -4.607884e+00 3.218734e+00 129 108 93
1.032989e+00 -4.607884e+00 3.218734e+00 129 108 93
1.467562e+00 -4.627783e+00 3.255529e+00 112 104 102
1.989926e-01 -4.471864e+00 3.147022e+00 106 85 79
1.989926e-01 -4.471864e+00 3.147022e+00 106 85 79
-1.646335e+00 -4.247824e+00 3.173207e+00 105 101 89
-1.646335e+00 -4.247824e+00 3.173207e+00 105 101 89
7.900540e-01 -4.485278e+00 3.172596e+00 33 20 24
-2.747657e+00 -4.026964e+00 3.274842e+00 203 180 146
1.062419e+00 -4.413315e+00 3.171881e+00 103 99 90
1.618240e+00 -4.437475e+00 3.223957e+00 103 92 88
-2.069447e+00 -4.058505e+00 3.177878e+00 54 32 30
-2.069447e+00 -4.058505e+00 3.177878e+00 54 32 30
1.069442e+00 -4.162169e+00 3.108564e+00 114 96 89
2.698786e+00 -4.115727e+00 3.264809e+00 192 187 182
-2.674124e+00 -3.501104e+00 3.152869e+00 169 161 143
-2.624024e+00 -3.482287e+00 3.140593e+00 203 189 180
-1.350736e+00 -3.441165e+00 2.926269e+00 147 116 90
-1.478829e+00 -3.415693e+00 2.936968e+00 214 199 176
5.402273e-01 -3.490294e+00 2.886265e+00 205 198 184
-3.351902e-01 -3.436079e+00 2.843923e+00 215 202 170
6.309061e-01 -3.476037e+00 2.889099e+00 129 114 98
2.031776e+00 -3.494893e+00 3.059600e+00 139 133 123
1.581890e+00 -3.359164e+00 2.968953e+00 207 201 187
-8.554913e-01 -3.227300e+00 2.808730e+00 158 141 125
-9.737563e-01 -3.060538e+00 2.770073e+00 126 106 84
2.176078e-01 -2.994071e+00 2.719965e+00 113 96 82
4.604371e+00 -2.891332e+00 3.331600e+00 181 175 149
-3.751874e+00 -2.501802e+00 3.214539e+00 218 195 165
-3.290972e+00 -2.497483e+00 3.110262e+00 200 173 140
3.889989e+00 -2.659048e+00 3.201953e+00 67 50 45
-1.568210e+00 -2.541842e+00 2.728874e+00 208 194 169
3.900540e+00 -2.618014e+00 3.198249e+00 178 170 159
-9.911371e-01 -2.574552e+00 2.626196e+00 149 127 108
4.050860e+00 -2.578917e+00 3.218029e+00 101 82 61
-3.298826e+00 -2.361918e+00 3.093383e+00 172 152 132
-1.187809e+00 -2.517260e+00 2.644641e+00 212 198 184
-7.632509e-02 -2.554552e+00 2.563611e+00 118 102 82
5.350843e+00 -2.431581e+00 3.394621e+00 171 174 153
3.591963e+00 -2.410449e+00 3.131952e+00 173 170 160
3.879505e+00 -2.366015e+00 3.166596e+00 200 195 185
3.976314e+00 -2.290591e+00 3.175160e+00 94 77 59
3.926248e+00 -2.283147e+00 3.166048e+00 125 111 100
5.784319e+00 -2.141956e+00 3.426574e+00 61 52 42
-2.468599e+00 -2.095763e+00 2.860871e+00 109 80 66
-2.468599e+00 -2.095763e+00 2.860871e+00 109 80 66
-5.357180e+00 -1.725704e+00 3.466122e+00 111 80 91
3.449393e+00 -2.172799e+00 3.081946e+00 142 135 112
-2.600492e+00 -1.986185e+00 2.878970e+00 227 204 173
1.893705e-01 -2.049342e+00 2.448947e+00 197 187 177
-4.141904e+00 -1.726152e+00 3.219358e+00 228 199 142
7.246179e+00 -1.717925e+00 3.589748e+00 114 111 117
7.246179e+00 -1.717925e+00 3.589748e+00 114 111 117
7.352313e+00 -1.710285e+00 3.604547e+00 117 112 117
7.352313e+00 -1.710285e+00 3.604547e+00 117 112 117
7.351962e+00 -1.647176e+00 3.600214e+00 107 94 111
7.561963e+00 -1.632017e+00 3.629372e+00 109 94 112
-5.689997e+00 -1.369818e+00 3.497787e+00 191 154 127
9.558534e-01 -1.790631e+00 2.576818e+00 115 99 84
-1.563118e+00 -1.704957e+00 2.576210e+00 139 120 96
1.101793e+00 -1.772390e+00 2.605082e+00 118 101 79
-1.518219e+00 -1.686965e+00 2.562239e+00 219 208 191
1.303528e+00 -1.755273e+00 2.647958e+00 95 73 55
-5.739172e+00 -1.312287e+00 3.503097e+00 250 229 191
-9.000598e-01 -1.661692e+00 2.369366e+00 109 90 67
-5.384317e+00 -1.278917e+00 3.438883e+00 132 113 98
1.907589e+00 -1.561484e+00 2.758217e+00 198 184 173
4.480722e+00 -1.357678e+00 3.178525e+00 195 190 173
-5.615421e+00 -1.033123e+00 3.464084e+00 236 206 160
4.420704e+00 -1.231355e+00 3.160626e+00 71 57 39
-1.173751e+00 -1.235795e+00 2.445401e+00 217 210 196
-2.216583e+00 -1.181879e+00 2.720488e+00 111 84 69
-1.903524e+00 -1.147023e+00 2.639898e+00 198 175 156
5.060922e+00 -1.106514e+00 3.249896e+00 168 152 148
-3.277127e+00 -8.707052e-01 2.972787e+00 214 183 142
-5.679367e+00 -6.642576e-01 3.457258e+00 242 221 184
-6.406449e-01 -8.632618e-01 2.385391e+00 140 119 95
-5.581430e+00 -5.516499e-01 3.434956e+00 156 113 96
-5.476361e+00 -4.731331e-01 3.412719e+00 152 108 81
-2.396592e+00 -5.888750e-01 2.763660e+00 222 189 148
-2.426296e+00 -5.544745e-01 2.771412e+00 110 76 40
-5.529072e+00 -2.456098e-01 3.414683e+00 246 221 200
-3.624995e+00 -1.980764e-01 3.043572e+00 83 53 45
3.466549e+00 -1.266547e-01 2.977486e+00 134 125 110
4.971785e+00 -1.046633e-01 3.200795e+00 75 53 28
4.873179e+00 -8.570977e-02 3.185017e+00 181 172 167
-5.419543e+00 1.388557e-03 3.387737e+00 113 70 65
-2.876666e+00 5.309384e-02 2.891348e+00 123 87 62
-2.816763e+00 7.786402e-02 2.880409e+00 108 83 57
-2.670851e+00 3.710587e-01 2.866648e+00 85 58 44
-3.195048e+00 5.227901e-01 2.973103e+00 117 85 63
-3.207221e+00 5.278963e-01 2.976335e+00 117 85 63
4.461823e+00 7.862438e-01 3.121199e+00 190 181 164
-2.988973e+00 8.814917e-01 2.955217e+00 133 104 78
2.435844e+00 1.176694e+00 2.876617e+00 184 174 158
4.349989e+00 1.277517e+00 3.115896e+00 204 198 187
4.328237e+00 1.319958e+00 3.114091e+00 154 148 137
3.944646e+00 1.614806e+00 3.074853e+00 184 173 158
4.002483e+00 1.673743e+00 3.084168e+00 56 39 25
1.946454e+00 1.678157e+00 2.863886e+00 182 167 151
-2.083047e+00 1.680884e+00 2.890020e+00 72 45 16
1.152845e+00 2.331149e+00 2.873714e+00 202 189 171
-2.386358e+00 2.166779e+00 2.973167e+00 106 78 57
-1.385939e+00 2.229136e+00 2.884980e+00 79 56 31
-1.261861e+00 2.342670e+00 2.889602e+00 77 47 22
1.800742e+00 2.653943e+00 2.941045e+00 116 90 73
3.179746e-01 2.633847e+00 2.883170e+00 171 154 129
-2.086208e+00 2.519021e+00 2.976202e+00 79 51 35
-1.906091e+00 2.568752e+00 2.963904e+00 216 187 151
-2.466576e+00 2.712319e+00 3.031661e+00 222 190 145
-1.549723e+00 2.945023e+00 2.975743e+00 228 206 168
2.355076e+00 3.307803e+00 3.033852e+00 188 182 178
4.778598e-01 3.308753e+00 2.960937e+00 199 189 188
9.796036e-02 3.376584e+00 2.966489e+00 140 122 99
2.081377e-02 3.384743e+00 2.967645e+00 118 102 75
2.725733e+00 3.624702e+00 3.081708e+00 179 170 160
-1.374756e-01 3.574416e+00 2.990096e+00 177 173 168
1.068474e+00 3.737928e+00 3.015168e+00 62 43 26
8.801412e-01 3.744411e+00 3.011465e+00 208 199 186
3.151158e+00 3.840251e+00 3.128325e+00 152 141 123
-1.264900e+00 3.638429e+00 3.030982e+00 225 199 163
-1.354210e+00 3.642809e+00 3.036298e+00 76 45 36
7.713988e-01 3.881237e+00 3.023148e+00 151 139 117
2.505418e+00 3.974305e+00 3.096530e+00 142 133 124
1.955474e+00 4.105821e+00 3.079185e+00 212 204 179
1.757336e-01 4.031793e+00 3.034954e+00 191 179 156
2.757932e+00 4.332155e+00 3.140626e+00 111 98 89
-1.398381e-01 4.182559e+00 3.052976e+00 180 169 163
1.003445e+00 4.488746e+00 3.084756e+00 217 204 169
1.364213e+00 4.575518e+00 3.101464e+00 185 179 164
2.142189e+00 4.618288e+00 3.132351e+00 174 164 156
-1.523425e+00 4.362511e+00 3.113545e+00 175 145 108
6.902313e-01 4.722839e+00 3.103439e+00 189 182 171
-4.087267e-01 4.794503e+00 3.115681e+00 120 103 82
1.395524e+00 4.982432e+00 3.137371e+00 155 147 128
4.594862e-01 5.050784e+00 3.131894e+00 163 148 123
1.075370e+00 5.183565e+00 3.148095e+00 253 232 210
-5.501826e-01 5.027686e+00 3.139638e+00 88 70 68
1.162724e+00 -5.167853e+00 3.366044e+00 121 108 102
1.335442e+00 -4.987505e+00 3.332622e+00 111 99 90
3.987126e-01 -4.897164e+00 3.266266e+00 114 101 91
1.292568e+00 -4.766612e+00 3.275749e+00 69 54 54
1.292568e+00 -4.766612e+00 3.275749e+00 69 54 54
1.131284e+00 -4.708184e+00 3.250364e+00 64 49 54
2.379414e+00 -4.722218e+00 3.358431e+00 121 110 104
1.322110e+00 -4.518089e+00 3.217105e+00 37 27 25
-2.765793e+00 -4.047253e+00 3.282051e+00 116 90 67
-1.167869e+00 -4.197646e+00 3.112915e+00 39 30 33
1.839176e+00 -4.389524e+00 3.234722e+00 97 94 88
-1.548227e+00 -4.094053e+00 3.122039e+00 119 110 101
1.432786e+00 -4.324112e+00 3.180039e+00 63 57 61
1.594125e+00 -4.226366e+00 3.172425e+00 119 103 90
-1.466688e+00 -3.447835e+00 2.943767e+00 102 77 71
-1.466688e+00 -3.447835e+00 2.943767e+00 102 77 71
-1.315749e+00 -3.382001e+00 2.905791e+00 204 187 167
7.186240e-01 -3.481915e+00 2.898657e+00 96 81 75
-1.850012e+00 -3.308385e+00 2.966848e+00 199 183 152
5.027280e-01 -3.462333e+00 2.875721e+00 127 117 105
5.027280e-01 -3.462333e+00 2.875721e+00 127 117 105
-3.493529e-01 -3.401719e+00 2.833677e+00 137 115 101
-4.879325e-01 -3.385162e+00 2.832932e+00 135 119 106
1.271192e+00 -3.466604e+00 2.954157e+00 205 200 179
-4.122271e-01 -3.354101e+00 2.820458e+00 151 134 110
-2.341606e+00 -2.918836e+00 2.971625e+00 217 197 164
2.799660e+00 -3.113151e+00 3.099823e+00 205 191 156
-2.706728e+00 -2.833530e+00 3.032221e+00 222 204 170
2.873533e+00 -3.080213e+00 3.106617e+00 139 121 106
-2.701379e+00 -2.800768e+00 3.024422e+00 111 88 72
6.256848e+00 -2.855332e+00 3.567657e+00 87 75 51
-3.268970e+00 -2.666188e+00 3.129658e+00 224 198 161
-6.664065e-01 -2.707234e+00 2.627257e+00 226 215 201
-1.636926e+00 -2.518667e+00 2.738542e+00 155 137 121
3.632382e+00 -2.226463e+00 3.118876e+00 101 96 86
1.012854e-01 -2.189584e+00 2.469365e+00 116 102 85
4.001764e+00 -2.056968e+00 3.157176e+00 184 178 170
7.448327e+00 -1.848612e+00 3.628409e+00 129 117 132
1.783688e+00 -2.027379e+00 2.775524e+00 208 195 176
7.488786e+00 -1.650958e+00 3.620225e+00 219 225 211
7.319939e+00 -1.658917e+00 3.596297e+00 227 218 229
1.088221e+00 -1.798320e+00 2.606569e+00 196 176 145
5.985975e-01 -1.770991e+00 2.492356e+00 119 101 87
5.985975e-01 -1.770991e+00 2.492356e+00 119 101 87
5.206158e-01 -1.771039e+00 2.474273e+00 107 90 71
5.206158e-01 -1.771039e+00 2.474273e+00 107 90 71
-2.208231e+00 -1.673085e+00 2.747780e+00 129 101 78
1.032964e+00 -1.765978e+00 2.589180e+00 131 114 92
-2.155913e+00 -1.632487e+00 2.730290e+00 152 128 103
1.731226e+00 -1.705560e+00 2.732929e+00 196 180 144
-5.735136e+00 -1.263172e+00 3.499319e+00 245 222 177
2.256739e+00 -1.675355e+00 2.835804e+00 69 48 33
2.125954e-01 -1.591619e+00 2.379204e+00 161 146 117
3.242395e+00 -1.399012e+00 2.983355e+00 144 124 100
4.001388e+00 -1.344732e+00 3.104203e+00 81 68 52
1.644210e+00 -1.364996e+00 2.693842e+00 121 101 74
-1.378765e+00 -1.266605e+00 2.500823e+00 132 114 94
-5.628859e+00 -9.400637e-01 3.461639e+00 106 64 42
4.555383e+00 -1.169727e+00 3.178589e+00 111 95 78
-5.683294e+00 -8.903836e-01 3.468555e+00 239 203 141
-7.681892e-01 -1.106550e+00 2.360909e+00 170 149 124
-7.028004e-01 -1.077902e+00 2.354488e+00 221 206 184
-5.666856e+00 -7.619681e-01 3.459722e+00 202 164 130
-5.649217e+00 -7.345539e-01 3.455333e+00 181 147 102
5.178855e+00 -8.218685e-01 3.254962e+00 104 80 73
5.169103e+00 -7.540380e-01 3.250183e+00 98 89 75
4.979162e+00 -7.175070e-01 3.219072e+00 187 188 163
-5.492272e+00 -5.746505e-01 3.419517e+00 132 89 67
-4.250285e+00 -6.108417e-01 3.182126e+00 123 79 49
-5.543521e+00 -4.095614e-01 3.422414e+00 186 147 106
-5.543521e+00 -4.095614e-01 3.422414e+00 186 147 106
4.171703e+00 -3.057691e-01 3.085476e+00 187 177 169
-3.636453e+00 -1.559518e-01 3.045793e+00 229 202 176
-5.799149e+00 -9.478539e-02 3.456031e+00 161 132 123
3.147405e+00 2.300452e-01 2.930632e+00 161 147 138
-5.378472e+00 2.416545e-01 3.375458e+00 113 76 47
3.865761e+00 5.977274e-01 3.039208e+00 113 97 75
-2.411117e+00 6.496809e-01 2.839963e+00 202 168 123
5.243018e+00 8.303578e-01 3.226510e+00 140 133 124
4.420858e+00 9.673146e-01 3.117884e+00 95 72 54
2.590162e+00 1.150888e+00 2.892969e+00 71 57 34
4.374938e+00 1.232220e+00 3.117871e+00 95 83 69
-2.698063e+00 1.065624e+00 2.919590e+00 237 197 153
-1.791905e+00 1.095366e+00 2.792640e+00 190 161 129
4.372670e+00 1.333044e+00 3.120244e+00 205 202 198
3.261258e+00 1.414836e+00 2.985599e+00 110 95 76
3.183551e+00 1.513119e+00 2.981051e+00 193 186 169
2.261454e+00 1.583478e+00 2.887597e+00 123 108 87
-3.107425e+00 1.531459e+00 3.017137e+00 186 154 115
1.067900e+00 2.281984e+00 2.863713e+00 165 147 137
3.094604e+00 2.441750e+00 3.025662e+00 198 188 178
-3.192567e+00 2.117564e+00 3.069989e+00 234 201 147
-2.339620e+00 2.287143e+00 2.978664e+00 181 142 104
1.805182e+00 2.697508e+00 2.945202e+00 191 180 160
-1.148629e+00 2.501350e+00 2.901141e+00 80 53 34
1.967675e+00 2.741554e+00 2.960439e+00 196 187 173
2.517987e+00 2.933982e+00 3.014068e+00 172 169 162
9.463222e-01 3.116675e+00 2.948693e+00 109 98 64
-1.252598e+00 2.997626e+00 2.962946e+00 93 68 37
1.629205e-01 3.297692e+00 2.957636e+00 191 170 148
-9.944803e-01 3.230813e+00 2.975586e+00 214 191 160
2.750774e+00 3.596017e+00 3.081260e+00 74 59 43
2.743796e-01 3.959877e+00 3.027409e+00 49 26 16
3.121775e+00 4.141525e+00 3.149117e+00 124 116 115
1.876839e+00 4.119824e+00 3.077050e+00 122 100 66
-6.386957e-01 4.069312e+00 3.051279e+00 57 33 20
-6.386957e-01 4.069312e+00 3.051279e+00 57 33 20
-6.561384e-01 4.100522e+00 3.054734e+00 201 180 154
-1.875787e+00 4.318436e+00 3.128832e+00 175 140 105
-9.357740e-01 4.518199e+00 3.103342e+00 147 109 61
-9.357740e-01 4.518199e+00 3.103342e+00 147 109 61
-2.236125e+00 4.384091e+00 3.156785e+00 220 184 142
1.078049e+00 4.910600e+00 3.125435e+00 155 143 129
7.423828e-01 4.987702e+00 3.127816e+00 87 69 51
7.423828e-01 4.987702e+00 3.127816e+00 87 69 51
1.015455e+00 5.199065e+00 3.148428e+00 219 206 190
1.299416e+00 -5.026818e+00 3.339631e+00 78 68 62
1.103358e+00 -5.014178e+00 3.324624e+00 56 43 56
-1.339342e+00 -4.725054e+00 3.268311e+00 56 47 47
-1.754354e+00 -4.558044e+00 3.263649e+00 106 102 92
1.116466e+00 -4.494724e+00 3.195957e+00 30 19 25
1.111647e+00 -4.403273e+00 3.172728e+00 33 38 45
7.361557e-01 -4.317594e+00 3.125810e+00 77 64 62
9.465825e-01 -4.327154e+00 3.141437e+00 107 99 93
8.701951e-01 -4.187429e+00 3.100514e+00 65 54 47
1.370860e-01 -3.806131e+00 2.957266e+00 145 126 95
8.453898e-01 -3.611135e+00 2.944302e+00 111 102 98
8.453898e-01 -3.611135e+00 2.944302e+00 111 102 98
7.776000e-01 -3.601765e+00 2.935925e+00 115 109 101
8.825673e-01 -3.593235e+00 2.942998e+00 204 196 185
7.790647e-01 -3.578540e+00 2.929720e+00 218 208 197
-1.459023e+00 -3.390616e+00 2.927643e+00 133 116 104
-1.459023e+00 -3.390616e+00 2.927643e+00 133 116 104
2.097110e+00 -3.570080e+00 3.085257e+00 142 135 129
2.033466e+00 -3.554124e+00 3.073515e+00 148 144 135
-1.574621e+00 -3.339630e+00 2.930916e+00 201 187 154
2.775326e-01 -3.426557e+00 2.851401e+00 167 157 150
-4.097530e-01 -3.385206e+00 2.830033e+00 204 191 173
-1.985943e+00 -3.239924e+00 2.974575e+00 161 142 110
1.951253e+00 -3.464147e+00 3.043825e+00 160 152 149
-2.193937e+00 -3.103957e+00 2.981156e+00 168 152 139
-1.482670e+00 -3.094297e+00 2.851792e+00 219 204 186
-2.329367e+00 -3.005430e+00 2.987412e+00 194 176 164
-3.438934e-01 -3.120504e+00 2.745016e+00 151 133 109
1.473316e+00 -3.169950e+00 2.914677e+00 200 190 183
-2.353487e+00 -2.878172e+00 2.966159e+00 215 192 195
2.823309e+00 -3.066048e+00 3.095691e+00 194 181 165
7.423590e-01 -3.030768e+00 2.781418e+00 116 109 98
-2.688970e+00 -2.788036e+00 3.019862e+00 209 187 174
2.239667e+00 -2.933643e+00 2.989157e+00 113 109 103
-3.289199e+00 -2.526047e+00 3.113363e+00 132 103 73
6.069668e+00 -2.516020e+00 3.498114e+00 132 128 133
6.178863e+00 -2.503929e+00 3.513300e+00 133 131 135
4.059637e+00 -2.629828e+00 3.225560e+00 151 143 130
-1.607652e+00 -2.507574e+00 2.729730e+00 200 182 152
-1.499956e-01 -2.540011e+00 2.554762e+00 199 182 155
-3.937854e+00 -2.086863e+00 3.206956e+00 175 142 97
3.548083e+00 -2.368071e+00 3.118845e+00 53 43 41
7.310785e+00 -2.082278e+00 3.629127e+00 200 193 168
-2.617618e+00 -2.118759e+00 2.898939e+00 220 194 170
1.537301e+00 -2.172271e+00 2.744669e+00 224 215 204
5.185300e+00 -1.955188e+00 3.326305e+00 142 134 123
6.968087e-01 -1.804205e+00 2.519369e+00 200 184 159
4.925159e-01 -1.786804e+00 2.469248e+00 213 196 168
-4.130165e+00 -1.544649e+00 3.202778e+00 128 94 62
1.526209e+00 -1.736598e+00 2.693725e+00 191 176 143
-4.452680e+00 -1.401143e+00 3.262888e+00 242 206 137
3.971841e+00 -1.538807e+00 3.111201e+00 188 176 158
-1.162157e-01 -1.551955e+00 2.285214e+00 141 122 107
-1.162157e-01 -1.551955e+00 2.285214e+00 141 122 107
2.714703e+00 -1.293078e+00 2.888615e+00 99 83 67
-5.612167e+00 -9.429984e-01 3.458841e+00 140 98 66
-1.187498e+00 -1.185763e+00 2.451355e+00 220 199 172
-2.022452e+00 -1.092367e+00 2.669204e+00 81 52 33
-5.673346e+00 -8.361037e-01 3.464546e+00 134 99 93
1.553737e+00 -9.500898e-01 2.665399e+00 199 183 177
3.631235e+00 -5.678421e-01 3.008533e+00 119 103 81
-2.471692e+00 -6.019926e-01 2.780861e+00 213 183 145
-5.551321e+00 -4.429342e-01 3.425090e+00 240 206 164
-5.886548e+00 -7.756531e-02 3.470679e+00 224 194 159
4.950234e+00 -2.719933e-02 3.195718e+00 125 114 99
3.215195e+00 9.780722e-02 2.938664e+00 208 199 189
5.402602e+00 5.276260e-01 3.248037e+00 103 94 80
-2.784178e+00 4.149575e-01 2.889309e+00 142 110 71
2.856208e+00 5.775954e-01 2.899139e+00 100 87 77
3.964486e+00 6.387104e-01 3.054867e+00 176 172 163
3.697686e+00 6.866797e-01 3.016851e+00 176 163 155
4.447317e+00 1.031833e+00 3.122416e+00 200 190 186
3.396961e+00 1.250770e+00 2.994837e+00 123 106 88
3.396961e+00 1.250770e+00 2.994837e+00 123 106 88
3.904602e+00 1.677501e+00 3.072411e+00 182 171 147
3.093315e+00 1.766749e+00 2.985873e+00 202 192 175
-1.619553e+00 1.581322e+00 2.829448e+00 151 119 88
1.679557e+00 1.886895e+00 2.861393e+00 98 80 61
2.695947e+00 2.097719e+00 2.966258e+00 71 55 37
2.513034e+00 2.097233e+00 2.949254e+00 115 106 97
2.729656e+00 2.141081e+00 2.972829e+00 75 52 39
2.729656e+00 2.141081e+00 2.972829e+00 75 52 39
3.457928e+00 2.249958e+00 3.050889e+00 121 104 87
8.791702e-01 2.317391e+00 2.860639e+00 88 69 38
3.090826e+00 2.396426e+00 3.022175e+00 137 129 112
8.810507e-01 2.345826e+00 2.863793e+00 180 166 139
8.810507e-01 2.345826e+00 2.863793e+00 180 166 139
2.147230e+00 2.486399e+00 2.951025e+00 168 156 129
4.417120e-01 2.630940e+00 2.884796e+00 184 162 141
-8.727588e-01 2.673087e+00 2.907629e+00 113 92 57
3.722994e+00 2.920797e+00 3.113344e+00 160 149 129
1.480612e+00 3.032601e+00 2.960913e+00 190 186 186
1.037937e+00 3.057175e+00 2.945192e+00 160 144 112
2.430523e+00 3.122026e+00 3.022161e+00 130 113 97
-1.794942e+00 2.850036e+00 2.984380e+00 118 93 77
-1.034819e+00 3.140246e+00 2.967407e+00 134 111 79
-1.293810e+00 3.132596e+00 2.979733e+00 234 211 171
2.988356e-01 3.365020e+00 2.965506e+00 64 41 31
-1.051824e+00 3.244292e+00 2.979377e+00 104 76 40
3.406614e+00 3.683428e+00 3.136282e+00 153 141 123
3.157819e+00 3.766439e+00 3.123731e+00 201 193 171
3.290872e-01 3.924074e+00 3.023766e+00 175 158 141
1.386728e-01 3.986055e+00 3.030080e+00 76 59 29
-2.120941e+00 3.752307e+00 3.095272e+00 109 86 44
6.013715e-01 4.440343e+00 3.075956e+00 110 93 78
5.544034e-02 5.189110e+00 3.144641e+00 165 145 118
1.128875e+00 -5.106984e+00 3.349038e+00 70 56 63
9.560886e-01 -4.548508e+00 3.198795e+00 104 99 88
1.339574e+00 -4.540266e+00 3.224127e+00 115 101 82
1.767315e+00 -4.401475e+00 3.230005e+00 54 48 51
1.767315e+00 -4.401475e+00 3.230005e+00 54 48 51
8.053963e-01 -3.573028e+00 2.930605e+00 133 123 109
-1.423501e+00 -3.425467e+00 2.931999e+00 192 172 153
2.039212e-01 -3.488796e+00 2.866126e+00 156 141 118
-1.340571e+00 -3.387701e+00 2.910498e+00 136 115 98
-1.340571e+00 -3.387701e+00 2.910498e+00 136 115 98
4.460937e-01 -3.446528e+00 2.867283e+00 206 202 193
2.620796e-01 -3.375430e+00 2.835562e+00 162 152 139
3.417193e-01 -3.308032e+00 2.820798e+00 219 207 194
2.843495e+00 -3.287131e+00 3.135250e+00 182 171 149
2.695171e+00 -3.273646e+00 3.110662e+00 120 117 101
2.831613e+00 -3.233392e+00 3.124040e+00 126 112 89
-3.622723e-01 -3.131363e+00 2.748837e+00 207 197 174
-2.727320e+00 -2.825126e+00 3.034225e+00 138 127 107
2.768112e+00 -2.981776e+00 3.074141e+00 147 139 127
1.053723e+00 -2.957372e+00 2.804690e+00 151 135 121
2.334661e+00 -2.593832e+00 2.951779e+00 141 131 121
2.686075e+00 -2.525308e+00 2.995395e+00 137 124 108
3.518127e+00 -2.363171e+00 3.112939e+00 170 160 157
-2.423576e+00 -2.113468e+00 2.851843e+00 169 144 115
6.800655e+00 -1.967741e+00 3.560392e+00 163 163 155
8.424145e-01 -1.813792e+00 2.553413e+00 158 138 113
6.169429e+00 -1.291389e+00 3.425524e+00 172 165 149
1.748941e+00 -1.307058e+00 2.712766e+00 186 175 155
2.762090e+00 -1.297302e+00 2.897578e+00 113 101 89
-2.462824e+00 -1.173832e+00 2.780341e+00 197 174 138
-5.677988e+00 -8.530885e-01 3.466132e+00 230 195 169
5.670030e+00 -7.130446e-01 3.322135e+00 107 105 93
-2.441947e+00 -5.748697e-01 2.773909e+00 192 159 123
-2.404506e+00 -4.561740e-01 2.769834e+00 209 171 132
4.312981e+00 -3.356029e-01 3.108839e+00 135 126 109
-5.389863e+00 1.832974e-01 3.378402e+00 171 129 102
5.374180e+00 5.109661e-01 3.244145e+00 164 157 149
4.577950e+00 9.020443e-01 3.138940e+00 198 190 177
-3.563079e+00 8.070308e-01 3.053870e+00 226 186 150
2.454538e+00 1.183127e+00 2.879314e+00 179 169 154
1.797594e+00 1.800761e+00 2.862761e+00 175 156 141
1.840842e+00 1.819965e+00 2.868095e+00 192 180 163
2.706805e+00 2.121913e+00 2.969140e+00 159 146 131
1.234030e+00 2.189529e+00 2.863267e+00 120 97 66
1.095441e+00 2.253366e+00 2.862776e+00 154 138 122
8.965418e-01 2.367833e+00 2.866723e+00 80 61 42
1.123017e+00 2.428228e+00 2.882894e+00 132 120 104
1.044325e+00 2.429013e+00 2.879431e+00 177 162 141
1.818787e+00 2.604474e+00 2.937534e+00 169 153 139
2.769697e+00 2.834882e+00 3.025688e+00 134 121 87
2.377198e+00 2.952645e+00 3.004961e+00 146 136 133
-1.205476e+00 3.029976e+00 2.963726e+00 135 109 77
1.938802e+00 3.355767e+00 3.012596e+00 144 125 103
2.847704e+00 3.538418e+00 3.083734e+00 164 157 141
-1.948020e+00 3.280410e+00 3.038430e+00 222 193 151
2.921240e+00 3.694079e+00 3.100093e+00 141 126 105
1.062131e+00 3.690047e+00 3.010321e+00 77 57 31
3.139842e+00 3.752413e+00 3.121540e+00 132 123 95
1.023828e+00 3.794755e+00 3.019508e+00 137 120 104
1.908160e+00 4.131009e+00 3.079331e+00 201 180 158
-7.250698e-01 4.032853e+00 3.050022e+00 174 159 134
-5.039079e-01 4.111368e+00 3.051975e+00 168 148 119
1.303676e+00 4.279402e+00 3.072139e+00 182 165 137
-1.473992e+00 4.134217e+00 3.090249e+00 168 138 103
-2.736075e+00 -2.834152e+00 3.037497e+00 194 186 161
1.083669e+00 -2.972573e+00 2.812783e+00 174 162 141
-3.634773e+00 -2.611985e+00 3.205188e+00 192 165 150
-6.456609e-01 -2.615833e+00 2.595535e+00 142 128 115
-1.639007e+00 -2.461750e+00 2.726917e+00 162 150 143
6.821845e+00 -2.005602e+00 3.566758e+00 107 102 97
3.575284e+00 -4.476138e-01 2.996723e+00 122 102 77
3.137961e+00 6.847647e-01 2.942722e+00 102 83 76
3.584883e+00 6.950079e-01 3.001478e+00 175 159 153
2.412118e+00 1.140555e+00 2.871418e+00 150 135 119
2.468833e+00 1.202349e+00 2.882067e+00 126 116 104
1.160040e+00 2.376182e+00 2.878997e+00 177 161 142
2.404924e+00 3.333128e+00 3.039419e+00 111 107 96
-1.139580e+00 3.151278e+00 2.974101e+00 145 113 85
2.135074e-01 3.447556e+00 2.974234e+00 151 142 126
1.808842e+00 4.811640e+00 3.135170e+00 130 113 103
-3.330368e+00 -1.175372e+00 -8.214564e+00 0 255 0
-3.343696e+00 -1.180113e+00 -8.262521e+00 255 255 0
-4.256850e-01 -1.623619e+00 2.169332e+00 255 0 0
-4.272817e-01 -1.627412e+00 2.119502e+00 255 255 0
-1.745634e+00 -1.925469e+00 8.345871e+00 0 255 0
-1.736957e+00 -1.934351e+00 8.297438e+00 255 255 0
