ply
format ascii 1.0
element face 0
property list uchar int vertex_indices
element vertex 960
property float x
property float y
property float z
property uchar diffuse_red
property uchar diffuse_green
property uchar diffuse_blue
end_header
4.141730e-01 5.973418e-01 2.956234e+00 87 80 87
4.300825e-01 6.060806e-01 2.953411e+00 185 185 193
3.670088e-01 5.947554e-01 2.959578e+00 154 149 157
3.739345e-01 6.028658e-01 2.955592e+00 150 150 162
3.890585e-01 6.067487e-01 2.953099e+00 152 151 168
3.890585e-01 6.067487e-01 2.953099e+00 152 151 168
3.791446e-01 6.130900e-01 2.951950e+00 48 68 96
3.414717e-01 6.113252e-01 2.956386e+00 55 51 65
3.944190e-01 6.252857e-01 2.945679e+00 53 52 60
4.077601e-01 6.356547e-01 2.942128e+00 5 4 21
3.836101e-01 6.363691e-01 2.944853e+00 156 189 228
3.816099e-01 6.402530e-01 2.943613e+00 20 50 84
3.816099e-01 6.402530e-01 2.943613e+00 20 50 84
3.447543e-01 6.332926e-01 2.952509e+00 19 21 34
3.948410e-01 6.487482e-01 2.936995e+00 77 80 99
4.536097e-01 5.597736e-01 2.985314e+00 74 74 86
4.508930e-01 5.584576e-01 2.984677e+00 73 75 85
4.521690e-01 5.593621e-01 2.984766e+00 81 81 91
4.182681e-01 5.522599e-01 2.971260e+00 173 168 175
4.464657e-01 5.678757e-01 2.976041e+00 115 114 122
4.436327e-01 5.677788e-01 2.974429e+00 109 109 121
3.625990e-01 5.473400e-01 2.977924e+00 101 91 92
3.787731e-01 5.692900e-01 2.967798e+00 78 73 79
3.559441e-01 5.704214e-01 2.969601e+00 98 95 102
3.620140e-01 5.725009e-01 2.967851e+00 146 145 153
3.887453e-01 5.804237e-01 2.963011e+00 155 153 164
4.378122e-01 6.002859e-01 2.963339e+00 171 171 181
3.915394e-01 5.848525e-01 2.961346e+00 75 75 85
4.355156e-01 5.975080e-01 2.957990e+00 94 93 101
3.941484e-01 5.871790e-01 2.962270e+00 170 167 178
4.360093e-01 5.982607e-01 2.957791e+00 178 176 187
3.597515e-01 5.800998e-01 2.965614e+00 135 126 137
3.881436e-01 5.876983e-01 2.959881e+00 172 167 175
3.877795e-01 5.885078e-01 2.959612e+00 170 164 174
4.281737e-01 5.995205e-01 2.956327e+00 84 83 91
3.680871e-01 5.941585e-01 2.959406e+00 115 112 122
4.062585e-01 6.034708e-01 2.953375e+00 113 110 116
3.998949e-01 6.033207e-01 2.953966e+00 190 190 202
3.813490e-01 6.046639e-01 2.954357e+00 151 150 164
3.941983e-01 6.078133e-01 2.952360e+00 154 154 166
3.815903e-01 6.104686e-01 2.952118e+00 69 86 108
3.949093e-01 6.161789e-01 2.949244e+00 109 107 118
4.048257e-01 6.210975e-01 2.948825e+00 26 23 30
4.193406e-01 6.257242e-01 2.944618e+00 144 141 152
3.863838e-01 6.190533e-01 2.948600e+00 150 149 157
3.410168e-01 6.107448e-01 2.956678e+00 118 116 127
3.613163e-01 6.164431e-01 2.951317e+00 41 43 55
4.218442e-01 6.318199e-01 2.942155e+00 128 127 138
4.034987e-01 6.541382e-01 2.936022e+00 126 126 136
4.149965e-01 6.579765e-01 2.931827e+00 100 121 152
3.798306e-01 6.527752e-01 2.936844e+00 195 214 244
3.322559e-01 6.424010e-01 2.947777e+00 156 156 168
3.323304e-01 6.422050e-01 2.947147e+00 156 156 168
4.129292e-01 6.601362e-01 2.930882e+00 86 99 123
3.800830e-01 6.536576e-01 2.936860e+00 102 121 151
3.895943e-01 6.563532e-01 2.934259e+00 160 160 170
3.544408e-01 6.528233e-01 2.939987e+00 141 143 165
3.326735e-01 6.525820e-01 2.945590e+00 151 167 193
4.529048e-01 5.600157e-01 2.985216e+00 152 152 162
4.513911e-01 5.591248e-01 2.984585e+00 152 155 164
4.513911e-01 5.591248e-01 2.984585e+00 152 155 164
4.414953e-01 5.587262e-01 2.980389e+00 75 70 77
3.843740e-01 5.393385e-01 2.974917e+00 155 148 153
4.512438e-01 5.697160e-01 2.977462e+00 166 167 173
4.740888e-01 5.847475e-01 2.979490e+00 58 64 80
4.726366e-01 5.867054e-01 2.977657e+00 127 142 165
4.039546e-01 5.616686e-01 2.966263e+00 96 87 93
3.519071e-01 5.577213e-01 2.974559e+00 88 88 98
3.904562e-01 5.703656e-01 2.966803e+00 144 137 144
3.947703e-01 5.718822e-01 2.962697e+00 80 71 74
4.384903e-01 5.870876e-01 2.963926e+00 90 84 94
3.864135e-01 5.773113e-01 2.964932e+00 161 159 164
3.863802e-01 5.770420e-01 2.964584e+00 161 159 164
3.589478e-01 5.708050e-01 2.968902e+00 154 148 160
3.539904e-01 5.699043e-01 2.969728e+00 93 90 97
3.988391e-01 5.802389e-01 2.962488e+00 152 150 155
3.648051e-01 5.724647e-01 2.967595e+00 85 83 88
4.340348e-01 5.921555e-01 2.961630e+00 121 119 129
3.622444e-01 5.749192e-01 2.967072e+00 122 121 127
3.771693e-01 5.814697e-01 2.963063e+00 67 66 72
3.930445e-01 5.858867e-01 2.960451e+00 182 181 189
4.347513e-01 5.980684e-01 2.957730e+00 184 183 191
3.925425e-01 5.867253e-01 2.960595e+00 68 65 74
3.925425e-01 5.867253e-01 2.960595e+00 68 65 74
4.133184e-01 5.968556e-01 2.956810e+00 131 122 125
4.244370e-01 6.020943e-01 2.953899e+00 93 88 93
3.970683e-01 6.047375e-01 2.954421e+00 86 81 87
3.839205e-01 6.124878e-01 2.951924e+00 91 93 105
3.672059e-01 6.109691e-01 2.952494e+00 107 106 112
3.844991e-01 6.160924e-01 2.949959e+00 35 46 71
3.721754e-01 6.143060e-01 2.951816e+00 154 152 165
3.815156e-01 6.164979e-01 2.949796e+00 63 63 75
3.846623e-01 6.182057e-01 2.949139e+00 145 143 154
3.713937e-01 6.154065e-01 2.951332e+00 123 120 127
4.178433e-01 6.267250e-01 2.944270e+00 129 128 137
4.170163e-01 6.272378e-01 2.944177e+00 108 107 115
4.179404e-01 6.276730e-01 2.944253e+00 89 87 98
3.672524e-01 6.159159e-01 2.951438e+00 63 62 67
4.022953e-01 6.257741e-01 2.945498e+00 127 124 132
3.387505e-01 6.115527e-01 2.956999e+00 143 143 151
3.562459e-01 6.278925e-01 2.952270e+00 146 146 158
3.956115e-01 6.385216e-01 2.944419e+00 24 23 37
3.446989e-01 6.362575e-01 2.950115e+00 144 144 154
3.335171e-01 6.378960e-01 2.948492e+00 141 140 156
3.880899e-01 6.506098e-01 2.936677e+00 72 70 81
3.969256e-01 6.543460e-01 2.934263e+00 66 66 78
3.815163e-01 6.542140e-01 2.935740e+00 99 115 144
3.357238e-01 6.444046e-01 2.945572e+00 72 72 80
3.438769e-01 6.471616e-01 2.944620e+00 59 55 70
3.467421e-01 6.473932e-01 2.942805e+00 63 63 75
3.761476e-01 5.416981e-01 2.979994e+00 80 66 68
4.369385e-01 5.805080e-01 2.966978e+00 83 81 94
3.859438e-01 5.797576e-01 2.962485e+00 64 63 71
3.890193e-01 5.836601e-01 2.961580e+00 183 179 193
4.346261e-01 5.973706e-01 2.957980e+00 107 105 118
3.906557e-01 5.872856e-01 2.960119e+00 166 162 176
3.906557e-01 5.872856e-01 2.960119e+00 166 162 176
3.582050e-01 5.834286e-01 2.965166e+00 88 85 92
3.751693e-01 5.994980e-01 2.958456e+00 79 76 85
3.908062e-01 6.049527e-01 2.955392e+00 83 81 87
4.203981e-01 6.262901e-01 2.944633e+00 164 162 173
3.699213e-01 5.614960e-01 2.971356e+00 102 95 103
3.830969e-01 5.965661e-01 2.957202e+00 72 63 64
3.405609e-01 6.236762e-01 2.952595e+00 108 110 122
3.409730e-01 6.247842e-01 2.952087e+00 108 110 123
4.008135e-01 5.692207e-01 2.966872e+00 161 158 165
3.883109e-01 5.892146e-01 2.958877e+00 51 48 57
3.775034e-01 5.703937e-01 2.966860e+00 46 37 42
3.879934e-01 5.889912e-01 2.959713e+00 61 56 65
4.174476e-01 5.743584e-01 2.964908e+00 65 60 66
4.412879e-01 5.459557e-01 2.959761e+00 154 152 155
4.847714e-01 5.970887e-01 3.227415e+00 39 52 22
3.627601e-01 5.479525e-01 2.983088e+00 179 173 175
3.498991e-01 5.697148e-01 2.977877e+00 141 141 153
4.181686e-01 5.784668e-01 2.965780e+00 111 112 106
3.273365e-01 6.310944e-01 2.950703e+00 255 255 255
3.771499e-01 5.372027e-01 2.982658e+00 11 11 13
3.273231e-01 6.415736e-01 2.947249e+00 255 255 255
3.503426e-01 6.292456e-01 2.945421e+00 32 32 42
3.950833e-01 6.401172e-01 2.937533e+00 53 57 66
3.420254e-01 5.539880e-01 2.967696e+00 142 147 151
3.516837e-01 5.635307e-01 2.976018e+00 53 53 51
3.890441e-01 5.933510e-01 2.960079e+00 133 133 131
4.301337e-01 5.832588e-01 2.962103e+00 48 47 45
3.864120e-01 5.940418e-01 2.956224e+00 59 64 79
4.161681e-01 6.122098e-01 2.949814e+00 137 142 145
3.496359e-01 5.977518e-01 2.961314e+00 27 30 37
4.078506e-01 6.392383e-01 2.935538e+00 33 35 49
3.474951e-01 6.212653e-01 2.949245e+00 125 126 128
3.362572e-01 6.487835e-01 2.948349e+00 120 118 125
3.791963e-01 5.344233e-01 2.976107e+00 108 109 110
4.872291e-01 5.481970e-01 2.908992e+00 96 103 111
3.267225e-01 5.224103e-01 2.939045e+00 130 130 122
3.294495e-01 5.291285e-01 2.944137e+00 78 74 76
4.770496e-01 5.688431e-01 2.908979e+00 253 255 252
3.766849e-01 5.666219e-01 2.974716e+00 124 124 115
3.541284e-01 5.655879e-01 2.976835e+00 34 34 32
3.562582e-01 6.171644e-01 2.954652e+00 143 144 134
3.377542e-01 6.120506e-01 2.957343e+00 121 122 124
3.303557e-01 6.114562e-01 2.950548e+00 255 255 253
3.530088e-01 6.454216e-01 2.942616e+00 103 94 113
3.641941e-01 5.422604e-01 2.976788e+00 107 108 102
3.629869e-01 5.462109e-01 2.979319e+00 109 110 105
3.521245e-01 5.584679e-01 2.980496e+00 140 144 147
3.386032e-01 5.716555e-01 2.967369e+00 92 93 97
3.386032e-01 5.716555e-01 2.967369e+00 92 93 97
3.969988e-01 6.545798e-01 2.935578e+00 86 87 91
3.367534e-01 6.484062e-01 2.947578e+00 254 254 252
3.576801e-01 5.313623e-01 2.967709e+00 65 68 83
3.283358e-01 5.286581e-01 2.945441e+00 99 99 99
3.635181e-01 5.476355e-01 2.978802e+00 115 115 113
3.944502e-01 5.571584e-01 2.973040e+00 58 54 51
4.145145e-01 6.101191e-01 2.952755e+00 96 93 88
4.145145e-01 6.101191e-01 2.952755e+00 96 93 88
3.362158e-01 5.924597e-01 2.961419e+00 153 153 160
4.201881e-01 6.384263e-01 2.936633e+00 124 125 146
3.464857e-01 6.341345e-01 2.945392e+00 107 108 112
4.050545e-01 6.567073e-01 2.934028e+00 88 89 94
4.865539e-01 5.502340e-01 2.908438e+00 122 131 130
4.832816e-01 5.570124e-01 2.908944e+00 63 67 75
3.754014e-01 5.504362e-01 2.977101e+00 60 56 55
3.957613e-01 5.590138e-01 2.972480e+00 51 45 49
4.730818e-01 5.719278e-01 2.911080e+00 254 254 255
3.714679e-01 5.614321e-01 2.976684e+00 81 80 80
4.161171e-01 5.747659e-01 2.968652e+00 70 68 69
3.970757e-01 5.840688e-01 2.961391e+00 145 151 149
3.850948e-01 5.858400e-01 2.963434e+00 39 42 48
3.658943e-01 5.855796e-01 2.962144e+00 96 92 81
4.019443e-01 6.089091e-01 2.956461e+00 149 146 139
4.098998e-01 6.293045e-01 2.946027e+00 140 141 134
4.100883e-01 6.294735e-01 2.945065e+00 140 141 134
3.322238e-01 6.102008e-01 2.954367e+00 108 104 119
3.501392e-01 6.204099e-01 2.950407e+00 97 101 104
3.566408e-01 6.291944e-01 2.947139e+00 104 105 104
4.054656e-01 6.651683e-01 2.934874e+00 243 251 250
3.570307e-01 5.313199e-01 2.988378e+00 61 26 43
3.374014e-01 5.145284e-01 2.938989e+00 147 146 142
4.753534e-01 5.508296e-01 2.919870e+00 103 108 109
3.262342e-01 5.171767e-01 2.938798e+00 144 142 130
3.603661e-01 5.338909e-01 2.967275e+00 73 82 85
3.627334e-01 5.377691e-01 2.967358e+00 41 41 39
3.615174e-01 5.377805e-01 2.967284e+00 41 42 37
3.301729e-01 5.257019e-01 2.944632e+00 71 69 70
3.565358e-01 5.385360e-01 2.968477e+00 69 75 83
4.760930e-01 5.701515e-01 2.909367e+00 246 252 255
4.756509e-01 5.707237e-01 2.908864e+00 244 251 254
3.930336e-01 5.610230e-01 2.975490e+00 75 74 69
3.717292e-01 5.620893e-01 2.976417e+00 30 29 44
4.311989e-01 5.773662e-01 2.963533e+00 144 143 149
4.157924e-01 5.949487e-01 2.955048e+00 124 123 119
3.910694e-01 5.915970e-01 2.960820e+00 169 173 174
3.867455e-01 5.916849e-01 2.961131e+00 57 57 64
3.824338e-01 5.985452e-01 2.956365e+00 142 139 134
4.077113e-01 6.102668e-01 2.952365e+00 124 129 131
4.249560e-01 6.330012e-01 2.938782e+00 61 59 64
3.557574e-01 5.211687e-01 2.969083e+00 34 42 53
3.505453e-01 5.259676e-01 2.986061e+00 86 93 111
3.501600e-01 5.258489e-01 2.985851e+00 84 98 111
3.575814e-01 5.306862e-01 2.988701e+00 153 124 146
3.457665e-01 5.252069e-01 2.975886e+00 143 145 146
3.302308e-01 5.124925e-01 2.940328e+00 77 77 77
3.311996e-01 5.155467e-01 2.948534e+00 131 131 131
3.616457e-01 5.338250e-01 2.968260e+00 111 113 111
3.616457e-01 5.338250e-01 2.968260e+00 111 113 111
3.314509e-01 5.209465e-01 2.944408e+00 97 91 88
3.369883e-01 5.213543e-01 2.938679e+00 131 130 128
3.371023e-01 5.215052e-01 2.937907e+00 126 125 123
3.993216e-01 5.466148e-01 2.972395e+00 72 72 70
3.742310e-01 5.407398e-01 2.974960e+00 67 67 67
4.882667e-01 5.546743e-01 2.905630e+00 39 43 44
3.609532e-01 5.358019e-01 2.967978e+00 42 42 42
3.799759e-01 5.436216e-01 2.977202e+00 78 77 75
3.271879e-01 5.236227e-01 2.946788e+00 57 56 54
4.116670e-01 5.503754e-01 2.967926e+00 69 65 62
3.304216e-01 5.255789e-01 2.945376e+00 68 66 67
3.304374e-01 5.266934e-01 2.942959e+00 164 162 151
4.887117e-01 5.608484e-01 2.901988e+00 60 63 70
3.616529e-01 5.415650e-01 2.969799e+00 40 41 36
3.547899e-01 5.399183e-01 2.968888e+00 132 139 145
3.643564e-01 5.451185e-01 2.978238e+00 92 93 88
4.419143e-01 5.639515e-01 2.966750e+00 152 151 155
3.290795e-01 5.293918e-01 2.944295e+00 142 140 141
3.268435e-01 5.274140e-01 2.937281e+00 142 140 141
3.910818e-01 5.517756e-01 2.975360e+00 71 70 68
3.260041e-01 5.287278e-01 2.937027e+00 104 105 100
3.752936e-01 5.515720e-01 2.977455e+00 66 61 57
4.798056e-01 5.669400e-01 2.907216e+00 249 253 254
3.260687e-01 5.346492e-01 2.945067e+00 229 230 225
3.500425e-01 5.557616e-01 2.971274e+00 140 141 144
3.673646e-01 5.660109e-01 2.973963e+00 113 112 110
3.667485e-01 5.681230e-01 2.974145e+00 132 130 131
3.679333e-01 5.740855e-01 2.971881e+00 131 131 121
4.061321e-01 6.035297e-01 2.956727e+00 76 75 71
3.946157e-01 6.039995e-01 2.955017e+00 87 86 84
4.128988e-01 6.576505e-01 2.933632e+00 132 125 156
3.499920e-01 5.250964e-01 2.985788e+00 46 55 72
3.503483e-01 5.251349e-01 2.985618e+00 70 80 94
3.773754e-01 5.266750e-01 2.968693e+00 49 85 111
3.574202e-01 5.285081e-01 2.987421e+00 126 138 146
4.773294e-01 5.480106e-01 2.917302e+00 99 100 102
3.272592e-01 5.168014e-01 2.939920e+00 84 80 79
3.301184e-01 5.195150e-01 2.947286e+00 93 87 87
3.554092e-01 5.315357e-01 2.968350e+00 102 107 110
3.310850e-01 5.211492e-01 2.945001e+00 84 79 75
4.734039e-01 5.523016e-01 2.918451e+00 100 100 100
3.357422e-01 5.233809e-01 2.938106e+00 128 128 130
3.545486e-01 5.362508e-01 2.968867e+00 90 100 105
3.934774e-01 5.491369e-01 2.974352e+00 67 64 56
3.257426e-01 5.257219e-01 2.938564e+00 154 155 150
3.891262e-01 5.499939e-01 2.976452e+00 81 79 81
3.891262e-01 5.499939e-01 2.976452e+00 81 79 81
3.526676e-01 5.391480e-01 2.968804e+00 98 101 106
3.242499e-01 5.257760e-01 2.938713e+00 105 101 96
3.292723e-01 5.287385e-01 2.944766e+00 96 94 96
3.926383e-01 5.518714e-01 2.975224e+00 56 55 50
3.287638e-01 5.302185e-01 2.944771e+00 123 122 117
3.895985e-01 5.525711e-01 2.976458e+00 69 68 63
4.795903e-01 5.668275e-01 2.907099e+00 139 145 154
4.783999e-01 5.667978e-01 2.908352e+00 139 140 146
3.248671e-01 5.334196e-01 2.944353e+00 117 121 121
3.192617e-01 5.340172e-01 2.933191e+00 121 118 127
3.259086e-01 5.356872e-01 2.932640e+00 165 163 177
3.719248e-01 5.624346e-01 2.977057e+00 134 141 151
3.708050e-01 5.628893e-01 2.976066e+00 134 135 130
3.700446e-01 5.686609e-01 2.975410e+00 56 52 49
3.674670e-01 5.681613e-01 2.974519e+00 83 79 78
3.711878e-01 5.694196e-01 2.976226e+00 138 136 130
3.674676e-01 5.732149e-01 2.973299e+00 75 79 81
3.706127e-01 5.977166e-01 2.959880e+00 159 159 159
3.983706e-01 6.661355e-01 2.933936e+00 255 255 255
4.436427e-01 4.860579e-01 2.938409e+00 183 182 180
4.366520e-01 5.836899e-01 2.961046e+00 146 146 146
3.698454e-01 5.673858e-01 2.976807e+00 130 129 127
3.877737e-01 5.969289e-01 2.956149e+00 75 79 90
4.374181e-01 4.790084e-01 2.948827e+00 151 151 151
4.164286e-01 5.092969e-01 2.962447e+00 87 89 102
3.340395e-01 5.075383e-01 2.933248e+00 118 118 108
3.568127e-01 6.231741e-01 2.947275e+00 125 125 125
4.004930e-01 6.506897e-01 2.932135e+00 49 47 61
4.203440e-01 4.795390e-01 2.949921e+00 85 87 99
4.328514e-01 4.821126e-01 2.947444e+00 133 133 135
4.255294e-01 4.877347e-01 2.949582e+00 127 126 131
4.400988e-01 4.924375e-01 2.940661e+00 200 197 192
4.228077e-01 4.977388e-01 2.954670e+00 145 143 144
3.363808e-01 4.896429e-01 2.946036e+00 55 84 34
3.628415e-01 5.397097e-01 2.982712e+00 43 42 40
3.557791e-01 6.265888e-01 2.945674e+00 136 135 133
3.482214e-01 6.522098e-01 2.941581e+00 104 94 102
4.451153e-01 4.830822e-01 2.940828e+00 142 141 137
4.451153e-01 4.830822e-01 2.940828e+00 142 141 137
4.421455e-01 4.853454e-01 2.940505e+00 220 217 217
4.547019e-01 4.878127e-01 2.928034e+00 165 164 163
4.547019e-01 4.878127e-01 2.928034e+00 165 164 163
3.393282e-01 4.981307e-01 2.943030e+00 59 84 37
3.253905e-01 5.170662e-01 2.925586e+00 76 69 62
3.170981e-01 5.215026e-01 2.915614e+00 148 147 144
3.170981e-01 5.215026e-01 2.915614e+00 148 147 144
3.128000e-01 5.225147e-01 2.910595e+00 129 116 110
4.051554e-01 6.234266e-01 2.945686e+00 64 60 61
4.034263e-01 6.524980e-01 2.931558e+00 132 131 126
4.387452e-01 4.792585e-01 2.949698e+00 141 139 144
4.365933e-01 4.792110e-01 2.949734e+00 169 168 173
4.353463e-01 4.807556e-01 2.948932e+00 121 119 124
4.205713e-01 4.809737e-01 2.952987e+00 127 131 138
4.097997e-01 4.842865e-01 2.958615e+00 85 85 93
3.616632e-01 4.794513e-01 2.970931e+00 129 139 151
4.134043e-01 4.856087e-01 2.956581e+00 86 88 100
4.410120e-01 4.886777e-01 2.941683e+00 186 185 183
4.530345e-01 4.911431e-01 2.934143e+00 228 227 225
4.178436e-01 4.938168e-01 2.955822e+00 147 148 153
4.183889e-01 4.934092e-01 2.953906e+00 115 114 119
4.289753e-01 4.947802e-01 2.948412e+00 214 213 211
4.102967e-01 5.004606e-01 2.961015e+00 102 106 119
3.480097e-01 4.958595e-01 2.954345e+00 19 25 22
3.480097e-01 4.958595e-01 2.954345e+00 19 25 22
4.171425e-01 5.227336e-01 2.968748e+00 34 29 49
3.578866e-01 5.061118e-01 2.961893e+00 107 120 49
3.414791e-01 4.991815e-01 2.947080e+00 94 114 56
3.265729e-01 5.013512e-01 2.917715e+00 145 133 118
3.149767e-01 4.965381e-01 2.902220e+00 48 43 58
3.103325e-01 4.951892e-01 2.895737e+00 88 83 80
3.129004e-01 5.208876e-01 2.910373e+00 129 119 110
4.355894e-01 6.050240e-01 2.946966e+00 254 255 255
3.525999e-01 6.102394e-01 2.957398e+00 144 144 141
4.502637e-01 4.816024e-01 2.952515e+00 197 193 194
4.499142e-01 4.814974e-01 2.950812e+00 198 196 199
4.499142e-01 4.814974e-01 2.950812e+00 198 196 199
4.272559e-01 4.786373e-01 2.954685e+00 90 90 103
4.393879e-01 4.793703e-01 2.948948e+00 190 190 190
4.632205e-01 4.869859e-01 2.948224e+00 160 158 163
4.340765e-01 4.810953e-01 2.947293e+00 96 95 101
4.651302e-01 4.862178e-01 2.938342e+00 158 157 155
4.265682e-01 4.823770e-01 2.949945e+00 73 74 79
4.253082e-01 4.836818e-01 2.951182e+00 104 103 109
4.450679e-01 4.824176e-01 2.938370e+00 152 150 153
4.560308e-01 4.873762e-01 2.932432e+00 178 178 178
4.560308e-01 4.873762e-01 2.932432e+00 178 178 178
4.169568e-01 4.943640e-01 2.952805e+00 98 96 105
4.760511e-01 4.969887e-01 2.914859e+00 178 177 175
4.152735e-01 5.109402e-01 2.964180e+00 61 57 69
3.373638e-01 4.839193e-01 2.937734e+00 15 30 14
4.165797e-01 5.225779e-01 2.969744e+00 24 17 38
3.341731e-01 4.926875e-01 2.930769e+00 77 98 65
3.980924e-01 5.607200e-01 2.970539e+00 107 102 88
3.980924e-01 5.607200e-01 2.970539e+00 107 102 88
4.066645e-01 5.636687e-01 2.973538e+00 94 88 88
3.942571e-01 5.606274e-01 2.973714e+00 53 48 45
3.942571e-01 5.606274e-01 2.973714e+00 53 48 45
4.312483e-01 5.782672e-01 2.964379e+00 122 120 123
3.941032e-01 5.741301e-01 2.975014e+00 126 123 122
3.842225e-01 5.882076e-01 2.960996e+00 53 53 61
3.791145e-01 5.876917e-01 2.958273e+00 58 55 63
3.891184e-01 5.908726e-01 2.956296e+00 150 152 154
3.600065e-01 5.872113e-01 2.966562e+00 68 67 65
3.537636e-01 6.105656e-01 2.957391e+00 155 152 143
3.267304e-01 6.380377e-01 2.944889e+00 252 254 252
4.483557e-01 4.839384e-01 2.959075e+00 124 120 121
4.499313e-01 4.817479e-01 2.952062e+00 142 140 143
4.374171e-01 4.795420e-01 2.948920e+00 132 132 132
4.665688e-01 4.898130e-01 2.950466e+00 196 195 192
4.599838e-01 4.827156e-01 2.935256e+00 163 161 162
4.599838e-01 4.827156e-01 2.935256e+00 163 161 162
4.334644e-01 4.821615e-01 2.947305e+00 186 187 185
4.634972e-01 4.857532e-01 2.937690e+00 160 159 157
4.634972e-01 4.857532e-01 2.937690e+00 160 159 157
3.603341e-01 4.793095e-01 2.976356e+00 80 78 95
3.604480e-01 4.779417e-01 2.972974e+00 121 127 137
3.604177e-01 4.796256e-01 2.975081e+00 85 91 104
4.449367e-01 4.831219e-01 2.939122e+00 217 216 212
4.649459e-01 4.863044e-01 2.933582e+00 174 172 173
4.765672e-01 4.952838e-01 2.936377e+00 140 139 145
4.403792e-01 4.890537e-01 2.940369e+00 220 219 215
3.570514e-01 4.807774e-01 2.963494e+00 65 67 80
4.408694e-01 5.022747e-01 2.941264e+00 188 187 185
4.408694e-01 5.022747e-01 2.941264e+00 188 187 185
3.472648e-01 4.939709e-01 2.952406e+00 35 58 38
3.591069e-01 5.011978e-01 2.959384e+00 16 24 11
4.214394e-01 5.200869e-01 2.963506e+00 99 108 105
4.187030e-01 5.220568e-01 2.966529e+00 112 110 128
4.167405e-01 5.236058e-01 2.968270e+00 147 138 169
4.337660e-01 5.235046e-01 2.954865e+00 62 70 7
3.566249e-01 5.051881e-01 2.959088e+00 31 52 14
3.442491e-01 4.982337e-01 2.944988e+00 60 78 29
3.291568e-01 5.013133e-01 2.921720e+00 124 122 111
3.340810e-01 5.078140e-01 2.932598e+00 63 57 57
3.193929e-01 5.014363e-01 2.915936e+00 39 30 41
3.882575e-01 5.445030e-01 2.984440e+00 123 127 131
3.139885e-01 5.082677e-01 2.911609e+00 129 128 126
3.238175e-01 5.178324e-01 2.923169e+00 148 143 136
3.987466e-01 5.496197e-01 2.969773e+00 66 65 62
3.678046e-01 5.471370e-01 2.976629e+00 54 50 47
3.678046e-01 5.471370e-01 2.976629e+00 54 50 47
3.682027e-01 5.531899e-01 2.978321e+00 106 103 98
4.050695e-01 5.901167e-01 2.964011e+00 135 128 122
3.799379e-01 5.861395e-01 2.958732e+00 42 43 48
4.136310e-01 5.964436e-01 2.954366e+00 76 67 62
3.526313e-01 5.817346e-01 2.964308e+00 80 75 68
3.462928e-01 6.061692e-01 2.958718e+00 44 42 48
3.462461e-01 6.065322e-01 2.958563e+00 158 156 156
4.080444e-01 6.291143e-01 2.944192e+00 124 121 116
3.307784e-01 6.098638e-01 2.954863e+00 251 251 252
3.393171e-01 6.133960e-01 2.956995e+00 153 152 149
3.468314e-01 6.380511e-01 2.940769e+00 147 145 149
4.548206e-01 4.945581e-01 2.974093e+00 152 150 151
4.494793e-01 4.813131e-01 2.949682e+00 133 131 134
4.475111e-01 4.806438e-01 2.948519e+00 199 195 196
4.484150e-01 4.808514e-01 2.947093e+00 213 211 213
4.387155e-01 4.792642e-01 2.949020e+00 203 203 203
4.384711e-01 4.778651e-01 2.946572e+00 123 123 125
4.636393e-01 4.885717e-01 2.951776e+00 143 142 138
4.636393e-01 4.885717e-01 2.951776e+00 143 142 138
4.640499e-01 4.881023e-01 2.950126e+00 198 197 194
4.598945e-01 4.872291e-01 2.949929e+00 203 198 203
4.621464e-01 4.855249e-01 2.944562e+00 147 143 144
4.353665e-01 4.797820e-01 2.947673e+00 178 174 179
4.601889e-01 4.838817e-01 2.938346e+00 146 145 143
3.678035e-01 4.792356e-01 2.972442e+00 81 83 97
4.576591e-01 4.838752e-01 2.936030e+00 109 104 116
4.508762e-01 4.815775e-01 2.935274e+00 175 173 175
4.457451e-01 4.828525e-01 2.940193e+00 158 157 154
4.448386e-01 4.825908e-01 2.940085e+00 216 215 213
4.536925e-01 4.821683e-01 2.934670e+00 172 170 175
4.536925e-01 4.821683e-01 2.934670e+00 172 170 175
4.456059e-01 4.827610e-01 2.938941e+00 214 213 211
4.718521e-01 4.973547e-01 2.951176e+00 143 141 142
4.248985e-01 4.830163e-01 2.946288e+00 144 145 150
4.273760e-01 4.846565e-01 2.946323e+00 163 162 167
4.451201e-01 4.858795e-01 2.938495e+00 159 156 165
4.435766e-01 4.861661e-01 2.939498e+00 203 199 196
4.425551e-01 4.857769e-01 2.939313e+00 230 229 228
4.551573e-01 4.890826e-01 2.930534e+00 188 186 187
4.155169e-01 4.935637e-01 2.957127e+00 135 142 150
4.513644e-01 4.902106e-01 2.929388e+00 230 229 226
4.178226e-01 4.935203e-01 2.953964e+00 146 145 151
4.857134e-01 4.989569e-01 2.923816e+00 170 170 172
4.857134e-01 4.989569e-01 2.923816e+00 170 170 172
3.454416e-01 4.757636e-01 2.952161e+00 68 66 80
4.224554e-01 4.973314e-01 2.952569e+00 124 122 126
4.216900e-01 4.976162e-01 2.951906e+00 162 160 163
4.373549e-01 4.995278e-01 2.943078e+00 183 182 180
3.374077e-01 4.765764e-01 2.936802e+00 45 49 58
3.370772e-01 4.921324e-01 2.946511e+00 90 112 46
4.213681e-01 5.215751e-01 2.963915e+00 221 233 135
3.515398e-01 4.990361e-01 2.953107e+00 44 66 23
3.425749e-01 4.927509e-01 2.942369e+00 69 86 55
4.310288e-01 5.232041e-01 2.957408e+00 28 38 1
3.364271e-01 4.936702e-01 2.942604e+00 89 100 22
3.417291e-01 4.955702e-01 2.940644e+00 124 141 98
3.417291e-01 4.955702e-01 2.940644e+00 124 141 98
4.280612e-01 5.261544e-01 2.959959e+00 199 198 81
3.442797e-01 5.005774e-01 2.949795e+00 92 103 59
3.548858e-01 5.069362e-01 2.957286e+00 108 134 88
3.239880e-01 4.967843e-01 2.913706e+00 53 31 57
3.329741e-01 5.060173e-01 2.929672e+00 35 33 37
3.343711e-01 5.080250e-01 2.934337e+00 121 121 109
4.815222e-01 5.453945e-01 2.904880e+00 116 117 121
3.169447e-01 5.082395e-01 2.914177e+00 139 136 133
3.626863e-01 5.383586e-01 2.976735e+00 106 105 101
3.968780e-01 5.494100e-01 2.970829e+00 69 61 58
3.836893e-01 5.496687e-01 2.983073e+00 129 131 143
3.696324e-01 5.489066e-01 2.976083e+00 102 97 93
3.846907e-01 5.705918e-01 2.973087e+00 133 129 128
3.813401e-01 5.839512e-01 2.965373e+00 45 43 54
3.578434e-01 5.825406e-01 2.963797e+00 76 71 67
3.674569e-01 5.887709e-01 2.962193e+00 148 148 140
4.146997e-01 6.038358e-01 2.952731e+00 80 70 69
3.840167e-01 5.969645e-01 2.954759e+00 67 62 59
3.469920e-01 6.012477e-01 2.960819e+00 150 152 151
4.472443e-01 4.814635e-01 2.956923e+00 199 195 196
4.451973e-01 4.819790e-01 2.958459e+00 211 207 205
4.455413e-01 4.805121e-01 2.955571e+00 161 157 158
4.499714e-01 4.822388e-01 2.955498e+00 137 135 136
4.504085e-01 4.819166e-01 2.954429e+00 203 201 204
4.133546e-01 4.751829e-01 2.959084e+00 117 124 131
4.123775e-01 4.773714e-01 2.962892e+00 81 82 90
4.459947e-01 4.796515e-01 2.950254e+00 157 155 156
4.389510e-01 4.778329e-01 2.949965e+00 182 180 181
4.476812e-01 4.802031e-01 2.948910e+00 156 156 156
4.452642e-01 4.797207e-01 2.948580e+00 163 158 162
4.291922e-01 4.766597e-01 2.950552e+00 92 91 104
4.487715e-01 4.810088e-01 2.948541e+00 150 148 149
4.337841e-01 4.772149e-01 2.948871e+00 109 107 117
4.492046e-01 4.802952e-01 2.946605e+00 211 210 208
4.478385e-01 4.806676e-01 2.947721e+00 168 166 165
4.469449e-01 4.800249e-01 2.946811e+00 156 154 158
4.421061e-01 4.785337e-01 2.946106e+00 205 205 199
4.373454e-01 4.788156e-01 2.948852e+00 107 107 109
4.373454e-01 4.788156e-01 2.948852e+00 107 107 109
4.228001e-01 4.767604e-01 2.951847e+00 84 83 94
4.489848e-01 4.809224e-01 2.946383e+00 165 165 167
4.368232e-01 4.794040e-01 2.949331e+00 117 117 119
4.615593e-01 4.857983e-01 2.946729e+00 131 126 132
4.615593e-01 4.857983e-01 2.946729e+00 131 126 132
4.362038e-01 4.797544e-01 2.948703e+00 123 122 127
4.623206e-01 4.855799e-01 2.945200e+00 158 154 154
4.344010e-01 4.810317e-01 2.946646e+00 191 191 192
4.337336e-01 4.820533e-01 2.947833e+00 191 189 192
4.348189e-01 4.793306e-01 2.942426e+00 135 135 137
4.273321e-01 4.799447e-01 2.945631e+00 122 123 129
3.600618e-01 4.786204e-01 2.975621e+00 87 85 108
4.509403e-01 4.819019e-01 2.935380e+00 224 223 218
4.596979e-01 4.843244e-01 2.935142e+00 108 101 116
4.434547e-01 4.837179e-01 2.935104e+00 224 224 223
4.523454e-01 4.842239e-01 2.930780e+00 223 221 222
4.119437e-01 4.874493e-01 2.957568e+00 92 95 107
4.586672e-01 4.846992e-01 2.927447e+00 134 132 136
4.717224e-01 4.894151e-01 2.928679e+00 141 136 146
4.425941e-01 4.872395e-01 2.939930e+00 207 204 200
4.418926e-01 4.861715e-01 2.935968e+00 175 174 172
4.402592e-01 4.879335e-01 2.940074e+00 221 216 220
4.322327e-01 4.901090e-01 2.946379e+00 205 206 203
4.423217e-01 4.893967e-01 2.938709e+00 224 223 221
4.529512e-01 4.898111e-01 2.930919e+00 183 182 178
4.322820e-01 4.930322e-01 2.946121e+00 161 158 167
4.397175e-01 4.926746e-01 2.940766e+00 158 153 159
4.489526e-01 4.925316e-01 2.934422e+00 226 225 223
4.484481e-01 4.924667e-01 2.934576e+00 223 223 223
4.211387e-01 4.954175e-01 2.952254e+00 189 189 191
3.558600e-01 4.787348e-01 2.951259e+00 128 132 144
3.527284e-01 4.818167e-01 2.958926e+00 76 75 90
4.270392e-01 4.972193e-01 2.948950e+00 184 182 187
4.375391e-01 5.001278e-01 2.945204e+00 182 181 179
4.375391e-01 5.001278e-01 2.945204e+00 182 181 179
3.606138e-01 4.884364e-01 2.958163e+00 77 76 94
4.289855e-01 5.036231e-01 2.950811e+00 193 191 194
4.310501e-01 5.033080e-01 2.948640e+00 196 194 197
4.146146e-01 5.069776e-01 2.962045e+00 206 206 207
3.456621e-01 4.814156e-01 2.941731e+00 56 58 65
4.135171e-01 5.104065e-01 2.964589e+00 29 64 57
4.332022e-01 5.111006e-01 2.951305e+00 126 122 137
4.032402e-01 5.162535e-01 2.973291e+00 54 73 49
3.401999e-01 4.855475e-01 2.938206e+00 58 74 48
3.473710e-01 4.916998e-01 2.947876e+00 8 34 2
4.074056e-01 5.188948e-01 2.973015e+00 59 75 52
3.596169e-01 5.011428e-01 2.960175e+00 14 35 12
3.390929e-01 4.878100e-01 2.939167e+00 22 46 9
3.394819e-01 4.890596e-01 2.940997e+00 86 110 50
4.040587e-01 5.201077e-01 2.975214e+00 130 136 99
4.022948e-01 5.202763e-01 2.976731e+00 86 95 63
3.535345e-01 4.991561e-01 2.955151e+00 14 26 1
3.980264e-01 5.195410e-01 2.977217e+00 49 52 21
3.962745e-01 5.194627e-01 2.978082e+00 34 48 13
3.588536e-01 5.022595e-01 2.959010e+00 106 124 74
3.496056e-01 4.965507e-01 2.950237e+00 32 51 5
4.066325e-01 5.211964e-01 2.974329e+00 142 154 83
3.381412e-01 4.929722e-01 2.947971e+00 69 82 16
3.361794e-01 4.886498e-01 2.938129e+00 128 147 82
4.202786e-01 5.220552e-01 2.965118e+00 60 67 13
4.318929e-01 5.217333e-01 2.954983e+00 69 79 30
4.148706e-01 5.225785e-01 2.969699e+00 147 130 144
4.375627e-01 5.211867e-01 2.949183e+00 76 85 19
3.362880e-01 4.925196e-01 2.944953e+00 57 79 7
3.506466e-01 4.991540e-01 2.952166e+00 120 132 79
3.383882e-01 4.934359e-01 2.945378e+00 63 76 6
3.583284e-01 5.046253e-01 2.960814e+00 76 107 49
4.200862e-01 5.237196e-01 2.966899e+00 50 68 17
4.180373e-01 5.234950e-01 2.967684e+00 187 193 167
4.565075e-01 5.205886e-01 2.929948e+00 189 198 104
3.483022e-01 4.993442e-01 2.949979e+00 130 150 97
3.462827e-01 4.983100e-01 2.948225e+00 25 46 5
3.348959e-01 4.931000e-01 2.941752e+00 60 84 23
3.348959e-01 4.931000e-01 2.941752e+00 60 84 23
4.313443e-01 5.247050e-01 2.957188e+00 161 174 95
3.389037e-01 4.940355e-01 2.936349e+00 81 93 52
3.336379e-01 4.920807e-01 2.931532e+00 108 133 76
3.379533e-01 4.949882e-01 2.935608e+00 37 55 15
3.546273e-01 5.089939e-01 2.957505e+00 121 133 122
3.374682e-01 5.031125e-01 2.930941e+00 135 145 155
3.427177e-01 5.076357e-01 2.939866e+00 37 35 53
3.378115e-01 5.056752e-01 2.933964e+00 137 144 151
3.405327e-01 5.076239e-01 2.937600e+00 84 91 97
3.320721e-01 5.044656e-01 2.931384e+00 61 59 64
3.071754e-01 4.876628e-01 2.889675e+00 87 76 73
3.125625e-01 4.982330e-01 2.908815e+00 95 86 79
3.165527e-01 4.998780e-01 2.905192e+00 96 91 86
3.733598e-01 5.360408e-01 2.979649e+00 57 58 60
3.108045e-01 5.077416e-01 2.907633e+00 131 121 111
3.742579e-01 5.410334e-01 2.977117e+00 62 61 62
3.100563e-01 5.091739e-01 2.906249e+00 118 113 107
3.174681e-01 5.134446e-01 2.915973e+00 128 120 118
3.867372e-01 5.469741e-01 2.983684e+00 87 86 91
3.092521e-01 5.106397e-01 2.905573e+00 124 120 119
3.163624e-01 5.154058e-01 2.914480e+00 104 94 92
3.662056e-01 5.445072e-01 2.978118e+00 86 85 81
3.911791e-01 5.582638e-01 2.976016e+00 118 114 111
3.972627e-01 5.629484e-01 2.972357e+00 63 57 54
4.493933e-01 4.809692e-01 2.950310e+00 152 148 145
4.476683e-01 4.805702e-01 2.947551e+00 161 159 160
4.375481e-01 4.787380e-01 2.948877e+00 162 160 161
4.642465e-01 4.876741e-01 2.948850e+00 141 138 141
4.622584e-01 4.860938e-01 2.945964e+00 203 201 202
4.352084e-01 4.806545e-01 2.948304e+00 151 151 154
4.610704e-01 4.840609e-01 2.939632e+00 164 162 163
4.534285e-01 4.833070e-01 2.936720e+00 169 166 172
4.454576e-01 4.809884e-01 2.935761e+00 202 200 203
4.714438e-01 4.967914e-01 2.950364e+00 155 153 154
4.656688e-01 4.863995e-01 2.933735e+00 213 211 209
4.446244e-01 4.848642e-01 2.937645e+00 215 213 214
3.582351e-01 4.795685e-01 2.971036e+00 135 138 158
4.625022e-01 4.852432e-01 2.926916e+00 160 157 164
4.300543e-01 4.880952e-01 2.943960e+00 194 193 196
4.348089e-01 4.882142e-01 2.941244e+00 218 216 217
4.350255e-01 4.884526e-01 2.941510e+00 212 211 211
4.518225e-01 4.892601e-01 2.929335e+00 171 170 166
4.152082e-01 4.932337e-01 2.956763e+00 127 131 142
4.403373e-01 4.926407e-01 2.940740e+00 209 205 202
4.380190e-01 4.931482e-01 2.942329e+00 238 237 234
4.390877e-01 4.929875e-01 2.941337e+00 229 228 225
4.436289e-01 4.927537e-01 2.938044e+00 232 230 231
4.551631e-01 4.902768e-01 2.926556e+00 190 189 187
4.555442e-01 4.924020e-01 2.929972e+00 224 223 220
4.309910e-01 4.937702e-01 2.946450e+00 150 147 149
4.263540e-01 4.960865e-01 2.949374e+00 225 225 227
4.446543e-01 4.946891e-01 2.935037e+00 167 165 168
4.205458e-01 4.999337e-01 2.956771e+00 210 208 209
3.416655e-01 4.758069e-01 2.949111e+00 89 94 114
4.299450e-01 5.035660e-01 2.949928e+00 185 182 188
4.339885e-01 5.032339e-01 2.946470e+00 173 171 177
4.631036e-01 5.004313e-01 2.920691e+00 193 193 193
4.390611e-01 5.047069e-01 2.942624e+00 199 198 194
4.410982e-01 5.051701e-01 2.942235e+00 195 195 195
4.126900e-01 5.067836e-01 2.962932e+00 187 186 189
4.400673e-01 5.066084e-01 2.943066e+00 191 190 186
3.628328e-01 4.909074e-01 2.954996e+00 102 110 116
3.402119e-01 4.893231e-01 2.948617e+00 15 37 16
3.466086e-01 4.936794e-01 2.952255e+00 16 32 17
4.065562e-01 5.188643e-01 2.973482e+00 26 37 22
3.966061e-01 5.175879e-01 2.976366e+00 73 82 65
3.962512e-01 5.178032e-01 2.977014e+00 87 99 65
3.963254e-01 5.180863e-01 2.977315e+00 18 27 8
4.068638e-01 5.198649e-01 2.973326e+00 136 157 138
4.069079e-01 5.201643e-01 2.973680e+00 46 54 42
3.479130e-01 4.970110e-01 2.954316e+00 65 80 23
3.436322e-01 4.924305e-01 2.945391e+00 66 92 45
4.075497e-01 5.205211e-01 2.973422e+00 52 60 13
4.093008e-01 5.208630e-01 2.972893e+00 66 69 35
4.057902e-01 5.202209e-01 2.973788e+00 90 102 30
4.057902e-01 5.202209e-01 2.973788e+00 90 102 30
4.023186e-01 5.204079e-01 2.976507e+00 52 62 22
4.068107e-01 5.201379e-01 2.972695e+00 90 99 39
3.528353e-01 4.988771e-01 2.954411e+00 16 37 3
4.097401e-01 5.213187e-01 2.972578e+00 159 165 106
4.088978e-01 5.212772e-01 2.972908e+00 174 176 104
4.072274e-01 5.211472e-01 2.973230e+00 73 80 59
4.353843e-01 5.207281e-01 2.951596e+00 76 81 42
3.409195e-01 4.909293e-01 2.940141e+00 111 130 80
3.972613e-01 5.207063e-01 2.977952e+00 121 130 69
4.579007e-01 5.188931e-01 2.927653e+00 124 126 76
3.571994e-01 5.038818e-01 2.959367e+00 22 49 6
3.554993e-01 5.032159e-01 2.958056e+00 94 120 72
4.316079e-01 5.228187e-01 2.955486e+00 175 187 121
3.935140e-01 5.212532e-01 2.979219e+00 75 83 51
3.453264e-01 4.961185e-01 2.945769e+00 79 103 51
4.153245e-01 5.244401e-01 2.971198e+00 205 200 208
4.153245e-01 5.244401e-01 2.971198e+00 205 200 208
4.315991e-01 5.233350e-01 2.955376e+00 69 82 41
3.509420e-01 5.007419e-01 2.952814e+00 125 145 109
4.330234e-01 5.240293e-01 2.954694e+00 203 206 110
4.300890e-01 5.256350e-01 2.958868e+00 164 174 88
3.544246e-01 5.049146e-01 2.956677e+00 41 58 41
3.477703e-01 5.006641e-01 2.947492e+00 111 119 85
3.371643e-01 4.936133e-01 2.935392e+00 145 165 114
3.478157e-01 5.020884e-01 2.948565e+00 92 104 51
3.545210e-01 5.085369e-01 2.956863e+00 23 25 26
3.418667e-01 5.078356e-01 2.939876e+00 47 48 54
3.283779e-01 5.007266e-01 2.924807e+00 120 58 69
3.240799e-01 4.959910e-01 2.912606e+00 176 169 192
3.238309e-01 4.959662e-01 2.912462e+00 167 164 193
3.238309e-01 4.959662e-01 2.912462e+00 167 164 193
3.062835e-01 4.843466e-01 2.889138e+00 165 152 158
3.343483e-01 5.066526e-01 2.933125e+00 120 120 136
3.346924e-01 5.071875e-01 2.933998e+00 46 45 43
3.340146e-01 5.066674e-01 2.930844e+00 118 113 111
3.181512e-01 4.998134e-01 2.915259e+00 147 138 141
3.196256e-01 5.023616e-01 2.916707e+00 99 90 91
3.155262e-01 5.001994e-01 2.911784e+00 158 150 148
3.251072e-01 5.115436e-01 2.923918e+00 157 150 134
3.233050e-01 5.163131e-01 2.923264e+00 138 129 122
3.116059e-01 5.196340e-01 2.908601e+00 184 173 154
3.942674e-01 5.705491e-01 2.970799e+00 98 97 100
3.942674e-01 5.705491e-01 2.970799e+00 98 97 100
4.173384e-01 6.128214e-01 2.949176e+00 124 126 127
3.799567e-01 5.876340e-01 2.962258e+00 38 36 49
3.808581e-01 5.918890e-01 2.962846e+00 43 45 58
3.548543e-01 6.259829e-01 2.945595e+00 18 15 24
3.418273e-01 6.227182e-01 2.946497e+00 12 11 19
3.999308e-01 4.793169e-01 2.970235e+00 64 68 71
3.869601e-01 5.500497e-01 2.979456e+00 94 97 106
3.748011e-01 5.696285e-01 2.976341e+00 40 38 39
3.993006e-01 6.637938e-01 2.935539e+00 120 115 124
3.836950e-01 5.888793e-01 2.957653e+00 126 127 129
4.351508e-01 6.043620e-01 2.947239e+00 110 109 115
3.364452e-01 6.031496e-01 2.958543e+00 41 35 37
3.274553e-01 6.347169e-01 2.948014e+00 255 255 255
3.677835e-01 4.798063e-01 2.973829e+00 64 59 82
3.552851e-01 5.632784e-01 2.974885e+00 12 10 14
4.290994e-01 5.836176e-01 2.963288e+00 93 87 87
3.981362e-01 5.767388e-01 2.973181e+00 28 22 24
3.598618e-01 5.935286e-01 2.961753e+00 140 140 138
3.589964e-01 5.461060e-01 2.986506e+00 60 63 72
3.674502e-01 5.617431e-01 2.979985e+00 12 13 17
3.925732e-01 5.739404e-01 2.974939e+00 48 44 45
4.304236e-01 5.958460e-01 2.956661e+00 129 129 126
3.995425e-01 6.065147e-01 2.956906e+00 146 146 142
3.639351e-01 6.134742e-01 2.958628e+00 84 83 82
4.124616e-01 4.781278e-01 2.966001e+00 64 66 81
3.671614e-01 4.794423e-01 2.976750e+00 67 69 82
4.981689e-01 5.006184e-01 2.904038e+00 105 102 121
3.859194e-01 5.457639e-01 2.984208e+00 97 96 99
3.764881e-01 5.649355e-01 2.978288e+00 99 96 91
3.637959e-01 5.643676e-01 2.979762e+00 115 114 116
4.890076e-01 5.009826e-01 2.931311e+00 162 162 164
3.729950e-01 5.362020e-01 2.978461e+00 85 85 85
3.690554e-01 5.532427e-01 2.977417e+00 33 29 28
3.911171e-01 5.738002e-01 2.973783e+00 54 50 51
4.194438e-01 5.909332e-01 2.962010e+00 128 129 136
3.999647e-01 5.976998e-01 2.959545e+00 56 54 55
3.891922e-01 6.030536e-01 2.956268e+00 134 132 133
4.171498e-01 6.125824e-01 2.948819e+00 100 101 103
4.029680e-01 6.204623e-01 2.947988e+00 41 36 41
3.425395e-01 6.178114e-01 2.949813e+00 96 96 103
3.463199e-01 6.280487e-01 2.945932e+00 61 59 61
3.676928e-01 4.795782e-01 2.976887e+00 149 153 163
3.681590e-01 4.804702e-01 2.974523e+00 48 39 66
3.607205e-01 4.798523e-01 2.974467e+00 53 58 72
4.837531e-01 4.960237e-01 2.932742e+00 166 161 167
4.172248e-01 5.508339e-01 2.975720e+00 27 26 32
4.008358e-01 5.467817e-01 2.970562e+00 81 79 80
3.771473e-01 5.490572e-01 2.977875e+00 25 20 17
3.684757e-01 5.485864e-01 2.974776e+00 23 19 16
4.224250e-01 5.661039e-01 2.970630e+00 43 35 32
3.797021e-01 5.649553e-01 2.979378e+00 26 24 30
3.627887e-01 5.676725e-01 2.975610e+00 17 11 11
3.705324e-01 5.841131e-01 2.963580e+00 121 117 118
4.122209e-01 5.967984e-01 2.954520e+00 94 85 78
3.579905e-01 5.916268e-01 2.961694e+00 118 109 102
3.765815e-01 5.997040e-01 2.958296e+00 83 83 85
3.614606e-01 4.799941e-01 2.973781e+00 50 53 66
3.608228e-01 4.801055e-01 2.974187e+00 55 60 73
4.848844e-01 4.965184e-01 2.933644e+00 199 194 198
4.905752e-01 5.019605e-01 2.925504e+00 215 215 217
4.913828e-01 5.014011e-01 2.923420e+00 176 174 177
4.921884e-01 5.028536e-01 2.919063e+00 177 175 176
4.930520e-01 5.107012e-01 2.908387e+00 100 86 103
4.930520e-01 5.107012e-01 2.908387e+00 100 86 103
3.676889e-01 5.420984e-01 2.975314e+00 36 35 36
3.757216e-01 5.514923e-01 2.978264e+00 42 34 31
3.589037e-01 5.602270e-01 2.978526e+00 96 95 93
3.586811e-01 5.634934e-01 2.976805e+00 84 83 81
3.713149e-01 5.833681e-01 2.964287e+00 60 56 57
3.620142e-01 4.799845e-01 2.973171e+00 51 49 66
3.554048e-01 4.807553e-01 2.974735e+00 75 83 96
3.669390e-01 5.621137e-01 2.980721e+00 198 215 230
4.061155e-01 5.865185e-01 2.960170e+00 180 165 145
3.851900e-01 6.112514e-01 2.952433e+00 167 161 155
4.052980e-01 6.129711e-01 2.949888e+00 122 115 102
3.810461e-01 6.071423e-01 2.954261e+00 159 152 142
3.906287e-01 6.111495e-01 2.952280e+00 139 132 121
4.258847e-01 6.109427e-01 2.950696e+00 195 191 182
4.031028e-01 5.471733e-01 2.976922e+00 135 119 94
3.743735e-01 5.647581e-01 2.970777e+00 117 112 93
3.873391e-01 5.683794e-01 2.967946e+00 149 132 108
4.000750e-01 5.761154e-01 2.963321e+00 57 45 28
3.843229e-01 5.708846e-01 2.964457e+00 47 37 21
3.682760e-01 5.688691e-01 2.970668e+00 41 32 19
4.091369e-01 5.808520e-01 2.960906e+00 167 154 137
4.065675e-01 5.812053e-01 2.959069e+00 145 132 123
3.933990e-01 6.145727e-01 2.950804e+00 160 151 139
3.981630e-01 6.223450e-01 2.947636e+00 161 153 140
4.323444e-01 5.852232e-01 2.959562e+00 94 82 68
4.031500e-01 5.766413e-01 2.962147e+00 59 47 32
3.878338e-01 6.066474e-01 2.954009e+00 255 253 254
3.857229e-01 6.062822e-01 2.954177e+00 94 94 90
3.795343e-01 5.734049e-01 2.966353e+00 171 164 146
4.253577e-01 5.868736e-01 2.959255e+00 93 88 83
4.144785e-01 5.840026e-01 2.960782e+00 75 74 68
3.630430e-01 5.728736e-01 2.970962e+00 71 53 29
3.909199e-01 5.802634e-01 2.962629e+00 46 46 46
3.908867e-01 5.803525e-01 2.962758e+00 46 46 46
3.913970e-01 5.842591e-01 2.961327e+00 181 173 158
3.938242e-01 5.857392e-01 2.960563e+00 188 181 165
3.863518e-01 5.851042e-01 2.961056e+00 60 58 56
3.845137e-01 6.043190e-01 2.954782e+00 162 155 141
3.903682e-01 6.171976e-01 2.949838e+00 70 71 74
3.903682e-01 6.171976e-01 2.949838e+00 70 71 74
3.977663e-01 6.234896e-01 2.947259e+00 163 153 142
4.331836e-01 5.862341e-01 2.958935e+00 115 105 92
3.894080e-01 5.806615e-01 2.962573e+00 154 145 130
3.918436e-01 5.817368e-01 2.962172e+00 150 139 122
3.922432e-01 5.853698e-01 2.960611e+00 55 52 52
3.808305e-01 5.882255e-01 2.962345e+00 51 47 48
4.161990e-01 6.120827e-01 2.951155e+00 164 157 141
4.147617e-01 6.137856e-01 2.950845e+00 149 145 134
4.273293e-01 6.255774e-01 2.946439e+00 252 254 254
3.732623e-01 6.103364e-01 2.953048e+00 251 255 254
3.852835e-01 6.147182e-01 2.950947e+00 254 255 249
3.833860e-01 6.177294e-01 2.950013e+00 76 79 85
3.641214e-01 5.604367e-01 2.975501e+00 122 119 101
3.833509e-01 5.646517e-01 2.970192e+00 159 150 132
3.882093e-01 5.663071e-01 2.969213e+00 162 151 135
3.780561e-01 5.629219e-01 2.969961e+00 184 175 157
3.815141e-01 5.689376e-01 2.967778e+00 162 149 130
3.756716e-01 5.683732e-01 2.968278e+00 56 45 32
3.828489e-01 5.709690e-01 2.966335e+00 141 129 110
3.855534e-01 5.723541e-01 2.964053e+00 110 94 77
3.922323e-01 5.800552e-01 2.962599e+00 141 129 111
3.955108e-01 5.814046e-01 2.961849e+00 51 48 46
3.903779e-01 5.820940e-01 2.962013e+00 41 36 35
3.940133e-01 5.833583e-01 2.961393e+00 176 173 158
3.892581e-01 5.817312e-01 2.961849e+00 177 171 157
3.946942e-01 5.842562e-01 2.960952e+00 58 57 56
4.107602e-01 5.902444e-01 2.958320e+00 157 144 127
3.593113e-01 5.803421e-01 2.971112e+00 55 51 45
3.940985e-01 5.871392e-01 2.959963e+00 41 40 37
3.948684e-01 5.880199e-01 2.959741e+00 159 151 135
3.603539e-01 5.811942e-01 2.969055e+00 102 90 66
3.852588e-01 5.869302e-01 2.962763e+00 177 170 143
3.944307e-01 5.918736e-01 2.960636e+00 168 153 128
3.859844e-01 6.043698e-01 2.954517e+00 165 161 149
3.527127e-01 6.077170e-01 2.954445e+00 146 143 126
3.528825e-01 6.078890e-01 2.954475e+00 146 143 126
4.231526e-01 6.327874e-01 2.943898e+00 135 145 147
3.974486e-01 5.402873e-01 2.984166e+00 79 61 47
3.963211e-01 5.400031e-01 2.984475e+00 87 67 53
3.987131e-01 5.399382e-01 2.978953e+00 113 103 77
3.876942e-01 5.463495e-01 2.978599e+00 157 151 133
4.063807e-01 5.623824e-01 2.968130e+00 103 87 63
3.625579e-01 5.648186e-01 2.976761e+00 81 58 40
3.715320e-01 5.662951e-01 2.971816e+00 50 29 16
3.746726e-01 5.688830e-01 2.968436e+00 130 119 97
4.178777e-01 5.798059e-01 2.960124e+00 163 145 123
4.099828e-01 5.770041e-01 2.960337e+00 146 131 113
3.706379e-01 5.685755e-01 2.969671e+00 38 26 17
3.820257e-01 5.713599e-01 2.966894e+00 50 35 22
3.938406e-01 5.731696e-01 2.962480e+00 54 39 28
3.875501e-01 5.715893e-01 2.963778e+00 43 33 24
4.031498e-01 5.795700e-01 2.966034e+00 105 92 73
3.789073e-01 5.744905e-01 2.965470e+00 167 155 137
3.768081e-01 5.747691e-01 2.964304e+00 82 74 53
3.899047e-01 5.793248e-01 2.963020e+00 156 142 130
3.711862e-01 5.749027e-01 2.967012e+00 150 138 115
3.627287e-01 5.745341e-01 2.970007e+00 111 103 89
3.945998e-01 5.818004e-01 2.961792e+00 165 157 141
3.901774e-01 5.837388e-01 2.961529e+00 62 56 54
4.389031e-01 5.979563e-01 2.955384e+00 255 255 254
4.044512e-01 5.882404e-01 2.959324e+00 97 80 59
3.888905e-01 5.857003e-01 2.960787e+00 31 32 24
3.754887e-01 5.818782e-01 2.961329e+00 175 168 152
3.555633e-01 5.883049e-01 2.962659e+00 128 124 105
4.218326e-01 6.144557e-01 2.950258e+00 152 145 134
3.842910e-01 6.053250e-01 2.954264e+00 162 157 148
3.842910e-01 6.053250e-01 2.954264e+00 162 157 148
3.843018e-01 6.077798e-01 2.953657e+00 94 97 90
4.120583e-01 6.160753e-01 2.949843e+00 155 149 139
4.067271e-01 6.146000e-01 2.950499e+00 72 70 67
4.060108e-01 6.162439e-01 2.949899e+00 69 64 62
4.244717e-01 6.259386e-01 2.946284e+00 124 127 126
3.723213e-01 6.106607e-01 2.952775e+00 87 70 65
3.827470e-01 6.145314e-01 2.951062e+00 252 250 252
3.724973e-01 6.122827e-01 2.952255e+00 252 252 254
3.724973e-01 6.122827e-01 2.952255e+00 252 252 254
3.511149e-01 6.112249e-01 2.951330e+00 131 123 102
3.957579e-01 5.443015e-01 2.979430e+00 44 33 24
3.955012e-01 5.447902e-01 2.979115e+00 117 106 84
3.953999e-01 5.511722e-01 2.977462e+00 85 66 44
4.015298e-01 5.536386e-01 2.972985e+00 90 73 47
3.743813e-01 5.697617e-01 2.968509e+00 42 26 19
4.263737e-01 5.851353e-01 2.959511e+00 187 180 167
4.241779e-01 5.858148e-01 2.959424e+00 86 81 73
4.231561e-01 5.854721e-01 2.959461e+00 90 80 74
4.221721e-01 5.852392e-01 2.959541e+00 91 80 71
4.146326e-01 5.830245e-01 2.960338e+00 78 76 69
3.689333e-01 5.716465e-01 2.968633e+00 64 57 50
3.670090e-01 5.716830e-01 2.968723e+00 132 127 114
4.069079e-01 5.812686e-01 2.959552e+00 102 84 70
3.929637e-01 5.834631e-01 2.961514e+00 44 36 29
3.929637e-01 5.834631e-01 2.961514e+00 44 36 29
3.903286e-01 5.830583e-01 2.961780e+00 179 173 161
3.903286e-01 5.830583e-01 2.961780e+00 179 173 161
3.884283e-01 5.841058e-01 2.961423e+00 162 155 143
4.046169e-01 5.893509e-01 2.958634e+00 82 70 53
3.874395e-01 5.847720e-01 2.961238e+00 165 148 132
3.949438e-01 5.872662e-01 2.959980e+00 165 159 141
3.914321e-01 5.880474e-01 2.959912e+00 165 158 141
3.881665e-01 5.908719e-01 2.961025e+00 51 46 41
4.291626e-01 6.062172e-01 2.952792e+00 118 113 107
4.284301e-01 6.144319e-01 2.950069e+00 184 181 175
4.161587e-01 6.130727e-01 2.950831e+00 76 70 70
4.161587e-01 6.130727e-01 2.950831e+00 76 70 70
4.139562e-01 6.125285e-01 2.951036e+00 77 69 67
4.079489e-01 6.110099e-01 2.951642e+00 86 78 73
3.817162e-01 6.047200e-01 2.954786e+00 158 154 150
3.817162e-01 6.047200e-01 2.954786e+00 158 154 150
4.022540e-01 6.107885e-01 2.951860e+00 179 170 159
4.235613e-01 6.277043e-01 2.945838e+00 178 177 174
4.245598e-01 6.283404e-01 2.945628e+00 167 168 167
3.490329e-01 6.066347e-01 2.954879e+00 45 27 19
3.968403e-01 6.210729e-01 2.948468e+00 173 166 152
4.259793e-01 6.302800e-01 2.944752e+00 253 253 251
3.940753e-01 6.216849e-01 2.948235e+00 117 112 98
3.989652e-01 6.240626e-01 2.947379e+00 103 96 92
4.207188e-01 6.362684e-01 2.942592e+00 251 251 253
4.207188e-01 6.362684e-01 2.942592e+00 251 251 253
3.697450e-01 5.416419e-01 2.984603e+00 121 108 84
3.697450e-01 5.416419e-01 2.984603e+00 121 108 84
3.681498e-01 5.434299e-01 2.983657e+00 136 121 100
3.832901e-01 5.661274e-01 2.968881e+00 142 136 118
4.137109e-01 5.827369e-01 2.960526e+00 97 86 78
3.645838e-01 5.718128e-01 2.969052e+00 91 76 58
4.098730e-01 5.837992e-01 2.960296e+00 163 146 128
3.615364e-01 5.749528e-01 2.967984e+00 151 149 127
3.780252e-01 5.796105e-01 2.964050e+00 147 136 113
3.992951e-01 5.867776e-01 2.959910e+00 59 46 31
3.726657e-01 5.812991e-01 2.964067e+00 158 138 120
4.104448e-01 5.918004e-01 2.957756e+00 134 126 107
3.911352e-01 5.872929e-01 2.960166e+00 172 165 149
3.901727e-01 5.871683e-01 2.960241e+00 150 138 125
4.310140e-01 6.054850e-01 2.953223e+00 133 127 120
4.309217e-01 6.053733e-01 2.953041e+00 133 127 120
4.305857e-01 6.129651e-01 2.950665e+00 147 144 139
3.983462e-01 6.081050e-01 2.952820e+00 75 75 67
3.884594e-01 6.053231e-01 2.954251e+00 153 162 154
4.178640e-01 6.149849e-01 2.950129e+00 72 72 72
4.178640e-01 6.149849e-01 2.950129e+00 72 72 72
3.712120e-01 6.020763e-01 2.956124e+00 179 178 166
4.052810e-01 6.197148e-01 2.948812e+00 59 55 54
4.249228e-01 6.278213e-01 2.945665e+00 134 136 138
4.249228e-01 6.278213e-01 2.945665e+00 134 136 138
3.875930e-01 6.169814e-01 2.950170e+00 83 84 85
3.824549e-01 6.158510e-01 2.950685e+00 77 77 80
3.818386e-01 6.167520e-01 2.950260e+00 81 85 86
4.167137e-01 6.312996e-01 2.943892e+00 182 182 175
3.673502e-01 6.169458e-01 2.950595e+00 67 67 63
3.921496e-01 6.260094e-01 2.946682e+00 108 100 94
4.214135e-01 6.361942e-01 2.942636e+00 157 163 165
3.862413e-01 5.474868e-01 2.978594e+00 115 109 88
3.753920e-01 5.508967e-01 2.978215e+00 117 105 81
3.683009e-01 5.501269e-01 2.979570e+00 100 90 64
3.653094e-01 5.549722e-01 2.978732e+00 109 99 74
3.773949e-01 5.629132e-01 2.971149e+00 76 60 48
