ply
format ascii 1.0
element face 0
property list uchar int vertex_indices
element vertex 970
property float x
property float y
property float z
property uchar diffuse_red
property uchar diffuse_green
property uchar diffuse_blue
end_header
3.782750e-01 5.058282e-01 3.125320e+00 45 46 62
3.548917e-01 5.362407e-01 3.117336e+00 132 129 140
3.548917e-01 5.362407e-01 3.117336e+00 132 129 140
3.505394e-01 5.420737e-01 3.115275e+00 47 49 72
4.180620e-01 4.570289e-01 3.130149e+00 105 112 151
3.532594e-01 5.388890e-01 3.116560e+00 41 32 53
4.384245e-01 4.329801e-01 3.128918e+00 59 60 78
3.652433e-01 5.238765e-01 3.121327e+00 105 100 107
4.215965e-01 4.534848e-01 3.130169e+00 191 190 207
4.310366e-01 4.429112e-01 3.129837e+00 128 134 146
4.294030e-01 4.456045e-01 3.130048e+00 88 87 102
3.918910e-01 4.918401e-01 3.127857e+00 130 129 134
3.612314e-01 5.309701e-01 3.119868e+00 170 177 195
4.014844e-01 4.804249e-01 3.129565e+00 91 87 93
3.750700e-01 5.135885e-01 3.124359e+00 91 80 85
3.639676e-01 5.284188e-01 3.120722e+00 146 137 142
3.897526e-01 4.970443e-01 3.127764e+00 69 62 69
3.796164e-01 5.097881e-01 3.125519e+00 43 42 60
4.122623e-01 4.697908e-01 3.130468e+00 71 64 71
4.038528e-01 4.800264e-01 3.129752e+00 58 55 76
4.036423e-01 4.809497e-01 3.129790e+00 127 124 134
3.594647e-01 5.375137e-01 3.118998e+00 36 32 49
4.415618e-01 4.369144e-01 3.130194e+00 71 74 83
3.813268e-01 5.111056e-01 3.125764e+00 34 34 48
3.813268e-01 5.111056e-01 3.125764e+00 34 34 48
3.497457e-01 5.531440e-01 3.114857e+00 118 121 129
3.497457e-01 5.531440e-01 3.114857e+00 118 121 129
3.558575e-01 5.460281e-01 3.117455e+00 50 40 51
3.507235e-01 5.529316e-01 3.115390e+00 35 35 45
4.393296e-01 4.429326e-01 3.131018e+00 133 135 150
4.385812e-01 4.465563e-01 3.131455e+00 162 168 180
4.089434e-01 4.896441e-01 3.130236e+00 143 138 142
4.188986e-01 4.803544e-01 3.131239e+00 143 132 138
4.020088e-01 5.028163e-01 3.130850e+00 147 141 141
4.022480e-01 5.107967e-01 3.128688e+00 152 142 141
4.371574e-01 4.739965e-01 3.133114e+00 94 90 91
4.179466e-01 5.033222e-01 3.129973e+00 130 121 122
3.597488e-01 4.386729e-01 3.116912e+00 183 161 166
3.519201e-01 4.506088e-01 3.116281e+00 189 13 56
3.519201e-01 4.506088e-01 3.116281e+00 189 13 56
3.602923e-01 4.411351e-01 3.117515e+00 187 160 151
3.528736e-01 4.504960e-01 3.116677e+00 170 153 166
3.645112e-01 4.369142e-01 3.117794e+00 226 34 59
3.536023e-01 4.520571e-01 3.117111e+00 187 13 35
3.497213e-01 4.568776e-01 3.116359e+00 226 34 66
3.655331e-01 4.378108e-01 3.118113e+00 166 94 88
3.480319e-01 4.600119e-01 3.116035e+00 253 229 194
3.675548e-01 4.364058e-01 3.118481e+00 177 27 47
3.603111e-01 4.453630e-01 3.118032e+00 158 89 88
3.591669e-01 4.469337e-01 3.117954e+00 159 103 95
3.508471e-01 4.575391e-01 3.116685e+00 152 112 86
3.653641e-01 4.396980e-01 3.118535e+00 197 9 42
3.644137e-01 4.408137e-01 3.118382e+00 212 13 27
3.696893e-01 4.345894e-01 3.118650e+00 196 20 47
3.687679e-01 4.357941e-01 3.118676e+00 201 17 48
3.579902e-01 4.489697e-01 3.117927e+00 136 79 72
3.566549e-01 4.506877e-01 3.117711e+00 153 88 86
3.534836e-01 4.546794e-01 3.117284e+00 168 21 43
3.677576e-01 4.373326e-01 3.118600e+00 241 189 141
3.557701e-01 4.522102e-01 3.117694e+00 159 129 139
3.695718e-01 4.354978e-01 3.118718e+00 254 199 180
3.695718e-01 4.354978e-01 3.118718e+00 254 199 180
3.502400e-01 4.600383e-01 3.116896e+00 247 194 169
3.719977e-01 4.336207e-01 3.118821e+00 230 26 53
3.698045e-01 4.365916e-01 3.118931e+00 131 80 67
3.727006e-01 4.332242e-01 3.118965e+00 254 221 185
3.727006e-01 4.332242e-01 3.118965e+00 254 221 185
3.716260e-01 4.344427e-01 3.118801e+00 154 134 146
3.653205e-01 4.424424e-01 3.118855e+00 169 22 40
3.488394e-01 4.639931e-01 3.116543e+00 255 229 202
3.729389e-01 4.344374e-01 3.119156e+00 158 110 97
3.674040e-01 4.413779e-01 3.119244e+00 154 74 61
3.505183e-01 4.623543e-01 3.117039e+00 167 16 42
3.477872e-01 4.658484e-01 3.116322e+00 192 10 33
3.514931e-01 4.613111e-01 3.117298e+00 146 76 68
3.728306e-01 4.355081e-01 3.119388e+00 174 163 177
3.608499e-01 4.510685e-01 3.119055e+00 186 22 39
3.552092e-01 4.580642e-01 3.118183e+00 191 20 35
3.558894e-01 4.577768e-01 3.118398e+00 253 205 177
3.558894e-01 4.577768e-01 3.118398e+00 253 205 177
3.517496e-01 4.645469e-01 3.117510e+00 133 88 59
3.517496e-01 4.645469e-01 3.117510e+00 133 88 59
3.752276e-01 4.357314e-01 3.119990e+00 134 83 82
3.496224e-01 4.675304e-01 3.116932e+00 131 81 64
3.496224e-01 4.675304e-01 3.116932e+00 131 81 64
3.740023e-01 4.378268e-01 3.120054e+00 122 95 88
3.518822e-01 4.653761e-01 3.117619e+00 250 225 195
3.712500e-01 4.416821e-01 3.120132e+00 135 86 76
3.574174e-01 4.607041e-01 3.119282e+00 223 26 53
3.574560e-01 4.607014e-01 3.119102e+00 223 26 53
3.700031e-01 4.454560e-01 3.120413e+00 145 108 84
3.468918e-01 4.744644e-01 3.116236e+00 187 19 34
3.722383e-01 4.431503e-01 3.120765e+00 181 169 183
3.495053e-01 4.714957e-01 3.117222e+00 171 11 29
3.495053e-01 4.714957e-01 3.117222e+00 171 11 29
3.674114e-01 4.494960e-01 3.120440e+00 119 88 85
3.631810e-01 4.551734e-01 3.120090e+00 151 94 80
3.671738e-01 4.504392e-01 3.120532e+00 168 157 172
3.671738e-01 4.504392e-01 3.120532e+00 168 157 172
3.640493e-01 4.542200e-01 3.120211e+00 140 100 82
3.593836e-01 4.601017e-01 3.119532e+00 168 106 92
3.610711e-01 4.581261e-01 3.119794e+00 130 90 80
3.655886e-01 4.527846e-01 3.120370e+00 180 175 180
3.573889e-01 4.632218e-01 3.119210e+00 170 171 175
3.573889e-01 4.632218e-01 3.119210e+00 170 171 175
3.944153e-01 4.192992e-01 3.119250e+00 139 138 146
3.884977e-01 4.355281e-01 3.122333e+00 100 97 90
3.374576e-01 5.019999e-01 3.111847e+00 71 78 71
4.148731e-01 4.076874e-01 3.118554e+00 88 104 78
4.025789e-01 4.220827e-01 3.121191e+00 100 111 81
3.667310e-01 4.654137e-01 3.122011e+00 153 151 140
3.707651e-01 4.613384e-01 3.122712e+00 92 83 80
3.667786e-01 4.662518e-01 3.122080e+00 77 79 68
4.029216e-01 4.232102e-01 3.121587e+00 59 74 51
3.591752e-01 4.790001e-01 3.120416e+00 63 69 35
3.504580e-01 4.907593e-01 3.117520e+00 107 117 83
3.945618e-01 4.360272e-01 3.123444e+00 127 142 109
3.720357e-01 4.641875e-01 3.123225e+00 73 77 50
3.862930e-01 4.475751e-01 3.124217e+00 214 214 219
4.072341e-01 4.230264e-01 3.122178e+00 112 128 79
3.632268e-01 4.765688e-01 3.121600e+00 104 112 62
3.632268e-01 4.765688e-01 3.121600e+00 104 112 62
3.689358e-01 4.708234e-01 3.122956e+00 59 62 40
4.046819e-01 4.279279e-01 3.123115e+00 108 120 80
4.046819e-01 4.279279e-01 3.123115e+00 108 120 80
3.542833e-01 4.900874e-01 3.118907e+00 89 102 74
4.110382e-01 4.211737e-01 3.122165e+00 51 70 40
3.963185e-01 4.388580e-01 3.124355e+00 55 53 58
4.195224e-01 4.121867e-01 3.120680e+00 106 123 90
3.901285e-01 4.468441e-01 3.124816e+00 53 50 57
3.873239e-01 4.506141e-01 3.124829e+00 68 66 69
3.681824e-01 4.742727e-01 3.122862e+00 64 78 29
4.077892e-01 4.267490e-01 3.123222e+00 102 115 97
4.069354e-01 4.286930e-01 3.123593e+00 63 69 56
4.192835e-01 4.145906e-01 3.121358e+00 39 52 22
3.825233e-01 4.581831e-01 3.124985e+00 124 136 110
4.201876e-01 4.145169e-01 3.121440e+00 87 95 59
3.495555e-01 5.013425e-01 3.116864e+00 61 75 47
3.383237e-01 5.167246e-01 3.111284e+00 85 91 79
3.810776e-01 4.618735e-01 3.125056e+00 116 127 109
4.063640e-01 4.317060e-01 3.124194e+00 63 67 40
3.804753e-01 4.629374e-01 3.124942e+00 115 123 110
3.724638e-01 4.733946e-01 3.123928e+00 112 124 100
3.479892e-01 5.049556e-01 3.116082e+00 151 154 135
3.479892e-01 5.049556e-01 3.116082e+00 151 154 135
3.515551e-01 5.005235e-01 3.117681e+00 119 134 113
4.063204e-01 4.329095e-01 3.124529e+00 39 43 18
3.975012e-01 4.435088e-01 3.125470e+00 95 92 99
4.208211e-01 4.163899e-01 3.122120e+00 49 54 23
4.172533e-01 4.205205e-01 3.122805e+00 50 60 26
3.370474e-01 5.210043e-01 3.110565e+00 32 49 14
3.776902e-01 4.684437e-01 3.124907e+00 44 61 19
3.724679e-01 4.751043e-01 3.124021e+00 53 71 31
4.233024e-01 4.143532e-01 3.121907e+00 51 62 22
3.757000e-01 4.712556e-01 3.124572e+00 60 76 38
3.757000e-01 4.712556e-01 3.124572e+00 60 76 38
3.404255e-01 5.177262e-01 3.112244e+00 91 120 89
3.876411e-01 4.575557e-01 3.125826e+00 184 184 186
3.835531e-01 4.628178e-01 3.125611e+00 40 54 28
3.835531e-01 4.628178e-01 3.125611e+00 40 54 28
3.974205e-01 4.462682e-01 3.125918e+00 122 124 138
3.784979e-01 4.694941e-01 3.125162e+00 48 54 20
3.759455e-01 4.727248e-01 3.124730e+00 119 138 92
3.935042e-01 4.511751e-01 3.126013e+00 129 127 141
3.436990e-01 5.156160e-01 3.113783e+00 36 66 16
3.427497e-01 5.169675e-01 3.113284e+00 26 55 7
3.830123e-01 4.654767e-01 3.125675e+00 37 50 20
3.650330e-01 4.882697e-01 3.122368e+00 39 65 17
3.507801e-01 5.068436e-01 3.117018e+00 121 143 86
3.757998e-01 4.753855e-01 3.124831e+00 57 81 31
4.235038e-01 4.181937e-01 3.123068e+00 101 120 74
3.704045e-01 4.825001e-01 3.123657e+00 47 68 12
3.529696e-01 5.050673e-01 3.118033e+00 49 75 27
3.846342e-01 4.655363e-01 3.126077e+00 42 57 18
4.129343e-01 4.320961e-01 3.125227e+00 48 72 25
3.835202e-01 4.686949e-01 3.126078e+00 84 104 59
3.575739e-01 5.019282e-01 3.119596e+00 52 70 22
4.227983e-01 4.224814e-01 3.124155e+00 89 107 66
3.565254e-01 5.041397e-01 3.119271e+00 108 128 65
3.386389e-01 5.279595e-01 3.110804e+00 109 137 88
3.970266e-01 4.540334e-01 3.127073e+00 164 180 176
4.269501e-01 4.200221e-01 3.124000e+00 43 63 38
4.269501e-01 4.200221e-01 3.124000e+00 43 63 38
4.115432e-01 4.380659e-01 3.126386e+00 137 161 110
3.937403e-01 4.594689e-01 3.127099e+00 59 77 52
4.211397e-01 4.269642e-01 3.125079e+00 72 95 67
4.121654e-01 4.374686e-01 3.126365e+00 41 67 20
3.995729e-01 4.527832e-01 3.127233e+00 105 127 81
3.667653e-01 4.936009e-01 3.122763e+00 110 126 78
3.616152e-01 5.002715e-01 3.121060e+00 120 145 90
4.142070e-01 4.356953e-01 3.126208e+00 103 120 83
3.985734e-01 4.542797e-01 3.127209e+00 112 138 93
3.649245e-01 4.975653e-01 3.122053e+00 26 47 14
3.637802e-01 4.989755e-01 3.121766e+00 116 134 88
3.602012e-01 5.036039e-01 3.120544e+00 81 106 67
3.602012e-01 5.036039e-01 3.120544e+00 81 106 67
4.253638e-01 4.239223e-01 3.124859e+00 26 49 23
3.968614e-01 4.578699e-01 3.127460e+00 103 127 91
3.622431e-01 5.013812e-01 3.121180e+00 24 49 15
3.622431e-01 5.013812e-01 3.121180e+00 24 49 15
3.560864e-01 5.095924e-01 3.118872e+00 93 121 73
4.123840e-01 4.398456e-01 3.126824e+00 28 51 28
3.510392e-01 5.166298e-01 3.116691e+00 65 88 36
4.182066e-01 4.330479e-01 3.126140e+00 29 44 24
4.073698e-01 4.458511e-01 3.127257e+00 35 55 43
4.255418e-01 4.246882e-01 3.125069e+00 75 98 70
4.255769e-01 4.246620e-01 3.125094e+00 75 98 70
4.247114e-01 4.263588e-01 3.125383e+00 26 45 25
3.820038e-01 4.778013e-01 3.126269e+00 35 61 14
3.806501e-01 4.797677e-01 3.126043e+00 33 53 26
3.701280e-01 4.931996e-01 3.123520e+00 81 110 66
4.086842e-01 4.456240e-01 3.127394e+00 32 44 34
3.827718e-01 4.772011e-01 3.126389e+00 73 95 59
3.616599e-01 5.044972e-01 3.120823e+00 19 36 18
3.735536e-01 4.892671e-01 3.124577e+00 34 53 31
4.011646e-01 4.554581e-01 3.127831e+00 88 103 82
3.598749e-01 5.073488e-01 3.120287e+00 21 39 16
3.430150e-01 5.297111e-01 3.112679e+00 140 161 104
3.797094e-01 4.821911e-01 3.125815e+00 78 101 81
3.754519e-01 4.876625e-01 3.124979e+00 16 37 20
3.754519e-01 4.876625e-01 3.124979e+00 16 37 20
4.228623e-01 4.311324e-01 3.126338e+00 91 114 68
3.846049e-01 4.778109e-01 3.126780e+00 84 106 66
3.858396e-01 4.765497e-01 3.126961e+00 21 36 10
4.081717e-01 4.497864e-01 3.128017e+00 91 117 80
3.627699e-01 5.065886e-01 3.121028e+00 92 120 79
3.647444e-01 5.045960e-01 3.121835e+00 39 68 21
3.682385e-01 5.001827e-01 3.123000e+00 23 48 8
3.682385e-01 5.001827e-01 3.123000e+00 23 48 8
3.674042e-01 5.021194e-01 3.122744e+00 35 57 20
3.556917e-01 5.174091e-01 3.118447e+00 122 147 92
3.496951e-01 5.254711e-01 3.115796e+00 72 93 75
4.108688e-01 4.490588e-01 3.128233e+00 45 71 23
3.722042e-01 4.983898e-01 3.124120e+00 106 131 83
3.963614e-01 4.683584e-01 3.128325e+00 26 49 6
3.502272e-01 5.273886e-01 3.115760e+00 128 142 169
3.653639e-01 5.077050e-01 3.121968e+00 37 66 16
3.617055e-01 5.123731e-01 3.120506e+00 62 90 42
3.895031e-01 4.772363e-01 3.127637e+00 25 52 2
3.895031e-01 4.772363e-01 3.127637e+00 25 52 2
3.913747e-01 4.752705e-01 3.127851e+00 43 69 22
4.382794e-01 4.191646e-01 3.125461e+00 17 107 171
4.125886e-01 4.508036e-01 3.128727e+00 144 159 103
3.430521e-01 5.392066e-01 3.112242e+00 19 28 56
4.287791e-01 4.319705e-01 3.127278e+00 20 32 23
4.224809e-01 4.393696e-01 3.128129e+00 101 127 82
3.810233e-01 4.901795e-01 3.126142e+00 133 157 98
3.602982e-01 5.168482e-01 3.119988e+00 138 146 148
4.319921e-01 4.287983e-01 3.127016e+00 17 19 32
4.276562e-01 4.341589e-01 3.127684e+00 15 38 25
4.165509e-01 4.473303e-01 3.128640e+00 85 105 71
4.165509e-01 4.473303e-01 3.128640e+00 85 105 71
4.328170e-01 4.283845e-01 3.127179e+00 97 93 122
4.328170e-01 4.283845e-01 3.127179e+00 97 93 122
3.828452e-01 4.895052e-01 3.126584e+00 92 119 66
3.472918e-01 5.359192e-01 3.114205e+00 24 26 43
3.759215e-01 4.993600e-01 3.124938e+00 130 147 157
3.545021e-01 5.272406e-01 3.117419e+00 20 21 42
4.396232e-01 4.219520e-01 3.126436e+00 41 46 76
4.065069e-01 4.613814e-01 3.129197e+00 160 155 136
4.065069e-01 4.613814e-01 3.129197e+00 160 155 136
4.039659e-01 4.645402e-01 3.129091e+00 58 66 57
4.021819e-01 4.666001e-01 3.129077e+00 56 66 58
3.823739e-01 4.913555e-01 3.126389e+00 134 148 160
3.892499e-01 4.829563e-01 3.127742e+00 35 44 28
4.391043e-01 4.230215e-01 3.126560e+00 40 51 74
4.382642e-01 4.239962e-01 3.126707e+00 23 33 55
4.382642e-01 4.239962e-01 3.126707e+00 23 33 55
4.278609e-01 4.362855e-01 3.128187e+00 22 21 29
4.257902e-01 4.387765e-01 3.128379e+00 97 101 113
4.105846e-01 4.568939e-01 3.129256e+00 47 53 62
3.899819e-01 4.823030e-01 3.127800e+00 148 158 157
3.877965e-01 4.848605e-01 3.127596e+00 138 148 158
3.524672e-01 5.309290e-01 3.116483e+00 134 128 146
4.002192e-01 4.704454e-01 3.129028e+00 49 59 75
4.002192e-01 4.704454e-01 3.129028e+00 49 59 75
3.547758e-01 5.283748e-01 3.117442e+00 121 123 144
3.530435e-01 5.305464e-01 3.116754e+00 62 64 85
3.518853e-01 5.322084e-01 3.116025e+00 122 122 132
4.272186e-01 4.379879e-01 3.128398e+00 21 32 50
3.662824e-01 5.134723e-01 3.122024e+00 123 111 125
3.662824e-01 5.134723e-01 3.122024e+00 123 111 125
4.010002e-01 4.700987e-01 3.128976e+00 127 138 160
3.603632e-01 5.216794e-01 3.119844e+00 125 126 138
3.997173e-01 4.721146e-01 3.128994e+00 131 139 162
3.997173e-01 4.721146e-01 3.128994e+00 131 139 162
4.354317e-01 4.293233e-01 3.127809e+00 32 24 37
3.645137e-01 5.169391e-01 3.121360e+00 17 25 46
4.321326e-01 4.335571e-01 3.128036e+00 59 13 41
4.379545e-01 4.268879e-01 3.127371e+00 145 142 149
4.047895e-01 4.666405e-01 3.129395e+00 89 93 106
4.047895e-01 4.666405e-01 3.129395e+00 89 93 106
3.699832e-01 5.104207e-01 3.123183e+00 28 21 36
4.307870e-01 4.358116e-01 3.128536e+00 79 65 90
4.307870e-01 4.358116e-01 3.128536e+00 79 65 90
4.314791e-01 4.351530e-01 3.128398e+00 46 16 43
4.277822e-01 4.400039e-01 3.128786e+00 198 204 226
4.271123e-01 4.407056e-01 3.128914e+00 40 47 67
3.668324e-01 5.153109e-01 3.122192e+00 117 130 146
4.405644e-01 4.251984e-01 3.127387e+00 84 97 80
3.669822e-01 5.161982e-01 3.122137e+00 19 31 55
3.707033e-01 5.120168e-01 3.123307e+00 122 123 143
3.541263e-01 5.336059e-01 3.117096e+00 67 62 85
3.517449e-01 5.367490e-01 3.116089e+00 29 20 44
4.009386e-01 4.740910e-01 3.129321e+00 121 129 142
4.009386e-01 4.740910e-01 3.129321e+00 121 129 142
3.901558e-01 4.876232e-01 3.127935e+00 122 130 153
4.285468e-01 4.412251e-01 3.129292e+00 27 33 52
4.341416e-01 4.349864e-01 3.128749e+00 142 128 137
3.529907e-01 5.362183e-01 3.116602e+00 144 124 144
3.453253e-01 5.463471e-01 3.112981e+00 149 130 139
3.453253e-01 5.463471e-01 3.112981e+00 149 130 139
4.175258e-01 4.549898e-01 3.129822e+00 33 31 53
4.092665e-01 4.649792e-01 3.129887e+00 45 51 75
3.460522e-01 5.455864e-01 3.113378e+00 40 19 38
4.088774e-01 4.656891e-01 3.129861e+00 224 231 250
4.088774e-01 4.656891e-01 3.129861e+00 224 231 250
3.724372e-01 5.115078e-01 3.123954e+00 33 25 49
4.326618e-01 4.375220e-01 3.129082e+00 37 30 50
4.326618e-01 4.375220e-01 3.129082e+00 37 30 50
3.469567e-01 5.456203e-01 3.113806e+00 134 116 130
3.469567e-01 5.456203e-01 3.113806e+00 134 116 130
4.179639e-01 4.556564e-01 3.130044e+00 35 38 74
4.117009e-01 4.637221e-01 3.130049e+00 211 211 223
4.117009e-01 4.637221e-01 3.130049e+00 211 211 223
4.094657e-01 4.662889e-01 3.129948e+00 35 34 52
3.766935e-01 5.074898e-01 3.124940e+00 31 36 55
3.846904e-01 4.976127e-01 3.126855e+00 59 17 57
3.846904e-01 4.976127e-01 3.126855e+00 59 17 57
4.124954e-01 4.633635e-01 3.130087e+00 65 65 75
4.413772e-01 4.288852e-01 3.128521e+00 90 90 116
4.005098e-01 4.783730e-01 3.129338e+00 47 53 69
3.739472e-01 5.118910e-01 3.124129e+00 80 66 79
3.689970e-01 5.182440e-01 3.122573e+00 114 120 138
3.689970e-01 5.182440e-01 3.122573e+00 114 120 138
4.407358e-01 4.303272e-01 3.128714e+00 167 156 173
4.225729e-01 4.518951e-01 3.130111e+00 57 73 99
4.190695e-01 4.562177e-01 3.130219e+00 81 113 165
3.598757e-01 5.306633e-01 3.119238e+00 133 115 137
3.598757e-01 5.306633e-01 3.119238e+00 133 115 137
3.941887e-01 4.875695e-01 3.128583e+00 226 224 235
3.550299e-01 5.378339e-01 3.117286e+00 155 154 170
3.739522e-01 5.136472e-01 3.124038e+00 121 111 120
3.633725e-01 5.273085e-01 3.120630e+00 34 25 41
3.602424e-01 5.314692e-01 3.119395e+00 91 91 105
4.307026e-01 4.437376e-01 3.129848e+00 66 72 84
4.100550e-01 4.687662e-01 3.130107e+00 150 143 151
3.620807e-01 5.293123e-01 3.120112e+00 79 78 96
3.940031e-01 4.888133e-01 3.128531e+00 49 45 59
3.646932e-01 5.261232e-01 3.121025e+00 37 29 42
3.928084e-01 4.906921e-01 3.128239e+00 128 126 131
3.784278e-01 5.089148e-01 3.125299e+00 48 47 61
3.740935e-01 5.146463e-01 3.124126e+00 55 48 55
3.577122e-01 5.362090e-01 3.118332e+00 31 26 48
4.216846e-01 4.566205e-01 3.130558e+00 166 160 172
4.170507e-01 4.642068e-01 3.130642e+00 77 60 66
3.782889e-01 5.124871e-01 3.125308e+00 158 153 157
3.507400e-01 5.480774e-01 3.115449e+00 34 30 45
4.456911e-01 4.301682e-01 3.129384e+00 40 44 60
3.986972e-01 4.876217e-01 3.129123e+00 135 125 124
3.579871e-01 5.401183e-01 3.118281e+00 135 141 153
3.694813e-01 5.257273e-01 3.122477e+00 130 124 128
3.493302e-01 5.521867e-01 3.114742e+00 44 38 52
3.503483e-01 5.511347e-01 3.115211e+00 47 29 47
3.534849e-01 5.472051e-01 3.116466e+00 31 18 38
3.704724e-01 5.256079e-01 3.122675e+00 64 53 60
3.659540e-01 5.323160e-01 3.121198e+00 79 77 80
3.861727e-01 5.077907e-01 3.126644e+00 88 82 86
4.255810e-01 4.589349e-01 3.131205e+00 70 70 72
3.880572e-01 5.066782e-01 3.126287e+00 131 122 127
4.066190e-01 4.863100e-01 3.130068e+00 144 135 138
4.248455e-01 4.640598e-01 3.131545e+00 61 54 62
4.169330e-01 4.738999e-01 3.131163e+00 73 67 71
3.606277e-01 5.464152e-01 3.119193e+00 64 63 68
3.781792e-01 5.242200e-01 3.125013e+00 121 118 117
4.266074e-01 4.646867e-01 3.131741e+00 141 136 140
4.145885e-01 4.795350e-01 3.131190e+00 139 133 138
4.433356e-01 4.451806e-01 3.131923e+00 40 39 45
4.291925e-01 4.633056e-01 3.131870e+00 157 151 161
4.290500e-01 4.633943e-01 3.131607e+00 157 151 161
3.953619e-01 5.054793e-01 3.127956e+00 155 146 151
3.887196e-01 5.138574e-01 3.126846e+00 158 157 165
4.379303e-01 4.586135e-01 3.132656e+00 184 183 188
4.306318e-01 4.715730e-01 3.132358e+00 89 85 86
3.756234e-01 5.412655e-01 3.124098e+00 168 166 169
4.147616e-01 4.937832e-01 3.130469e+00 105 99 99
4.011211e-01 5.136338e-01 3.128387e+00 162 152 150
3.918018e-01 5.301284e-01 3.126893e+00 118 114 118
4.247613e-01 5.127678e-01 3.129084e+00 182 179 186
4.305057e-01 5.119043e-01 3.128946e+00 90 89 96
4.426165e-01 5.228959e-01 3.126121e+00 79 76 83
3.582661e-01 4.431287e-01 3.117182e+00 183 152 168
3.627870e-01 4.390991e-01 3.117707e+00 202 26 47
3.485265e-01 4.576613e-01 3.115980e+00 165 26 60
3.537526e-01 4.513608e-01 3.117360e+00 165 133 133
3.569553e-01 4.475982e-01 3.117459e+00 181 145 161
3.663278e-01 4.365629e-01 3.118122e+00 139 111 76
3.627680e-01 4.420464e-01 3.118194e+00 163 125 81
3.668775e-01 4.375246e-01 3.118438e+00 147 113 85
3.635208e-01 4.419079e-01 3.118352e+00 255 235 197
3.599996e-01 4.463819e-01 3.118135e+00 255 236 202
3.488716e-01 4.608343e-01 3.116329e+00 255 239 202
3.575326e-01 4.500363e-01 3.117934e+00 255 235 204
3.633139e-01 4.433777e-01 3.118555e+00 255 206 172
3.577558e-01 4.506329e-01 3.118086e+00 123 97 68
3.547254e-01 4.544676e-01 3.117642e+00 116 72 43
3.665163e-01 4.405343e-01 3.118909e+00 157 103 73
3.644164e-01 4.430577e-01 3.118777e+00 158 92 71
3.590413e-01 4.497126e-01 3.118306e+00 140 38 57
3.613660e-01 4.472251e-01 3.118620e+00 255 232 200
3.584654e-01 4.507763e-01 3.118316e+00 255 237 203
3.504240e-01 4.608574e-01 3.116916e+00 164 93 84
3.554331e-01 4.552181e-01 3.117870e+00 255 229 198
3.531632e-01 4.580159e-01 3.117463e+00 254 227 203
3.531632e-01 4.580159e-01 3.117463e+00 254 227 203
3.511649e-01 4.606584e-01 3.117078e+00 255 233 211
3.696065e-01 4.381222e-01 3.119187e+00 169 34 45
3.696065e-01 4.381222e-01 3.119187e+00 169 34 45
3.479502e-01 4.651573e-01 3.116315e+00 164 125 122
3.560973e-01 4.552905e-01 3.118102e+00 139 104 70
3.560973e-01 4.552905e-01 3.118102e+00 139 104 70
3.613498e-01 4.488621e-01 3.118838e+00 149 71 58
3.683514e-01 4.404058e-01 3.119280e+00 135 90 85
3.607277e-01 4.497491e-01 3.118722e+00 163 12 46
3.523819e-01 4.603038e-01 3.117442e+00 155 15 28
3.567290e-01 4.550262e-01 3.118260e+00 255 232 200
3.505186e-01 4.631996e-01 3.117051e+00 253 191 153
3.522666e-01 4.611126e-01 3.117488e+00 255 208 177
3.712528e-01 4.378431e-01 3.119473e+00 128 81 71
3.708352e-01 4.383963e-01 3.119520e+00 176 143 143
3.708352e-01 4.383963e-01 3.119520e+00 176 143 143
3.704573e-01 4.389092e-01 3.119497e+00 126 87 77
3.490844e-01 4.659737e-01 3.116704e+00 172 139 146
3.479650e-01 4.674899e-01 3.116417e+00 165 92 68
3.479650e-01 4.674899e-01 3.116417e+00 165 92 68
3.682726e-01 4.421886e-01 3.119552e+00 135 95 79
3.487656e-01 4.666617e-01 3.116609e+00 150 89 69
3.746275e-01 4.346939e-01 3.119546e+00 253 233 206
3.513588e-01 4.638037e-01 3.117341e+00 255 230 194
3.531941e-01 4.617546e-01 3.117810e+00 251 217 189
3.734701e-01 4.368598e-01 3.119773e+00 139 88 76
3.734701e-01 4.368598e-01 3.119773e+00 139 88 76
3.605235e-01 4.527408e-01 3.119041e+00 139 99 79
3.605235e-01 4.527408e-01 3.119041e+00 139 99 79
3.561297e-01 4.586570e-01 3.118456e+00 160 91 66
3.700858e-01 4.414338e-01 3.119910e+00 133 81 78
3.616451e-01 4.519535e-01 3.119240e+00 163 76 62
3.488612e-01 4.679805e-01 3.116740e+00 135 95 65
3.623372e-01 4.512782e-01 3.119407e+00 223 27 43
3.543464e-01 4.613160e-01 3.118166e+00 125 68 47
3.761195e-01 4.346085e-01 3.119848e+00 107 99 78
3.708087e-01 4.409860e-01 3.119954e+00 255 220 183
3.692315e-01 4.430651e-01 3.119991e+00 138 42 45
3.511637e-01 4.657292e-01 3.117382e+00 147 78 57
3.578337e-01 4.576378e-01 3.118875e+00 139 88 61
3.478626e-01 4.707109e-01 3.116510e+00 255 224 195
3.632487e-01 4.518271e-01 3.119717e+00 171 80 55
3.632487e-01 4.518271e-01 3.119717e+00 171 80 55
3.659448e-01 4.485068e-01 3.120077e+00 249 190 162
3.520464e-01 4.661229e-01 3.117596e+00 149 101 74
3.475397e-01 4.719287e-01 3.116437e+00 255 190 159
3.700496e-01 4.437933e-01 3.120244e+00 142 91 92
3.700496e-01 4.437933e-01 3.120244e+00 142 91 92
3.638739e-01 4.513991e-01 3.119881e+00 254 190 161
3.691791e-01 4.450568e-01 3.120251e+00 189 85 66
3.661585e-01 4.493337e-01 3.120175e+00 159 83 73
3.655925e-01 4.501603e-01 3.120177e+00 194 66 67
3.655925e-01 4.501603e-01 3.120177e+00 194 66 67
3.693176e-01 4.458102e-01 3.120434e+00 255 244 205
3.632589e-01 4.535190e-01 3.119947e+00 135 79 60
3.667732e-01 4.492349e-01 3.120306e+00 251 215 201
3.624214e-01 4.547445e-01 3.119868e+00 172 76 52
3.624214e-01 4.547445e-01 3.119868e+00 172 76 52
3.610232e-01 4.566693e-01 3.119689e+00 166 88 76
3.602737e-01 4.575260e-01 3.119589e+00 223 36 58
3.497876e-01 4.708481e-01 3.117197e+00 165 162 158
3.734885e-01 4.414627e-01 3.120639e+00 115 98 89
3.734885e-01 4.414627e-01 3.120639e+00 115 98 89
3.726407e-01 4.425856e-01 3.120667e+00 143 95 91
3.566205e-01 4.626098e-01 3.118876e+00 162 159 153
3.681245e-01 4.483382e-01 3.120468e+00 166 100 95
3.664169e-01 4.508383e-01 3.120433e+00 169 92 72
3.691472e-01 4.475697e-01 3.120634e+00 179 160 170
3.540026e-01 4.665305e-01 3.118400e+00 253 201 179
3.648413e-01 4.532292e-01 3.120391e+00 136 89 75
3.602967e-01 4.591258e-01 3.119681e+00 170 98 77
3.584592e-01 4.615305e-01 3.119390e+00 156 88 77
3.638261e-01 4.548872e-01 3.120204e+00 169 159 175
3.638261e-01 4.548872e-01 3.120204e+00 169 159 175
3.521848e-01 4.696988e-01 3.117910e+00 140 92 93
3.521848e-01 4.696988e-01 3.117910e+00 140 92 93
3.514064e-01 4.706872e-01 3.117728e+00 138 98 97
3.478495e-01 4.752093e-01 3.116594e+00 153 99 92
3.547602e-01 4.666214e-01 3.118609e+00 116 90 80
3.547602e-01 4.666214e-01 3.118609e+00 116 90 80
3.539361e-01 4.676396e-01 3.118396e+00 122 93 89
3.539361e-01 4.676396e-01 3.118396e+00 122 93 89
3.496185e-01 4.731820e-01 3.117206e+00 132 87 83
3.496185e-01 4.731820e-01 3.117206e+00 132 87 83
3.570419e-01 4.637976e-01 3.119148e+00 123 93 87
3.667908e-01 4.517181e-01 3.120644e+00 92 76 86
3.504883e-01 4.722499e-01 3.117468e+00 127 92 81
3.504883e-01 4.722499e-01 3.117468e+00 127 92 81
3.829165e-01 4.352468e-01 3.121281e+00 141 138 149
3.829165e-01 4.352468e-01 3.121281e+00 141 138 149
4.005906e-01 4.153909e-01 3.119066e+00 196 196 204
4.027332e-01 4.133969e-01 3.118804e+00 182 182 190
3.907995e-01 4.314978e-01 3.121863e+00 100 105 102
3.810388e-01 4.453427e-01 3.122867e+00 95 95 87
3.844063e-01 4.416743e-01 3.122840e+00 105 96 91
3.793681e-01 4.478905e-01 3.122894e+00 100 96 84
3.809051e-01 4.461050e-01 3.122973e+00 89 87 74
4.109743e-01 4.119832e-01 3.119376e+00 51 70 25
3.470894e-01 4.903352e-01 3.116297e+00 84 85 79
3.993743e-01 4.259467e-01 3.121868e+00 63 65 52
3.987630e-01 4.284878e-01 3.122384e+00 100 108 95
3.460397e-01 4.954797e-01 3.115761e+00 87 105 91
3.503874e-01 4.900238e-01 3.117508e+00 68 76 55
3.928797e-01 4.379138e-01 3.123548e+00 105 102 109
4.005690e-01 4.288468e-01 3.122741e+00 35 46 30
3.354905e-01 5.107554e-01 3.110506e+00 98 100 87
3.919968e-01 4.391271e-01 3.123714e+00 120 120 125
3.456881e-01 4.974416e-01 3.115562e+00 46 60 37
3.363547e-01 5.099624e-01 3.110901e+00 50 66 40
3.661170e-01 4.713658e-01 3.122197e+00 119 122 105
4.141639e-01 4.138147e-01 3.120453e+00 33 48 9
3.925946e-01 4.392173e-01 3.123871e+00 204 203 208
4.010698e-01 4.293243e-01 3.122919e+00 102 111 90
3.509240e-01 4.913981e-01 3.117686e+00 45 61 24
3.509240e-01 4.913981e-01 3.117686e+00 45 61 24
3.487353e-01 4.942039e-01 3.116789e+00 47 61 35
3.944032e-01 4.373169e-01 3.123696e+00 163 168 146
3.672467e-01 4.704960e-01 3.122445e+00 140 144 129
3.672467e-01 4.704960e-01 3.122445e+00 140 144 129
4.095080e-01 4.199359e-01 3.121716e+00 39 58 13
4.095083e-01 4.199355e-01 3.121717e+00 39 58 13
3.963419e-01 4.353877e-01 3.123640e+00 61 75 48
3.600066e-01 4.802060e-01 3.120664e+00 114 126 78
3.750189e-01 4.622908e-01 3.123752e+00 62 71 34
3.887975e-01 4.455226e-01 3.124402e+00 80 79 84
3.887975e-01 4.455226e-01 3.124402e+00 80 79 84
3.414391e-01 5.059706e-01 3.113353e+00 104 118 69
4.074533e-01 4.238261e-01 3.122316e+00 58 70 30
4.028556e-01 4.292329e-01 3.123167e+00 116 132 105
3.994029e-01 4.333273e-01 3.123638e+00 119 136 93
3.994029e-01 4.333273e-01 3.123638e+00 119 136 93
4.174348e-01 4.126883e-01 3.120589e+00 52 61 47
3.482980e-01 4.975396e-01 3.116560e+00 114 126 86
3.637543e-01 4.776527e-01 3.121716e+00 128 137 95
3.947206e-01 4.397719e-01 3.124263e+00 129 130 135
3.940521e-01 4.406071e-01 3.124338e+00 135 137 142
3.936900e-01 4.411106e-01 3.124373e+00 139 140 145
4.000877e-01 4.337168e-01 3.123818e+00 58 77 31
3.395990e-01 5.097831e-01 3.112370e+00 113 128 89
4.043746e-01 4.286938e-01 3.123227e+00 64 79 43
3.909550e-01 4.447023e-01 3.124606e+00 140 141 145
3.905076e-01 4.452722e-01 3.124576e+00 151 151 155
3.899983e-01 4.459676e-01 3.124666e+00 143 142 147
3.894593e-01 4.466642e-01 3.124711e+00 148 145 152
3.693053e-01 4.714713e-01 3.123045e+00 117 127 68
3.884202e-01 4.480249e-01 3.124710e+00 142 139 146
3.878391e-01 4.488287e-01 3.124731e+00 145 140 145
3.974103e-01 4.375129e-01 3.124231e+00 51 53 49
4.137261e-01 4.184910e-01 3.121758e+00 108 121 101
3.563458e-01 4.885348e-01 3.119574e+00 44 54 19
3.563458e-01 4.885348e-01 3.119574e+00 44 54 19
3.928366e-01 4.432791e-01 3.124650e+00 68 68 70
3.928366e-01 4.432791e-01 3.124650e+00 68 68 70
3.916051e-01 4.449565e-01 3.124696e+00 57 58 63
3.469277e-01 5.015006e-01 3.115840e+00 56 67 36
3.469277e-01 5.015006e-01 3.115840e+00 56 67 36
3.522591e-01 4.945988e-01 3.117950e+00 106 121 82
4.077414e-01 4.267864e-01 3.123225e+00 105 118 100
4.114134e-01 4.225687e-01 3.122601e+00 60 69 49
4.183904e-01 4.146163e-01 3.121289e+00 114 130 98
3.500150e-01 4.986788e-01 3.117109e+00 99 110 78
3.537734e-01 4.940758e-01 3.118598e+00 55 58 32
4.127465e-01 4.218555e-01 3.122610e+00 56 71 48
4.143616e-01 4.201127e-01 3.122341e+00 91 106 77
3.543524e-01 4.937550e-01 3.118802e+00 107 108 83
4.024391e-01 4.345203e-01 3.124306e+00 60 65 58
4.062394e-01 4.303352e-01 3.123915e+00 62 68 53
3.860706e-01 4.543190e-01 3.125246e+00 62 60 61
4.178150e-01 4.169655e-01 3.121886e+00 37 43 20
4.230125e-01 4.111405e-01 3.120793e+00 114 135 96
4.049572e-01 4.327107e-01 3.124288e+00 71 79 43
4.217540e-01 4.133572e-01 3.121328e+00 133 144 101
3.840020e-01 4.580952e-01 3.125226e+00 132 134 129
3.888005e-01 4.525489e-01 3.125367e+00 199 198 203
3.888005e-01 4.525489e-01 3.125367e+00 199 198 203
3.567055e-01 4.927805e-01 3.119637e+00 50 64 38
3.567055e-01 4.927805e-01 3.119637e+00 50 64 38
4.093704e-01 4.280999e-01 3.123676e+00 42 44 30
4.043920e-01 4.345532e-01 3.124635e+00 74 81 74
3.817429e-01 4.621256e-01 3.125450e+00 65 78 58
3.733980e-01 4.729010e-01 3.124134e+00 58 72 36
3.879857e-01 4.550373e-01 3.125662e+00 145 135 136
4.213729e-01 4.158469e-01 3.121976e+00 107 114 70
3.687947e-01 4.791783e-01 3.123208e+00 45 59 34
3.421197e-01 5.140230e-01 3.113162e+00 32 47 28
4.011062e-01 4.398239e-01 3.125273e+00 151 150 158
4.005823e-01 4.404515e-01 3.125318e+00 157 156 164
3.817091e-01 4.633964e-01 3.125263e+00 28 31 14
3.842501e-01 4.603836e-01 3.125537e+00 77 81 64
3.914253e-01 4.517236e-01 3.125765e+00 90 88 93
3.895648e-01 4.539446e-01 3.125781e+00 99 97 100
3.887501e-01 4.550615e-01 3.125750e+00 97 91 97
3.513146e-01 5.029578e-01 3.117454e+00 107 121 86
3.626087e-01 4.883718e-01 3.121574e+00 120 130 92
3.426891e-01 5.144953e-01 3.113480e+00 35 53 31
4.028628e-01 4.390500e-01 3.125382e+00 127 129 144
3.839475e-01 4.619591e-01 3.125657e+00 76 85 67
3.839475e-01 4.619591e-01 3.125657e+00 76 85 67
3.794569e-01 4.676658e-01 3.125262e+00 37 48 14
3.773015e-01 4.705254e-01 3.124899e+00 81 98 46
3.683450e-01 4.818931e-01 3.123148e+00 46 57 14
3.431717e-01 5.150549e-01 3.113635e+00 94 118 79
3.944456e-01 4.501373e-01 3.126032e+00 113 115 127
4.102896e-01 4.314646e-01 3.124762e+00 83 102 66
3.412811e-01 5.180474e-01 3.112675e+00 21 49 2
4.108314e-01 4.309358e-01 3.124688e+00 33 58 18
3.727916e-01 4.771076e-01 3.124220e+00 108 125 71
3.639964e-01 4.885522e-01 3.121976e+00 44 65 19
3.639964e-01 4.885522e-01 3.121976e+00 44 65 19
3.639964e-01 4.885522e-01 3.121976e+00 44 65 19
4.180335e-01 4.228773e-01 3.123563e+00 55 67 31
3.548350e-01 5.006276e-01 3.118847e+00 119 136 104
3.548350e-01 5.006276e-01 3.118847e+00 119 136 104
3.671437e-01 4.851628e-01 3.122867e+00 56 76 27
4.085365e-01 4.345976e-01 3.125250e+00 56 68 30
3.529068e-01 5.036928e-01 3.117969e+00 54 78 28
3.757601e-01 4.746146e-01 3.124797e+00 118 136 96
3.535286e-01 5.032854e-01 3.118218e+00 113 137 91
3.535286e-01 5.032854e-01 3.118218e+00 113 137 91
3.607311e-01 4.940008e-01 3.120948e+00 107 136 82
3.821831e-01 4.668845e-01 3.125719e+00 92 109 71
3.821831e-01 4.668845e-01 3.125719e+00 92 109 71
4.259631e-01 4.148633e-01 3.122345e+00 63 85 36
4.158406e-01 4.268339e-01 3.124336e+00 48 75 19
3.605279e-01 4.946230e-01 3.120863e+00 38 65 14
3.612805e-01 4.937556e-01 3.121113e+00 55 84 26
3.612805e-01 4.937556e-01 3.121113e+00 55 84 26
3.457292e-01 5.142147e-01 3.114702e+00 20 47 6
4.192900e-01 4.229950e-01 3.123796e+00 28 41 11
3.765647e-01 4.746964e-01 3.124954e+00 39 61 19
3.765647e-01 4.746964e-01 3.124954e+00 39 61 19
3.681648e-01 4.857045e-01 3.123146e+00 44 65 7
3.470571e-01 5.138318e-01 3.115238e+00 38 61 15
3.649829e-01 4.904487e-01 3.122251e+00 111 132 78
4.096844e-01 4.356893e-01 3.125616e+00 101 120 74
3.621248e-01 4.952417e-01 3.121342e+00 32 55 1
3.621248e-01 4.952417e-01 3.121342e+00 32 55 1
4.068883e-01 4.399732e-01 3.126135e+00 43 59 30
4.157660e-01 4.297899e-01 3.125078e+00 31 55 3
4.157660e-01 4.297899e-01 3.125078e+00 31 55 3
3.693162e-01 4.870338e-01 3.123447e+00 135 148 95
3.527823e-01 5.088050e-01 3.117697e+00 67 90 33
4.294797e-01 4.148024e-01 3.122831e+00 90 115 87
3.516601e-01 5.104008e-01 3.117220e+00 51 73 11
3.849354e-01 4.679232e-01 3.126369e+00 76 90 48
3.734971e-01 4.822416e-01 3.124446e+00 38 54 6
3.566170e-01 5.041226e-01 3.119300e+00 105 125 62
3.877769e-01 4.646694e-01 3.126570e+00 115 132 100
4.081217e-01 4.403781e-01 3.126351e+00 53 84 24
3.690244e-01 4.886745e-01 3.123390e+00 55 78 26
4.226796e-01 4.236300e-01 3.124462e+00 31 54 22
4.226796e-01 4.236300e-01 3.124462e+00 31 54 22
4.265479e-01 4.192933e-01 3.123735e+00 102 119 87
3.590479e-01 5.019858e-01 3.120159e+00 110 132 84
4.115858e-01 4.369907e-01 3.126135e+00 97 125 64
4.034737e-01 4.465947e-01 3.126863e+00 69 87 63
4.214695e-01 4.254610e-01 3.124708e+00 103 126 85
3.497098e-01 5.145667e-01 3.116515e+00 112 136 74
4.239890e-01 4.228270e-01 3.124443e+00 73 96 61
4.239890e-01 4.228270e-01 3.124443e+00 73 96 61
3.988035e-01 4.527634e-01 3.127041e+00 68 85 51
3.670545e-01 4.922444e-01 3.122797e+00 118 135 81
3.967545e-01 4.553231e-01 3.127203e+00 83 104 69
4.184952e-01 4.296653e-01 3.125392e+00 109 139 77
4.283522e-01 4.183072e-01 3.123720e+00 32 67 42
4.038410e-01 4.472246e-01 3.126950e+00 114 131 99
4.291761e-01 4.178399e-01 3.123710e+00 7 35 17
4.247670e-01 4.229907e-01 3.124566e+00 22 47 15
4.176392e-01 4.314097e-01 3.125764e+00 28 44 9
4.091099e-01 4.414660e-01 3.126714e+00 97 126 80
4.006804e-01 4.515933e-01 3.127247e+00 87 107 80
4.006804e-01 4.515933e-01 3.127247e+00 87 107 80
3.591761e-01 5.036338e-01 3.120144e+00 29 52 6
4.157693e-01 4.339460e-01 3.125979e+00 34 52 28
4.157693e-01 4.339460e-01 3.125979e+00 34 52 28
3.590207e-01 5.042363e-01 3.120037e+00 42 70 21
4.006680e-01 4.521906e-01 3.127246e+00 23 48 18
3.568204e-01 5.072143e-01 3.119233e+00 25 61 13
3.568204e-01 5.072143e-01 3.119233e+00 25 61 13
3.687993e-01 4.918027e-01 3.123312e+00 32 51 7
4.264166e-01 4.219524e-01 3.124476e+00 18 39 20
4.097020e-01 4.416602e-01 3.126842e+00 41 65 32
3.949195e-01 4.593775e-01 3.127344e+00 101 120 88
3.620241e-01 5.008715e-01 3.121173e+00 28 55 14
3.575288e-01 5.067750e-01 3.119460e+00 26 57 13
3.609952e-01 5.023322e-01 3.120755e+00 6 35 1
3.439841e-01 5.250494e-01 3.113322e+00 42 64 19
4.078660e-01 4.445035e-01 3.127150e+00 61 78 46
4.078660e-01 4.445035e-01 3.127150e+00 61 78 46
3.747930e-01 4.851501e-01 3.124841e+00 130 147 110
3.747930e-01 4.851501e-01 3.124841e+00 130 147 110
3.643771e-01 4.985529e-01 3.121863e+00 45 56 21
3.616705e-01 5.019976e-01 3.120981e+00 74 100 63
3.616705e-01 5.019976e-01 3.120981e+00 74 100 63
3.672264e-01 4.950978e-01 3.122828e+00 23 39 3
4.088713e-01 4.437770e-01 3.127106e+00 22 40 16
3.726858e-01 4.883290e-01 3.124294e+00 28 49 16
4.077892e-01 4.452160e-01 3.127249e+00 141 154 134
4.077892e-01 4.452160e-01 3.127249e+00 141 154 134
3.851727e-01 4.726862e-01 3.126664e+00 91 122 81
4.190768e-01 4.319217e-01 3.126026e+00 102 118 91
4.038198e-01 4.503157e-01 3.127489e+00 90 110 82
4.006102e-01 4.541995e-01 3.127559e+00 125 147 111
3.843504e-01 4.741334e-01 3.126607e+00 105 137 90
3.622860e-01 5.023823e-01 3.121215e+00 22 46 15
4.139230e-01 4.385532e-01 3.126792e+00 90 107 88
4.139230e-01 4.385532e-01 3.126792e+00 90 107 88
4.019158e-01 4.528945e-01 3.127592e+00 27 49 22
3.931118e-01 4.637520e-01 3.127414e+00 101 123 74
3.572233e-01 5.093378e-01 3.119244e+00 88 117 71
4.213553e-01 4.301008e-01 3.125911e+00 92 113 98
4.213553e-01 4.301008e-01 3.125911e+00 92 113 98
3.527106e-01 5.155219e-01 3.117324e+00 84 116 67
4.102699e-01 4.435098e-01 3.127251e+00 16 32 27
3.930129e-01 4.643674e-01 3.127489e+00 8 34 0
3.930129e-01 4.643674e-01 3.127489e+00 8 34 0
4.090347e-01 4.450368e-01 3.127319e+00 48 61 44
3.496938e-01 5.197899e-01 3.115977e+00 38 63 23
4.178575e-01 4.348675e-01 3.126530e+00 83 100 84
4.070710e-01 4.476919e-01 3.127568e+00 21 37 28
4.070710e-01 4.476919e-01 3.127568e+00 21 37 28
3.833207e-01 4.766557e-01 3.126382e+00 41 58 22
3.913580e-01 4.669096e-01 3.127407e+00 69 85 49
3.885422e-01 4.703788e-01 3.127137e+00 36 61 21
3.840727e-01 4.759464e-01 3.126567e+00 37 48 16
3.769581e-01 4.850260e-01 3.125336e+00 26 49 13
3.719726e-01 4.916148e-01 3.124095e+00 42 61 31
3.719726e-01 4.916148e-01 3.124095e+00 42 61 31
3.996209e-01 4.572680e-01 3.127818e+00 16 37 18
3.819390e-01 4.793657e-01 3.126306e+00 92 112 84
3.436887e-01 5.291228e-01 3.112906e+00 68 91 37
3.436887e-01 5.291228e-01 3.112906e+00 68 91 37
3.668365e-01 4.987408e-01 3.122603e+00 15 41 2
3.852629e-01 4.756068e-01 3.126825e+00 32 47 26
4.308197e-01 4.210408e-01 3.124847e+00 74 108 75
3.870465e-01 4.735673e-01 3.127059e+00 92 117 75
3.827258e-01 4.790434e-01 3.126431e+00 22 38 12
3.816688e-01 4.803651e-01 3.126270e+00 28 47 19
3.583589e-01 5.101505e-01 3.119554e+00 21 49 8
3.583589e-01 5.101505e-01 3.119554e+00 21 49 8
3.838667e-01 4.776731e-01 3.126646e+00 26 45 15
3.766502e-01 4.869297e-01 3.125269e+00 37 57 30
4.167977e-01 4.379875e-01 3.127057e+00 30 55 25
4.314307e-01 4.211448e-01 3.124956e+00 21 54 11
4.314307e-01 4.211448e-01 3.124956e+00 21 54 11
3.610475e-01 5.076149e-01 3.120650e+00 20 37 19
3.686607e-01 4.979155e-01 3.123149e+00 37 55 29
3.961340e-01 4.636097e-01 3.127923e+00 27 47 19
3.870973e-01 4.747084e-01 3.127144e+00 13 33 5
3.894214e-01 4.721413e-01 3.127412e+00 96 121 81
3.691803e-01 4.977026e-01 3.123328e+00 30 49 21
3.493769e-01 5.236115e-01 3.115659e+00 54 86 21
4.201007e-01 4.353319e-01 3.126951e+00 88 114 69
3.863897e-01 4.762693e-01 3.127037e+00 32 52 24
3.863897e-01 4.762693e-01 3.127037e+00 32 52 24
3.840500e-01 4.798368e-01 3.126665e+00 48 64 28
4.035919e-01 4.565101e-01 3.128297e+00 129 154 96
3.596673e-01 5.124193e-01 3.119951e+00 105 128 82
4.355134e-01 4.194041e-01 3.125032e+00 43 62 77
4.251687e-01 4.315468e-01 3.126755e+00 27 57 16
3.654820e-01 5.049367e-01 3.122032e+00 98 127 73
3.924146e-01 4.710902e-01 3.127834e+00 110 143 88
3.626132e-01 5.091001e-01 3.121051e+00 106 134 85
3.583013e-01 5.149758e-01 3.119414e+00 110 137 85
4.123448e-01 4.479347e-01 3.128250e+00 128 153 96
3.769084e-01 4.916478e-01 3.125322e+00 51 80 22
3.769084e-01 4.916478e-01 3.125322e+00 51 80 22
3.659352e-01 5.058268e-01 3.122167e+00 53 82 22
3.909155e-01 4.745129e-01 3.127784e+00 101 130 74
3.459130e-01 5.326260e-01 3.113775e+00 91 79 101
3.459130e-01 5.326260e-01 3.113775e+00 91 79 101
3.730200e-01 4.973712e-01 3.124293e+00 49 75 27
4.088312e-01 4.535196e-01 3.128625e+00 51 80 27
3.886530e-01 4.781750e-01 3.127517e+00 37 61 14
3.653855e-01 5.077115e-01 3.122017e+00 36 66 16
3.881467e-01 4.790815e-01 3.127442e+00 30 55 15
3.881467e-01 4.790815e-01 3.127442e+00 30 55 15
4.052480e-01 4.582435e-01 3.128757e+00 130 155 100
3.906555e-01 4.761357e-01 3.127817e+00 65 93 42
4.008234e-01 4.639078e-01 3.128629e+00 62 87 30
3.571979e-01 5.194363e-01 3.118794e+00 137 150 154
3.480061e-01 5.317336e-01 3.114720e+00 114 105 122
4.198259e-01 4.415873e-01 3.128143e+00 52 82 28
3.629589e-01 5.122091e-01 3.121007e+00 132 158 121
4.019030e-01 4.631753e-01 3.128746e+00 139 158 103
3.570463e-01 5.200202e-01 3.118778e+00 56 68 84
4.368964e-01 4.217459e-01 3.125911e+00 34 97 175
3.730739e-01 4.993997e-01 3.124287e+00 135 159 109
3.730739e-01 4.993997e-01 3.124287e+00 135 159 109
3.730739e-01 4.993997e-01 3.124287e+00 135 159 109
3.594860e-01 5.171160e-01 3.119728e+00 49 61 58
4.389628e-01 4.195477e-01 3.125646e+00 15 29 58
3.450730e-01 5.363906e-01 3.113541e+00 122 127 147
3.470819e-01 5.340280e-01 3.114259e+00 113 124 152
3.726451e-01 5.008079e-01 3.124130e+00 55 75 25
3.726451e-01 5.008079e-01 3.124130e+00 55 75 25
3.617703e-01 5.152307e-01 3.120503e+00 153 165 161
3.574312e-01 5.210361e-01 3.118777e+00 126 140 166
3.787596e-01 4.934800e-01 3.125736e+00 64 90 34
4.086386e-01 4.570366e-01 3.129086e+00 73 92 48
3.667812e-01 5.093459e-01 3.122302e+00 47 67 67
4.382125e-01 4.222734e-01 3.126334e+00 33 127 201
4.363523e-01 4.246793e-01 3.126609e+00 4 32 58
3.787394e-01 4.947672e-01 3.125679e+00 85 110 76
3.674203e-01 5.092977e-01 3.122484e+00 200 216 241
3.674203e-01 5.092977e-01 3.122484e+00 200 216 241
3.669457e-01 5.100650e-01 3.122308e+00 212 229 248
3.669457e-01 5.100650e-01 3.122308e+00 212 229 248
4.127031e-01 4.532175e-01 3.129040e+00 21 34 14
3.521877e-01 5.296670e-01 3.116489e+00 56 62 88
4.402597e-01 4.208050e-01 3.126063e+00 56 63 81
4.121113e-01 4.542631e-01 3.129109e+00 41 55 31
3.683458e-01 5.096914e-01 3.122738e+00 207 222 249
3.683458e-01 5.096914e-01 3.122738e+00 207 222 249
4.063433e-01 4.623531e-01 3.129246e+00 115 121 133
3.591159e-01 5.220678e-01 3.119378e+00 137 149 161
4.325838e-01 4.313585e-01 3.127708e+00 157 166 183
4.239808e-01 4.415767e-01 3.128597e+00 19 24 44
3.950949e-01 4.766090e-01 3.128517e+00 159 132 126
3.926270e-01 4.796332e-01 3.128256e+00 31 47 46
3.627272e-01 5.179974e-01 3.120713e+00 113 106 118
3.523028e-01 5.315837e-01 3.116464e+00 64 64 76
4.232624e-01 4.429215e-01 3.128673e+00 142 144 159
3.669177e-01 5.128765e-01 3.122163e+00 42 46 72
3.998893e-01 4.714159e-01 3.129027e+00 37 45 68
3.998893e-01 4.714159e-01 3.129027e+00 37 45 68
3.845221e-01 4.905158e-01 3.126905e+00 132 138 160
4.392148e-01 4.243299e-01 3.127141e+00 115 115 125
4.359538e-01 4.282334e-01 3.127514e+00 20 12 25
3.808737e-01 4.953321e-01 3.126138e+00 130 122 137
4.172306e-01 4.506178e-01 3.129248e+00 27 32 54
4.172306e-01 4.506178e-01 3.129248e+00 27 32 54
3.554454e-01 5.288047e-01 3.117787e+00 114 116 131
3.554454e-01 5.288047e-01 3.117787e+00 114 116 131
4.354840e-01 4.294437e-01 3.127773e+00 38 27 41
3.645392e-01 5.169290e-01 3.121362e+00 20 28 49
4.274240e-01 4.394352e-01 3.128778e+00 39 45 71
3.997965e-01 4.728855e-01 3.129094e+00 59 65 91
4.320483e-01 4.343076e-01 3.128300e+00 152 102 127
4.137963e-01 4.561697e-01 3.129567e+00 144 148 160
3.995552e-01 4.734913e-01 3.129064e+00 125 130 152
3.973479e-01 4.762702e-01 3.128838e+00 126 132 148
3.698509e-01 5.111579e-01 3.123050e+00 113 109 123
3.487978e-01 5.389667e-01 3.114680e+00 137 143 176
3.548115e-01 5.310903e-01 3.117433e+00 119 123 135
3.602339e-01 5.240437e-01 3.119625e+00 80 95 119
4.431392e-01 4.219917e-01 3.127014e+00 59 62 59
3.635255e-01 5.203815e-01 3.120987e+00 22 30 55
3.498404e-01 5.383723e-01 3.115228e+00 36 29 50
4.132675e-01 4.580497e-01 3.129739e+00 81 86 106
3.531332e-01 5.341405e-01 3.116652e+00 57 60 79
4.302974e-01 4.378959e-01 3.128817e+00 118 114 128
4.203248e-01 4.499467e-01 3.129557e+00 22 24 45
4.203248e-01 4.499467e-01 3.129557e+00 22 24 45
4.278157e-01 4.411396e-01 3.129121e+00 202 208 232
4.278157e-01 4.411396e-01 3.129121e+00 202 208 232
4.352221e-01 4.331018e-01 3.128396e+00 115 104 115
3.830854e-01 4.969147e-01 3.126565e+00 37 29 53
3.502528e-01 5.396865e-01 3.115281e+00 89 90 114
3.613542e-01 5.250218e-01 3.120341e+00 194 204 231
4.055005e-01 4.695010e-01 3.129655e+00 60 65 84
3.999630e-01 4.765303e-01 3.129236e+00 53 51 65
3.799180e-01 5.017456e-01 3.125707e+00 71 72 90
3.969544e-01 4.804751e-01 3.128627e+00 72 77 96
4.303934e-01 4.399625e-01 3.129236e+00 147 133 156
3.473269e-01 5.443011e-01 3.113857e+00 151 156 185
4.294204e-01 4.412169e-01 3.129346e+00 224 211 232
3.723218e-01 5.117573e-01 3.123740e+00 33 23 55
4.100464e-01 4.646421e-01 3.129883e+00 212 219 238
4.100464e-01 4.646421e-01 3.129883e+00 212 219 238
3.601394e-01 5.279453e-01 3.119439e+00 178 188 215
3.601394e-01 5.279453e-01 3.119439e+00 178 188 215
4.278450e-01 4.438813e-01 3.129560e+00 125 124 138
4.233583e-01 4.493649e-01 3.129846e+00 39 51 76
3.775781e-01 5.061335e-01 3.125165e+00 148 155 174
3.736530e-01 5.112255e-01 3.124183e+00 173 161 172
3.645250e-01 5.230968e-01 3.121051e+00 23 25 40
3.928106e-01 4.871941e-01 3.128395e+00 128 130 143
3.537317e-01 5.372679e-01 3.116816e+00 171 152 176
3.767271e-01 5.075071e-01 3.124938e+00 28 33 52
4.227715e-01 4.506883e-01 3.129986e+00 29 41 65
4.043543e-01 4.730637e-01 3.129718e+00 47 48 67
4.295498e-01 4.426908e-01 3.129629e+00 56 58 73
3.485552e-01 5.444916e-01 3.114476e+00 50 56 85
3.520009e-01 5.402391e-01 3.116012e+00 91 81 98
4.216088e-01 4.525917e-01 3.130001e+00 68 73 92
4.410194e-01 4.295301e-01 3.128579e+00 42 40 56
3.607981e-01 5.290417e-01 3.119648e+00 214 211 234
3.544859e-01 5.373085e-01 3.117115e+00 40 28 48
4.214097e-01 4.532417e-01 3.130149e+00 189 192 207
4.110150e-01 4.659119e-01 3.130064e+00 47 48 69
4.070117e-01 4.708724e-01 3.129922e+00 57 60 69
3.512645e-01 5.418542e-01 3.115720e+00 133 133 157
3.986115e-01 4.816835e-01 3.128834e+00 69 67 72
3.467825e-01 5.481362e-01 3.113704e+00 118 108 117
4.295001e-01 4.442065e-01 3.129839e+00 125 123 137
4.012144e-01 4.786203e-01 3.129394e+00 195 201 213
4.012144e-01 4.786203e-01 3.129394e+00 195 201 213
3.687808e-01 5.197639e-01 3.122485e+00 50 57 67
4.413085e-01 4.305155e-01 3.128850e+00 37 34 51
4.019328e-01 4.780755e-01 3.129515e+00 38 40 52
4.117571e-01 4.661403e-01 3.130198e+00 173 166 188
3.860242e-01 4.980825e-01 3.127113e+00 73 54 73
3.860242e-01 4.980825e-01 3.127113e+00 73 54 73
3.590009e-01 5.327635e-01 3.118971e+00 39 33 43
3.590009e-01 5.327635e-01 3.118971e+00 39 33 43
3.611588e-01 5.301638e-01 3.119742e+00 59 65 89
3.485125e-01 5.469371e-01 3.114057e+00 89 88 107
4.127263e-01 4.653910e-01 3.130264e+00 55 52 73
4.234267e-01 4.526659e-01 3.130338e+00 54 59 78
3.617112e-01 5.300195e-01 3.120011e+00 197 200 221
3.617112e-01 5.300195e-01 3.120011e+00 197 200 221
3.551288e-01 5.386305e-01 3.117281e+00 91 93 106
3.551288e-01 5.386305e-01 3.117281e+00 91 93 106
4.052152e-01 4.753458e-01 3.129909e+00 132 124 132
3.597503e-01 5.332856e-01 3.119191e+00 27 24 33
4.250690e-01 4.516137e-01 3.130365e+00 36 41 60
4.190587e-01 4.588561e-01 3.130318e+00 53 44 56
3.649114e-01 5.267654e-01 3.120991e+00 138 131 143
4.039935e-01 4.776430e-01 3.129743e+00 40 38 58
4.055029e-01 4.761666e-01 3.129934e+00 47 44 53
3.471111e-01 5.508198e-01 3.113670e+00 91 50 64
3.795365e-01 5.088474e-01 3.125511e+00 134 132 146
4.063616e-01 4.752871e-01 3.129997e+00 37 30 37
4.289063e-01 4.483265e-01 3.131880e+00 156 158 173
3.769187e-01 5.127401e-01 3.124921e+00 130 121 121
3.750365e-01 5.154036e-01 3.124327e+00 63 56 62
3.602613e-01 5.351754e-01 3.119255e+00 28 26 40
4.482027e-01 4.263560e-01 3.129007e+00 81 83 95
4.445884e-01 4.307618e-01 3.129414e+00 89 97 110
4.408829e-01 4.360717e-01 3.129966e+00 114 117 134
3.492016e-01 5.509040e-01 3.114726e+00 49 12 39
3.784593e-01 5.133676e-01 3.125300e+00 99 93 95
3.528990e-01 5.465121e-01 3.116287e+00 128 105 126
3.528990e-01 5.465121e-01 3.116287e+00 128 105 126
4.452652e-01 4.321728e-01 3.129727e+00 35 38 53
3.800056e-01 5.127740e-01 3.125507e+00 129 126 135
3.740098e-01 5.205586e-01 3.123897e+00 113 108 114
3.680623e-01 5.283367e-01 3.121959e+00 148 146 151
4.129672e-01 4.721532e-01 3.130199e+00 127 116 120
3.579219e-01 5.423124e-01 3.118426e+00 171 175 187
4.363554e-01 4.443205e-01 3.130841e+00 96 100 112
3.698378e-01 5.275047e-01 3.122484e+00 112 107 113
3.504321e-01 5.526728e-01 3.115172e+00 34 34 42
4.079196e-01 4.799250e-01 3.130292e+00 195 193 206
4.033580e-01 4.885003e-01 3.129742e+00 130 124 128
4.430278e-01 4.405102e-01 3.131124e+00 89 91 103
4.423677e-01 4.412861e-01 3.131209e+00 88 86 97
4.389318e-01 4.458196e-01 3.131370e+00 50 53 65
4.023254e-01 4.907742e-01 3.129135e+00 128 123 123
4.482834e-01 4.350187e-01 3.130935e+00 43 41 57
4.026305e-01 4.917638e-01 3.129587e+00 64 58 60
4.153287e-01 4.761412e-01 3.130932e+00 162 155 162
4.444315e-01 4.410834e-01 3.131439e+00 24 27 36
4.282374e-01 4.618220e-01 3.131454e+00 96 94 99
