ply
format ascii 1.0
element face 0
property list uchar int vertex_indices
element vertex 947
property float x
property float y
property float z
property uchar diffuse_red
property uchar diffuse_green
property uchar diffuse_blue
end_header
-1.014044e+00 -1.182277e+00 2.930711e+00 128 128 126
-1.036860e+00 -1.163793e+00 2.930450e+00 63 61 66
-1.354941e+00 -1.073474e+00 2.928805e+00 133 132 133
1.111354e+00 -1.263199e+00 2.951810e+00 81 81 88
-1.729413e+00 -8.402455e-01 2.924913e+00 147 153 165
8.907356e-02 -8.489387e-01 2.952560e+00 63 55 51
8.951704e-02 -4.870610e-01 2.953872e+00 197 198 196
-1.286865e+00 -2.320763e-01 2.944817e+00 189 193 195
7.955135e-01 -2.849601e-01 2.971623e+00 68 68 77
7.949777e-01 -2.847159e-01 2.971579e+00 68 68 77
-1.021393e+00 -1.708528e-01 2.948912e+00 85 93 104
1.269207e+00 -2.579873e-01 2.981657e+00 153 154 159
-1.114987e+00 -1.384861e-01 2.948875e+00 183 193 205
-1.386973e+00 -1.101074e-01 2.948864e+00 167 172 181
1.081202e+00 -8.308077e-02 2.983995e+00 87 84 90
-9.449422e-01 1.387935e-01 2.958641e+00 87 81 77
-1.300135e+00 2.444224e-01 2.957050e+00 153 144 141
-1.485830e+00 2.747694e-01 2.956248e+00 136 132 132
2.427999e+00 5.850769e-01 3.045929e+00 170 171 168
2.474193e+00 8.266601e-01 3.053907e+00 169 162 157
-1.815983e+00 5.450976e-01 2.960734e+00 143 139 133
1.499716e-01 1.313074e+00 3.028916e+00 158 156 163
-1.956481e-01 1.485773e+00 3.028912e+00 173 164 164
-1.047617e+00 1.379491e+00 3.007692e+00 118 105 96
-1.663851e+00 1.401880e+00 3.000322e+00 106 99 93
2.588274e+00 1.817847e+00 3.074763e+00 152 149 147
-9.310672e-01 1.673485e+00 3.014480e+00 199 191 186
2.733465e+00 2.047425e+00 3.082266e+00 133 128 125
2.733465e+00 2.047425e+00 3.082266e+00 133 128 125
1.005370e+00 2.032773e+00 3.055364e+00 132 128 130
-1.602659e+00 1.671500e+00 3.006951e+00 117 113 111
8.983609e-01 2.149128e+00 3.058919e+00 129 121 125
-1.129957e+00 1.876991e+00 3.019519e+00 192 184 174
1.728010e-01 2.113856e+00 3.045098e+00 126 117 120
-1.164355e+00 1.901354e+00 3.019981e+00 193 184 178
-1.164355e+00 1.901354e+00 3.019981e+00 193 184 178
2.331291e-01 2.140596e+00 3.046998e+00 130 126 130
-1.583765e+00 1.858706e+00 3.013772e+00 173 163 156
-1.197420e+00 1.927787e+00 3.020544e+00 197 188 182
-1.788592e+00 1.833028e+00 3.010574e+00 127 124 133
1.703540e+00 2.106945e+00 3.061812e+00 107 105 108
-1.712667e+00 1.867659e+00 3.012595e+00 191 180 170
-1.712667e+00 1.867659e+00 3.012595e+00 191 180 170
-1.944736e+00 1.819575e+00 3.008555e+00 144 142 147
-1.691539e+00 1.937444e+00 3.015290e+00 130 123 132
-1.602330e+00 1.961620e+00 3.017118e+00 188 171 163
-1.602330e+00 1.961620e+00 3.017118e+00 188 171 163
-1.457421e+00 2.033991e+00 3.021287e+00 185 173 161
-1.457421e+00 2.033991e+00 3.021287e+00 185 173 161
-1.443707e+00 -1.259790e+00 2.922673e+00 49 48 43
-1.244546e+00 -1.263195e+00 2.925549e+00 49 50 50
5.180804e-01 -1.694977e+00 2.946397e+00 65 58 58
-4.510519e-01 -1.161916e+00 2.928804e+00 143 152 161
-1.533344e+00 -1.067111e+00 2.924124e+00 77 73 73
-3.674493e-01 -1.016704e+00 2.932884e+00 166 167 172
-1.507762e+00 -8.787588e-01 2.929165e+00 115 113 114
-1.639434e+00 -7.691442e-01 2.927089e+00 162 166 177
-4.560564e-01 -9.032170e-01 2.935264e+00 165 170 181
-1.365650e+00 -8.459401e-01 2.933844e+00 64 60 56
-8.823718e-01 -7.785291e-01 2.937708e+00 73 68 67
-1.071780e+00 -7.803740e-01 2.937842e+00 69 65 56
-1.283473e+00 -6.065848e-01 2.937549e+00 126 126 126
2.219045e-01 -6.406688e-01 2.956744e+00 70 61 52
-4.399360e-01 -1.943035e-01 2.954615e+00 164 173 186
-1.174549e+00 -1.568713e-01 2.947830e+00 59 64 80
-9.784274e-01 -1.426010e-01 2.951540e+00 90 90 98
-1.221605e+00 -1.045109e-01 2.950452e+00 157 162 168
-1.446528e+00 -9.591137e-02 2.948924e+00 54 52 73
-8.367297e-01 4.799197e-02 2.958744e+00 161 161 164
-1.665818e+00 1.248771e-01 2.950538e+00 138 135 141
-9.935777e-01 1.358572e-01 2.959823e+00 139 139 137
2.462671e+00 7.088136e-01 3.049423e+00 133 129 130
-5.336923e-01 4.558809e-01 2.973184e+00 82 73 77
1.098963e+00 7.759741e-01 3.029715e+00 85 83 99
2.495040e+00 8.526135e-01 3.049780e+00 129 130 134
5.438023e-01 1.275352e+00 3.035044e+00 133 134 128
-1.404200e+00 1.137846e+00 2.990790e+00 113 101 95
-1.225774e+00 1.359107e+00 3.005340e+00 166 159 149
-2.648126e+00 1.195247e+00 2.984333e+00 244 239 241
7.644082e-01 2.153281e+00 3.055700e+00 123 108 106
6.357315e-01 2.186044e+00 3.054834e+00 122 109 105
-1.296683e+00 1.952896e+00 3.020318e+00 129 120 120
-1.040665e-01 2.222325e+00 3.045087e+00 192 189 187
-1.567875e+00 -1.067909e+00 2.923003e+00 150 153 157
2.293807e+00 -1.842008e+00 2.975158e+00 86 81 79
-1.551616e+00 -1.068482e+00 2.923811e+00 92 93 99
-1.090070e+00 -1.185851e+00 2.929570e+00 73 71 75
-7.775561e-01 -1.152634e+00 2.931441e+00 87 83 82
1.848495e+00 -1.674999e+00 2.971089e+00 137 133 124
-1.374125e+00 -1.080049e+00 2.928536e+00 75 71 72
-1.390118e+00 -9.957291e-01 2.930635e+00 69 61 59
-1.421791e+00 -6.987477e-01 2.933831e+00 60 61 62
-1.011434e+00 -7.558714e-01 2.938001e+00 122 118 110
-8.662209e-01 -7.246964e-01 2.938555e+00 73 69 66
3.981205e-01 -8.867329e-01 2.958758e+00 121 118 113
9.344908e-02 -6.104183e-01 2.952947e+00 99 91 80
6.117773e-01 -5.316276e-01 2.961542e+00 190 189 190
-1.231950e+00 -3.525436e-01 2.942312e+00 184 182 180
-1.664472e+00 -5.447789e-02 2.946084e+00 76 71 78
-1.503784e+00 -4.675414e-02 2.947747e+00 163 164 166
-1.091730e+00 2.102187e-01 2.958676e+00 140 131 129
2.469360e+00 6.813816e-01 3.048232e+00 166 167 167
-2.241013e+00 6.625250e-01 2.967940e+00 139 139 152
3.731833e-01 1.156178e+00 3.028159e+00 83 82 98
3.620024e-01 1.214495e+00 3.029930e+00 75 71 76
3.307112e-01 1.198423e+00 3.027977e+00 182 181 180
4.767591e-01 1.318602e+00 3.035371e+00 76 71 71
-1.130656e+00 1.413573e+00 3.006599e+00 158 145 130
-1.258772e+00 1.392604e+00 3.003066e+00 194 196 195
-1.806478e+00 1.376181e+00 2.997390e+00 152 138 124
-1.159736e+00 1.534330e+00 3.007058e+00 204 197 197
2.601763e-01 2.075441e+00 3.050578e+00 174 154 138
-1.429230e+00 1.913716e+00 3.017448e+00 106 100 95
-1.485274e+00 1.953164e+00 3.017323e+00 129 121 116
-1.926029e+00 2.008969e+00 3.015425e+00 179 174 174
-9.678329e-02 -4.205692e-02 2.967579e+00 116 118 113
6.799998e-01 3.380856e-02 3.056345e+00 96 98 93
3.526380e-01 -1.034572e-01 2.991274e+00 38 40 45
5.854559e-01 1.379528e+00 2.926194e+00 44 57 74
2.058473e+00 8.266779e-01 3.021019e+00 83 86 85
8.161074e-01 1.176250e+00 2.823291e+00 51 61 70
7.626717e-01 1.448625e+00 3.675460e+00 69 71 67
1.713091e+00 3.754635e+00 -8.118427e-01 135 143 145
-1.543017e-01 4.653576e-01 3.681425e+00 39 45 56
-2.581790e-01 2.624516e+00 2.907692e+00 68 74 70
-7.620089e-02 4.601955e+00 3.034068e+00 124 127 125
-7.620089e-02 4.601955e+00 3.034068e+00 124 127 125
-2.322853e-01 2.367065e-01 3.736360e+00 132 139 132
-3.142791e-01 1.659775e+00 3.120745e+00 136 141 144
4.747957e-01 4.405640e+00 2.652425e+00 252 252 251
4.747957e-01 4.405640e+00 2.652425e+00 252 252 251
-1.810479e+00 1.812215e+00 3.074996e+00 131 137 138
-1.724921e+00 2.725909e+00 3.850004e+00 35 43 56
-3.629279e-01 2.867714e-01 3.634414e+00 120 125 128
-1.335870e+00 1.787035e+00 2.956392e+00 116 117 111
-5.113200e-01 4.318200e+00 3.145208e+00 92 96 97
-6.278132e-02 1.114670e+00 3.407751e+00 109 110 104
3.166491e-02 1.200061e+00 3.385192e+00 113 113 105
6.099273e-01 1.831483e+00 3.028685e+00 72 66 63
6.099273e-01 1.831483e+00 3.028685e+00 72 66 63
-1.463967e+00 1.800988e+00 2.840459e+00 78 77 82
-1.747065e-01 1.771577e+00 2.993198e+00 136 137 136
5.426544e-01 1.838972e+00 3.030507e+00 78 73 70
-1.237102e+00 2.001301e+00 2.944165e+00 78 75 70
-1.829994e+00 1.800284e+00 3.056251e+00 131 138 144
-7.992337e-01 4.088732e+00 3.176063e+00 120 122 119
-3.697150e-01 1.400518e-01 3.707216e+00 113 125 133
-3.488192e-01 2.752962e-01 3.653941e+00 106 115 117
-3.630930e-01 5.962838e-01 3.492637e+00 114 118 119
-1.895291e+00 1.384034e+00 2.990707e+00 75 78 76
1.133479e+00 1.859440e+00 3.028448e+00 86 87 87
-7.807487e-02 1.939584e+00 3.051553e+00 81 83 82
4.041276e-01 2.162319e+00 3.220326e+00 77 75 77
-2.457105e-01 2.647262e+00 2.881567e+00 66 69 66
-2.457105e-01 2.647262e+00 2.881567e+00 66 69 66
-9.923968e-01 2.646731e+00 2.990451e+00 117 126 129
-1.630976e+00 2.479561e+00 3.127622e+00 127 134 142
-1.752306e+00 2.493498e+00 3.269374e+00 98 108 117
-1.168283e+00 3.843660e+00 3.344539e+00 128 133 136
-1.715017e+00 2.764250e+00 3.746023e+00 81 82 84
-1.696631e+00 2.821675e+00 3.740376e+00 132 133 127
-2.255277e-01 4.587476e-01 3.648683e+00 120 128 133
-2.255277e-01 4.587476e-01 3.648683e+00 120 128 133
-1.116234e-01 1.850520e+00 3.022573e+00 74 75 78
-2.088276e-02 1.958388e+00 3.046289e+00 131 132 127
-1.789944e+00 1.771108e+00 2.976216e+00 77 78 80
6.166257e-01 2.046774e+00 3.127815e+00 129 129 127
-2.017829e-01 2.153491e+00 2.972162e+00 113 118 118
-1.847173e+00 1.813943e+00 3.080242e+00 81 85 88
-1.288531e+00 2.217193e+00 2.942210e+00 143 148 148
-3.540546e-01 2.505113e+00 2.959642e+00 122 125 126
-3.540546e-01 2.505113e+00 2.959642e+00 122 125 126
-5.453520e-01 4.265289e+00 3.184036e+00 89 94 94
-1.737758e+00 2.661200e+00 3.829494e+00 123 125 124
-1.407073e+00 3.526064e+00 3.607067e+00 121 122 115
-1.666376e+00 2.863584e+00 3.877489e+00 116 115 110
-1.542017e+00 1.709701e+00 2.995299e+00 169 104 74
-3.702180e-01 2.282292e+00 3.208663e+00 43 28 23
-1.163062e-01 2.022757e+00 2.894256e+00 168 110 86
-6.169861e-02 2.235404e+00 3.176806e+00 109 109 114
7.028868e-02 2.055184e+00 3.133846e+00 124 126 129
7.028868e-02 2.055184e+00 3.133846e+00 124 126 129
5.493918e-01 7.630746e-01 2.864452e+00 125 124 129
3.144325e-01 2.260920e+00 3.352822e+00 205 226 245
2.029549e-01 2.267406e+00 3.332078e+00 205 222 241
3.201681e-01 6.660733e-01 2.855446e+00 132 136 137
-1.253322e-01 8.188106e-01 2.873112e+00 27 25 36
1.940024e-01 5.325057e-02 2.866618e+00 29 19 17
5.211644e-01 4.546304e-01 2.859556e+00 69 69 71
2.507314e-01 4.932654e-01 2.855694e+00 21 20 25
1.423652e-01 9.335301e-01 2.873929e+00 129 128 132
4.258035e-01 6.395288e-01 2.862615e+00 125 128 133
8.307782e-01 7.214982e-01 2.882484e+00 127 129 128
2.071066e-01 8.912994e-01 2.871251e+00 15 14 21
2.071066e-01 8.912994e-01 2.871251e+00 15 14 21
8.812307e-02 1.039985e+00 2.883796e+00 128 132 135
9.965792e-01 9.877807e-01 2.901809e+00 124 124 129
9.965792e-01 9.877807e-01 2.901809e+00 124 124 129
-1.751648e-01 1.900823e+00 3.047483e+00 108 109 111
-1.751648e-01 1.900823e+00 3.047483e+00 108 109 111
-1.866010e-01 2.079708e+00 3.104174e+00 52 47 46
4.737815e-01 3.854266e-01 2.859776e+00 100 94 93
2.306809e-01 6.929918e-01 2.863736e+00 3 4 7
1.360866e-01 8.196323e-01 2.867687e+00 117 118 120
1.360866e-01 8.196323e-01 2.867687e+00 117 118 120
6.786432e-01 9.569666e-01 2.881246e+00 135 136 138
4.015960e-01 9.726046e-01 2.875281e+00 126 125 130
4.015960e-01 9.726046e-01 2.875281e+00 126 125 130
-9.492762e-01 1.770446e+00 2.962902e+00 128 128 128
3.590496e-01 1.875718e+00 3.055542e+00 117 109 104
3.977841e-01 2.046219e+00 3.133785e+00 133 130 128
4.557657e-01 2.048970e+00 3.128508e+00 140 139 137
2.867690e-01 3.983410e-01 2.854683e+00 100 96 88
2.867690e-01 3.983410e-01 2.854683e+00 100 96 88
-4.810465e-03 5.665633e-01 2.862179e+00 114 112 119
-7.739033e-02 6.303490e-01 2.866063e+00 16 19 27
-7.739033e-02 6.303490e-01 2.866063e+00 16 19 27
4.387885e-01 5.893015e-01 2.864185e+00 4 5 7
1.988361e-01 7.930657e-01 2.866284e+00 134 135 136
8.706105e-01 7.607620e-01 2.886688e+00 133 134 136
1.725194e-01 8.330646e-01 2.868152e+00 1 2 12
9.803628e-01 9.553498e-01 2.899208e+00 122 121 126
7.214257e-01 9.893672e-01 2.885702e+00 5 5 12
-2.136787e-01 1.726627e+00 2.995630e+00 127 122 126
5.035052e-01 4.791783e-01 2.860652e+00 127 125 126
4.422138e-01 6.934313e-01 2.864853e+00 124 128 133
4.488892e-01 9.143614e-01 2.872846e+00 144 143 149
4.166032e-01 9.410279e-01 2.874145e+00 120 124 127
5.008924e-01 1.150339e+00 2.891469e+00 131 134 138
-8.021423e-01 1.850128e+00 2.981435e+00 110 107 108
-1.164360e+00 1.874731e+00 2.950701e+00 32 32 28
-2.046315e-01 1.944389e+00 3.055360e+00 45 44 47
3.005620e-01 4.443297e-01 2.853499e+00 136 135 140
2.362830e-01 7.956199e-01 2.866075e+00 22 25 29
4.871637e-01 1.080157e+00 2.885367e+00 16 14 12
1.851112e-01 1.266629e+00 2.908983e+00 138 142 146
-1.421121e+00 1.779907e+00 2.930965e+00 49 39 37
-1.274379e+00 1.863468e+00 2.942553e+00 55 54 49
-1.055619e-01 1.828638e+00 3.029558e+00 133 128 131
1.448372e+00 1.806259e+00 2.982344e+00 139 140 141
-6.931009e-01 2.004627e+00 3.008364e+00 48 44 43
4.729120e-01 2.074566e+00 3.141750e+00 65 59 59
2.017387e+00 2.544010e+00 3.012101e+00 99 95 92
2.349085e+00 3.110706e+00 3.382906e+00 49 58 70
2.103604e+00 3.402416e+00 3.664274e+00 145 149 148
-1.587970e+00 2.008327e+00 4.480727e+00 34 48 57
-1.391476e+00 7.751968e-02 2.514135e+00 109 120 128
-1.391476e+00 7.751968e-02 2.514135e+00 109 120 128
-2.109708e-01 -3.213602e-01 3.774263e+00 42 42 40
-1.468057e+00 1.759192e+00 2.920152e+00 120 125 121
4.444228e-03 5.707614e-02 3.653486e+00 131 136 139
2.265664e+00 3.336861e+00 3.536989e+00 60 64 69
-1.512718e+00 1.648999e+00 4.844753e+00 107 114 117
-4.935066e-01 -2.998884e-01 3.660890e+00 38 41 43
3.963255e-01 7.017338e-01 3.432541e+00 120 122 124
1.691854e+00 1.246956e+00 2.981216e+00 95 98 102
3.200463e-01 7.319791e-01 3.456923e+00 132 141 141
1.663037e+00 1.934479e+00 2.998449e+00 158 170 179
-8.379504e-01 2.076529e+00 3.075878e+00 134 136 140
-1.553125e+00 1.757961e+00 4.718300e+00 109 119 127
2.683581e-01 -2.780993e-01 1.958445e+00 57 58 54
-7.484021e-01 -3.113932e-01 3.254863e+00 38 42 47
-2.817692e-01 -7.676154e-02 3.684532e+00 106 116 121
-3.007110e-01 -6.083316e-02 3.672782e+00 64 64 66
-3.265328e-01 -6.895281e-02 3.686461e+00 110 122 121
-9.007840e-01 1.665100e+00 2.917927e+00 82 83 78
-1.629758e+00 1.846283e+00 2.991923e+00 122 124 118
2.044561e+00 3.906548e+00 3.681922e+00 121 119 113
-1.686787e+00 1.512994e+00 4.631118e+00 121 121 122
6.134891e-01 -2.891037e-01 2.961662e+00 57 64 70
9.563947e-01 -1.516144e-01 2.616970e+00 60 62 59
-3.878386e-01 -5.526653e-01 3.668645e+00 46 53 62
1.207485e+01 9.206523e+00 -1.752858e+01 104 104 102
-4.786067e-01 -4.542823e-01 3.702488e+00 98 101 94
1.083808e+00 2.853129e+00 2.893564e+00 131 139 140
1.294519e+00 4.170822e+00 3.044694e+00 149 157 160
1.955736e-01 4.029889e+00 3.406714e+00 125 126 119
-1.647156e+00 3.789890e+00 3.306005e+00 94 96 93
-1.330729e+00 4.120835e+00 3.377663e+00 69 71 68
-1.437675e+00 4.090798e+00 3.386334e+00 76 77 76
-1.376860e+00 4.189249e+00 3.395169e+00 117 114 102
-1.688661e+00 1.419884e+00 4.729756e+00 66 75 81
5.064446e-01 -3.341647e-01 3.051132e+00 99 111 117
9.413503e-01 -1.516127e-01 2.590960e+00 101 111 110
-7.450902e-01 -3.333939e-01 3.233206e+00 44 53 60
-2.907791e-01 -5.537111e-01 3.681661e+00 104 109 112
-1.617402e-01 -5.451376e-01 3.662609e+00 50 52 54
-5.616382e-01 -4.819026e-01 3.579991e+00 56 58 67
-3.583446e-01 -5.547444e-01 3.731026e+00 103 117 118
-1.038318e+00 -1.146241e-01 2.902550e+00 101 111 117
-1.040226e+00 -3.967506e-02 2.941324e+00 48 50 49
-2.335864e-01 -5.877315e-02 3.700123e+00 63 63 64
1.879696e+00 8.097532e-01 2.803680e+00 129 130 131
5.643237e-01 2.154108e+00 2.667054e+00 69 63 60
-1.010633e-01 2.071553e+00 2.804096e+00 136 138 133
-1.830867e+00 1.443693e+00 3.201046e+00 77 80 83
-1.192445e+00 1.958503e+00 2.997399e+00 127 130 125
-1.544820e+00 1.948639e+00 3.070889e+00 119 119 109
2.104975e-01 2.417844e+00 3.038693e+00 67 68 67
1.959115e+00 3.449770e+00 3.508241e+00 140 142 143
-1.743173e+00 3.427724e+00 3.261858e+00 113 117 113
7.522350e-02 4.137154e+00 3.257206e+00 85 86 90
2.913678e-01 4.221906e+00 3.330232e+00 85 84 84
-8.884549e-02 -6.190917e-01 2.975826e+00 55 55 52
2.636881e-01 -4.447251e-01 3.087415e+00 105 108 101
6.631070e-01 -3.291408e-01 3.002271e+00 121 126 130
-6.925421e-01 -3.806923e-01 3.341142e+00 87 95 102
-8.868261e-01 -2.137041e-01 3.039883e+00 47 52 56
-1.255033e+00 1.721929e-02 2.616460e+00 75 85 94
1.124399e+01 8.804655e+00 -1.664507e+01 96 96 92
-5.797223e-03 -3.137211e-02 3.691668e+00 100 106 112
1.111849e+00 4.263296e+00 3.066613e+00 55 59 67
8.490843e-01 4.026465e+00 3.227131e+00 80 81 84
7.221230e-01 4.306073e+00 3.173342e+00 144 144 141
6.262467e-01 4.075111e+00 3.280709e+00 76 78 75
-1.750579e+00 9.687640e-01 2.976172e+00 139 70 41
-1.800448e+00 2.769133e+00 3.341129e+00 163 106 85
-1.800448e+00 2.769133e+00 3.341129e+00 163 106 85
2.659222e-01 1.329006e+00 2.995888e+00 167 108 82
-9.798823e-01 2.556829e-01 2.919958e+00 33 14 7
-1.421754e+00 6.125457e-01 2.834348e+00 154 102 76
-2.072250e+00 8.814601e-01 3.317468e+00 126 77 60
-2.072250e+00 8.814601e-01 3.317468e+00 126 77 60
1.606586e-01 6.436644e-01 3.554667e+00 12 3 0
-1.575247e+00 1.685348e+00 3.282523e+00 174 127 110
-1.503760e+00 1.877941e+00 3.261378e+00 146 90 67
-9.428674e-01 -4.049429e-01 3.137482e+00 103 89 87
-1.120203e+00 3.319107e+00 3.551235e+00 163 105 84
1.086569e+00 4.019960e+00 3.219327e+00 56 31 27
1.812417e+00 3.294229e+00 3.585866e+00 152 94 70
2.440939e+00 2.983392e+00 4.096830e+00 43 21 14
3.609955e-01 -3.001973e-01 2.934221e+00 105 105 107
1.155322e-01 -2.554478e-01 2.939399e+00 98 101 106
-1.880016e+00 1.973883e+00 2.972876e+00 115 116 118
-1.325508e+00 1.844052e+00 3.053573e+00 87 86 81
-1.325508e+00 1.844052e+00 3.053573e+00 87 86 81
-1.745436e+00 1.630337e+00 2.978570e+00 130 135 137
-1.107452e+00 1.607858e+00 3.022867e+00 130 130 128
6.757597e-01 -2.835755e-01 2.979484e+00 40 39 37
6.757597e-01 -2.835755e-01 2.979484e+00 40 39 37
-4.745163e-01 1.854475e+00 3.031898e+00 144 151 154
-6.927929e-01 2.178358e+00 3.067210e+00 61 57 54
1.835466e+00 2.099694e+00 3.125721e+00 68 69 62
2.331599e+00 2.193250e+00 3.100053e+00 114 124 123
2.165482e+00 2.198392e+00 3.283099e+00 107 116 115
-1.915775e-01 -7.510032e-02 2.994616e+00 111 114 117
4.394306e-01 8.590484e-02 2.955905e+00 44 43 38
-2.613907e-01 1.789278e+00 3.052679e+00 129 133 136
1.336149e+00 1.810153e+00 3.064882e+00 132 128 120
-6.128654e-02 -6.067194e-01 2.929462e+00 44 43 39
-1.457901e+00 1.600516e-01 2.859743e+00 38 38 35
1.291882e+00 7.226915e-02 2.962148e+00 121 122 117
-1.238878e+00 1.637541e+00 3.043194e+00 121 121 118
-2.405283e-01 1.796965e+00 3.058662e+00 119 124 127
-1.908347e+00 2.028605e+00 2.969056e+00 59 63 64
1.661218e+00 2.111782e+00 3.132248e+00 150 156 161
1.016739e+00 5.214999e-01 2.976746e+00 123 128 129
9.311843e-01 7.611399e-01 2.970908e+00 2 2 5
-2.086289e+00 1.519065e+00 2.939080e+00 110 115 118
3.305721e-01 1.388739e+00 2.982297e+00 135 142 137
-1.540062e+00 1.711119e+00 3.005141e+00 34 33 29
1.075094e-01 1.686868e+00 3.030688e+00 94 89 86
2.402878e+00 1.655092e+00 3.090492e+00 97 96 92
4.879597e-01 1.897275e+00 3.091076e+00 98 93 90
4.879597e-01 1.897275e+00 3.091076e+00 98 93 90
1.271027e+00 1.867904e+00 3.079719e+00 55 52 47
-3.118276e-01 2.259337e-01 2.930893e+00 76 67 62
-2.091605e+00 1.421191e+00 2.937506e+00 46 45 51
-3.540791e-01 1.304433e+00 2.992996e+00 61 61 61
-1.539155e+00 1.564280e+00 2.995645e+00 42 46 50
8.664980e-01 1.223509e+00 2.981207e+00 133 141 143
-1.664714e+00 1.625725e+00 2.986822e+00 126 140 138
-1.418135e+00 1.610576e+00 3.010903e+00 37 34 35
-1.244743e+00 1.622523e+00 3.015000e+00 51 47 49
7.038816e-01 1.346695e+00 2.979482e+00 141 146 143
1.951259e+00 1.441185e+00 3.081097e+00 115 117 112
-1.771177e+00 1.826877e+00 2.982429e+00 120 119 119
2.152590e-01 1.619244e+00 3.014820e+00 108 99 90
-1.017457e+00 1.797929e+00 3.040150e+00 122 124 113
2.485975e-01 1.658388e+00 3.020014e+00 102 94 87
-8.589192e-01 1.787913e+00 3.045755e+00 95 95 93
2.844428e-01 1.657477e+00 3.016922e+00 7 4 5
-1.249528e+00 1.930229e+00 3.032977e+00 126 125 120
2.480833e+00 1.654106e+00 3.087029e+00 41 37 28
2.179071e+00 1.742186e+00 3.119872e+00 125 121 109
2.179071e+00 1.742186e+00 3.119872e+00 125 121 109
2.741073e+00 1.754766e+00 3.125963e+00 49 49 44
2.566017e+00 2.085426e+00 3.114643e+00 52 50 42
1.110439e-01 -6.224106e-01 2.934612e+00 88 85 81
6.038955e-02 -1.110203e-02 2.934226e+00 110 109 109
-2.211729e+00 1.285324e+00 2.918198e+00 30 34 43
-2.002208e+00 1.690122e+00 2.951471e+00 51 55 58
-1.924249e+00 1.722627e+00 2.961344e+00 121 121 119
-1.866365e+00 1.768960e+00 2.969220e+00 121 125 121
-1.674399e+00 1.819751e+00 2.990313e+00 56 57 52
8.699320e-01 1.529149e+00 3.000369e+00 96 83 77
-1.730839e+00 1.849463e+00 2.985295e+00 122 123 119
-9.777963e-01 1.827778e+00 3.043791e+00 138 142 144
-1.051458e+00 1.860541e+00 3.041837e+00 37 36 41
-2.127911e+00 1.964190e+00 2.942297e+00 84 92 97
1.377561e+00 1.633851e+00 3.063623e+00 57 56 54
7.004924e-01 1.741118e+00 3.058368e+00 47 38 32
-1.403805e+00 1.961679e+00 3.020730e+00 117 114 107
-1.438355e-02 1.921118e+00 3.081359e+00 59 61 63
2.811142e+00 1.700654e+00 3.126449e+00 61 61 56
1.979034e+00 1.784013e+00 3.087567e+00 55 56 50
2.264856e+00 1.788897e+00 3.121876e+00 121 116 105
2.316646e+00 1.809182e+00 3.122251e+00 132 127 116
2.744173e+00 1.781550e+00 3.125174e+00 144 145 147
2.575843e+00 1.808260e+00 3.124608e+00 118 118 109
2.567075e+00 1.859851e+00 3.125293e+00 146 148 151
4.218812e-01 2.113766e+00 3.128599e+00 125 126 130
1.919559e+00 1.961345e+00 3.113283e+00 120 119 114
2.037677e+00 1.957215e+00 3.116702e+00 134 131 127
1.454194e-01 -7.548678e-01 2.934287e+00 72 79 71
-2.118076e+00 1.314426e+00 2.931890e+00 48 51 56
-1.945800e+00 1.689058e+00 2.963765e+00 126 127 126
-2.077439e-01 1.733322e+00 3.045147e+00 126 127 122
1.941065e+00 1.704032e+00 3.113221e+00 77 81 80
2.233154e+00 1.748514e+00 3.121746e+00 65 61 50
2.278640e+00 1.771000e+00 3.121945e+00 76 64 55
2.349546e+00 1.796759e+00 3.122815e+00 74 66 56
2.723800e-01 2.054480e+00 3.143486e+00 56 55 61
2.992925e+00 1.886256e+00 3.063978e+00 52 46 50
6.289011e-01 -1.909199e-01 2.993044e+00 124 111 105
1.516984e+00 1.605325e+00 2.765524e+00 212 226 226
1.346021e+00 1.429727e+00 3.009378e+00 218 227 224
-5.174576e-01 3.897988e-01 3.115588e+00 40 36 36
-5.641048e-01 -3.926622e-02 2.343697e+00 64 71 77
-4.828245e-01 1.223718e+00 3.075722e+00 47 45 49
-1.072671e+00 2.453757e+00 3.286064e+00 14 12 17
-7.003210e-01 1.817271e+00 3.231054e+00 99 89 89
-1.702172e+00 2.891685e+00 3.117444e+00 95 93 99
1.267902e+00 1.804088e+00 3.154649e+00 71 62 53
6.736569e-02 8.399229e-01 2.572119e+00 82 81 85
4.674932e-01 1.988880e+00 2.767120e+00 84 67 53
6.445393e-01 1.961762e+00 2.789471e+00 112 96 82
-2.001493e+00 2.032594e+00 3.042315e+00 42 38 39
2.071716e+00 9.013787e-01 3.311724e+00 193 186 180
9.154873e-02 1.688590e+00 3.450915e+00 57 51 48
1.707391e+00 2.961411e+00 3.697354e+00 152 144 132
1.309144e+00 3.729661e+00 3.506830e+00 77 62 59
3.067678e+00 5.265931e+00 3.960412e+00 183 173 168
-1.217525e+00 3.964912e+00 3.318062e+00 37 34 37
-1.069660e+00 3.965715e+00 3.347538e+00 95 81 80
1.664080e+00 -3.199216e-01 3.303169e+00 108 109 105
1.385974e+00 -4.248241e-01 3.122990e+00 61 60 56
2.052507e+00 -4.862450e-01 3.467316e+00 150 154 165
1.897411e+00 -2.315966e-01 3.449631e+00 137 138 141
8.446017e-01 -2.705945e-01 2.951750e+00 142 147 150
1.480376e+00 -1.484170e-01 3.245250e+00 133 132 137
1.875863e+00 -1.769260e-01 3.454527e+00 37 39 38
9.634084e-01 5.705751e-02 3.110089e+00 42 38 35
-4.375806e-01 -5.551454e-01 2.927974e+00 150 164 213
3.436007e-01 -8.215756e-01 3.019077e+00 121 118 149
-1.029362e+00 2.284189e-01 2.856557e+00 123 131 175
2.446604e-01 -9.151802e-01 2.987719e+00 66 77 124
3.690327e-01 -4.523110e-01 3.052390e+00 145 146 175
-8.228576e-01 1.355857e-01 2.862689e+00 135 156 199
-1.242334e+00 2.543307e-01 2.880161e+00 127 145 188
-1.001924e+00 2.625902e-01 2.841840e+00 69 73 117
-8.335422e-01 4.106240e-01 2.814034e+00 134 155 210
-9.897214e-01 4.999089e-01 2.799870e+00 65 81 141
-1.050992e-01 -8.444398e-01 2.941188e+00 81 90 127
-5.653677e-01 -1.481813e-01 2.893401e+00 30 40 95
-3.814273e-01 -3.936797e-03 2.909662e+00 74 77 120
-4.143369e-01 6.499432e-02 2.885932e+00 147 161 205
-7.794899e-01 1.352669e+00 2.901208e+00 132 140 184
1.199553e-01 -1.156627e+00 2.949925e+00 70 81 127
-5.913407e-03 -6.607312e-02 2.975335e+00 26 29 70
-1.273992e+00 1.743013e-01 2.901766e+00 56 62 110
-7.031947e-01 2.277829e-01 2.845027e+00 61 64 105
-9.102238e-01 1.631728e+00 3.122186e+00 129 142 184
-1.143023e+00 -1.114379e-01 2.912417e+00 25 35 96
-7.070416e-02 -2.455614e-01 2.955331e+00 55 68 125
-8.643471e-02 -2.230240e-01 2.954141e+00 141 157 211
-8.375664e-02 -2.905384e-02 2.947736e+00 128 137 178
-3.130848e-01 -1.124731e+00 2.887947e+00 70 87 143
-6.638541e-01 -1.492131e-01 2.879397e+00 123 141 190
-6.514972e-01 -1.451544e-01 2.886450e+00 31 49 99
-6.805657e-03 -2.444859e-01 2.969179e+00 136 157 210
-2.974609e-01 -1.585362e-01 2.875538e+00 187 183 183
7.563780e-01 2.278322e+00 3.960311e+00 122 127 128
5.408155e-01 -4.720197e-01 2.933997e+00 56 54 49
-1.566809e+00 2.088700e-01 2.984400e+00 95 100 95
3.532632e-01 1.616368e+00 2.631468e+00 121 128 128
6.695506e-01 1.925877e+00 3.188406e+00 136 136 134
-9.792303e-01 2.674258e+00 3.129456e+00 119 121 124
9.531380e-01 2.161073e+00 4.084032e+00 101 102 100
5.543666e-01 2.406326e+00 4.063113e+00 74 75 77
2.336941e-02 2.769721e+00 3.851676e+00 56 57 63
2.007874e-01 1.519343e+00 2.534259e+00 45 48 55
-8.698435e-01 2.011372e+00 3.035985e+00 74 73 71
3.232386e+00 2.621245e+00 3.877295e+00 109 116 124
5.037754e-01 2.420096e+00 3.960701e+00 146 150 152
5.885087e-01 2.388339e+00 4.035367e+00 55 59 62
2.920217e+00 6.026654e+00 3.883760e+00 129 139 143
-7.132365e-01 1.183383e+00 2.876389e+00 72 72 72
8.850903e-01 1.954112e+00 3.317855e+00 70 70 68
8.368271e-01 1.984247e+00 3.302258e+00 76 80 78
8.368271e-01 1.984247e+00 3.302258e+00 76 80 78
8.825175e-01 2.251550e+00 3.149762e+00 73 75 70
1.249159e-01 2.162195e+00 3.217688e+00 67 68 67
-7.802674e-01 2.227594e+00 3.172229e+00 67 67 66
6.674889e-01 2.334248e+00 4.175792e+00 82 83 78
-3.461570e-01 4.721519e-01 2.984504e+00 68 68 69
1.716897e-01 1.002435e+00 2.359932e+00 42 49 54
9.966727e-01 9.402263e-01 2.926255e+00 66 68 66
-8.472399e-01 1.537686e+00 2.963738e+00 79 80 74
5.253236e-01 2.005139e+00 3.192700e+00 71 72 66
-9.103493e-01 2.098047e+00 3.059787e+00 77 77 75
-1.443626e-01 2.152182e+00 3.195261e+00 111 111 110
-1.052318e+00 2.682517e+00 2.961035e+00 92 98 104
3.220613e+00 2.864414e+00 4.189239e+00 248 252 255
-1.134277e-01 2.803867e+00 3.753830e+00 60 65 69
-1.592275e+00 5.530782e+00 3.590635e+00 161 163 159
3.188746e-01 -5.226963e-01 2.948886e+00 165 148 138
-2.829003e-01 2.874443e+00 3.859651e+00 130 63 36
-8.470227e-01 -1.777262e-01 3.004822e+00 90 79 77
-2.145744e+00 1.146299e+00 2.785812e+00 176 130 114
-5.262122e-01 1.034561e+00 3.085442e+00 92 65 57
-9.519733e-02 2.468537e+00 3.979082e+00 99 44 24
7.067758e-01 2.313269e+00 1.750724e+00 155 106 88
1.512519e+00 2.887405e+00 1.339802e+00 156 97 74
4.347931e-01 2.377950e+00 2.889973e+00 149 91 71
6.630040e-01 2.221797e+00 1.753514e+00 160 111 86
1.438214e+00 2.839253e+00 1.351441e+00 6 7 3
1.281363e+00 2.946920e+00 1.556313e+00 45 23 16
4.280386e-01 2.439659e+00 2.581639e+00 69 27 9
-2.069355e-01 2.769028e+00 3.896671e+00 44 20 11
2.869553e-01 -4.052188e-01 2.939325e+00 39 13 11
-8.544371e-02 3.125064e-01 2.924087e+00 123 66 38
9.866229e-01 2.685930e+00 1.640956e+00 138 100 80
3.177893e-01 2.361954e+00 2.497970e+00 98 40 22
-4.827928e-03 2.406838e+00 4.055693e+00 58 28 15
3.058636e-01 -5.812962e-01 2.974264e+00 58 45 37
-3.744802e-01 2.423119e-01 2.925562e+00 118 74 57
9.714048e-01 2.553406e+00 1.596951e+00 47 17 9
4.841351e-01 2.348913e+00 2.995569e+00 137 86 67
4.841351e-01 2.348913e+00 2.995569e+00 137 86 67
-7.377675e-01 1.986795e+00 3.331673e+00 68 62 60
-7.377675e-01 1.986795e+00 3.331673e+00 68 62 60
-2.462880e-01 2.508569e+00 3.850850e+00 165 113 95
2.167862e-01 -2.177422e-01 2.854288e+00 69 52 44
5.534074e-01 -2.606869e-01 2.948076e+00 101 66 51
-4.293658e-02 2.200700e-01 2.923311e+00 99 63 44
5.449847e-01 2.567767e+00 2.228557e+00 122 71 50
-2.333840e-01 1.802040e+00 3.078576e+00 163 104 84
-1.984724e-01 1.813242e+00 3.075408e+00 145 96 78
-6.909848e-01 1.748587e+00 3.226788e+00 31 27 22
9.601298e-01 2.616585e+00 2.848352e+00 91 37 17
-2.005585e-01 1.925347e+00 3.303670e+00 86 39 20
-2.946875e-01 2.417563e+00 3.791736e+00 86 44 28
-1.075948e-01 2.351359e+00 3.914731e+00 130 98 87
-4.153763e-01 2.738618e+00 3.745355e+00 84 44 34
-4.153763e-01 2.738618e+00 3.745355e+00 84 44 34
-7.991739e-02 2.372137e+00 3.962544e+00 105 75 64
-3.985009e-01 2.745204e+00 3.760455e+00 137 93 77
-1.083594e-01 2.515531e+00 3.975385e+00 152 93 69
-1.553297e-01 2.570824e+00 3.946414e+00 152 89 65
-3.225486e-01 1.787230e+00 3.195828e+00 109 50 28
-2.379638e-01 1.868515e+00 3.164618e+00 139 87 64
-2.521936e-01 1.871095e+00 3.242676e+00 48 23 13
1.234118e-01 2.103894e+00 3.169154e+00 135 83 62
-2.868438e-01 1.890288e+00 3.312316e+00 135 80 56
-8.664593e-02 2.358988e+00 3.933603e+00 106 73 60
-1.373068e-01 2.551633e+00 3.956174e+00 153 93 69
8.966606e-01 2.585258e+00 2.849378e+00 126 80 61
-1.427787e-02 2.024122e+00 3.224515e+00 123 75 55
-1.301437e-01 1.955552e+00 3.270973e+00 127 81 62
-4.110134e-01 2.662600e+00 3.755914e+00 71 39 29
-1.648018e-01 2.582489e+00 3.924720e+00 137 80 56
-2.178606e-02 2.400758e+00 4.038070e+00 136 77 53
7.263445e-02 2.494046e+00 4.161469e+00 100 64 57
1.786160e+00 5.952393e+00 4.628174e+00 102 101 114
6.570831e-01 -1.284360e+00 2.891560e+00 33 30 22
-1.656947e+00 1.645521e+00 2.966435e+00 86 85 90
3.263665e-01 -5.059448e-01 2.948209e+00 44 39 34
-1.186919e-01 -1.123634e+00 2.924997e+00 77 77 69
-1.908823e-01 -1.079046e+00 2.919592e+00 78 69 62
-2.983515e-01 -1.034111e+00 2.914271e+00 26 21 25
6.895701e-01 1.408605e-02 2.939545e+00 46 44 39
1.391135e+00 1.704641e+00 3.069758e+00 130 131 125
3.272173e-01 -6.555742e-01 2.944536e+00 65 65 60
3.662751e-01 -3.748836e-01 2.951317e+00 98 103 101
3.662751e-01 -3.748836e-01 2.951317e+00 98 103 101
1.083176e+00 6.951444e-01 3.025018e+00 13 19 21
3.176048e-01 1.900668e+00 3.049337e+00 60 51 49
2.424966e-01 -8.752523e-01 2.935773e+00 24 18 11
2.890848e-01 -7.333372e-01 2.941996e+00 70 72 70
3.271566e-01 -6.639082e-01 2.944651e+00 74 71 68
1.317880e-01 -9.653783e-01 2.929129e+00 61 58 51
1.327705e-01 -9.087894e-01 2.931449e+00 26 24 14
4.367252e-03 -8.621704e-01 2.928293e+00 57 56 52
1.345316e-01 -8.241383e-01 2.935486e+00 65 70 68
2.674797e-01 -8.052875e-01 2.938984e+00 67 67 57
2.174504e-01 -7.635384e-01 2.939355e+00 71 68 61
3.576234e-01 -7.691391e-01 2.940635e+00 71 68 64
3.253981e-01 -7.340843e-01 2.941811e+00 17 14 9
1.621523e-01 -5.903851e-01 2.943445e+00 88 87 82
1.776840e-01 -4.925155e-01 2.946017e+00 39 34 30
-8.514822e-01 1.909587e+00 3.033894e+00 116 112 115
1.355035e+00 2.491570e+00 3.142936e+00 223 231 233
1.593648e-01 -2.424397e-01 2.946783e+00 227 232 226
-2.946664e-01 -5.475418e-01 3.794126e+00 128 125 119
1.478378e-01 7.787168e-01 2.922918e+00 244 245 228
4.270578e-01 1.224544e+00 2.702572e+00 252 251 240
-6.821880e-01 1.492906e+00 2.935294e+00 180 194 198
6.131944e-01 -7.040133e-01 2.965550e+00 204 205 190
2.721084e-01 -2.733302e-01 2.947218e+00 81 82 76
-3.178807e-02 -9.767140e-01 2.838875e+00 202 183 125
-5.554831e-02 -9.643340e-01 2.841849e+00 196 183 149
8.031732e-02 -8.640607e-01 2.842971e+00 199 185 142
1.330297e-01 -8.470229e-01 2.837502e+00 134 116 94
2.116576e-01 -2.522422e-01 2.946535e+00 243 241 232
4.029083e-02 -7.332040e-02 3.000063e+00 236 245 242
2.536130e-01 7.468164e-01 2.924770e+00 246 250 233
-9.024681e-01 1.885369e+00 2.941586e+00 176 191 180
1.511329e-01 -8.269715e-01 2.837290e+00 88 77 56
2.392147e-01 -5.591526e-01 2.918797e+00 94 76 63
3.793160e-01 -9.218522e-01 2.672193e+00 92 91 73
-9.762254e-02 -8.418747e-01 2.866528e+00 246 233 189
3.554413e-01 -8.256956e-01 2.783575e+00 174 177 157
1.677533e-01 -8.228722e-01 2.838891e+00 185 176 139
1.389786e-01 -5.951192e-01 2.909411e+00 86 67 57
3.218517e-01 -3.647761e-01 2.948001e+00 240 234 210
7.582393e-02 -3.258125e-01 2.939317e+00 241 233 215
8.112904e-02 -2.984942e-01 2.942596e+00 156 153 132
7.441641e-02 -2.380045e-01 2.940116e+00 234 240 231
-3.859700e-01 -1.092295e+00 2.853886e+00 155 140 115
3.259397e-01 -9.570099e-01 2.724448e+00 82 80 70
2.654062e-01 -9.520802e-01 2.766327e+00 195 197 183
1.427453e-01 -9.445119e-01 2.813932e+00 200 185 153
2.908259e-01 -9.405593e-01 2.756661e+00 186 178 148
1.542892e-01 -9.286023e-01 2.814458e+00 204 192 168
4.379648e-01 -8.958142e-01 2.606952e+00 87 74 57
1.417109e-01 -7.163594e-01 2.876983e+00 232 223 196
7.265155e-01 -7.577063e-01 2.981860e+00 188 176 167
2.183293e-01 -6.705127e-01 2.885662e+00 129 112 87
6.031114e-01 -6.980994e-01 2.962807e+00 229 220 197
5.158299e-01 -6.002872e-01 2.948630e+00 120 117 110
2.748434e-01 -5.653457e-01 2.920957e+00 166 144 107
2.748434e-01 -5.653457e-01 2.920957e+00 166 144 107
2.965365e-01 -5.629299e-01 2.921398e+00 128 114 89
6.150670e-01 -5.904126e-01 2.962146e+00 193 191 170
4.039908e-01 -3.983894e-01 2.950924e+00 121 116 104
3.733202e-01 -3.754013e-01 2.950371e+00 236 230 214
4.217971e-01 -3.668717e-01 2.952828e+00 231 225 203
8.773077e-02 -3.289991e-01 2.940308e+00 240 239 218
8.005224e-02 -3.084005e-01 2.941114e+00 220 219 196
6.000524e-01 -1.707515e-01 2.960166e+00 255 254 230
9.764406e-02 4.323637e-01 2.952284e+00 215 208 186
-1.736763e-01 -1.014068e+00 2.846523e+00 101 83 42
-1.736763e-01 -1.014068e+00 2.846523e+00 101 83 42
1.931476e-01 -9.561615e-01 2.799248e+00 113 114 96
6.057876e-01 -9.322598e-01 3.026670e+00 184 187 176
1.476714e-01 -7.317732e-01 2.873102e+00 243 223 190
5.266792e-02 -6.524138e-01 2.899173e+00 235 222 204
2.673174e-01 -6.172281e-01 2.907141e+00 219 213 192
1.810176e-01 -5.675298e-01 2.915378e+00 227 203 165
1.444430e-01 -5.283129e-01 2.923735e+00 230 217 191
4.605193e-01 -5.521511e-01 2.943669e+00 177 171 154
6.141421e-01 -5.723996e-01 2.963074e+00 128 124 113
4.859429e-01 -4.651752e-01 2.953318e+00 220 213 198
4.859429e-01 -4.651752e-01 2.953318e+00 220 213 198
6.543720e-01 -3.889826e-01 2.962300e+00 200 192 154
2.351499e-01 -3.331622e-01 2.946346e+00 237 226 207
2.351499e-01 -3.331622e-01 2.946346e+00 237 226 207
2.129982e-01 -3.214523e-01 2.947065e+00 211 193 169
2.083424e-01 -3.027647e-01 2.948755e+00 119 109 103
7.059371e-02 -2.845772e-01 2.944622e+00 143 140 129
-1.732261e-01 2.114870e-01 2.943122e+00 237 222 188
4.892744e-01 3.643075e+00 3.567398e+00 138 131 126
-5.290031e-01 8.356019e-01 2.682778e+00 118 123 133
1.740641e+00 1.973052e+00 3.147903e+00 196 190 195
3.098345e+00 3.382873e+00 2.945983e+00 183 175 162
2.343318e+00 1.630770e+00 2.728484e+00 176 166 157
2.510444e+00 2.141867e+00 2.930309e+00 192 181 177
-4.557968e-01 2.478715e+00 3.833163e+00 122 117 118
-1.405918e+00 1.426494e+00 2.762197e+00 54 54 62
-6.912090e-01 2.911845e+00 3.648050e+00 45 37 37
1.813820e+00 3.564704e+00 3.330550e+00 79 70 61
-1.900940e+00 9.052331e-01 3.021685e+00 84 99 115
3.090660e+00 2.089397e+00 2.913675e+00 221 214 208
2.158397e+00 2.446743e+00 2.970778e+00 125 110 91
-5.108824e-01 2.224123e-01 2.504640e+00 75 72 78
1.983890e+00 -2.628667e-01 3.430290e+00 173 164 152
2.116877e+00 3.837444e-03 3.331546e+00 153 152 148
-4.287100e-01 9.914001e-01 2.735654e+00 124 127 139
-7.463465e-02 1.349564e+00 2.446034e+00 18 19 24
-2.000596e+00 1.537016e+00 3.228619e+00 21 22 29
-2.006721e+00 1.966846e+00 3.090406e+00 30 31 34
2.284278e+00 2.584838e+00 3.019484e+00 167 163 161
3.393177e+00 2.668172e+00 2.943584e+00 206 200 196
2.752179e+00 3.750959e+00 2.794819e+00 68 66 65
-2.001192e+00 3.501149e+00 3.365665e+00 12 12 15
5.199016e+00 5.746336e+00 2.220074e+00 135 125 112
4.361273e+00 5.389486e+00 2.438846e+00 115 105 92
-1.375670e-01 3.108541e+00 3.815168e+00 114 109 105
-2.320146e+00 3.380041e+00 3.586063e+00 114 109 106
-9.352575e-02 -4.158672e-01 2.943523e+00 56 45 40
-6.054759e-01 -8.244040e-02 2.550971e+00 64 71 77
-4.228589e-01 7.591276e-01 2.554212e+00 108 113 117
-3.916481e-01 1.671216e+00 3.243411e+00 147 151 165
-1.651842e+00 2.789796e+00 3.327305e+00 12 10 13
1.159848e-01 3.077809e+00 3.514130e+00 252 254 252
-5.758805e-01 3.182927e+00 4.091111e+00 89 89 92
-1.984177e+00 1.727027e+00 3.202620e+00 119 132 151
1.622634e+00 1.845766e+00 3.109120e+00 194 197 204
-2.133950e+00 2.003719e+00 3.391610e+00 26 25 25
1.816465e+00 2.152170e+00 3.206659e+00 195 189 189
1.963970e+00 3.414895e+00 3.436320e+00 120 110 101
-2.184632e+00 3.155840e+00 3.596865e+00 114 112 115
-1.549712e+00 3.817399e+00 3.724986e+00 13 15 24
-2.581728e-01 3.276203e+00 4.099468e+00 118 113 118
-1.257053e+00 -4.245768e-02 2.764930e+00 4 8 9
-1.849559e-01 -5.728165e-02 2.475699e+00 12 13 8
1.610908e+00 -3.860955e-01 3.167722e+00 78 71 65
1.649517e+00 -3.913383e-01 3.226402e+00 68 63 57
-1.082455e+00 3.169743e-01 2.578638e+00 50 46 39
-5.243758e-01 3.245661e-01 2.506130e+00 54 53 50
1.859691e+00 -7.373871e-02 3.145555e+00 149 134 112
2.034954e+00 -1.770723e-01 3.406679e+00 177 164 139
2.034954e+00 -1.770723e-01 3.406679e+00 177 164 139
-3.635364e-01 1.812171e+00 3.444804e+00 144 143 155
-3.631761e-01 1.893501e+00 3.482357e+00 147 148 153
-5.719115e-01 1.997524e+00 3.637133e+00 123 124 136
2.596676e+00 2.801141e+00 2.932157e+00 184 174 167
-2.543572e+00 2.906536e+00 3.284300e+00 109 127 150
-1.025381e+00 2.877535e+00 3.545651e+00 11 10 7
-3.087669e-01 2.715671e+00 3.751223e+00 60 52 49
-3.517394e-01 2.573377e+00 3.943786e+00 64 57 53
-8.583235e-01 3.014107e+00 3.728998e+00 108 104 102
-1.068290e+00 3.042247e+00 3.695559e+00 122 114 110
-1.902166e+00 5.746817e+00 3.136109e+00 77 76 81
-1.181821e+00 6.858345e+00 2.978269e+00 93 82 82
-1.451578e+00 9.564662e+00 2.331223e+00 96 95 98
1.576628e+00 -4.407954e-01 3.198180e+00 78 77 74
1.670051e+00 -4.786739e-01 3.334406e+00 90 84 79
-1.423466e+00 1.892851e-01 2.768431e+00 45 45 44
-1.423466e+00 1.892851e-01 2.768431e+00 45 45 44
1.867560e+00 -1.828511e-01 3.231749e+00 148 140 119
-1.513609e+00 6.098378e-01 2.770026e+00 59 55 46
-1.513609e+00 6.098378e-01 2.770026e+00 59 55 46
1.302791e-01 9.366885e-01 2.228010e+00 19 19 25
-3.830785e-01 9.936472e-01 2.442293e+00 56 53 55
-1.902874e+00 1.366453e+00 2.886609e+00 32 25 23
2.145244e-01 1.559541e+00 2.615937e+00 111 116 120
3.546711e-01 1.630572e+00 2.682307e+00 101 102 100
-1.252436e+00 1.810328e+00 2.867774e+00 23 15 13
-1.337939e+00 1.825850e+00 2.858668e+00 87 87 89
8.954770e-01 2.057466e+00 2.623117e+00 31 26 18
2.926929e+00 1.772284e+00 2.835606e+00 190 178 160
6.270673e-01 2.129391e+00 2.601936e+00 113 105 94
2.656300e+00 1.908774e+00 2.753805e+00 129 113 97
2.887514e+00 1.864277e+00 2.802978e+00 139 122 106
2.803174e+00 1.980648e+00 2.772421e+00 192 176 151
-1.974808e-01 1.976885e+00 3.176330e+00 36 31 30
-9.754960e-01 2.151726e+00 3.369517e+00 104 110 123
-1.715148e+00 2.942025e+00 3.454368e+00 80 80 81
1.627762e+00 3.614201e+00 3.311077e+00 84 72 67
-1.593427e+00 3.738519e+00 3.654832e+00 16 12 16
2.180429e-02 5.905417e-01 2.524823e+00 40 36 35
-2.076475e-02 5.901839e-01 3.102013e+00 20 15 20
1.672512e-01 1.442192e+00 2.559818e+00 26 25 28
-7.965720e-02 1.610065e+00 2.580663e+00 84 77 81
-1.212678e+00 1.569832e+00 2.805597e+00 107 106 111
3.459008e-01 1.702011e+00 2.672655e+00 32 32 33
-1.815517e+00 1.830993e+00 3.027341e+00 51 45 51
-1.209232e+00 1.918894e+00 3.114493e+00 38 34 30
-1.802881e+00 3.262457e+00 3.516191e+00 49 41 39
-1.030074e+00 3.069513e+00 3.697550e+00 60 54 54
3.783786e+00 5.174240e+00 2.622941e+00 190 184 169
-1.599863e+00 4.892724e+00 3.415360e+00 94 100 111
-1.657900e+00 5.303858e+00 3.362550e+00 100 109 114
-1.657900e+00 5.303858e+00 3.362550e+00 100 109 114
-7.183663e-02 6.161221e-01 3.081029e+00 136 135 140
-1.206188e-01 1.753113e+00 3.502221e+00 101 102 102
1.670847e+00 -3.465811e-01 3.238264e+00 108 109 105
-2.851192e-01 4.207107e-01 3.048140e+00 78 77 75
1.062510e+00 -1.546036e+00 2.679595e+00 114 118 121
1.974742e+00 -6.560394e-01 3.679749e+00 70 71 66
4.995178e-01 -2.159655e-01 3.037559e+00 83 84 79
8.348387e-01 -2.014303e-01 3.123050e+00 118 114 103
8.348387e-01 -2.014303e-01 3.123050e+00 118 114 103
1.151523e+00 -1.064489e+00 2.952647e+00 136 143 152
-9.536718e-01 -3.013510e-01 2.466958e+00 141 146 150
1.589599e+00 -3.422619e-01 3.210340e+00 111 112 106
1.528554e+00 8.575730e-01 3.310465e+00 154 155 160
-2.157857e+00 2.615090e+00 2.825296e+00 75 75 75
-2.008192e+00 -1.069503e+00 1.677349e+00 93 98 92
1.232080e+00 -1.120584e+00 3.019205e+00 135 138 147
6.196738e-01 -1.067083e+00 2.774817e+00 93 93 86
2.076434e+00 -4.995276e-01 3.390695e+00 150 154 165
-2.600756e+00 3.587358e-01 2.064332e+00 125 132 136
7.511127e-01 -2.087284e-01 3.096183e+00 137 137 136
5.070315e-02 -6.152507e-02 2.949696e+00 132 134 131
2.039907e+00 -3.803222e-01 3.377331e+00 133 134 137
2.105175e+00 -5.290714e-02 3.417467e+00 137 144 149
1.396983e+00 6.606037e-01 3.368334e+00 147 151 154
2.283578e+00 7.818034e-01 3.380878e+00 67 62 58
-5.038555e-01 1.567194e+00 3.292934e+00 156 159 165
9.543350e-01 -1.439652e+00 2.746375e+00 100 104 107
1.232724e+00 -1.167907e+00 3.000373e+00 62 61 65
-1.836260e-01 -6.784958e-01 2.611607e+00 59 56 51
-9.582179e-02 -6.143045e-01 2.677100e+00 61 56 53
3.808132e-01 -4.209215e-01 2.909794e+00 59 49 48
9.033520e-01 -3.630225e-01 3.080860e+00 120 125 129
4.809274e-01 -2.953882e-01 3.006405e+00 143 148 152
1.576465e+00 -4.406470e-01 3.180303e+00 89 90 95
9.863176e-01 -3.537684e-01 3.098463e+00 143 148 152
1.496034e+00 -4.244351e-01 3.176032e+00 149 152 157
1.656295e+00 -4.409970e-01 3.215361e+00 138 142 147
1.656295e+00 -4.409970e-01 3.215361e+00 138 142 147
1.807731e+00 -4.604631e-01 3.268713e+00 138 141 148
1.189479e+00 -3.443871e-01 3.141118e+00 61 60 56
-1.049573e+00 1.768184e-01 2.586085e+00 109 109 109
1.504452e-02 6.706610e-02 2.990891e+00 37 37 32
3.710866e-01 1.356988e-02 3.072824e+00 47 45 43
7.210637e-01 -3.116642e-02 3.140494e+00 48 47 45
1.226527e+00 -8.414830e-02 3.237727e+00 45 44 42
1.744304e+00 -1.592056e-01 3.287427e+00 44 44 46
1.978814e+00 -1.912281e-01 3.349237e+00 42 43 39
2.245340e+00 5.208604e-01 3.321795e+00 117 119 118
2.035727e+00 1.765589e+00 3.247662e+00 133 134 131
3.270484e+00 2.761751e+00 4.264621e+00 54 53 58
1.582432e+00 -1.815375e+00 2.343802e+00 25 22 21
9.405801e-01 -1.491470e+00 2.696549e+00 26 22 24
1.100766e+00 -1.310507e+00 3.092740e+00 123 126 132
-4.779641e-01 -1.168794e+00 2.659841e+00 66 61 66
6.469628e-01 -1.027725e+00 2.788709e+00 53 49 44
6.514571e-02 -5.455118e-01 2.938415e+00 56 51 50
2.216672e-01 -5.207969e-01 2.968566e+00 65 61 57
1.284067e+00 -1.981015e-01 3.217256e+00 134 134 136
1.056684e+00 -6.605325e-02 3.196628e+00 44 43 44
1.790449e+00 -1.376228e-01 3.296378e+00 112 110 106
1.664832e+00 -1.026383e-01 3.276289e+00 36 37 32
1.831565e+00 -1.246701e-01 3.309949e+00 37 35 36
2.346142e+00 -2.365498e-01 3.527719e+00 111 110 108
2.100698e+00 6.471065e-03 3.416029e+00 59 62 77
8.118183e-01 1.051476e+00 2.761819e+00 132 135 138
4.844112e-01 1.695677e+00 2.657569e+00 148 149 141
1.933713e+00 1.635970e+00 3.189234e+00 139 138 139
2.662628e+00 9.035703e-01 3.856521e+00 156 160 169
1.486803e+00 2.630695e+00 2.516211e+00 116 115 115
-4.597314e-01 -1.091479e+00 2.662022e+00 62 61 63
5.525014e-01 -5.112097e-01 2.934386e+00 53 47 49
1.120395e-01 -4.438301e-02 2.982281e+00 68 59 60
-3.985662e-01 4.206653e-01 2.982717e+00 82 80 81
2.962352e-01 7.992773e-01 3.487642e+00 145 146 151
1.913545e+00 1.742890e+00 3.149692e+00 69 69 71
1.506262e+00 2.937876e+00 2.362993e+00 69 65 64
1.767165e+00 3.641515e+00 3.503212e+00 128 128 133
3.768049e-01 -5.083577e-01 2.961162e+00 60 56 53
1.769912e+00 1.676176e-01 3.331373e+00 132 132 126
9.306386e-01 1.466591e+00 2.633965e+00 143 138 135
5.453234e-01 1.735938e+00 2.650115e+00 140 140 141
2.307169e+00 -3.906867e-01 3.614337e+00 44 44 48
1.574729e+00 1.564317e+00 3.060472e+00 153 172 220
-1.723247e+00 6.575487e+00 2.656032e+00 37 46 104
3.406541e+00 -1.148896e+00 3.211282e+00 178 184 225
3.187969e+00 -5.948787e-01 3.176600e+00 184 190 228
5.424096e-01 2.710921e+00 2.933033e+00 132 132 164
-3.385030e+00 8.476889e+00 1.722093e+00 38 42 97
-5.876510e-02 2.879367e+00 2.778086e+00 157 154 179
-1.653857e+00 6.519749e+00 2.727850e+00 30 39 97
1.141094e+00 -5.892351e-01 2.926931e+00 176 188 228
1.779316e+00 -2.349671e-02 2.931274e+00 72 69 102
1.898534e+00 -2.830252e-02 2.939650e+00 93 87 125
1.669178e+00 1.611667e-01 2.941015e+00 147 176 224
2.072132e+00 2.229571e-01 2.984768e+00 108 127 177
1.809832e+00 3.519841e-01 2.962107e+00 60 85 139
1.823882e+00 4.154275e-01 2.970594e+00 72 83 148
1.689764e+00 7.827022e-01 2.995772e+00 156 168 210
-1.091017e+00 5.722176e+00 2.780411e+00 173 186 231
3.664837e-01 -1.749216e+00 3.065102e+00 54 56 81
7.569264e-01 -7.055002e-01 2.967022e+00 101 103 142
1.940857e+00 -6.146761e-02 2.936934e+00 152 162 200
1.986325e+00 -4.702194e-02 2.941951e+00 88 79 117
1.982997e+00 1.711177e-01 2.966158e+00 85 99 159
2.039282e+00 2.645395e-01 2.985323e+00 183 188 226
9.229111e-01 1.446379e+00 2.948584e+00 153 155 194
9.103368e-01 -4.462925e+00 2.087388e+00 249 253 255
2.069865e-01 -1.682472e+00 3.098520e+00 240 247 237
6.653478e-01 -1.781007e+00 3.023141e+00 240 253 235
1.748735e+00 -1.257294e-01 2.921004e+00 157 160 202
1.654050e+00 2.889544e-01 2.954726e+00 55 67 118
1.378645e+00 3.421704e-01 2.951758e+00 171 175 210
2.115295e+00 4.254190e-01 3.018582e+00 154 175 226
1.257770e+00 7.653156e-01 2.965333e+00 75 82 128
1.669699e+00 1.192860e+00 3.035653e+00 145 148 179
1.682831e+00 1.342523e+00 3.060144e+00 141 142 186
6.190598e-01 1.843069e+00 2.929063e+00 178 182 209
4.539173e-01 1.911228e+00 2.900061e+00 179 186 212
2.305243e-01 -1.700633e+00 3.091853e+00 198 215 209
2.020510e-01 -1.657466e+00 3.105144e+00 94 115 98
4.570195e-01 -1.709332e+00 3.069465e+00 243 253 242
1.839389e+00 -4.296125e-01 2.896602e+00 150 167 214
1.990945e+00 -1.666894e-01 2.929813e+00 86 90 129
1.990945e+00 -1.666894e-01 2.929813e+00 86 90 129
2.021816e+00 1.982611e-01 2.974058e+00 135 145 194
2.072060e+00 2.521986e-01 2.988221e+00 121 129 175
2.143871e+00 3.776138e-01 3.016300e+00 164 183 226
4.932201e-01 1.896665e+00 2.904773e+00 55 55 94
-4.922991e-01 2.705381e+00 2.685875e+00 123 127 165
-1.213726e+00 5.889937e+00 2.743055e+00 111 123 173
-1.034210e+00 5.849839e+00 3.021009e+00 124 138 183
4.537827e-01 -1.799157e+00 3.040442e+00 40 55 49
3.292220e-01 -1.759826e+00 3.064019e+00 31 41 48
5.080063e-01 -1.769931e+00 3.043359e+00 209 216 226
5.080063e-01 -1.769931e+00 3.043359e+00 209 216 226
5.545403e-01 -1.778034e+00 3.036265e+00 226 241 241
6.398801e-01 -1.791201e+00 3.020238e+00 35 46 50
6.398801e-01 -1.791201e+00 3.020238e+00 35 46 50
3.958520e-01 -1.717927e+00 3.075645e+00 232 235 224
4.199546e-01 -1.713255e+00 3.074227e+00 89 100 90
1.082217e+00 -1.270614e+00 2.937444e+00 117 129 179
7.223124e-01 -3.098761e-01 2.981871e+00 96 110 147
8.197646e-01 -3.139085e-01 2.976440e+00 143 160 209
1.962961e+00 -1.981967e-01 2.922670e+00 164 169 216
2.044384e+00 -1.716457e-01 2.931177e+00 39 37 76
1.968197e+00 -1.439286e-01 2.931590e+00 146 152 193
-4.936341e-01 2.600678e+00 2.711988e+00 114 120 162
7.018465e-01 2.409625e+00 2.942323e+00 136 143 179
1.356985e-01 2.743676e+00 2.817903e+00 224 233 247
-2.728983e-01 2.886246e+00 2.717898e+00 138 140 173
2.778521e-01 2.757803e+00 2.859027e+00 218 226 246
9.315957e-01 -4.511824e+00 2.092122e+00 196 195 211
9.315957e-01 -4.511824e+00 2.092122e+00 196 195 211
4.581316e-01 -1.788504e+00 3.041137e+00 101 112 115
1.700570e-01 -1.688163e+00 3.099457e+00 212 214 223
3.933588e-01 -1.745501e+00 3.063639e+00 135 151 148
5.657053e-01 -1.792491e+00 3.029455e+00 58 71 75
2.484820e-01 -1.702165e+00 3.090937e+00 28 33 36
2.437039e-01 -1.683811e+00 3.095722e+00 164 160 162
7.450468e-01 1.753545e+00 2.931161e+00 177 174 206
-1.923183e+01 2.797338e+01 -9.923871e+00 214 242 254
-1.755026e+01 2.592757e+01 -8.662485e+00 141 158 187
8.479312e-01 8.732227e-01 3.293247e+00 173 177 209
8.479312e-01 8.732227e-01 3.293247e+00 173 177 209
5.145367e-01 1.234714e+00 3.237524e+00 24 27 19
5.145367e-01 1.234714e+00 3.237524e+00 24 27 19
1.266909e+00 3.646065e-01 3.479254e+00 156 158 144
-2.932794e-01 6.337719e-01 3.117230e+00 143 145 134
-1.712220e+00 -4.154805e-01 2.438470e+00 134 129 110
1.939154e+00 2.643742e-02 4.358757e+00 167 169 164
-1.832674e+00 2.781785e+00 3.116617e+00 130 131 121
