ply
format ascii 1.0
element face 0
property list uchar int vertex_indices
element vertex 573
property float x
property float y
property float z
property uchar diffuse_red
property uchar diffuse_green
property uchar diffuse_blue
end_header
6.461248e-01 -4.750412e-01 3.336622e+00 173 172 163
6.069165e-01 -4.720345e-01 3.328272e+00 71 67 64
6.226991e-01 -4.735317e-01 3.330990e+00 84 83 79
6.514231e-01 -4.480051e-01 3.348921e+00 161 159 153
6.301377e-01 -4.538005e-01 3.340936e+00 102 97 94
6.504753e-01 -4.517409e-01 3.349029e+00 112 110 105
6.506537e-01 -4.486234e-01 3.349112e+00 124 123 120
6.245935e-01 -4.761086e-01 3.331739e+00 132 132 130
5.848822e-01 -4.684253e-01 3.322323e+00 103 90 81
6.066018e-01 -4.701480e-01 3.327416e+00 107 98 92
6.219828e-01 -4.718312e-01 3.329898e+00 123 110 101
5.800047e-01 -4.674290e-01 3.320137e+00 152 149 140
5.791309e-01 -4.607967e-01 3.320544e+00 177 167 155
6.509696e-01 -4.524824e-01 3.349428e+00 170 166 162
6.200597e-01 -4.726560e-01 3.329717e+00 166 153 144
5.896467e-01 -4.684896e-01 3.324032e+00 110 92 92
6.004983e-01 -5.189386e-01 3.348620e+00 136 137 132
6.204287e-01 -5.081534e-01 3.337272e+00 156 152 145
6.115401e-01 -4.946469e-01 3.333617e+00 139 137 130
6.184320e-01 -5.262537e-01 3.343383e+00 116 119 124
5.933739e-01 -5.172248e-01 3.348427e+00 123 122 117
6.213702e-01 -5.045449e-01 3.334348e+00 178 185 186
5.937587e-01 -5.159598e-01 3.347617e+00 106 103 96
6.084430e-01 -5.056602e-01 3.344879e+00 76 70 66
5.961200e-01 -5.160192e-01 3.348270e+00 133 135 130
5.919372e-01 -5.142732e-01 3.348642e+00 129 127 126
5.912354e-01 -5.173796e-01 3.348658e+00 140 142 137
6.132916e-01 -5.133693e-01 3.344806e+00 139 136 129
6.231340e-01 -5.090766e-01 3.337451e+00 157 161 165
5.897846e-01 -5.162505e-01 3.348339e+00 125 126 121
6.065487e-01 -5.004711e-01 3.339335e+00 82 72 70
6.192042e-01 -5.016151e-01 3.334414e+00 92 92 98
5.896656e-01 -5.168612e-01 3.348473e+00 96 88 83
5.914299e-01 -5.155292e-01 3.347885e+00 82 77 74
6.203854e-01 -5.030193e-01 3.334356e+00 180 181 182
6.014234e-01 -5.190867e-01 3.349176e+00 54 46 45
5.959622e-01 -5.178498e-01 3.348630e+00 91 90 86
5.970052e-01 -5.100861e-01 3.346902e+00 107 102 99
6.178971e-01 -4.986928e-01 3.333419e+00 178 180 177
6.088077e-01 -4.899528e-01 3.331015e+00 103 99 102
6.073782e-01 -4.889871e-01 3.331516e+00 90 81 74
6.079510e-01 -4.893984e-01 3.330675e+00 113 109 113
5.943176e-01 -4.879660e-01 3.328141e+00 182 175 172
6.109563e-01 -4.758097e-01 3.331207e+00 168 164 163
5.877113e-01 -5.195172e-01 3.349065e+00 118 114 109
6.066341e-01 -5.067358e-01 3.345575e+00 152 147 144
6.152375e-01 -4.801209e-01 3.330829e+00 169 169 169
6.045458e-01 -4.794074e-01 3.329260e+00 182 183 177
5.991963e-01 -4.791204e-01 3.328147e+00 177 172 169
6.158300e-01 -4.764429e-01 3.330425e+00 188 188 188
6.023897e-01 -4.865554e-01 3.328839e+00 171 171 169
6.068386e-01 -4.832658e-01 3.329586e+00 183 188 193
5.896417e-01 -5.175673e-01 3.349700e+00 132 132 125
6.048208e-01 -5.054393e-01 3.346848e+00 100 98 93
6.034617e-01 -5.053368e-01 3.347014e+00 139 129 117
5.990285e-01 -4.884438e-01 3.330057e+00 100 88 84
6.037168e-01 -4.874391e-01 3.330042e+00 91 78 72
5.994304e-01 -4.873678e-01 3.329037e+00 195 192 192
5.867649e-01 -4.857880e-01 3.327936e+00 195 192 196
6.067904e-01 -4.734340e-01 3.328914e+00 73 69 68
5.989364e-01 -5.253860e-01 3.349345e+00 107 112 109
6.003976e-01 -4.880578e-01 3.329934e+00 90 84 78
5.736196e-01 -4.831822e-01 3.321532e+00 173 174 172
6.079118e-01 -4.820283e-01 3.329879e+00 61 57 69
6.032805e-01 -4.771150e-01 3.329571e+00 58 57 63
6.068885e-01 -4.722176e-01 3.327969e+00 71 67 64
6.068556e-01 -4.710844e-01 3.327463e+00 162 152 142
5.965598e-01 -4.710176e-01 3.326159e+00 74 68 72
5.965964e-01 -4.701847e-01 3.325562e+00 143 127 115
6.039060e-01 -4.928742e-01 3.337235e+00 131 127 116
6.039205e-01 -4.883765e-01 3.331339e+00 160 148 139
6.074530e-01 -4.855066e-01 3.329835e+00 111 101 98
6.037163e-01 -4.764263e-01 3.328687e+00 165 165 159
5.860392e-01 -4.691968e-01 3.323130e+00 149 140 131
5.975139e-01 -5.184689e-01 3.348763e+00 141 143 144
5.926818e-01 -5.137425e-01 3.347418e+00 73 68 72
6.109171e-01 -5.103157e-01 3.345145e+00 123 121 109
6.076657e-01 -4.991105e-01 3.341988e+00 126 122 110
6.054187e-01 -4.861507e-01 3.329821e+00 165 157 152
6.044814e-01 -4.860097e-01 3.329892e+00 164 160 150
5.762849e-01 -4.800759e-01 3.322871e+00 87 72 77
5.888649e-01 -4.721266e-01 3.325669e+00 90 84 81
5.929675e-01 -5.178106e-01 3.348719e+00 128 123 115
5.970886e-01 -5.178690e-01 3.348928e+00 96 96 96
5.921101e-01 -5.138153e-01 3.348120e+00 127 128 125
6.050302e-01 -5.136077e-01 3.347787e+00 145 142 139
5.930109e-01 -5.081813e-01 3.346103e+00 121 115 103
6.051179e-01 -5.031888e-01 3.345092e+00 130 126 119
6.065864e-01 -5.010957e-01 3.339342e+00 130 131 130
6.105887e-01 -4.942320e-01 3.333594e+00 156 155 155
6.116778e-01 -4.921017e-01 3.331778e+00 102 102 98
5.991173e-01 -4.904032e-01 3.331306e+00 70 64 65
5.957052e-01 -4.754026e-01 3.327586e+00 95 87 80
5.960737e-01 -4.747412e-01 3.327918e+00 177 174 170
5.825126e-01 -4.742114e-01 3.324535e+00 87 78 83
5.949491e-01 -5.082778e-01 3.346089e+00 130 126 122
5.956466e-01 -5.073731e-01 3.346425e+00 98 95 94
6.086314e-01 -5.029960e-01 3.341943e+00 134 130 135
6.016544e-01 -4.932681e-01 3.335002e+00 136 130 123
6.039129e-01 -4.915950e-01 3.333617e+00 141 135 127
5.955764e-01 -4.919654e-01 3.331318e+00 74 64 65
6.053831e-01 -4.875076e-01 3.329647e+00 191 190 185
5.846053e-01 -4.835579e-01 3.324674e+00 99 90 90
6.022511e-01 -5.029071e-01 3.346440e+00 124 120 116
5.744021e-01 -5.075842e-01 3.323232e+00 101 104 112
5.882934e-01 -4.896509e-01 3.327262e+00 181 178 175
6.317456e-01 -5.067673e-01 3.338210e+00 179 184 189
6.170588e-01 -4.918569e-01 3.332126e+00 182 178 175
6.313201e-01 -4.941560e-01 3.332772e+00 193 193 198
6.253672e-01 -4.880530e-01 3.330698e+00 98 91 88
6.139709e-01 -4.863735e-01 3.330603e+00 106 96 94
6.326959e-01 -4.941747e-01 3.333501e+00 199 202 209
6.210901e-01 -4.865548e-01 3.332503e+00 121 110 106
6.090590e-01 -4.864618e-01 3.329156e+00 111 101 95
6.107221e-01 -4.763397e-01 3.330200e+00 168 164 163
6.081696e-01 -5.214613e-01 3.350164e+00 116 116 114
6.061973e-01 -5.193467e-01 3.351910e+00 35 35 39
6.212372e-01 -5.145589e-01 3.338199e+00 143 140 128
6.303677e-01 -5.148867e-01 3.335699e+00 80 80 85
6.010231e-01 -5.015202e-01 3.347538e+00 144 136 119
6.161340e-01 -4.945448e-01 3.332778e+00 190 192 198
6.055437e-01 -4.901192e-01 3.331755e+00 134 127 121
6.087021e-01 -4.888240e-01 3.330251e+00 181 180 179
6.427466e-01 -4.789650e-01 3.336199e+00 165 165 166
6.208302e-01 -4.764884e-01 3.332279e+00 187 193 193
6.113750e-01 -5.296733e-01 3.349054e+00 98 99 97
6.157260e-01 -5.309552e-01 3.346494e+00 103 104 99
6.157260e-01 -5.309552e-01 3.346494e+00 103 104 99
6.219132e-01 -5.191001e-01 3.340124e+00 149 149 137
6.205184e-01 -5.175275e-01 3.340458e+00 74 75 75
6.113879e-01 -5.135594e-01 3.347227e+00 137 136 124
6.290438e-01 -5.178060e-01 3.337467e+00 165 169 174
6.288505e-01 -5.163574e-01 3.336131e+00 145 148 149
6.320797e-01 -5.129652e-01 3.336672e+00 187 186 193
6.255744e-01 -5.130725e-01 3.334328e+00 184 188 192
6.204287e-01 -5.081534e-01 3.337272e+00 156 152 145
6.029208e-01 -4.990588e-01 3.348161e+00 135 120 105
6.095764e-01 -5.006130e-01 3.340117e+00 123 116 106
6.138964e-01 -4.923320e-01 3.331990e+00 201 206 209
6.331986e-01 -4.932945e-01 3.333750e+00 204 207 214
6.275733e-01 -4.925260e-01 3.333125e+00 196 200 201
6.098519e-01 -4.912735e-01 3.331684e+00 100 91 86
5.999907e-01 -4.897301e-01 3.330650e+00 159 155 139
5.746106e-01 -4.894035e-01 3.322087e+00 204 208 216
5.883138e-01 -4.883626e-01 3.328803e+00 204 212 219
6.223229e-01 -4.894368e-01 3.333019e+00 194 190 185
6.184155e-01 -4.890653e-01 3.332544e+00 198 199 201
6.157479e-01 -4.889971e-01 3.331947e+00 196 200 199
5.846756e-01 -4.861179e-01 3.326407e+00 187 183 183
5.882285e-01 -4.789914e-01 3.326771e+00 181 178 169
6.259632e-01 -4.772031e-01 3.332329e+00 172 176 178
6.177378e-01 -5.316730e-01 3.344425e+00 104 99 94
6.177378e-01 -5.316730e-01 3.344425e+00 104 99 94
6.136210e-01 -5.284499e-01 3.346946e+00 104 103 99
6.145973e-01 -5.279198e-01 3.346179e+00 52 52 55
6.115717e-01 -5.265491e-01 3.347823e+00 109 110 106
6.126694e-01 -5.263692e-01 3.347070e+00 72 70 77
6.126694e-01 -5.263692e-01 3.347070e+00 72 70 77
6.122140e-01 -5.247080e-01 3.347453e+00 109 115 121
6.182585e-01 -5.166335e-01 3.341583e+00 98 93 90
6.119812e-01 -5.134693e-01 3.344235e+00 89 80 74
6.182135e-01 -5.005189e-01 3.334186e+00 93 91 84
6.428291e-01 -4.903512e-01 3.337903e+00 193 193 188
6.249859e-01 -4.893193e-01 3.333685e+00 183 183 181
6.447203e-01 -4.764840e-01 3.337549e+00 85 84 89
6.146059e-01 -4.745065e-01 3.330299e+00 91 91 89
6.196140e-01 -4.712694e-01 3.329132e+00 138 128 123
6.203649e-01 -5.251313e-01 3.341200e+00 111 115 111
6.434478e-01 -5.208108e-01 3.359021e+00 130 128 115
6.246217e-01 -5.240126e-01 3.337411e+00 86 85 90
6.250830e-01 -5.236529e-01 3.338780e+00 86 85 90
6.251787e-01 -5.227917e-01 3.338194e+00 143 147 157
6.114807e-01 -5.152967e-01 3.347170e+00 125 125 117
6.285706e-01 -5.129639e-01 3.335013e+00 82 75 79
6.288477e-01 -5.127048e-01 3.335949e+00 82 75 79
6.302977e-01 -5.117480e-01 3.334832e+00 126 123 132
6.273312e-01 -5.111609e-01 3.335263e+00 137 136 141
6.191757e-01 -4.998043e-01 3.334466e+00 184 182 180
5.885760e-01 -4.954489e-01 3.330914e+00 152 145 134
5.916932e-01 -4.902532e-01 3.328557e+00 154 147 145
6.335140e-01 -4.922729e-01 3.332864e+00 165 158 154
6.002461e-01 -4.890918e-01 3.330928e+00 159 154 139
6.086008e-01 -4.891659e-01 3.330617e+00 197 201 204
5.878292e-01 -4.872771e-01 3.328095e+00 170 154 143
6.137437e-01 -5.270773e-01 3.345583e+00 114 113 115
6.287786e-01 -5.137047e-01 3.336106e+00 157 168 172
6.270738e-01 -5.128993e-01 3.335633e+00 88 78 84
6.299462e-01 -5.125867e-01 3.335922e+00 179 183 183
6.278152e-01 -5.124067e-01 3.335276e+00 173 174 176
6.298476e-01 -5.111380e-01 3.336247e+00 133 132 138
6.230501e-01 -5.106531e-01 3.336035e+00 162 167 171
6.177888e-01 -4.982453e-01 3.333370e+00 190 190 190
6.165584e-01 -4.966672e-01 3.332784e+00 186 187 191
6.113369e-01 -4.937758e-01 3.333129e+00 156 149 136
6.144922e-01 -4.939959e-01 3.332329e+00 190 190 193
6.088192e-01 -4.917312e-01 3.332304e+00 150 143 127
6.143325e-01 -4.921225e-01 3.331996e+00 203 209 211
5.919512e-01 -4.909382e-01 3.329735e+00 197 199 201
6.106506e-01 -4.909224e-01 3.330924e+00 196 196 196
5.733188e-01 -4.868907e-01 3.321003e+00 168 162 163
6.429162e-01 -4.773566e-01 3.336383e+00 175 167 164
6.043888e-01 -4.740587e-01 3.329762e+00 166 168 170
6.378882e-01 -4.659636e-01 3.334426e+00 185 184 178
6.378757e-01 -4.659558e-01 3.334570e+00 185 184 178
6.519438e-01 -4.441963e-01 3.347248e+00 129 129 132
6.307355e-01 -5.236681e-01 3.341015e+00 85 83 86
6.307355e-01 -5.236681e-01 3.341015e+00 85 83 86
6.287791e-01 -5.237312e-01 3.337735e+00 158 168 170
6.290215e-01 -5.235861e-01 3.338354e+00 158 168 170
6.240970e-01 -5.213631e-01 3.338643e+00 138 144 152
6.268171e-01 -5.178431e-01 3.337288e+00 145 146 150
6.277670e-01 -5.168336e-01 3.337333e+00 81 81 88
6.274333e-01 -5.171187e-01 3.336370e+00 81 81 88
6.016530e-01 -5.046076e-01 3.345403e+00 143 142 137
6.022786e-01 -5.029173e-01 3.345988e+00 88 86 87
6.069101e-01 -4.995480e-01 3.342367e+00 82 72 70
6.195405e-01 -5.030535e-01 3.333934e+00 104 103 103
6.197565e-01 -5.016936e-01 3.333946e+00 186 188 187
6.160342e-01 -4.972772e-01 3.332638e+00 116 113 114
6.050387e-01 -4.939441e-01 3.337252e+00 141 133 124
6.125596e-01 -4.923314e-01 3.331798e+00 190 191 191
6.038392e-01 -4.901242e-01 3.332685e+00 75 70 64
5.939539e-01 -4.900452e-01 3.329422e+00 197 198 196
6.063209e-01 -4.898770e-01 3.331956e+00 155 149 133
5.845629e-01 -4.852359e-01 3.327045e+00 188 190 183
6.281289e-01 -4.878393e-01 3.330603e+00 126 121 112
6.153371e-01 -4.866761e-01 3.330173e+00 112 102 98
5.738096e-01 -4.832036e-01 3.323731e+00 147 141 145
6.422876e-01 -4.852489e-01 3.335395e+00 163 155 150
6.234054e-01 -4.842900e-01 3.332711e+00 187 192 192
6.264058e-01 -4.750387e-01 3.350386e+00 67 66 78
6.248226e-01 -4.826927e-01 3.332397e+00 181 176 173
6.298334e-01 -4.821163e-01 3.331879e+00 153 154 159
5.765032e-01 -4.800920e-01 3.322662e+00 87 72 77
6.242863e-01 -4.765927e-01 3.332005e+00 87 84 90
6.255102e-01 -4.757693e-01 3.332369e+00 95 97 101
5.941609e-01 -4.693677e-01 3.325698e+00 142 132 121
6.352437e-01 -4.657060e-01 3.332397e+00 169 169 162
6.327959e-01 -4.662982e-01 3.330587e+00 187 178 167
6.498344e-01 -4.519802e-01 3.349673e+00 169 162 157
6.505225e-01 -4.505676e-01 3.349285e+00 118 117 120
6.521486e-01 -4.470808e-01 3.348572e+00 121 115 115
6.525402e-01 -4.449741e-01 3.347368e+00 134 133 135
6.069477e-01 -5.204588e-01 3.350900e+00 96 98 96
6.065363e-01 -5.193891e-01 3.351025e+00 65 58 58
5.909266e-01 -5.149700e-01 3.347392e+00 137 142 135
6.126401e-01 -5.130014e-01 3.345111e+00 81 76 72
5.829742e-01 -4.989922e-01 3.328039e+00 191 190 191
6.027996e-01 -4.948911e-01 3.341334e+00 109 101 92
5.806814e-01 -4.964486e-01 3.327221e+00 180 184 187
6.148820e-01 -4.956767e-01 3.332381e+00 109 108 112
6.095594e-01 -4.941826e-01 3.333209e+00 140 135 128
6.051343e-01 -4.902753e-01 3.332314e+00 147 142 139
6.097880e-01 -4.904701e-01 3.330681e+00 196 197 198
6.225457e-01 -4.884919e-01 3.332863e+00 151 146 140
6.212891e-01 -4.886160e-01 3.332392e+00 148 147 142
6.387262e-01 -4.878498e-01 3.335697e+00 122 117 114
5.911138e-01 -4.858939e-01 3.327980e+00 195 196 198
6.253855e-01 -4.846565e-01 3.333050e+00 88 86 90
6.344000e-01 -4.761182e-01 3.330868e+00 167 164 157
6.187893e-01 -4.735715e-01 3.329951e+00 167 160 153
6.517843e-01 -4.560358e-01 3.348245e+00 188 190 189
5.821709e-01 -4.607820e-01 3.320806e+00 94 91 104
6.204619e-01 -5.285103e-01 3.342726e+00 87 85 87
5.981732e-01 -5.204063e-01 3.346746e+00 102 96 96
6.071776e-01 -5.200709e-01 3.350506e+00 75 77 76
6.244181e-01 -5.235706e-01 3.338179e+00 80 80 84
6.011403e-01 -5.173363e-01 3.348845e+00 99 97 94
6.451976e-01 -5.182225e-01 3.358273e+00 91 84 78
6.266669e-01 -5.202913e-01 3.337510e+00 102 101 109
6.266228e-01 -5.204146e-01 3.337146e+00 102 101 109
6.438206e-01 -5.146344e-01 3.356029e+00 137 133 124
6.438206e-01 -5.146344e-01 3.356029e+00 137 133 124
6.451406e-01 -5.110117e-01 3.355084e+00 102 98 88
6.267474e-01 -5.133816e-01 3.335785e+00 171 167 162
6.167584e-01 -5.073014e-01 3.337999e+00 147 147 144
6.060530e-01 -5.008537e-01 3.344060e+00 112 110 104
6.085079e-01 -5.016790e-01 3.342262e+00 123 118 108
5.807451e-01 -4.955328e-01 3.328473e+00 108 106 109
6.109923e-01 -4.910771e-01 3.331499e+00 190 189 190
6.068836e-01 -4.882892e-01 3.330392e+00 184 180 177
6.146629e-01 -4.887051e-01 3.330977e+00 186 179 176
6.370476e-01 -4.880411e-01 3.334640e+00 126 118 114
6.100659e-01 -4.873000e-01 3.330060e+00 161 157 153
6.032144e-01 -4.863814e-01 3.329346e+00 173 168 165
5.741744e-01 -4.851297e-01 3.320821e+00 182 180 179
5.843054e-01 -4.840799e-01 3.325825e+00 160 159 155
6.056034e-01 -4.696595e-01 3.326988e+00 143 131 132
6.055370e-01 -4.699852e-01 3.326446e+00 143 131 132
6.032360e-01 -4.694830e-01 3.326433e+00 156 147 143
5.895154e-01 -4.684470e-01 3.323976e+00 110 92 92
5.860315e-01 -4.681048e-01 3.323131e+00 107 97 92
6.505990e-01 -4.547666e-01 3.349235e+00 166 167 167
5.780133e-01 -4.603331e-01 3.320471e+00 167 157 145
6.522488e-01 -4.477810e-01 3.348546e+00 160 160 159
5.830469e-01 -4.775446e-01 3.325435e+00 228 230 216
5.784822e-01 -4.715570e-01 3.323642e+00 249 247 233
6.095611e-01 -4.732195e-01 3.332301e+00 156 140 122
5.758278e-01 -4.738457e-01 3.326122e+00 135 137 124
5.882950e-01 -4.711443e-01 3.327815e+00 146 136 121
6.092948e-01 -4.802179e-01 3.329801e+00 228 228 215
5.981538e-01 -5.022540e-01 3.342182e+00 133 138 119
6.140782e-01 -4.827425e-01 3.330991e+00 210 211 205
6.026676e-01 -4.814978e-01 3.328463e+00 50 50 48
5.895153e-01 -4.811631e-01 3.327058e+00 90 85 87
6.288212e-01 -4.286433e-01 3.381924e+00 201 210 207
6.106575e-01 -5.077434e-01 3.339516e+00 113 103 87
6.085104e-01 -5.031479e-01 3.338830e+00 124 117 101
6.038624e-01 -4.931626e-01 3.336000e+00 187 185 164
6.092544e-01 -4.931769e-01 3.332540e+00 215 209 202
6.076963e-01 -4.907794e-01 3.331624e+00 181 181 156
5.972495e-01 -4.812358e-01 3.327946e+00 67 56 58
6.171707e-01 -4.785455e-01 3.335957e+00 136 128 112
5.944161e-01 -4.722635e-01 3.327422e+00 132 129 114
5.979557e-01 -5.216185e-01 3.349912e+00 92 102 94
6.036908e-01 -5.050263e-01 3.341964e+00 116 113 101
5.946843e-01 -5.039218e-01 3.343004e+00 205 194 167
5.985609e-01 -5.037821e-01 3.342404e+00 178 174 157
6.003762e-01 -5.008815e-01 3.341455e+00 192 195 167
6.100669e-01 -5.001799e-01 3.336663e+00 85 77 68
6.095427e-01 -4.991284e-01 3.335260e+00 186 183 174
6.083651e-01 -4.926602e-01 3.332174e+00 207 206 193
6.076258e-01 -4.920666e-01 3.331836e+00 206 204 188
6.036037e-01 -4.910447e-01 3.333080e+00 128 126 112
6.062349e-01 -4.910692e-01 3.331545e+00 209 207 185
6.072571e-01 -4.741655e-01 3.329424e+00 83 74 69
6.192957e-01 -4.487313e-01 3.366067e+00 54 59 65
5.999659e-01 -5.205312e-01 3.348416e+00 149 152 129
5.967804e-01 -5.200181e-01 3.348867e+00 126 132 127
5.975215e-01 -5.188186e-01 3.347936e+00 211 214 188
6.006097e-01 -5.132814e-01 3.345029e+00 116 115 111
5.946907e-01 -5.095860e-01 3.344430e+00 203 203 174
6.039209e-01 -5.093719e-01 3.343205e+00 203 204 184
5.989604e-01 -5.051891e-01 3.342032e+00 203 204 189
6.137560e-01 -4.981463e-01 3.332889e+00 212 212 190
6.100409e-01 -4.963544e-01 3.335637e+00 195 193 176
6.093252e-01 -4.958675e-01 3.333852e+00 178 179 171
6.104841e-01 -4.939752e-01 3.332201e+00 136 137 125
6.064396e-01 -4.919967e-01 3.332122e+00 75 61 58
6.068785e-01 -4.917433e-01 3.331872e+00 199 188 169
6.059654e-01 -4.903843e-01 3.331192e+00 164 157 141
6.140079e-01 -4.840486e-01 3.331010e+00 238 236 225
6.108596e-01 -4.838242e-01 3.330635e+00 97 96 92
6.029419e-01 -4.823301e-01 3.329805e+00 65 67 56
5.875261e-01 -4.809152e-01 3.327995e+00 255 251 233
5.958630e-01 -4.749454e-01 3.328959e+00 101 80 58
5.747606e-01 -4.698213e-01 3.322639e+00 115 102 95
5.907119e-01 -4.684213e-01 3.326781e+00 231 214 182
6.286418e-01 -4.419673e-01 3.369531e+00 212 221 214
6.211765e-01 -4.269096e-01 3.386473e+00 27 29 26
6.297793e-01 -4.284721e-01 3.382150e+00 103 113 104
5.968376e-01 -5.194254e-01 3.348578e+00 164 166 157
6.016742e-01 -5.132767e-01 3.344786e+00 191 194 177
5.962868e-01 -5.107190e-01 3.344518e+00 202 202 177
5.962868e-01 -5.107190e-01 3.344518e+00 202 202 177
6.121090e-01 -5.020861e-01 3.336265e+00 181 182 168
5.977391e-01 -4.993233e-01 3.339663e+00 185 176 139
6.117179e-01 -4.984465e-01 3.334570e+00 197 205 190
6.032302e-01 -4.826771e-01 3.329860e+00 244 242 218
5.986255e-01 -4.763942e-01 3.329145e+00 98 103 109
6.142696e-01 -4.752431e-01 3.330886e+00 216 206 196
5.878929e-01 -4.739628e-01 3.328149e+00 70 59 65
5.727494e-01 -4.727759e-01 3.325680e+00 157 154 137
6.029608e-01 -4.701234e-01 3.330024e+00 211 192 161
6.287029e-01 -4.270278e-01 3.382876e+00 223 232 229
6.174830e-01 -4.414793e-01 3.370698e+00 96 103 117
6.212805e-01 -4.252740e-01 3.387754e+00 201 205 182
5.814678e-01 -4.696875e-01 3.322929e+00 238 238 225
5.807502e-01 -4.436862e-01 3.323738e+00 242 247 241
5.997038e-01 -4.715831e-01 3.326226e+00 73 70 52
6.134962e-01 -4.455704e-01 3.342083e+00 57 66 76
5.825027e-01 -4.273550e-01 3.330525e+00 154 164 166
6.307450e-01 -4.002632e-01 3.415902e+00 227 235 237
5.994270e-01 -4.824022e-01 3.328379e+00 240 242 228
5.911006e-01 -4.740096e-01 3.327416e+00 128 120 107
6.018212e-01 -4.740537e-01 3.327451e+00 100 96 85
5.747335e-01 -4.713897e-01 3.322562e+00 234 227 206
6.210553e-01 -4.788435e-01 3.332207e+00 255 248 233
5.836247e-01 -4.787052e-01 3.325261e+00 246 237 205
5.845033e-01 -4.751760e-01 3.325094e+00 240 231 198
5.925975e-01 -4.819894e-01 3.327114e+00 251 250 230
5.778449e-01 -4.810520e-01 3.325212e+00 104 102 104
5.839549e-01 -4.808078e-01 3.325439e+00 63 44 68
6.141734e-01 -4.522295e-01 3.333484e+00 41 49 57
6.105795e-01 -4.379340e-01 3.331263e+00 128 121 101
6.363983e-01 -3.723665e-01 3.459145e+00 205 221 220
5.781400e-01 -4.807118e-01 3.324002e+00 112 111 118
6.119733e-01 -4.769142e-01 3.330131e+00 248 242 213
6.213217e-01 -4.397481e-01 3.334034e+00 104 105 100
6.275972e-01 -4.123962e-01 3.398010e+00 236 236 235
6.282380e-01 -4.306148e-01 3.335730e+00 196 208 212
6.369425e-01 -4.141669e-01 3.337874e+00 234 238 238
6.373571e-01 -4.137522e-01 3.337967e+00 130 131 127
6.167602e-01 -4.099174e-01 3.331544e+00 129 130 126
5.742911e-01 -5.026071e-01 3.344054e+00 236 238 224
5.954672e-01 -4.923529e-01 3.330182e+00 75 63 69
6.280493e-01 -4.744851e-01 3.333930e+00 246 241 221
6.205966e-01 -4.494936e-01 3.335300e+00 35 37 33
6.241246e-01 -4.174379e-01 3.390055e+00 237 239 240
6.373719e-01 -3.730826e-01 3.459280e+00 126 133 122
6.244986e-01 -4.108700e-01 3.334175e+00 54 61 72
6.102955e-01 -4.105338e-01 3.329337e+00 58 56 77
6.287985e-01 -4.212433e-01 3.388934e+00 142 146 139
6.249772e-01 -4.112746e-01 3.397030e+00 246 248 235
6.428761e-01 -3.702504e-01 3.459987e+00 227 230 213
6.302568e-01 -4.200077e-01 3.391661e+00 224 234 230
5.497511e-01 -4.346462e-01 3.291451e+00 196 186 176
6.268450e-01 -4.533182e-01 3.298922e+00 128 115 99
6.261699e-01 -4.754520e-01 3.316909e+00 87 67 52
5.353393e-01 -4.635053e-01 3.318041e+00 51 34 29
6.048870e-01 -4.522384e-01 3.288620e+00 51 46 55
6.345742e-01 -4.297953e-01 3.290204e+00 116 100 82
5.553564e-01 -4.015329e-01 3.269532e+00 57 43 43
6.357821e-01 -4.528533e-01 3.306670e+00 201 194 187
6.547487e-01 -4.276093e-01 3.285659e+00 176 170 156
5.721415e-01 -4.024666e-01 3.272725e+00 123 116 105
5.888636e-01 -3.997480e-01 3.277480e+00 172 166 154
5.772660e-01 -3.994616e-01 3.270133e+00 30 24 23
6.565761e-01 -4.862718e-01 3.325136e+00 195 185 173
5.563432e-01 -4.702895e-01 3.318998e+00 169 160 148
5.456422e-01 -4.687512e-01 3.318461e+00 173 163 153
6.284542e-01 -4.769244e-01 3.316597e+00 180 167 149
5.836905e-01 -4.465198e-01 3.303677e+00 194 190 179
6.711612e-01 -4.111876e-01 3.276640e+00 88 80 63
6.710277e-01 -4.858201e-01 3.322781e+00 89 74 56
5.391626e-01 -4.666093e-01 3.318367e+00 76 61 54
6.498087e-01 -4.763710e-01 3.336575e+00 177 163 144
5.553235e-01 -4.684626e-01 3.318811e+00 74 56 50
5.337969e-01 -4.614325e-01 3.319392e+00 89 72 62
5.722803e-01 -4.169397e-01 3.277353e+00 31 22 23
5.722803e-01 -4.169397e-01 3.277353e+00 31 22 23
5.684442e-01 -4.162751e-01 3.277677e+00 31 22 21
5.535136e-01 -4.142591e-01 3.276749e+00 30 17 18
6.684975e-01 -4.162533e-01 3.277243e+00 77 65 59
5.697185e-01 -3.992129e-01 3.270490e+00 181 173 164
5.660652e-01 -3.986819e-01 3.270588e+00 142 135 129
5.565538e-01 -3.972814e-01 3.269892e+00 158 154 143
6.628417e-01 -4.899397e-01 3.325455e+00 102 86 74
5.567922e-01 -4.742987e-01 3.323232e+00 177 169 152
6.485576e-01 -4.773181e-01 3.335913e+00 60 42 35
6.422769e-01 -4.761718e-01 3.334361e+00 177 164 151
6.055180e-01 -4.725937e-01 3.326098e+00 154 140 127
5.515359e-01 -4.668007e-01 3.319455e+00 160 148 136
5.351906e-01 -4.651176e-01 3.318201e+00 145 132 124
5.292142e-01 -4.634905e-01 3.319162e+00 147 135 121
6.700501e-01 -4.743670e-01 3.317519e+00 111 98 83
6.696821e-01 -4.632062e-01 3.310022e+00 80 69 57
6.076499e-01 -4.536055e-01 3.288925e+00 190 182 176
6.076499e-01 -4.536055e-01 3.288925e+00 190 182 176
6.823159e-01 -4.521054e-01 3.297556e+00 172 175 168
6.668530e-01 -4.302514e-01 3.285386e+00 62 55 60
6.668530e-01 -4.302514e-01 3.285386e+00 62 55 60
6.360919e-01 -4.116449e-01 3.279190e+00 116 108 97
6.842433e-01 -4.173798e-01 3.276462e+00 248 253 255
6.842433e-01 -4.173798e-01 3.276462e+00 248 253 255
6.724061e-01 -4.145831e-01 3.279045e+00 60 52 40
6.391127e-01 -4.865735e-01 3.327077e+00 55 39 33
5.592625e-01 -4.771337e-01 3.323451e+00 38 23 15
5.483700e-01 -4.752224e-01 3.321295e+00 58 38 30
6.157883e-01 -4.735614e-01 3.328633e+00 190 177 160
6.157883e-01 -4.735614e-01 3.328633e+00 190 177 160
6.705091e-01 -4.622606e-01 3.310144e+00 202 200 188
5.952215e-01 -4.527334e-01 3.288385e+00 32 22 14
6.086209e-01 -4.530096e-01 3.288385e+00 35 26 32
6.125823e-01 -4.495838e-01 3.287575e+00 26 15 7
5.457475e-01 -4.298663e-01 3.289885e+00 207 204 196
5.619235e-01 -4.215899e-01 3.293414e+00 189 181 173
6.630991e-01 -4.143501e-01 3.276033e+00 188 181 171
5.717331e-01 -3.982256e-01 3.269919e+00 187 178 174
6.726468e-01 -4.030135e-01 3.272837e+00 193 184 175
6.441781e-01 -4.874662e-01 3.325563e+00 37 21 17
5.330317e-01 -4.750155e-01 3.323067e+00 237 230 223
6.110624e-01 -4.835057e-01 3.324842e+00 96 80 64
6.136955e-01 -4.645453e-01 3.292073e+00 41 27 18
6.679439e-01 -4.586569e-01 3.305543e+00 94 87 76
6.833606e-01 -4.605874e-01 3.303670e+00 109 107 116
6.833606e-01 -4.605874e-01 3.303670e+00 109 107 116
6.528642e-01 -4.557072e-01 3.303029e+00 96 75 63
6.149629e-01 -4.532710e-01 3.289017e+00 62 48 55
5.993974e-01 -4.450634e-01 3.285187e+00 51 37 40
6.074068e-01 -4.441404e-01 3.285194e+00 56 39 45
5.432336e-01 -4.353539e-01 3.291697e+00 109 98 85
6.713014e-01 -4.480351e-01 3.301797e+00 99 93 80
6.692289e-01 -4.411556e-01 3.293061e+00 50 42 30
6.017932e-01 -4.288916e-01 3.286557e+00 188 179 168
6.683464e-01 -4.324680e-01 3.288011e+00 60 55 49
6.683464e-01 -4.324680e-01 3.288011e+00 60 55 49
6.647126e-01 -4.320441e-01 3.287242e+00 65 56 59
6.862379e-01 -4.187469e-01 3.278274e+00 127 135 137
6.618294e-01 -4.132901e-01 3.275614e+00 63 56 40
6.355944e-01 -4.871661e-01 3.326066e+00 63 49 40
5.515440e-01 -4.769971e-01 3.325178e+00 43 29 22
5.861141e-01 -4.810412e-01 3.323481e+00 194 190 187
5.462340e-01 -4.761854e-01 3.324597e+00 50 37 28
5.378218e-01 -4.753264e-01 3.322701e+00 53 36 28
6.555416e-01 -4.872744e-01 3.326000e+00 151 140 122
5.357275e-01 -4.663487e-01 3.318309e+00 69 59 49
5.357275e-01 -4.663487e-01 3.318309e+00 69 59 49
6.079125e-01 -4.543104e-01 3.307414e+00 228 223 220
5.363481e-01 -4.435085e-01 3.305314e+00 201 200 196
6.021189e-01 -4.538282e-01 3.287159e+00 213 203 201
6.559816e-01 -4.511051e-01 3.297358e+00 112 104 94
6.443748e-01 -4.383256e-01 3.291394e+00 107 96 77
6.540099e-01 -4.167544e-01 3.277818e+00 82 70 58
6.748757e-01 -4.178120e-01 3.280371e+00 94 79 75
5.734770e-01 -5.092721e-01 3.345156e+00 80 71 65
5.735261e-01 -5.086898e-01 3.344465e+00 78 67 65
6.315543e-01 -5.151735e-01 3.335778e+00 100 89 73
5.952758e-01 -4.901648e-01 3.321755e+00 161 151 139
5.476319e-01 -4.835991e-01 3.327427e+00 198 185 169
6.105836e-01 -4.901463e-01 3.330094e+00 164 154 138
5.467134e-01 -4.820672e-01 3.325820e+00 195 189 172
6.448246e-01 -4.863635e-01 3.337915e+00 74 64 57
6.112994e-01 -4.839794e-01 3.326402e+00 211 202 188
5.589599e-01 -4.784967e-01 3.321265e+00 59 45 38
6.625788e-01 -4.883832e-01 3.325682e+00 95 76 71
6.332197e-01 -4.755026e-01 3.333362e+00 53 37 24
6.833860e-01 -4.602297e-01 3.303155e+00 131 132 138
5.386523e-01 -4.439649e-01 3.296807e+00 124 114 105
5.452947e-01 -4.307243e-01 3.293585e+00 98 91 81
5.435183e-01 -4.264360e-01 3.286692e+00 80 75 64
5.888956e-01 -4.304919e-01 3.287421e+00 192 187 183
6.557622e-01 -4.132990e-01 3.276265e+00 69 59 56
6.656260e-01 -4.143324e-01 3.276213e+00 168 158 148
6.345598e-01 -4.081827e-01 3.277801e+00 95 93 83
5.455499e-01 -4.840345e-01 3.327026e+00 157 149 135
5.956306e-01 -4.899115e-01 3.322804e+00 153 144 127
6.732773e-01 -4.915259e-01 3.324947e+00 87 79 69
6.205912e-01 -4.843169e-01 3.332266e+00 188 177 169
6.312789e-01 -4.773581e-01 3.334912e+00 114 115 117
6.308073e-01 -4.823104e-01 3.335757e+00 109 109 113
6.308073e-01 -4.823104e-01 3.335757e+00 109 109 113
6.204408e-01 -4.769088e-01 3.332046e+00 118 118 118
6.431790e-01 -4.861622e-01 3.339280e+00 118 122 125
6.381110e-01 -4.858583e-01 3.337695e+00 118 121 125
6.333370e-01 -4.850133e-01 3.336588e+00 103 108 114
6.143863e-01 -4.745549e-01 3.330450e+00 44 45 37
6.375298e-01 -4.764519e-01 3.336716e+00 53 50 51
6.260767e-01 -4.869776e-01 3.335020e+00 48 44 43
6.464707e-01 -4.763209e-01 3.338825e+00 125 123 124
6.469624e-01 -4.862682e-01 3.340155e+00 36 39 40
6.197532e-01 -4.840018e-01 3.332879e+00 40 38 37
5.803152e-01 -5.043144e-01 3.323248e+00 23 19 16
6.187479e-01 -5.057897e-01 3.336292e+00 31 26 23
5.586443e-01 -4.786951e-01 3.320252e+00 5 6 9
6.289343e-01 -4.855409e-01 3.335577e+00 8 9 15
6.469477e-01 -4.869392e-01 3.340545e+00 30 41 42
6.161318e-01 -4.838353e-01 3.332024e+00 18 17 22
6.426095e-01 -4.858357e-01 3.338996e+00 131 132 137
6.136063e-01 -4.749813e-01 3.330674e+00 36 32 26
6.187550e-01 -4.605729e-01 3.327685e+00 14 15 20
6.196046e-01 -4.594506e-01 3.327497e+00 121 120 125
6.476499e-01 -4.441084e-01 3.331405e+00 106 106 106
5.009068e-01 -5.989091e-01 3.053936e+00 0 255 0
4.875953e-01 -6.180394e-01 3.009700e+00 255 255 0
5.842135e-01 -5.923954e-01 3.112842e+00 255 0 0
5.798047e-01 -6.102590e-01 3.066351e+00 255 255 0
7.621547e-01 1.643572e-01 5.169024e+00 0 255 0
7.587762e-01 1.479595e-01 5.121911e+00 255 255 0
5.077288e-01 -5.782381e-01 3.067427e+00 255 0 0
4.925710e-01 -6.015857e-01 3.025893e+00 255 255 0
2.022880e+00 5.647877e+00 3.738199e+01 0 255 0
2.020830e+00 5.639061e+00 3.733282e+01 255 255 0
5.891068e-01 -4.594561e-01 3.512204e+00 255 0 0
5.921341e-01 -4.547875e-01 3.462514e+00 255 255 0
6.369822e-01 -4.085283e-01 3.819392e+00 0 255 0
6.340145e-01 -4.102139e-01 3.769508e+00 255 255 0
6.280148e-01 -5.422103e-01 3.059899e+00 255 0 0
6.314030e-01 -5.623288e-01 3.014251e+00 255 255 0
6.318974e-01 -3.389174e-01 3.670745e+00 0 255 0
6.289489e-01 -3.514609e-01 3.622434e+00 255 255 0
6.274341e-01 -5.549097e-01 3.198491e+00 255 0 0
6.368342e-01 -5.673647e-01 3.150988e+00 255 255 0
