ply
format ascii 1.0
element face 0
property list uchar int vertex_indices
element vertex 958
property float x
property float y
property float z
property uchar diffuse_red
property uchar diffuse_green
property uchar diffuse_blue
end_header
3.955136e-01 4.799084e-01 3.119313e+00 89 109 74
3.952515e-01 4.802664e-01 3.119311e+00 155 171 147
3.580638e-01 5.283314e-01 3.108682e+00 102 107 129
4.074405e-01 4.651257e-01 3.120328e+00 51 54 34
4.074405e-01 4.651257e-01 3.120328e+00 51 54 34
4.279116e-01 4.403745e-01 3.119676e+00 41 48 77
4.068682e-01 4.659162e-01 3.120420e+00 71 74 67
4.081793e-01 4.643863e-01 3.120381e+00 49 58 53
4.442522e-01 4.210970e-01 3.117507e+00 51 53 69
4.161671e-01 4.546864e-01 3.120396e+00 40 51 41
4.357346e-01 4.312678e-01 3.118880e+00 92 96 110
3.870945e-01 4.909750e-01 3.117967e+00 141 152 172
3.762752e-01 5.049125e-01 3.115251e+00 150 114 137
4.375228e-01 4.293310e-01 3.118567e+00 129 134 153
4.375228e-01 4.293310e-01 3.118567e+00 129 134 153
4.295845e-01 4.388049e-01 3.119580e+00 110 108 121
3.562510e-01 5.312592e-01 3.107855e+00 56 55 70
3.604964e-01 5.256837e-01 3.109697e+00 30 33 47
4.144523e-01 4.572169e-01 3.120500e+00 138 149 168
4.288349e-01 4.398846e-01 3.119665e+00 75 81 107
4.021519e-01 4.724014e-01 3.120066e+00 41 46 42
4.071240e-01 4.663659e-01 3.120325e+00 73 78 82
3.549739e-01 5.333163e-01 3.107282e+00 28 33 55
3.999598e-01 4.753206e-01 3.119879e+00 40 31 36
4.425551e-01 4.237530e-01 3.117902e+00 37 36 55
4.014639e-01 4.734886e-01 3.120024e+00 62 65 72
3.595471e-01 5.273913e-01 3.109281e+00 95 97 115
3.595471e-01 5.273913e-01 3.109281e+00 95 97 115
3.958908e-01 4.805687e-01 3.119420e+00 146 161 157
4.444475e-01 4.217677e-01 3.117736e+00 141 141 151
4.210275e-01 4.499005e-01 3.120421e+00 138 144 166
4.066482e-01 4.674505e-01 3.120438e+00 62 65 82
3.970583e-01 4.794128e-01 3.119748e+00 146 160 172
3.836968e-01 4.963730e-01 3.117179e+00 30 32 53
4.192735e-01 4.521746e-01 3.120473e+00 102 111 120
4.192735e-01 4.521746e-01 3.120473e+00 102 111 120
3.925020e-01 4.853617e-01 3.118939e+00 56 68 90
3.900455e-01 4.886076e-01 3.118519e+00 144 145 165
3.525742e-01 5.374464e-01 3.106071e+00 28 27 45
4.366766e-01 4.316666e-01 3.119017e+00 45 58 75
3.664240e-01 5.192930e-01 3.111930e+00 172 175 192
3.735849e-01 5.099940e-01 3.114396e+00 103 103 122
4.202075e-01 4.515728e-01 3.120557e+00 125 132 151
4.293713e-01 4.406689e-01 3.119869e+00 22 27 45
3.993140e-01 4.774048e-01 3.119860e+00 118 110 125
3.783591e-01 5.039717e-01 3.115797e+00 139 142 159
3.842160e-01 4.966849e-01 3.117316e+00 13 15 38
3.606675e-01 5.276022e-01 3.109676e+00 23 25 37
4.073254e-01 4.680112e-01 3.120589e+00 44 41 58
3.704446e-01 5.151759e-01 3.113331e+00 122 133 153
4.414759e-01 4.271158e-01 3.118638e+00 57 51 60
4.042621e-01 4.721644e-01 3.120348e+00 49 55 81
3.604745e-01 5.283202e-01 3.109573e+00 96 97 110
3.604745e-01 5.283202e-01 3.109573e+00 96 97 110
3.550150e-01 5.358409e-01 3.107160e+00 123 134 152
4.404056e-01 4.287330e-01 3.118861e+00 123 113 124
4.119826e-01 4.630525e-01 3.120742e+00 118 125 143
4.119826e-01 4.630525e-01 3.120742e+00 118 125 143
3.714945e-01 5.142350e-01 3.113643e+00 34 39 50
4.013071e-01 4.764162e-01 3.120108e+00 123 130 148
3.999939e-01 4.781571e-01 3.119971e+00 133 135 159
3.634731e-01 5.250337e-01 3.110781e+00 175 195 228
3.586928e-01 5.313761e-01 3.108807e+00 53 53 67
4.457417e-01 4.227847e-01 3.118187e+00 87 105 89
3.641408e-01 5.242673e-01 3.110973e+00 99 116 143
4.358644e-01 4.346322e-01 3.119552e+00 116 72 99
4.361430e-01 4.343650e-01 3.119537e+00 71 15 40
3.531982e-01 5.388815e-01 3.106429e+00 147 151 180
4.430436e-01 4.261661e-01 3.118605e+00 101 119 97
4.382777e-01 4.319095e-01 3.119305e+00 180 186 202
4.181894e-01 4.560745e-01 3.120789e+00 102 110 121
4.184514e-01 4.561008e-01 3.120886e+00 20 24 35
4.468794e-01 4.220498e-01 3.118184e+00 86 96 89
4.334464e-01 4.381250e-01 3.119925e+00 27 25 39
4.316403e-01 4.403329e-01 3.120154e+00 120 126 148
3.636661e-01 5.256931e-01 3.110791e+00 52 66 92
3.485807e-01 5.457524e-01 3.104067e+00 120 68 86
3.712509e-01 5.157920e-01 3.113538e+00 89 105 124
4.320110e-01 4.399810e-01 3.120113e+00 109 106 127
3.635085e-01 5.260931e-01 3.110679e+00 29 41 63
4.243892e-01 4.492684e-01 3.120671e+00 122 128 147
4.394253e-01 4.312828e-01 3.119353e+00 94 87 95
4.323264e-01 4.398923e-01 3.120137e+00 152 143 165
4.323264e-01 4.398923e-01 3.120137e+00 152 143 165
4.259000e-01 4.477054e-01 3.120675e+00 118 122 147
3.671370e-01 5.217080e-01 3.112072e+00 108 120 146
4.297364e-01 4.431928e-01 3.120373e+00 124 122 143
4.025997e-01 4.766259e-01 3.120305e+00 53 56 69
4.025997e-01 4.766259e-01 3.120305e+00 53 56 69
4.393933e-01 4.319884e-01 3.119497e+00 37 29 40
4.247772e-01 4.495574e-01 3.120751e+00 142 145 164
4.169548e-01 4.590537e-01 3.121011e+00 119 122 137
3.690927e-01 5.195880e-01 3.112746e+00 143 157 184
4.375492e-01 4.342437e-01 3.119731e+00 84 58 67
4.340632e-01 4.384549e-01 3.120115e+00 92 94 107
4.379607e-01 4.339080e-01 3.119721e+00 135 118 129
4.306608e-01 4.426098e-01 3.120464e+00 20 19 37
4.129902e-01 4.642489e-01 3.120896e+00 66 74 97
4.129902e-01 4.642489e-01 3.120896e+00 66 74 97
3.780289e-01 5.083389e-01 3.115606e+00 127 131 143
3.510197e-01 5.439281e-01 3.105233e+00 122 130 164
4.244243e-01 4.505413e-01 3.120886e+00 79 80 105
4.189663e-01 4.571319e-01 3.121074e+00 87 88 100
3.974316e-01 4.837839e-01 3.119703e+00 121 120 132
3.805126e-01 5.055140e-01 3.116292e+00 108 118 143
3.635178e-01 5.276563e-01 3.110632e+00 44 39 56
3.881065e-01 4.958157e-01 3.118098e+00 100 69 105
3.970720e-01 4.845131e-01 3.119724e+00 37 34 51
3.688344e-01 5.208488e-01 3.112602e+00 92 93 113
3.688344e-01 5.208488e-01 3.112602e+00 92 93 113
3.809430e-01 5.051868e-01 3.116316e+00 40 46 68
3.809430e-01 5.051868e-01 3.116316e+00 40 46 68
3.781685e-01 5.087254e-01 3.115619e+00 96 99 111
3.593563e-01 5.333802e-01 3.108981e+00 138 127 168
4.377842e-01 4.349224e-01 3.119888e+00 131 120 125
4.376238e-01 4.351385e-01 3.119902e+00 49 38 46
3.559868e-01 5.378636e-01 3.107505e+00 137 120 153
4.356785e-01 4.374706e-01 3.120080e+00 57 44 70
4.345774e-01 4.388410e-01 3.120229e+00 105 103 119
3.603296e-01 5.322417e-01 3.109374e+00 25 18 36
3.946781e-01 4.878671e-01 3.119358e+00 33 40 66
3.756032e-01 5.122707e-01 3.114852e+00 71 67 94
4.136962e-01 4.642495e-01 3.121044e+00 67 73 95
3.869391e-01 4.977626e-01 3.117849e+00 66 66 85
3.869391e-01 4.977626e-01 3.117849e+00 66 66 85
3.637852e-01 5.278138e-01 3.110759e+00 53 50 67
3.796646e-01 5.071409e-01 3.116060e+00 56 59 75
4.370558e-01 4.360399e-01 3.120032e+00 40 37 48
3.498687e-01 5.464327e-01 3.104641e+00 84 67 77
4.347175e-01 4.390490e-01 3.120313e+00 31 28 45
4.347175e-01 4.390490e-01 3.120313e+00 31 28 45
4.309030e-01 4.436330e-01 3.120637e+00 60 58 72
3.898657e-01 4.942867e-01 3.118438e+00 116 120 135
3.849731e-01 5.005668e-01 3.117385e+00 89 92 109
3.835000e-01 5.024648e-01 3.117049e+00 95 97 109
4.219429e-01 4.545281e-01 3.121071e+00 53 56 89
3.996910e-01 4.820248e-01 3.119923e+00 85 90 109
3.879203e-01 4.969157e-01 3.118019e+00 126 82 121
3.861947e-01 4.991185e-01 3.117661e+00 87 92 111
3.858930e-01 4.994708e-01 3.117610e+00 77 84 102
3.853164e-01 5.002087e-01 3.117468e+00 85 91 107
3.837961e-01 5.021588e-01 3.117130e+00 98 100 113
3.837961e-01 5.021588e-01 3.117130e+00 98 100 113
3.639578e-01 5.279599e-01 3.110850e+00 168 163 182
4.166907e-01 4.610512e-01 3.121078e+00 93 96 110
4.166907e-01 4.610512e-01 3.121078e+00 93 96 110
4.136688e-01 4.647218e-01 3.121117e+00 41 49 71
3.740766e-01 5.147787e-01 3.114357e+00 104 105 125
4.418505e-01 4.307071e-01 3.119573e+00 41 24 42
4.143319e-01 4.639956e-01 3.121096e+00 53 60 78
4.049867e-01 4.755008e-01 3.120589e+00 103 100 112
3.892069e-01 4.953761e-01 3.118292e+00 85 87 108
3.892069e-01 4.953761e-01 3.118292e+00 85 87 108
3.969171e-01 4.856480e-01 3.119669e+00 88 90 105
3.754836e-01 5.130465e-01 3.114806e+00 117 116 134
4.309614e-01 4.439046e-01 3.120634e+00 148 146 160
3.763949e-01 5.119317e-01 3.115051e+00 37 26 65
3.503802e-01 5.462173e-01 3.104879e+00 100 82 96
4.153187e-01 4.630195e-01 3.121126e+00 143 149 163
3.716281e-01 5.182603e-01 3.113573e+00 117 126 155
4.161660e-01 4.619906e-01 3.121216e+00 77 84 94
3.760645e-01 5.125493e-01 3.114986e+00 62 50 92
3.746711e-01 5.143399e-01 3.114515e+00 59 58 74
3.874889e-01 4.979056e-01 3.117960e+00 139 135 154
3.518920e-01 5.443915e-01 3.105601e+00 165 175 206
4.273871e-01 4.484807e-01 3.120952e+00 144 151 168
4.040821e-01 4.770345e-01 3.120477e+00 114 112 127
4.040821e-01 4.770345e-01 3.120477e+00 114 112 127
3.702131e-01 5.203156e-01 3.113072e+00 177 193 218
4.172639e-01 4.608803e-01 3.121201e+00 67 65 76
3.971627e-01 4.858402e-01 3.119684e+00 85 87 100
4.371360e-01 4.369227e-01 3.120213e+00 82 81 99
4.017866e-01 4.801214e-01 3.120276e+00 135 137 149
4.017866e-01 4.801214e-01 3.120276e+00 135 137 149
3.675045e-01 5.240781e-01 3.112044e+00 107 113 129
3.581346e-01 5.364091e-01 3.108394e+00 126 112 129
3.665613e-01 5.253629e-01 3.111727e+00 164 173 190
4.438773e-01 4.290203e-01 3.119415e+00 75 58 70
4.198634e-01 4.579453e-01 3.121238e+00 114 103 117
4.359975e-01 4.384966e-01 3.120362e+00 114 106 121
4.190194e-01 4.590149e-01 3.121237e+00 69 59 70
3.902396e-01 4.949285e-01 3.118500e+00 75 74 88
3.563980e-01 5.389156e-01 3.107614e+00 196 178 200
4.014984e-01 4.808206e-01 3.120037e+00 74 76 88
3.838818e-01 5.030481e-01 3.117149e+00 145 145 155
3.673074e-01 5.246069e-01 3.112025e+00 177 182 197
3.593682e-01 5.350225e-01 3.108905e+00 141 139 176
3.749307e-01 5.146719e-01 3.114604e+00 56 52 66
4.339357e-01 4.411565e-01 3.120667e+00 100 89 105
4.224348e-01 4.550956e-01 3.121200e+00 108 113 154
4.224348e-01 4.550956e-01 3.121200e+00 108 113 154
4.083598e-01 4.723386e-01 3.120877e+00 118 121 140
3.940837e-01 4.903204e-01 3.118791e+00 161 162 174
3.915094e-01 4.934777e-01 3.118733e+00 88 94 104
3.892924e-01 4.962696e-01 3.118307e+00 184 114 173
3.917907e-01 4.931389e-01 3.118855e+00 88 91 103
3.876839e-01 4.983596e-01 3.117977e+00 73 69 83
3.876839e-01 4.983596e-01 3.117977e+00 73 69 83
4.254262e-01 4.515361e-01 3.121110e+00 47 58 88
3.906904e-01 4.945975e-01 3.118638e+00 82 82 92
3.648874e-01 5.279581e-01 3.111083e+00 101 118 148
3.648874e-01 5.279581e-01 3.111083e+00 101 118 148
4.333691e-01 4.420197e-01 3.120662e+00 79 78 92
3.847367e-01 5.022421e-01 3.117345e+00 61 61 71
3.844250e-01 5.026595e-01 3.117179e+00 98 96 107
3.511927e-01 5.461548e-01 3.105266e+00 36 22 35
3.745006e-01 5.154964e-01 3.114452e+00 92 85 101
3.835397e-01 5.039145e-01 3.117004e+00 139 144 156
3.520255e-01 5.452009e-01 3.105608e+00 96 86 101
3.926516e-01 4.923823e-01 3.118887e+00 128 127 141
4.165693e-01 4.626138e-01 3.121320e+00 124 124 134
4.219851e-01 4.560528e-01 3.121224e+00 43 46 97
3.682594e-01 5.239361e-01 3.112271e+00 11 13 26
4.206747e-01 4.577013e-01 3.121266e+00 44 32 43
4.199904e-01 4.585501e-01 3.121242e+00 160 148 160
4.025095e-01 4.801055e-01 3.120439e+00 137 138 143
3.950911e-01 4.894251e-01 3.119307e+00 149 153 164
4.028423e-01 4.797595e-01 3.120434e+00 144 144 152
4.028423e-01 4.797595e-01 3.120434e+00 144 144 152
3.990861e-01 4.844393e-01 3.119993e+00 97 96 105
4.277410e-01 4.492274e-01 3.121095e+00 60 73 104
4.018021e-01 4.811355e-01 3.120303e+00 76 74 85
3.910984e-01 4.946164e-01 3.118710e+00 120 119 127
3.652051e-01 5.280937e-01 3.111198e+00 200 215 248
3.578589e-01 5.378382e-01 3.108220e+00 155 143 167
4.281452e-01 4.487909e-01 3.121214e+00 109 116 134
4.168493e-01 4.626107e-01 3.121293e+00 87 86 94
3.906651e-01 4.952774e-01 3.118525e+00 85 83 92
3.868125e-01 5.001874e-01 3.117786e+00 101 100 111
3.868125e-01 5.001874e-01 3.117786e+00 101 100 111
3.770546e-01 5.127186e-01 3.115218e+00 112 98 132
4.361670e-01 4.392516e-01 3.120549e+00 141 133 154
4.152331e-01 4.647229e-01 3.121180e+00 75 76 94
4.249095e-01 4.529060e-01 3.121203e+00 101 76 101
4.240134e-01 4.539211e-01 3.121266e+00 77 25 61
3.651552e-01 5.283608e-01 3.111220e+00 113 129 160
3.884625e-01 4.983135e-01 3.118129e+00 110 104 116
3.884625e-01 4.983135e-01 3.118129e+00 110 104 116
3.770456e-01 5.129917e-01 3.115188e+00 127 117 142
3.526190e-01 5.451077e-01 3.105915e+00 172 165 181
4.136298e-01 4.668694e-01 3.121285e+00 132 121 135
3.799971e-01 5.092681e-01 3.116047e+00 102 109 117
3.706470e-01 5.213839e-01 3.113174e+00 81 85 97
4.177110e-01 4.619404e-01 3.121332e+00 125 122 129
4.177110e-01 4.619404e-01 3.121332e+00 125 122 129
4.168980e-01 4.629211e-01 3.121354e+00 119 118 126
4.077315e-01 4.742513e-01 3.120898e+00 92 94 109
3.941227e-01 4.912631e-01 3.119259e+00 69 67 78
3.822361e-01 5.064317e-01 3.116620e+00 212 217 237
4.173929e-01 4.623247e-01 3.121437e+00 120 117 124
3.836850e-01 5.045993e-01 3.117066e+00 161 167 180
3.784479e-01 5.113730e-01 3.115614e+00 134 119 126
4.258409e-01 4.521383e-01 3.121207e+00 72 82 106
3.952308e-01 4.900656e-01 3.119082e+00 169 169 177
3.952308e-01 4.900656e-01 3.119082e+00 169 169 177
3.948820e-01 4.904177e-01 3.119341e+00 173 173 182
3.639433e-01 5.304219e-01 3.110712e+00 156 110 136
3.639433e-01 5.304219e-01 3.110712e+00 156 110 136
4.003671e-01 4.836158e-01 3.120161e+00 141 139 149
4.425659e-01 4.321912e-01 3.119926e+00 51 51 69
3.955166e-01 4.897720e-01 3.119459e+00 170 170 178
3.944102e-01 4.911863e-01 3.119249e+00 147 146 153
3.851693e-01 5.029318e-01 3.117343e+00 111 111 120
4.154578e-01 4.650264e-01 3.121273e+00 75 76 96
3.981054e-01 4.866082e-01 3.119836e+00 74 77 84
3.853692e-01 5.027615e-01 3.117441e+00 63 63 71
4.355073e-01 4.407213e-01 3.120683e+00 160 165 184
4.355073e-01 4.407213e-01 3.120683e+00 160 165 184
4.260967e-01 4.520597e-01 3.121292e+00 131 147 172
4.144717e-01 4.663166e-01 3.121193e+00 91 82 101
4.167053e-01 4.636796e-01 3.121356e+00 67 64 73
4.153820e-01 4.652606e-01 3.121327e+00 173 171 192
3.775970e-01 5.129172e-01 3.115305e+00 146 135 151
3.646098e-01 5.298946e-01 3.110960e+00 62 37 58
4.278865e-01 4.500646e-01 3.121241e+00 56 74 118
4.278865e-01 4.500646e-01 3.121241e+00 56 74 118
4.141699e-01 4.669037e-01 3.121303e+00 147 135 149
4.101936e-01 4.717877e-01 3.121086e+00 70 78 91
3.693285e-01 5.238110e-01 3.112651e+00 94 89 96
3.839611e-01 5.048389e-01 3.117089e+00 152 158 170
3.837114e-01 5.052071e-01 3.116997e+00 153 159 171
3.533142e-01 5.449912e-01 3.106164e+00 62 53 74
4.283552e-01 4.496977e-01 3.121246e+00 56 70 103
3.912064e-01 4.957254e-01 3.118656e+00 80 77 84
3.581901e-01 5.386029e-01 3.108291e+00 165 164 178
4.145421e-01 4.666038e-01 3.121267e+00 176 164 181
4.143703e-01 4.667810e-01 3.121337e+00 57 44 61
3.967849e-01 4.886784e-01 3.119672e+00 120 118 135
3.811272e-01 5.086414e-01 3.116322e+00 162 166 178
4.262189e-01 4.523538e-01 3.121327e+00 71 86 109
4.131946e-01 4.683003e-01 3.121263e+00 99 94 100
3.958162e-01 4.899943e-01 3.119383e+00 169 168 174
3.958162e-01 4.899943e-01 3.119383e+00 169 168 174
3.896489e-01 4.977711e-01 3.118341e+00 173 134 174
3.896489e-01 4.977711e-01 3.118341e+00 173 134 174
3.845015e-01 5.044129e-01 3.117191e+00 80 78 91
3.613924e-01 5.345232e-01 3.109659e+00 67 60 93
3.513217e-01 5.478585e-01 3.105279e+00 107 99 110
4.173553e-01 4.633190e-01 3.121338e+00 113 111 116
4.129640e-01 4.686708e-01 3.121250e+00 90 88 93
4.129640e-01 4.686708e-01 3.121250e+00 90 88 93
4.129640e-01 4.686708e-01 3.121250e+00 90 88 93
3.740452e-01 5.179791e-01 3.114214e+00 93 97 109
3.653026e-01 5.294041e-01 3.111226e+00 69 66 89
3.637679e-01 5.314256e-01 3.110604e+00 127 119 137
3.535552e-01 5.449212e-01 3.106288e+00 132 123 141
4.369487e-01 4.395665e-01 3.120719e+00 44 45 65
4.108902e-01 4.713288e-01 3.121138e+00 137 141 152
4.108902e-01 4.713288e-01 3.121138e+00 137 141 152
4.168614e-01 4.639937e-01 3.121437e+00 195 187 198
4.168614e-01 4.639937e-01 3.121437e+00 195 187 198
3.904376e-01 4.970085e-01 3.118486e+00 109 91 115
3.577708e-01 5.395265e-01 3.108140e+00 158 154 171
4.243889e-01 4.549865e-01 3.121429e+00 80 74 100
4.154044e-01 4.659260e-01 3.121352e+00 209 205 227
3.696201e-01 5.240544e-01 3.112759e+00 93 88 94
4.344002e-01 4.428905e-01 3.120944e+00 72 76 87
4.160317e-01 4.652777e-01 3.121350e+00 139 136 156
3.974971e-01 4.883244e-01 3.119734e+00 66 62 79
3.974971e-01 4.883244e-01 3.119734e+00 66 62 79
3.668836e-01 5.277055e-01 3.111722e+00 120 116 131
3.666175e-01 5.280347e-01 3.111668e+00 138 137 153
3.670735e-01 5.274956e-01 3.111827e+00 36 29 45
4.279156e-01 4.508626e-01 3.121369e+00 35 49 92
4.055151e-01 4.783352e-01 3.120918e+00 80 84 96
3.644001e-01 5.310362e-01 3.110852e+00 74 72 93
4.286671e-01 4.500087e-01 3.121292e+00 52 66 102
4.109732e-01 4.717399e-01 3.121156e+00 98 101 116
4.109732e-01 4.717399e-01 3.121156e+00 98 101 116
3.958320e-01 4.906090e-01 3.119456e+00 156 155 161
3.958320e-01 4.906090e-01 3.119456e+00 156 155 161
3.887877e-01 4.995562e-01 3.118120e+00 126 125 130
3.797081e-01 5.112049e-01 3.115861e+00 122 117 124
4.362109e-01 4.409878e-01 3.120905e+00 120 126 138
4.362109e-01 4.409878e-01 3.120905e+00 120 126 138
3.744717e-01 5.180297e-01 3.114350e+00 117 117 127
3.577788e-01 5.399793e-01 3.108126e+00 168 167 184
3.575544e-01 5.402577e-01 3.108071e+00 183 182 200
4.176382e-01 4.635730e-01 3.121649e+00 119 114 120
3.977705e-01 4.883159e-01 3.119785e+00 143 137 152
3.977705e-01 4.883159e-01 3.119785e+00 143 137 152
3.668973e-01 5.279832e-01 3.111753e+00 77 75 88
3.589298e-01 5.384983e-01 3.108604e+00 102 104 117
4.116530e-01 4.710535e-01 3.121258e+00 90 90 99
4.116530e-01 4.710535e-01 3.121258e+00 90 90 99
3.626374e-01 5.336274e-01 3.110160e+00 58 50 66
3.684674e-01 5.260526e-01 3.112359e+00 35 26 43
3.644195e-01 5.313592e-01 3.110843e+00 106 105 121
3.752350e-01 5.173002e-01 3.114588e+00 130 126 136
3.750457e-01 5.175054e-01 3.114558e+00 60 57 66
3.544394e-01 5.446196e-01 3.106678e+00 37 26 40
3.955686e-01 4.912609e-01 3.119422e+00 108 107 112
3.955686e-01 4.912609e-01 3.119422e+00 108 107 112
4.327301e-01 4.455220e-01 3.121207e+00 155 154 170
3.813862e-01 5.094563e-01 3.116385e+00 163 163 173
3.565243e-01 5.419857e-01 3.107574e+00 120 127 146
4.309165e-01 4.477526e-01 3.121282e+00 85 91 105
4.106074e-01 4.726695e-01 3.120967e+00 107 110 125
3.952312e-01 4.918596e-01 3.119343e+00 124 123 128
3.840875e-01 5.061313e-01 3.116992e+00 148 153 167
3.809727e-01 5.100409e-01 3.116262e+00 107 108 113
3.669195e-01 5.283261e-01 3.111761e+00 122 120 131
3.541271e-01 5.451975e-01 3.106515e+00 64 53 67
4.265846e-01 4.530475e-01 3.121477e+00 133 140 158
3.811552e-01 5.098344e-01 3.116322e+00 168 169 174
3.587724e-01 5.390772e-01 3.108517e+00 169 171 186
3.587724e-01 5.390772e-01 3.108517e+00 169 171 186
4.299933e-01 4.489935e-01 3.121350e+00 95 99 112
3.981993e-01 4.882196e-01 3.119832e+00 75 68 81
3.644365e-01 5.316867e-01 3.110849e+00 61 59 72
4.296755e-01 4.494245e-01 3.121371e+00 87 90 107
3.911326e-01 4.971928e-01 3.118533e+00 145 143 148
3.744398e-01 5.186343e-01 3.114319e+00 134 135 140
4.355328e-01 4.424182e-01 3.120981e+00 112 116 127
3.847054e-01 5.054685e-01 3.117281e+00 167 171 182
3.780085e-01 5.140876e-01 3.115381e+00 61 54 62
3.956462e-01 4.916099e-01 3.119404e+00 154 153 158
3.882558e-01 5.010414e-01 3.118057e+00 137 136 144
3.882558e-01 5.010414e-01 3.118057e+00 137 136 144
3.851707e-01 5.049794e-01 3.117213e+00 91 91 100
3.705347e-01 5.239167e-01 3.113023e+00 120 113 120
3.646794e-01 5.315683e-01 3.110938e+00 124 126 139
4.238442e-01 4.567313e-01 3.121530e+00 150 166 201
4.181816e-01 4.636645e-01 3.121529e+00 99 94 100
4.098021e-01 4.739530e-01 3.121165e+00 80 78 90
3.903764e-01 4.984127e-01 3.118440e+00 133 125 136
4.256734e-01 4.545647e-01 3.121544e+00 181 186 212
4.120130e-01 4.713215e-01 3.121279e+00 78 78 86
4.097136e-01 4.741558e-01 3.121072e+00 122 120 133
3.739202e-01 5.196265e-01 3.114143e+00 75 76 80
4.180485e-01 4.639284e-01 3.121534e+00 109 104 111
4.154213e-01 4.671703e-01 3.121479e+00 77 65 75
4.101914e-01 4.736138e-01 3.121259e+00 99 99 111
3.798323e-01 5.119965e-01 3.115928e+00 56 46 55
3.985001e-01 4.882698e-01 3.119914e+00 160 151 162
3.985001e-01 4.882698e-01 3.119914e+00 160 151 162
4.331988e-01 4.456160e-01 3.121254e+00 84 83 97
4.157002e-01 4.669078e-01 3.121514e+00 74 63 77
4.111446e-01 4.725246e-01 3.121211e+00 92 96 108
4.010984e-01 4.850652e-01 3.120157e+00 85 85 87
3.960705e-01 4.914028e-01 3.119527e+00 165 165 167
3.960705e-01 4.914028e-01 3.119527e+00 165 165 167
4.246201e-01 4.560570e-01 3.121615e+00 82 89 109
3.814672e-01 5.100704e-01 3.116336e+00 158 157 163
4.033415e-01 4.823892e-01 3.120520e+00 73 71 74
3.672532e-01 5.285820e-01 3.111954e+00 137 132 139
4.239307e-01 4.569756e-01 3.121626e+00 63 68 97
3.923357e-01 4.963035e-01 3.118799e+00 128 122 131
3.677496e-01 5.279880e-01 3.112023e+00 88 80 92
4.105129e-01 4.735591e-01 3.121193e+00 155 155 165
4.105129e-01 4.735591e-01 3.121193e+00 155 155 165
3.865606e-01 5.037170e-01 3.117620e+00 56 55 60
3.865606e-01 5.037170e-01 3.117620e+00 56 55 60
4.111357e-01 4.728519e-01 3.121256e+00 163 167 178
4.111357e-01 4.728519e-01 3.121256e+00 163 167 178
3.810996e-01 5.107764e-01 3.116238e+00 84 81 88
3.810996e-01 5.107764e-01 3.116238e+00 84 81 88
4.250055e-01 4.558581e-01 3.121636e+00 104 108 127
4.187784e-01 4.634508e-01 3.121577e+00 103 98 104
4.187784e-01 4.634508e-01 3.121577e+00 103 98 104
3.922623e-01 4.965438e-01 3.118806e+00 61 56 62
3.867687e-01 5.035656e-01 3.117670e+00 121 120 126
3.858746e-01 5.046999e-01 3.117446e+00 143 142 148
3.855980e-01 5.050314e-01 3.117392e+00 136 135 143
3.855980e-01 5.050314e-01 3.117392e+00 136 135 143
3.710627e-01 5.238138e-01 3.113223e+00 140 132 139
4.365612e-01 4.419521e-01 3.121056e+00 114 116 126
4.184872e-01 4.638965e-01 3.121592e+00 96 91 95
3.864992e-01 5.039620e-01 3.117600e+00 132 131 137
3.861723e-01 5.043579e-01 3.117511e+00 138 137 143
3.668405e-01 5.294239e-01 3.111643e+00 142 138 149
3.713896e-01 5.234846e-01 3.113344e+00 105 93 104
3.661112e-01 5.304448e-01 3.111481e+00 139 145 161
3.661112e-01 5.304448e-01 3.111481e+00 139 145 161
4.101768e-01 4.742348e-01 3.121132e+00 88 85 94
3.957643e-01 4.922806e-01 3.119527e+00 143 142 147
4.114223e-01 4.727703e-01 3.121302e+00 106 109 118
3.685836e-01 5.273092e-01 3.112350e+00 67 59 72
3.685836e-01 5.273092e-01 3.112350e+00 67 59 72
4.111559e-01 4.731405e-01 3.121257e+00 105 107 116
4.111559e-01 4.731405e-01 3.121257e+00 105 107 116
4.105438e-01 4.739016e-01 3.121230e+00 96 95 102
4.105438e-01 4.739016e-01 3.121230e+00 96 95 102
3.873626e-01 5.030683e-01 3.117821e+00 82 79 88
3.858702e-01 5.049869e-01 3.117471e+00 96 95 101
3.858702e-01 5.049869e-01 3.117471e+00 96 95 101
3.615906e-01 5.365581e-01 3.109683e+00 151 147 170
4.255302e-01 4.555643e-01 3.121637e+00 123 130 148
4.138868e-01 4.698480e-01 3.121407e+00 136 131 138
3.879574e-01 5.023483e-01 3.117970e+00 86 82 96
3.879574e-01 5.023483e-01 3.117970e+00 86 82 96
3.867769e-01 5.039061e-01 3.117639e+00 57 56 61
3.856353e-01 5.053358e-01 3.117424e+00 88 87 95
3.856353e-01 5.053358e-01 3.117424e+00 88 87 95
3.582320e-01 5.410736e-01 3.108237e+00 115 126 144
3.961393e-01 4.920207e-01 3.119493e+00 150 149 154
3.861968e-01 5.046876e-01 3.117560e+00 92 91 97
3.748749e-01 5.192823e-01 3.114327e+00 82 83 87
4.051588e-01 4.807743e-01 3.120755e+00 72 70 75
3.907117e-01 4.989765e-01 3.118511e+00 69 68 74
3.904310e-01 4.993166e-01 3.118469e+00 81 78 85
4.124779e-01 4.717253e-01 3.121333e+00 104 101 107
4.124779e-01 4.717253e-01 3.121333e+00 104 101 107
4.119959e-01 4.723093e-01 3.121326e+00 156 155 163
4.117317e-01 4.726814e-01 3.121278e+00 163 163 171
4.114102e-01 4.730709e-01 3.121230e+00 147 147 157
4.114102e-01 4.730709e-01 3.121230e+00 147 147 157
4.017797e-01 4.850602e-01 3.120407e+00 68 69 71
4.011982e-01 4.858502e-01 3.120272e+00 80 80 78
3.922021e-01 4.971773e-01 3.118828e+00 90 86 87
3.922021e-01 4.971773e-01 3.118828e+00 90 86 87
4.266626e-01 4.544425e-01 3.121632e+00 147 158 175
3.983932e-01 4.894114e-01 3.119877e+00 126 118 134
3.983932e-01 4.894114e-01 3.119877e+00 126 118 134
3.830275e-01 5.090842e-01 3.116731e+00 110 108 122
3.965323e-01 4.920055e-01 3.119280e+00 81 81 83
3.926948e-01 4.968875e-01 3.118838e+00 80 75 79
4.120528e-01 4.726311e-01 3.121294e+00 109 110 115
4.012316e-01 4.861119e-01 3.120230e+00 130 126 125
3.676428e-01 5.292023e-01 3.111929e+00 88 78 87
3.598492e-01 5.394230e-01 3.108988e+00 149 153 165
3.598492e-01 5.394230e-01 3.108988e+00 149 153 165
3.574449e-01 5.427141e-01 3.107945e+00 84 91 110
3.574449e-01 5.427141e-01 3.107945e+00 84 91 110
3.572023e-01 5.429916e-01 3.107851e+00 83 90 109
4.373231e-01 4.419218e-01 3.121176e+00 128 126 137
4.127505e-01 4.719097e-01 3.121378e+00 99 94 100
4.127505e-01 4.719097e-01 3.121378e+00 99 94 100
3.579343e-01 5.421228e-01 3.108172e+00 76 82 104
3.579343e-01 5.421228e-01 3.108172e+00 76 82 104
3.579343e-01 5.421228e-01 3.108172e+00 76 82 104
3.576875e-01 5.424209e-01 3.108077e+00 83 90 109
3.995847e-01 4.883922e-01 3.120036e+00 56 46 57
3.840869e-01 5.080789e-01 3.117001e+00 118 115 126
4.039977e-01 4.828834e-01 3.120602e+00 80 75 79
3.810188e-01 5.120396e-01 3.116216e+00 77 71 75
3.588277e-01 5.410592e-01 3.108538e+00 92 102 119
3.588277e-01 5.410592e-01 3.108538e+00 92 102 119
3.585902e-01 5.413461e-01 3.108423e+00 86 97 115
3.585902e-01 5.413461e-01 3.108423e+00 86 97 115
3.825689e-01 5.101079e-01 3.116572e+00 119 116 127
3.537517e-01 5.479057e-01 3.106339e+00 58 65 84
4.199241e-01 4.633902e-01 3.121644e+00 143 132 136
3.574950e-01 5.430250e-01 3.107982e+00 175 182 201
3.843887e-01 5.080288e-01 3.117110e+00 66 58 70
3.528172e-01 5.493417e-01 3.105947e+00 197 185 202
3.594150e-01 5.407213e-01 3.108733e+00 186 192 208
3.588986e-01 5.413589e-01 3.108563e+00 175 186 204
4.477839e-01 4.299806e-01 3.120235e+00 88 97 109
4.093105e-01 4.767429e-01 3.121218e+00 171 168 178
4.076356e-01 4.788691e-01 3.120895e+00 52 50 71
3.597056e-01 5.403875e-01 3.108923e+00 166 169 184
3.600065e-01 5.400405e-01 3.109005e+00 174 176 189
3.525838e-01 5.498441e-01 3.105839e+00 74 56 72
3.575880e-01 5.433152e-01 3.108040e+00 117 123 145
3.575880e-01 5.433152e-01 3.108040e+00 117 123 145
4.276823e-01 4.544006e-01 3.121789e+00 104 103 108
3.966356e-01 4.929507e-01 3.119576e+00 139 137 142
3.750405e-01 5.205669e-01 3.114420e+00 139 136 143
3.682886e-01 5.294499e-01 3.112164e+00 149 138 144
3.623772e-01 5.372018e-01 3.109925e+00 159 156 173
3.855026e-01 5.072457e-01 3.117335e+00 157 155 169
3.590134e-01 5.416892e-01 3.108742e+00 113 126 146
3.583975e-01 5.425312e-01 3.108346e+00 114 120 144
3.545699e-01 5.476319e-01 3.106732e+00 39 36 51
3.614879e-01 5.385425e-01 3.109545e+00 70 77 93
3.905254e-01 5.009484e-01 3.118387e+00 156 149 156
3.595725e-01 5.412114e-01 3.108807e+00 122 130 149
3.640180e-01 5.353852e-01 3.110528e+00 78 69 85
3.575049e-01 5.440466e-01 3.107989e+00 42 39 57
4.388441e-01 4.415813e-01 3.121334e+00 150 149 163
4.369743e-01 4.440182e-01 3.121495e+00 164 164 174
4.369743e-01 4.440182e-01 3.121495e+00 164 164 174
4.356597e-01 4.456819e-01 3.121571e+00 160 163 172
3.844895e-01 5.093318e-01 3.117075e+00 79 71 91
4.350354e-01 4.464946e-01 3.121622e+00 154 153 161
3.533321e-01 5.502506e-01 3.106157e+00 153 92 134
3.880079e-01 5.051748e-01 3.117865e+00 163 157 163
3.972481e-01 4.935007e-01 3.119660e+00 154 149 154
3.860662e-01 5.077470e-01 3.117490e+00 160 156 172
3.710378e-01 5.272129e-01 3.113111e+00 94 88 92
3.689061e-01 5.300673e-01 3.112356e+00 155 147 152
4.087812e-01 4.793910e-01 3.121159e+00 89 78 108
4.087812e-01 4.793910e-01 3.121159e+00 89 78 108
4.103213e-01 4.775839e-01 3.121306e+00 193 191 205
4.081881e-01 4.803876e-01 3.121059e+00 46 42 64
3.846330e-01 5.102799e-01 3.117016e+00 52 51 68
3.692805e-01 5.301732e-01 3.112463e+00 109 104 108
3.547671e-01 5.492653e-01 3.106755e+00 119 115 130
3.547671e-01 5.492653e-01 3.106755e+00 119 115 130
3.551177e-01 5.491253e-01 3.106933e+00 38 33 47
3.548164e-01 5.495663e-01 3.106854e+00 71 62 81
4.452687e-01 4.356150e-01 3.121082e+00 105 111 125
3.541200e-01 5.509464e-01 3.106459e+00 64 24 53
3.597338e-01 5.436600e-01 3.108831e+00 211 217 233
3.543473e-01 5.507310e-01 3.106572e+00 175 135 166
3.849506e-01 5.110106e-01 3.117109e+00 17 17 29
3.696319e-01 5.310078e-01 3.112593e+00 116 115 118
3.820904e-01 5.149182e-01 3.116381e+00 92 86 88
3.820904e-01 5.149182e-01 3.116381e+00 92 86 88
3.550269e-01 5.502372e-01 3.106900e+00 50 29 48
3.809885e-01 5.164790e-01 3.116017e+00 133 127 131
3.709185e-01 5.295775e-01 3.112965e+00 126 122 129
3.603577e-01 5.434803e-01 3.109048e+00 196 203 221
4.088941e-01 4.812688e-01 3.121289e+00 122 119 130
3.852271e-01 5.112254e-01 3.117143e+00 29 29 41
4.128834e-01 4.764365e-01 3.121536e+00 115 114 119
3.720837e-01 5.283205e-01 3.113425e+00 154 152 157
4.137859e-01 4.753730e-01 3.121624e+00 107 105 110
4.137859e-01 4.753730e-01 3.121624e+00 107 105 110
4.263873e-01 4.599243e-01 3.122144e+00 94 90 91
3.888591e-01 5.069262e-01 3.117959e+00 111 105 109
3.824464e-01 5.151584e-01 3.116418e+00 137 132 136
3.610406e-01 5.433163e-01 3.109324e+00 196 203 218
4.497139e-01 4.321508e-01 3.121092e+00 40 42 55
3.826004e-01 5.153588e-01 3.116471e+00 92 87 91
3.709816e-01 5.304597e-01 3.113047e+00 168 165 172
3.610413e-01 5.435162e-01 3.109349e+00 87 90 105
3.830035e-01 5.150492e-01 3.116498e+00 99 95 96
3.701590e-01 5.316825e-01 3.112674e+00 100 98 103
3.701590e-01 5.316825e-01 3.112674e+00 100 98 103
3.990221e-01 4.947528e-01 3.119951e+00 159 152 159
4.108391e-01 4.800722e-01 3.121382e+00 128 124 139
3.773880e-01 5.225497e-01 3.115030e+00 122 120 125
4.398015e-01 4.446513e-01 3.121908e+00 169 172 184
4.395237e-01 4.449860e-01 3.121988e+00 160 164 175
4.134329e-01 4.769351e-01 3.121653e+00 145 144 149
3.702314e-01 5.319302e-01 3.112715e+00 143 141 144
3.784213e-01 5.213493e-01 3.115251e+00 133 131 136
4.105095e-01 4.809373e-01 3.121349e+00 95 92 101
4.319230e-01 4.546780e-01 3.122355e+00 167 166 174
3.704344e-01 5.325649e-01 3.112709e+00 89 84 88
3.792553e-01 5.211690e-01 3.115497e+00 118 112 119
3.589782e-01 5.476744e-01 3.108482e+00 93 89 103
3.995001e-01 4.954235e-01 3.119961e+00 62 60 65
4.231384e-01 4.660620e-01 3.122262e+00 66 57 60
3.625369e-01 5.430886e-01 3.109974e+00 110 113 121
4.428294e-01 4.421237e-01 3.121963e+00 41 45 56
3.896486e-01 5.080849e-01 3.118050e+00 152 146 150
4.174120e-01 4.733100e-01 3.121916e+00 86 80 84
4.157039e-01 4.754314e-01 3.121621e+00 83 77 81
3.823042e-01 5.175547e-01 3.116238e+00 151 145 147
3.706652e-01 5.327638e-01 3.112810e+00 96 91 95
4.419917e-01 4.439418e-01 3.122162e+00 73 75 87
3.620553e-01 5.446251e-01 3.109722e+00 94 89 100
3.709631e-01 5.330157e-01 3.112994e+00 93 88 92
4.404392e-01 4.459896e-01 3.122242e+00 134 134 146
4.151309e-01 4.770937e-01 3.121885e+00 116 110 114
4.005531e-01 4.954520e-01 3.119853e+00 139 137 140
4.307861e-01 4.580153e-01 3.122409e+00 137 135 140
4.099753e-01 4.837562e-01 3.121311e+00 79 73 77
4.405864e-01 4.462266e-01 3.122340e+00 130 130 142
3.951043e-01 5.027455e-01 3.119027e+00 126 117 120
4.155124e-01 4.773894e-01 3.121772e+00 126 116 123
4.277929e-01 4.622625e-01 3.122463e+00 143 138 142
3.911783e-01 5.081394e-01 3.118305e+00 149 140 143
4.412550e-01 4.460204e-01 3.122365e+00 145 144 158
4.157549e-01 4.772832e-01 3.121922e+00 166 157 162
3.572017e-01 5.521947e-01 3.107758e+00 118 118 130
4.418467e-01 4.457420e-01 3.122434e+00 166 171 183
3.939620e-01 5.052844e-01 3.118953e+00 124 116 114
4.170775e-01 4.763779e-01 3.121783e+00 166 160 162
4.304683e-01 4.599949e-01 3.122628e+00 90 86 87
4.161804e-01 4.776828e-01 3.122031e+00 168 158 165
4.082123e-01 4.877466e-01 3.121088e+00 135 130 134
4.473826e-01 4.396447e-01 3.122223e+00 49 49 57
4.466768e-01 4.405469e-01 3.122293e+00 55 55 65
4.441370e-01 4.436261e-01 3.122437e+00 87 93 107
3.704376e-01 5.361336e-01 3.112607e+00 118 116 125
3.941468e-01 5.056929e-01 3.118929e+00 77 69 67
4.161182e-01 4.781735e-01 3.121900e+00 167 158 163
4.099541e-01 4.858763e-01 3.121272e+00 130 125 129
4.078125e-01 4.885044e-01 3.121051e+00 78 72 79
4.085656e-01 4.876564e-01 3.121105e+00 90 85 89
4.082739e-01 4.880504e-01 3.121117e+00 70 65 69
4.082739e-01 4.880504e-01 3.121117e+00 70 65 69
4.121494e-01 4.832912e-01 3.121576e+00 180 177 183
4.160482e-01 4.784429e-01 3.121956e+00 129 120 125
4.110630e-01 4.846674e-01 3.121428e+00 107 98 101
4.162805e-01 4.783244e-01 3.122004e+00 167 157 163
4.102478e-01 4.858734e-01 3.121357e+00 95 89 91
4.093262e-01 4.870673e-01 3.121152e+00 132 126 130
4.441880e-01 4.442121e-01 3.122520e+00 97 103 117
4.436924e-01 4.449090e-01 3.122554e+00 94 95 108
4.162956e-01 4.787034e-01 3.122006e+00 127 120 125
3.948797e-01 5.056263e-01 3.119028e+00 147 137 136
3.731105e-01 5.335633e-01 3.113558e+00 108 105 112
3.731105e-01 5.335633e-01 3.113558e+00 108 105 112
4.170960e-01 4.777893e-01 3.122008e+00 165 159 163
4.240553e-01 4.692379e-01 3.122479e+00 60 54 57
4.162198e-01 4.789554e-01 3.121892e+00 170 164 168
3.965739e-01 5.036081e-01 3.119323e+00 91 82 83
4.170211e-01 4.780477e-01 3.122030e+00 91 86 90
4.168069e-01 4.780321e-01 3.123142e+00 91 86 90
4.102562e-01 4.865199e-01 3.121326e+00 92 86 90
4.124866e-01 4.839051e-01 3.121713e+00 122 118 123
3.767708e-01 5.294433e-01 3.114686e+00 90 86 86
4.254435e-01 4.680478e-01 3.122573e+00 77 67 65
4.195036e-01 4.754150e-01 3.122161e+00 106 100 104
4.476965e-01 4.411188e-01 3.122485e+00 91 94 103
4.445249e-01 4.451329e-01 3.122646e+00 43 52 61
3.771322e-01 5.296369e-01 3.114753e+00 99 93 93
4.025555e-01 4.973981e-01 3.120244e+00 140 135 139
3.715787e-01 5.370751e-01 3.112995e+00 105 106 115
3.715787e-01 5.370751e-01 3.112995e+00 105 106 115
3.816179e-01 5.241622e-01 3.115952e+00 101 97 96
4.175822e-01 4.788621e-01 3.122080e+00 163 157 161
4.198375e-01 4.761115e-01 3.122228e+00 115 108 114
4.173358e-01 4.795669e-01 3.122112e+00 124 118 122
4.213935e-01 4.745729e-01 3.122370e+00 145 136 141
4.178131e-01 4.790561e-01 3.122123e+00 161 155 159
4.181024e-01 4.789583e-01 3.122150e+00 99 93 97
4.181024e-01 4.789583e-01 3.122150e+00 99 93 97
3.950770e-01 5.081539e-01 3.119023e+00 84 82 83
3.981341e-01 5.045995e-01 3.119204e+00 98 89 92
3.980759e-01 5.046276e-01 3.119488e+00 98 89 92
3.751412e-01 5.340322e-01 3.114134e+00 127 121 123
3.961492e-01 5.074318e-01 3.118950e+00 148 142 144
4.488760e-01 4.423074e-01 3.122940e+00 87 85 98
4.186512e-01 4.794294e-01 3.122169e+00 89 82 88
3.748299e-01 5.349977e-01 3.115444e+00 74 70 74
3.944510e-01 5.099475e-01 3.118464e+00 149 143 145
4.127606e-01 4.869164e-01 3.121568e+00 91 82 83
3.957125e-01 5.084455e-01 3.118973e+00 98 94 95
3.975621e-01 5.062990e-01 3.119352e+00 97 92 96
3.767984e-01 5.337135e-01 3.114535e+00 94 84 92
3.731672e-01 5.383457e-01 3.113566e+00 116 113 120
4.201803e-01 4.788553e-01 3.122279e+00 124 120 121
3.794170e-01 5.304042e-01 3.115260e+00 117 107 108
3.781645e-01 5.320632e-01 3.114955e+00 80 71 72
4.215500e-01 4.772625e-01 3.122125e+00 96 92 93
4.215367e-01 4.772424e-01 3.122395e+00 96 92 93
3.834474e-01 5.254280e-01 3.116604e+00 74 68 70
3.980299e-01 5.068524e-01 3.119443e+00 96 91 92
4.329149e-01 4.634108e-01 3.123058e+00 147 141 151
4.329149e-01 4.634108e-01 3.123058e+00 147 141 151
4.468475e-01 4.464064e-01 3.123287e+00 117 122 126
3.750875e-01 5.364832e-01 3.114103e+00 161 156 163
3.727168e-01 5.395941e-01 3.113353e+00 182 181 195
3.868845e-01 5.214872e-01 3.117066e+00 121 115 119
3.900396e-01 5.174825e-01 3.117844e+00 128 126 129
3.646331e-01 5.502147e-01 3.110723e+00 31 29 41
3.767110e-01 5.348852e-01 3.115603e+00 150 143 150
3.758231e-01 5.359636e-01 3.114283e+00 146 142 149
3.777076e-01 5.336390e-01 3.115802e+00 153 147 151
4.153304e-01 4.859708e-01 3.121862e+00 176 170 174
3.758752e-01 5.362020e-01 3.114353e+00 95 90 97
3.763825e-01 5.357231e-01 3.114458e+00 91 88 95
3.763825e-01 5.357231e-01 3.114458e+00 91 88 95
4.112093e-01 4.915443e-01 3.121320e+00 139 137 140
3.954330e-01 5.119552e-01 3.118920e+00 98 89 92
3.850038e-01 5.252653e-01 3.116696e+00 117 111 115
3.850038e-01 5.252653e-01 3.116696e+00 117 111 115
3.892142e-01 5.208295e-01 3.117574e+00 101 99 104
3.884340e-01 5.218748e-01 3.117311e+00 105 96 97
3.819964e-01 5.303525e-01 3.115954e+00 108 99 102
3.874736e-01 5.235508e-01 3.117202e+00 92 83 86
3.874736e-01 5.235508e-01 3.117202e+00 92 83 86
4.381452e-01 4.601905e-01 3.123460e+00 167 167 177
4.226692e-01 4.798108e-01 3.122539e+00 148 137 145
3.999188e-01 5.084120e-01 3.119577e+00 113 107 107
3.999188e-01 5.084120e-01 3.119577e+00 113 107 107
3.970323e-01 5.121079e-01 3.119106e+00 122 115 122
4.168423e-01 4.872699e-01 3.121982e+00 183 183 185
3.735711e-01 5.422762e-01 3.113675e+00 110 111 116
4.017000e-01 5.064234e-01 3.119920e+00 137 128 131
4.107786e-01 4.950870e-01 3.121171e+00 131 127 128
4.205180e-01 4.831483e-01 3.122306e+00 183 178 184
3.991061e-01 5.100159e-01 3.119469e+00 151 142 146
4.110651e-01 4.950878e-01 3.121222e+00 106 102 101
4.219116e-01 4.819413e-01 3.122410e+00 171 164 171
3.978599e-01 5.121527e-01 3.118956e+00 110 105 109
3.906912e-01 5.213619e-01 3.117838e+00 103 95 98
3.969958e-01 5.135326e-01 3.119017e+00 137 131 133
3.851935e-01 5.285385e-01 3.116619e+00 124 120 124
4.155812e-01 4.902097e-01 3.121684e+00 129 121 126
4.146710e-01 4.913328e-01 3.121479e+00 68 62 66
4.214736e-01 4.828842e-01 3.122305e+00 100 95 99
4.380619e-01 4.624961e-01 3.123664e+00 102 97 103
3.969025e-01 5.142557e-01 3.118999e+00 150 142 140
4.014666e-01 5.086939e-01 3.119740e+00 119 107 107
4.006051e-01 5.102565e-01 3.119692e+00 170 158 158
3.827210e-01 5.332695e-01 3.116638e+00 162 153 154
4.031617e-01 5.073974e-01 3.119953e+00 111 101 99
4.031617e-01 5.073974e-01 3.119953e+00 111 101 99
4.226972e-01 4.833863e-01 3.122254e+00 152 148 150
4.190345e-01 4.879633e-01 3.121989e+00 169 168 174
4.142443e-01 4.939708e-01 3.121523e+00 143 134 137
3.929879e-01 5.208366e-01 3.118222e+00 112 103 108
3.946369e-01 5.187701e-01 3.118558e+00 131 126 132
3.852850e-01 5.307335e-01 3.116919e+00 111 101 100
3.994072e-01 5.128455e-01 3.119287e+00 151 139 139
4.152334e-01 4.929761e-01 3.121575e+00 100 92 91
3.951057e-01 5.183683e-01 3.118734e+00 170 166 172
3.847809e-01 5.314905e-01 3.116605e+00 149 138 142
4.123134e-01 4.968361e-01 3.121153e+00 117 108 109
4.123134e-01 4.968361e-01 3.121153e+00 117 108 109
3.814364e-01 5.359994e-01 3.116376e+00 70 61 64
4.265533e-01 4.793944e-01 3.122712e+00 118 108 107
4.101619e-01 4.999250e-01 3.120958e+00 124 115 116
4.337770e-01 4.704809e-01 3.123460e+00 104 96 94
4.082168e-01 5.024756e-01 3.120676e+00 110 101 102
3.825331e-01 5.349754e-01 3.116090e+00 135 126 129
3.957034e-01 5.183097e-01 3.118697e+00 121 116 122
4.001889e-01 5.127610e-01 3.119521e+00 162 152 151
4.422235e-01 4.605589e-01 3.123997e+00 103 102 110
3.904859e-01 5.253404e-01 3.117695e+00 84 78 78
4.309571e-01 4.747704e-01 3.123161e+00 88 80 78
4.306533e-01 4.752117e-01 3.123118e+00 97 88 89
3.954100e-01 5.193586e-01 3.118668e+00 121 116 122
4.042610e-01 5.082937e-01 3.120016e+00 102 92 90
3.911881e-01 5.248816e-01 3.117852e+00 109 103 105
3.848472e-01 5.329467e-01 3.116853e+00 100 94 98
4.354764e-01 4.693868e-01 3.123655e+00 100 91 92
4.350425e-01 4.700360e-01 3.123487e+00 96 90 92
3.863314e-01 5.313417e-01 3.116862e+00 82 76 78
3.863314e-01 5.313417e-01 3.116862e+00 82 76 78
4.394883e-01 4.647612e-01 3.123976e+00 77 72 78
4.394818e-01 4.647548e-01 3.123865e+00 77 72 78
3.794702e-01 5.402384e-01 3.116388e+00 145 140 144
3.911113e-01 5.254776e-01 3.117723e+00 128 124 123
4.054792e-01 5.075128e-01 3.120139e+00 120 110 108
4.054792e-01 5.075128e-01 3.120139e+00 120 110 108
4.266340e-01 4.810863e-01 3.122774e+00 120 112 110
3.972482e-01 5.179657e-01 3.118941e+00 154 149 156
4.393827e-01 4.652991e-01 3.123896e+00 102 94 102
3.911411e-01 5.257977e-01 3.117791e+00 85 80 80
3.807395e-01 5.391521e-01 3.115621e+00 155 149 151
4.342515e-01 4.718305e-01 3.123204e+00 85 79 79
3.934386e-01 5.230795e-01 3.118252e+00 84 75 78
3.857989e-01 5.328156e-01 3.116728e+00 111 107 108
3.896670e-01 5.282055e-01 3.117469e+00 101 95 99
4.143810e-01 4.971667e-01 3.121408e+00 153 144 147
3.935301e-01 5.237306e-01 3.118280e+00 137 131 133
4.180106e-01 4.931328e-01 3.121746e+00 96 90 92
4.137125e-01 4.985532e-01 3.121266e+00 124 114 115
3.844900e-01 5.355460e-01 3.116437e+00 80 71 74
4.108623e-01 5.023354e-01 3.120874e+00 129 123 123
3.976300e-01 5.190076e-01 3.118849e+00 124 123 129
4.321490e-01 4.758086e-01 3.123280e+00 118 113 110
4.014693e-01 5.141853e-01 3.119612e+00 151 143 141
4.147498e-01 4.976841e-01 3.121378e+00 115 106 107
3.833918e-01 5.373247e-01 3.116272e+00 103 94 97
4.170345e-01 4.949801e-01 3.121607e+00 81 72 73
3.926445e-01 5.257768e-01 3.118062e+00 76 70 72
3.926445e-01 5.257768e-01 3.118062e+00 76 70 72
4.191503e-01 4.925494e-01 3.121713e+00 133 127 129
4.284586e-01 4.810073e-01 3.122872e+00 130 122 120
4.058191e-01 5.094202e-01 3.120114e+00 102 91 89
4.058191e-01 5.094202e-01 3.120114e+00 102 91 89
3.997372e-01 5.170705e-01 3.119285e+00 113 104 109
4.288764e-01 4.808722e-01 3.122901e+00 133 125 123
4.288764e-01 4.808722e-01 3.122901e+00 133 125 123
4.192876e-01 4.928487e-01 3.121860e+00 102 94 97
4.123335e-01 5.016409e-01 3.121014e+00 117 111 113
4.414555e-01 4.653580e-01 3.124151e+00 141 136 142
3.930287e-01 5.260649e-01 3.117849e+00 97 91 93
3.977039e-01 5.201726e-01 3.119023e+00 177 178 186
4.016890e-01 5.158099e-01 3.119473e+00 120 112 110
3.951725e-01 5.242606e-01 3.118477e+00 85 81 82
4.239895e-01 4.880845e-01 3.122328e+00 174 168 176
3.899243e-01 5.309949e-01 3.117513e+00 126 118 123
4.240329e-01 4.884065e-01 3.122235e+00 114 111 117
4.421231e-01 4.660235e-01 3.124185e+00 149 142 149
4.279364e-01 4.836450e-01 3.122753e+00 109 97 96
4.324396e-01 4.784757e-01 3.123397e+00 116 106 107
4.417879e-01 4.671497e-01 3.124205e+00 142 136 140
4.000495e-01 5.196177e-01 3.119328e+00 116 113 120
3.869436e-01 5.361793e-01 3.117061e+00 76 65 69
3.939192e-01 5.275784e-01 3.118030e+00 127 118 121
4.307408e-01 4.814676e-01 3.123023e+00 109 99 98
4.078422e-01 5.107500e-01 3.120245e+00 90 79 77
3.949046e-01 5.275766e-01 3.118403e+00 129 121 121
4.110781e-01 5.072613e-01 3.120593e+00 115 106 107
4.441154e-01 4.661894e-01 3.124423e+00 145 143 152
4.129828e-01 5.053001e-01 3.120852e+00 107 103 104
4.006775e-01 5.210312e-01 3.119245e+00 153 152 160
4.209534e-01 4.958305e-01 3.121777e+00 81 73 71
4.183790e-01 5.000615e-01 3.121437e+00 95 86 87
4.288741e-01 4.869785e-01 3.122578e+00 154 145 146
4.001498e-01 5.237285e-01 3.119128e+00 129 129 138
4.069261e-01 5.157947e-01 3.119961e+00 152 144 142
4.259053e-01 4.931842e-01 3.122083e+00 180 180 188
4.336043e-01 4.842225e-01 3.122994e+00 111 101 99
4.182082e-01 5.036865e-01 3.121276e+00 114 104 103
4.068990e-01 5.184589e-01 3.119796e+00 157 151 153
4.293579e-01 4.905656e-01 3.122409e+00 142 142 150
4.148752e-01 5.086850e-01 3.120788e+00 139 129 128
3.905706e-01 5.395101e-01 3.117812e+00 133 128 134
4.173472e-01 5.060690e-01 3.120822e+00 108 98 99
4.400357e-01 4.783368e-01 3.123901e+00 102 93 91
4.123305e-01 5.137073e-01 3.120260e+00 99 89 88
4.163319e-01 5.086879e-01 3.121339e+00 101 93 91
4.463785e-01 4.740222e-01 3.124476e+00 78 76 77
4.348772e-01 4.886846e-01 3.122742e+00 117 108 109
4.399853e-01 4.824144e-01 3.123590e+00 98 89 90
4.399853e-01 4.824144e-01 3.123590e+00 98 89 90
3.932335e-01 5.413367e-01 3.118242e+00 85 81 82
4.398711e-01 4.832284e-01 3.123676e+00 104 96 94
4.385304e-01 4.852884e-01 3.123242e+00 84 75 76
4.402611e-01 4.861149e-01 3.123380e+00 124 114 112
4.394599e-01 4.876121e-01 3.123253e+00 89 81 79
4.176911e-01 5.160451e-01 3.120293e+00 127 121 121
4.402656e-01 4.887675e-01 3.123085e+00 99 91 89
4.243926e-01 5.093732e-01 3.120931e+00 115 109 111
4.265488e-01 5.087231e-01 3.120882e+00 125 121 120
4.475038e-01 4.826004e-01 3.124262e+00 82 73 74
4.270328e-01 5.086339e-01 3.120951e+00 137 131 131
4.426095e-01 4.901274e-01 3.123091e+00 122 119 122
4.055890e-01 5.448752e-01 3.119584e+00 136 136 145
4.065490e-01 5.437864e-01 3.119714e+00 142 144 156
4.143094e-01 5.366419e-01 3.119996e+00 100 100 110
4.561631e-01 4.867262e-01 3.125029e+00 164 167 176
4.383994e-01 5.101058e-01 3.119971e+00 180 180 188
4.464492e-01 5.094807e-01 3.119394e+00 91 86 92
4.458502e-01 5.109292e-01 3.120045e+00 65 59 63
4.418373e-01 5.180039e-01 3.118529e+00 116 110 112
4.491236e-01 5.138568e-01 3.118534e+00 84 84 94
4.505727e-01 5.231714e-01 3.116619e+00 162 164 177
4.546301e-01 5.237566e-01 3.115911e+00 129 126 135
4.546301e-01 5.237566e-01 3.115911e+00 129 126 135
4.653424e-01 5.400422e-01 3.132580e+00 78 77 82
3.602385e-01 4.471733e-01 3.108535e+00 187 141 169
3.520784e-01 4.584632e-01 3.107224e+00 240 72 96
3.727730e-01 4.333625e-01 3.109321e+00 211 145 160
3.634384e-01 4.449792e-01 3.109115e+00 221 143 136
3.584582e-01 4.514847e-01 3.108549e+00 178 131 151
3.739062e-01 4.324695e-01 3.109357e+00 177 102 121
3.515537e-01 4.604018e-01 3.107201e+00 211 157 141
3.578259e-01 4.525346e-01 3.108451e+00 212 142 117
3.697090e-01 4.384321e-01 3.109649e+00 138 87 86
3.698662e-01 4.383017e-01 3.109608e+00 185 137 132
3.555540e-01 4.561600e-01 3.108157e+00 199 118 106
3.522340e-01 4.604963e-01 3.107442e+00 168 135 92
3.684014e-01 4.402332e-01 3.109580e+00 227 68 65
3.692222e-01 4.392908e-01 3.109628e+00 157 27 51
3.736406e-01 4.339230e-01 3.109688e+00 198 135 155
3.635788e-01 4.463152e-01 3.109330e+00 233 203 170
3.550096e-01 4.573627e-01 3.108100e+00 162 124 88
3.547902e-01 4.583848e-01 3.108108e+00 163 114 108
3.562413e-01 4.567673e-01 3.108412e+00 144 83 68
3.741313e-01 4.346561e-01 3.109905e+00 145 59 63
3.635833e-01 4.479627e-01 3.109581e+00 189 120 131
3.563557e-01 4.571378e-01 3.108492e+00 140 100 76
3.625350e-01 4.497223e-01 3.109487e+00 126 62 57
3.612686e-01 4.514955e-01 3.109353e+00 135 58 69
3.732756e-01 4.367530e-01 3.110076e+00 167 116 117
3.747170e-01 4.353424e-01 3.110104e+00 127 76 56
3.733972e-01 4.370081e-01 3.110262e+00 172 127 130
3.740007e-01 4.365322e-01 3.110199e+00 157 114 93
3.567133e-01 4.580682e-01 3.108668e+00 224 182 156
3.695264e-01 4.420904e-01 3.110208e+00 162 68 58
3.541456e-01 4.615037e-01 3.108148e+00 190 110 111
3.708228e-01 4.408055e-01 3.110335e+00 191 149 127
3.622383e-01 4.515508e-01 3.109645e+00 135 92 73
3.530617e-01 4.634234e-01 3.107921e+00 163 90 75
3.603445e-01 4.543392e-01 3.109464e+00 190 116 88
3.603445e-01 4.543392e-01 3.109464e+00 190 116 88
3.603112e-01 4.545393e-01 3.109445e+00 227 169 139
3.603112e-01 4.545393e-01 3.109445e+00 227 169 139
3.713228e-01 4.410749e-01 3.110466e+00 132 57 58
3.608982e-01 4.545409e-01 3.109568e+00 173 106 87
3.571867e-01 4.593264e-01 3.109000e+00 161 87 72
3.717618e-01 4.411361e-01 3.110598e+00 187 139 148
3.590509e-01 4.570902e-01 3.109311e+00 237 46 64
3.590509e-01 4.570902e-01 3.109311e+00 237 46 64
3.523513e-01 4.656766e-01 3.107794e+00 178 135 140
3.604101e-01 4.554545e-01 3.109545e+00 196 161 132
3.735723e-01 4.392896e-01 3.110659e+00 197 151 126
3.735723e-01 4.392896e-01 3.110659e+00 197 151 126
3.654370e-01 4.494404e-01 3.110251e+00 136 59 52
3.724380e-01 4.408654e-01 3.110686e+00 133 102 100
3.686417e-01 4.457910e-01 3.110537e+00 170 106 101
3.540320e-01 4.642580e-01 3.108287e+00 201 74 76
3.620581e-01 4.542332e-01 3.109884e+00 162 31 41
3.588253e-01 4.584530e-01 3.109291e+00 193 107 100
3.549391e-01 4.636278e-01 3.108554e+00 237 177 143
3.696511e-01 4.452463e-01 3.110757e+00 193 154 134
3.634108e-01 4.530487e-01 3.110101e+00 162 101 91
3.758718e-01 4.376547e-01 3.110842e+00 133 99 78
3.601630e-01 4.571672e-01 3.109677e+00 165 49 43
3.549704e-01 4.638794e-01 3.108553e+00 201 149 117
3.730654e-01 4.413038e-01 3.110949e+00 175 137 142
3.637581e-01 4.528762e-01 3.110218e+00 171 130 114
3.589957e-01 4.588561e-01 3.109490e+00 139 76 58
3.578326e-01 4.603685e-01 3.109237e+00 160 93 77
3.732532e-01 4.412271e-01 3.110888e+00 142 89 95
3.702482e-01 4.449199e-01 3.110819e+00 147 97 80
3.782783e-01 4.352616e-01 3.110862e+00 177 153 145
3.606014e-01 4.570939e-01 3.109819e+00 195 145 113
3.637231e-01 4.532873e-01 3.110291e+00 180 114 109
3.760235e-01 4.381464e-01 3.110971e+00 156 109 105
3.725953e-01 4.424263e-01 3.110975e+00 171 141 131
3.725953e-01 4.424263e-01 3.110975e+00 171 141 131
3.668834e-01 4.494837e-01 3.110654e+00 155 80 58
3.711389e-01 4.443814e-01 3.110944e+00 199 85 81
3.551371e-01 4.651335e-01 3.108693e+00 154 94 66
3.704210e-01 4.460847e-01 3.111054e+00 211 169 139
