ply
format ascii 1.0
element face 0
property list uchar int vertex_indices
element vertex 957
property float x
property float y
property float z
property uchar diffuse_red
property uchar diffuse_green
property uchar diffuse_blue
end_header
4.111212e-01 5.204297e-01 3.142869e+00 123 100 68
4.190657e-01 5.133383e-01 3.140424e+00 102 88 72
4.237828e-01 5.085430e-01 3.144828e+00 190 191 185
4.092041e-01 5.231263e-01 3.142468e+00 138 130 117
4.091900e-01 5.231107e-01 3.142492e+00 138 130 117
4.179638e-01 5.151424e-01 3.141202e+00 113 99 91
4.179409e-01 5.151596e-01 3.141283e+00 113 99 91
4.246254e-01 5.083155e-01 3.145496e+00 135 134 114
4.247283e-01 5.082416e-01 3.145784e+00 174 173 152
4.203094e-01 5.132270e-01 3.141442e+00 175 166 163
4.203638e-01 5.132987e-01 3.141083e+00 92 82 71
4.200964e-01 5.141126e-01 3.141492e+00 173 161 146
4.217794e-01 5.123874e-01 3.143093e+00 128 123 117
4.229610e-01 5.113015e-01 3.144689e+00 103 92 71
4.225622e-01 5.124205e-01 3.144240e+00 171 170 152
4.226908e-01 5.132744e-01 3.144259e+00 214 196 187
4.192624e-01 5.171965e-01 3.143059e+00 212 197 185
4.245454e-01 5.118699e-01 3.145708e+00 238 228 226
4.209798e-01 5.167069e-01 3.143567e+00 231 211 187
4.179250e-01 5.198339e-01 3.143631e+00 179 167 136
4.242557e-01 5.139347e-01 3.145278e+00 228 219 211
4.193749e-01 5.190434e-01 3.143828e+00 232 209 170
4.211431e-01 5.187102e-01 3.144483e+00 197 179 155
4.216534e-01 5.182418e-01 3.144605e+00 216 200 184
4.337969e-01 5.208756e-01 3.144268e+00 103 94 64
4.218342e-01 5.362497e-01 3.141458e+00 149 133 96
4.218342e-01 5.362497e-01 3.141458e+00 149 133 96
4.320914e-01 5.374182e-01 3.139460e+00 203 200 191
4.534871e-01 5.507440e-01 3.133033e+00 239 232 214
4.524311e-01 5.521935e-01 3.132520e+00 229 220 213
4.702718e-01 5.588989e-01 3.131305e+00 223 229 217
4.705387e-01 5.607142e-01 3.131404e+00 244 230 253
4.833161e-01 5.612807e-01 3.122619e+00 155 154 135
4.715408e-01 5.629166e-01 3.131212e+00 207 204 190
4.690118e-01 5.650953e-01 3.130355e+00 227 217 216
4.759613e-01 5.639025e-01 3.131432e+00 221 220 235
4.572418e-01 5.793549e-01 3.128075e+00 153 153 145
3.999305e-01 5.150150e-01 3.142442e+00 123 115 77
4.045897e-01 5.105736e-01 3.138271e+00 207 199 178
4.145521e-01 5.029331e-01 3.138423e+00 193 186 168
4.041320e-01 5.141846e-01 3.140687e+00 241 220 192
4.093989e-01 5.095557e-01 3.137039e+00 182 167 138
4.116412e-01 5.101625e-01 3.137574e+00 205 197 175
4.184611e-01 5.035208e-01 3.141066e+00 113 109 106
4.187837e-01 5.039232e-01 3.142216e+00 175 172 159
4.122054e-01 5.127657e-01 3.138238e+00 199 181 133
4.123545e-01 5.131240e-01 3.138299e+00 218 197 148
4.137260e-01 5.126419e-01 3.138115e+00 214 203 165
4.179921e-01 5.086199e-01 3.139348e+00 84 83 65
4.144319e-01 5.124454e-01 3.138078e+00 146 132 101
4.214767e-01 5.052011e-01 3.144348e+00 127 123 116
4.147578e-01 5.131004e-01 3.138789e+00 174 149 117
4.186700e-01 5.098089e-01 3.139510e+00 144 138 115
4.208537e-01 5.080701e-01 3.142561e+00 189 186 179
4.218910e-01 5.073531e-01 3.144088e+00 148 150 139
4.221958e-01 5.071971e-01 3.143941e+00 181 187 177
4.198367e-01 5.106447e-01 3.141128e+00 87 80 62
4.198367e-01 5.106447e-01 3.141128e+00 87 80 62
4.179489e-01 5.136340e-01 3.140516e+00 129 118 73
4.222260e-01 5.095868e-01 3.143736e+00 194 199 183
4.205025e-01 5.120338e-01 3.141831e+00 175 162 155
4.218684e-01 5.115916e-01 3.143557e+00 190 190 164
4.167986e-01 5.166910e-01 3.142020e+00 219 198 178
4.145060e-01 5.203913e-01 3.143256e+00 168 148 105
4.247175e-01 5.108222e-01 3.145793e+00 178 171 169
4.208587e-01 5.152002e-01 3.142608e+00 118 111 83
4.209070e-01 5.154316e-01 3.142687e+00 121 108 99
4.222361e-01 5.147863e-01 3.143936e+00 123 115 104
4.191228e-01 5.192837e-01 3.144004e+00 124 106 80
4.225340e-01 5.162239e-01 3.143837e+00 192 183 174
4.241278e-01 5.148184e-01 3.145187e+00 160 151 145
4.238950e-01 5.153063e-01 3.145026e+00 172 165 147
4.200167e-01 5.191641e-01 3.144238e+00 178 167 140
5.283252e-01 5.770643e-01 3.127152e+00 120 133 137
4.753852e-01 5.310532e-01 3.136177e+00 99 95 92
4.879218e-01 5.347177e-01 3.134945e+00 49 58 70
4.880288e-01 5.415461e-01 3.137598e+00 145 149 148
5.201206e-01 5.190815e-01 3.135929e+00 118 125 133
4.020744e-01 5.466805e-01 3.137134e+00 109 120 128
4.269901e-01 5.293143e-01 3.142041e+00 42 42 40
4.491766e-01 5.554044e-01 3.134688e+00 68 74 70
4.920356e-01 5.343060e-01 3.137438e+00 63 66 73
4.642861e-01 5.657254e-01 3.133467e+00 124 127 125
4.642861e-01 5.657254e-01 3.133467e+00 124 127 125
4.241548e-01 5.135231e-01 3.145222e+00 56 54 49
4.046041e-01 5.559020e-01 3.134537e+00 36 39 38
4.378804e-01 5.302416e-01 3.138167e+00 131 136 139
4.424115e-01 5.370181e-01 3.130607e+00 132 139 132
4.518678e-01 5.302483e-01 3.132326e+00 129 133 130
4.437937e-01 5.504328e-01 3.134947e+00 136 141 144
4.872631e-01 5.386532e-01 3.137578e+00 60 64 69
4.669253e-01 5.571532e-01 3.130651e+00 252 252 251
4.669253e-01 5.571532e-01 3.130651e+00 252 252 251
4.201360e-01 5.348717e-01 3.140249e+00 38 41 43
4.559928e-01 5.023697e-01 3.147938e+00 72 77 80
4.262575e-01 5.371766e-01 3.140256e+00 111 119 124
4.533225e-01 5.311662e-01 3.132058e+00 120 122 124
4.582637e-01 5.221500e-01 3.143539e+00 95 98 102
4.525930e-01 5.330999e-01 3.132259e+00 132 141 141
4.642554e-01 5.293481e-01 3.140922e+00 158 170 179
4.280154e-01 5.712689e-01 3.128033e+00 131 137 138
4.479868e-01 5.854901e-01 3.127448e+00 35 43 56
4.360121e-01 5.077126e-01 3.148246e+00 55 60 65
4.106164e-01 5.369750e-01 3.138681e+00 38 42 47
4.292088e-01 5.342373e-01 3.139871e+00 106 116 121
4.287554e-01 5.348389e-01 3.140034e+00 64 64 66
4.282284e-01 5.353627e-01 3.140215e+00 110 122 121
4.384928e-01 5.397368e-01 3.130085e+00 120 125 128
4.781383e-01 5.125999e-01 3.142169e+00 152 157 151
4.594869e-01 5.815983e-01 3.129959e+00 114 116 110
4.430676e-01 4.991273e-01 3.149023e+00 59 67 72
4.285061e-01 5.156313e-01 3.144638e+00 57 64 70
4.294479e-01 5.141544e-01 3.146350e+00 60 62 59
4.167943e-01 5.285581e-01 3.142052e+00 46 53 62
4.174121e-01 5.323741e-01 3.141625e+00 98 101 94
4.611205e-01 4.973971e-01 3.148853e+00 130 132 127
4.307332e-01 5.642759e-01 3.127272e+00 78 77 82
4.348286e-01 5.634380e-01 3.130737e+00 78 75 70
4.663373e-01 5.426163e-01 3.134032e+00 131 139 140
4.773129e-01 5.509422e-01 3.132241e+00 149 157 160
4.930096e-01 5.376309e-01 3.137360e+00 95 95 95
4.709972e-01 5.597864e-01 3.130204e+00 74 75 77
5.166478e-01 5.260187e-01 3.138076e+00 116 140 174
4.595861e-01 5.818377e-01 3.128103e+00 109 114 107
4.602214e-01 5.815113e-01 3.128183e+00 54 58 68
4.533877e-01 5.883423e-01 3.127197e+00 112 118 119
4.528756e-01 5.888034e-01 3.127375e+00 50 60 71
4.469437e-01 5.964408e-01 3.130143e+00 66 75 81
5.287026e-01 5.696009e-01 3.129048e+00 92 99 105
4.274332e-01 5.164081e-01 3.144670e+00 99 111 117
4.293992e-01 5.140842e-01 3.145549e+00 101 111 110
4.363664e-01 5.063549e-01 3.148829e+00 73 73 74
4.098855e-01 5.365324e-01 3.139108e+00 44 53 60
4.189170e-01 5.265887e-01 3.142599e+00 104 109 112
4.217626e-01 5.239580e-01 3.142594e+00 50 52 54
4.129788e-01 5.331748e-01 3.142488e+00 56 58 67
4.177898e-01 5.283501e-01 3.143237e+00 103 117 118
4.082243e-01 5.431830e-01 3.137239e+00 48 50 49
4.305504e-01 5.337162e-01 3.140328e+00 63 63 64
4.527113e-01 5.156733e-01 3.145775e+00 129 130 131
4.367997e-01 5.382206e-01 3.130957e+00 113 125 133
4.436269e-01 5.281590e-01 3.141238e+00 52 51 57
4.418213e-01 5.341842e-01 3.131777e+00 118 128 125
4.386567e-01 5.394765e-01 3.130653e+00 106 115 117
4.755438e-01 5.054684e-01 3.143885e+00 103 106 111
4.411415e-01 5.428995e-01 3.129069e+00 114 118 119
4.759351e-01 5.119822e-01 3.143545e+00 105 108 105
4.208484e-01 5.689673e-01 3.127587e+00 75 78 76
4.871682e-01 5.165405e-01 3.140958e+00 73 86 99
4.611658e-01 5.421542e-01 3.135905e+00 67 66 64
4.502978e-01 5.552822e-01 3.133170e+00 66 69 66
4.502978e-01 5.552822e-01 3.133170e+00 66 69 66
4.445069e-01 5.650197e-01 3.130158e+00 117 126 129
4.378801e-01 5.731676e-01 3.128097e+00 127 134 142
4.976031e-01 5.276283e-01 3.138125e+00 80 87 95
4.938303e-01 5.309768e-01 3.137790e+00 148 152 150
4.395004e-01 5.769869e-01 3.125552e+00 98 108 117
4.897182e-01 5.366297e-01 3.136206e+00 73 78 82
4.927193e-01 5.381587e-01 3.137137e+00 87 87 89
4.568280e-01 5.767877e-01 3.127791e+00 128 133 136
4.477714e-01 5.841835e-01 3.126470e+00 81 82 84
4.474761e-01 5.836678e-01 3.127887e+00 132 133 127
5.314150e-01 5.595725e-01 3.130677e+00 149 153 156
4.057404e-01 5.201120e-01 3.143942e+00 56 56 54
4.243429e-01 5.054474e-01 3.146860e+00 65 67 64
4.215655e-01 5.187540e-01 3.145822e+00 105 108 101
4.105573e-01 5.356745e-01 3.140306e+00 87 95 102
4.081021e-01 5.393389e-01 3.138387e+00 47 52 56
4.542576e-01 5.072294e-01 3.145898e+00 78 79 80
4.353942e-01 5.296106e-01 3.140804e+00 100 106 112
4.254253e-01 5.399128e-01 3.139514e+00 80 80 74
4.671935e-01 5.124214e-01 3.141912e+00 91 98 104
4.443635e-01 5.397133e-01 3.130163e+00 120 128 133
4.443635e-01 5.397133e-01 3.130163e+00 120 128 133
4.271637e-01 5.716731e-01 3.128733e+00 81 85 88
4.923542e-01 5.362016e-01 3.136250e+00 89 97 100
4.769469e-01 5.534125e-01 3.131299e+00 55 59 67
4.703378e-01 5.601535e-01 3.130268e+00 137 142 146
4.923660e-01 5.460429e-01 3.139166e+00 81 91 94
4.470901e-01 5.851513e-01 3.127223e+00 123 125 124
4.507486e-01 5.858198e-01 3.127078e+00 116 115 110
4.601766e-01 5.823220e-01 3.128134e+00 75 77 76
4.626419e-01 5.863853e-01 3.123086e+00 68 74 79
4.529828e-01 5.895369e-01 3.126649e+00 114 118 118
5.268562e-01 5.522678e-01 3.130897e+00 49 60 122
4.434362e-01 5.308856e-01 3.135898e+00 145 155 214
4.805600e-01 5.024314e-01 3.147749e+00 207 211 248
4.227927e-01 5.009285e-01 3.147231e+00 95 92 153
5.178955e-01 5.701774e-01 3.101580e+00 150 153 215
5.194852e-01 5.688738e-01 3.102515e+00 96 103 182
5.027008e-01 5.945707e-01 3.122380e+00 161 167 222
4.775789e-01 6.246762e-01 3.116780e+00 145 162 229
5.031884e-01 6.084049e-01 3.121141e+00 243 253 253
4.358125e-01 5.544326e-01 3.130054e+00 144 144 193
4.862520e-01 5.410897e-01 3.139000e+00 209 213 252
4.403604e-01 6.019064e-01 3.119565e+00 242 254 254
4.848665e-01 5.519791e-01 3.134349e+00 76 86 154
5.082776e-01 5.243571e-01 3.144668e+00 98 98 166
4.513541e-01 5.921703e-01 3.125476e+00 22 28 107
5.006985e-01 5.944697e-01 3.124596e+00 236 254 255
5.017393e-01 5.952194e-01 3.123426e+00 239 255 255
4.492812e-01 5.110366e-01 3.145967e+00 96 95 152
4.285051e-01 5.607309e-01 3.127775e+00 107 118 181
4.591338e-01 5.828740e-01 3.127285e+00 178 185 244
4.980618e-01 5.911788e-01 3.126747e+00 241 255 255
4.843350e-01 6.295872e-01 3.118248e+00 233 251 255
4.348188e-01 5.547376e-01 3.130254e+00 140 142 191
4.788103e-01 5.510642e-01 3.134865e+00 127 130 176
4.709757e-01 5.822621e-01 3.125213e+00 128 133 188
5.166807e-01 5.697491e-01 3.101646e+00 235 248 255
5.193602e-01 5.617908e-01 3.129229e+00 166 160 228
4.713042e-01 6.231240e-01 3.118133e+00 232 253 255
5.234777e-01 5.749566e-01 3.107214e+00 98 107 162
4.847663e-01 6.189497e-01 3.120182e+00 180 180 232
4.771043e-01 5.279680e-01 3.137158e+00 126 135 200
4.904549e-01 5.346756e-01 3.137294e+00 132 125 183
4.572152e-01 5.776320e-01 3.128174e+00 134 135 182
5.012503e-01 5.328844e-01 3.139317e+00 159 160 213
4.430813e-01 6.039714e-01 3.121652e+00 230 248 255
4.447018e-01 6.048061e-01 3.121620e+00 235 249 255
4.834317e-01 6.297561e-01 3.119004e+00 146 172 199
4.645473e-01 6.154673e-01 3.117811e+00 156 182 221
4.402262e-01 6.011406e-01 3.116948e+00 238 254 255
4.833399e-01 5.531037e-01 3.135659e+00 86 114 169
4.996646e-01 5.920476e-01 3.125255e+00 234 254 251
4.367443e-01 5.368801e-01 3.131353e+00 21 45 89
4.490004e-01 5.779760e-01 3.127804e+00 169 186 224
3.550714e-01 5.903678e-01 3.427831e+00 189 196 214
3.990724e-01 5.619584e-01 3.133560e+00 137 161 194
4.899704e-01 5.161164e-01 3.138975e+00 45 65 115
4.477520e-01 5.842742e-01 3.126453e+00 114 127 165
4.433599e-01 6.020422e-01 3.122016e+00 131 155 222
5.018944e-01 5.941311e-01 3.122999e+00 135 163 205
4.189632e-01 5.003516e-01 3.144085e+00 71 86 120
4.000286e-01 5.554836e-01 3.133644e+00 112 139 175
4.426397e-01 5.364363e-01 3.152794e+00 160 184 223
4.608539e-01 5.814765e-01 3.129123e+00 96 123 151
4.779955e-01 6.250527e-01 3.116699e+00 134 181 197
4.889581e-01 5.143677e-01 3.141076e+00 44 60 127
4.244313e-01 5.246657e-01 3.142626e+00 146 149 195
4.413978e-01 5.356364e-01 3.130926e+00 46 52 126
4.430352e-01 5.437170e-01 3.129979e+00 160 170 219
4.590158e-01 5.828685e-01 3.127599e+00 180 189 249
4.446447e-01 5.338664e-01 3.133961e+00 19 27 93
4.873692e-01 5.326430e-01 3.134783e+00 181 183 238
4.028075e-01 5.463073e-01 3.135837e+00 146 157 222
4.718595e-01 5.597402e-01 3.132580e+00 170 176 217
5.019418e-01 5.306579e-01 3.139965e+00 131 143 194
3.909587e-01 5.556248e-01 3.136884e+00 171 167 157
4.506425e-01 5.366575e-01 3.131570e+00 78 76 80
4.526623e-01 5.330537e-01 3.132269e+00 179 179 176
4.263073e-01 5.730520e-01 3.126932e+00 161 156 149
4.568301e-01 5.842818e-01 3.100496e+00 168 166 154
4.220630e-01 5.003881e-01 3.146232e+00 166 167 161
4.041455e-01 4.923242e-01 3.138922e+00 50 52 59
4.054231e-01 5.110393e-01 3.137433e+00 141 141 133
4.096312e-01 5.105807e-01 3.136143e+00 150 148 132
4.186566e-01 4.996316e-01 3.144332e+00 143 146 150
4.186566e-01 4.996316e-01 3.144332e+00 143 146 150
4.235204e-01 5.027443e-01 3.146955e+00 100 97 92
3.926323e-01 5.074729e-01 3.142835e+00 101 102 99
4.057557e-01 4.933529e-01 3.140147e+00 122 127 121
4.056407e-01 4.933102e-01 3.138459e+00 52 57 61
4.048097e-01 5.029816e-01 3.137673e+00 33 31 34
4.128591e-01 4.955675e-01 3.144013e+00 105 101 99
4.117189e-01 4.995633e-01 3.138775e+00 95 97 95
4.165517e-01 5.020394e-01 3.139888e+00 95 89 84
3.996007e-01 4.946467e-01 3.139600e+00 48 49 52
4.083310e-01 4.874052e-01 3.148260e+00 120 127 124
4.111879e-01 4.940090e-01 3.141851e+00 115 119 120
4.108397e-01 4.961199e-01 3.141331e+00 116 120 116
4.126071e-01 4.953225e-01 3.142256e+00 143 149 146
4.012257e-01 5.117543e-01 3.140171e+00 148 145 136
4.176344e-01 5.052274e-01 3.139526e+00 81 75 70
4.185978e-01 5.046540e-01 3.140673e+00 91 84 78
3.908997e-01 5.061840e-01 3.142121e+00 124 125 118
3.999491e-01 4.966426e-01 3.140267e+00 126 133 136
4.132598e-01 4.947919e-01 3.143766e+00 141 146 143
4.102186e-01 5.025820e-01 3.138195e+00 159 165 165
4.101849e-01 5.026218e-01 3.138272e+00 159 165 165
4.157132e-01 4.958283e-01 3.144899e+00 154 159 153
4.156886e-01 4.958575e-01 3.144996e+00 154 159 153
4.069923e-01 5.099194e-01 3.136719e+00 150 148 133
4.069923e-01 5.099194e-01 3.136719e+00 150 148 133
4.168902e-01 4.984981e-01 3.143201e+00 156 157 150
4.200755e-01 4.960758e-01 3.148818e+00 155 166 170
3.992136e-01 4.950316e-01 3.140111e+00 103 114 115
3.932133e-01 5.028902e-01 3.139440e+00 121 124 121
3.996137e-01 4.971802e-01 3.138604e+00 97 106 106
4.116775e-01 4.909325e-01 3.148383e+00 135 141 139
4.088256e-01 4.952772e-01 3.137512e+00 46 50 61
4.129268e-01 4.914590e-01 3.146291e+00 69 73 73
4.155366e-01 4.933759e-01 3.147518e+00 113 116 112
4.050433e-01 5.071525e-01 3.137232e+00 132 143 138
4.160850e-01 4.976056e-01 3.143499e+00 150 157 150
4.108234e-01 5.060071e-01 3.137687e+00 144 149 148
4.177732e-01 4.998383e-01 3.143197e+00 156 155 151
4.184022e-01 4.999067e-01 3.144190e+00 167 174 182
4.029844e-01 5.170127e-01 3.142384e+00 114 111 104
4.185009e-01 5.035573e-01 3.141623e+00 133 133 125
4.200666e-01 5.014078e-01 3.144958e+00 113 109 107
4.206285e-01 5.066578e-01 3.142801e+00 86 79 73
4.191034e-01 5.120194e-01 3.139814e+00 117 115 103
3.893600e-01 5.054910e-01 3.150987e+00 64 63 81
3.931863e-01 5.037720e-01 3.140452e+00 126 128 125
4.004789e-01 4.963483e-01 3.140110e+00 73 74 70
4.093223e-01 4.967165e-01 3.138162e+00 42 40 42
4.069552e-01 4.997697e-01 3.137958e+00 116 117 111
4.015076e-01 5.094382e-01 3.139176e+00 153 150 135
4.153179e-01 4.931054e-01 3.147562e+00 154 160 160
4.025186e-01 5.104585e-01 3.138840e+00 139 148 150
4.024940e-01 5.104953e-01 3.138988e+00 139 148 150
4.080633e-01 5.051510e-01 3.137522e+00 165 169 168
4.195384e-01 4.957283e-01 3.147918e+00 134 138 138
4.180942e-01 4.990260e-01 3.144381e+00 125 121 118
4.122818e-01 5.092911e-01 3.137378e+00 137 131 115
4.199594e-01 5.001291e-01 3.145465e+00 118 119 115
4.210165e-01 5.083122e-01 3.142889e+00 154 155 153
4.230323e-01 5.073985e-01 3.145460e+00 157 160 155
4.250572e-01 5.099555e-01 3.145956e+00 194 201 204
4.185862e-01 5.381639e-01 3.140404e+00 147 144 131
4.347089e-01 5.222385e-01 3.144378e+00 155 151 140
4.256639e-01 5.319880e-01 3.141811e+00 154 145 128
3.990259e-01 4.946587e-01 3.140112e+00 105 114 111
3.985353e-01 4.957320e-01 3.140457e+00 86 91 95
3.922494e-01 5.041277e-01 3.140485e+00 92 92 96
3.935070e-01 5.029897e-01 3.139842e+00 79 78 72
4.085969e-01 4.856110e-01 3.148907e+00 89 96 107
3.950913e-01 5.031427e-01 3.139499e+00 115 117 116
4.089338e-01 4.876847e-01 3.148121e+00 111 113 111
4.096501e-01 4.882402e-01 3.147783e+00 78 80 84
4.083597e-01 4.933057e-01 3.142503e+00 130 132 133
4.110937e-01 4.909825e-01 3.147288e+00 137 141 137
4.047019e-01 5.004600e-01 3.139611e+00 128 133 131
4.122737e-01 4.945203e-01 3.144377e+00 115 120 114
4.139354e-01 4.940517e-01 3.145818e+00 107 110 106
4.094737e-01 5.000020e-01 3.138757e+00 111 110 105
4.094544e-01 5.000325e-01 3.138864e+00 111 110 105
4.103290e-01 4.994837e-01 3.139022e+00 108 103 98
4.117960e-01 4.980979e-01 3.139101e+00 139 142 140
3.987724e-01 5.128639e-01 3.141989e+00 109 103 100
4.090807e-01 5.015754e-01 3.138770e+00 148 153 150
4.011758e-01 5.109506e-01 3.139984e+00 144 140 128
4.080236e-01 5.037434e-01 3.138356e+00 157 158 153
4.149939e-01 4.955398e-01 3.145132e+00 99 98 93
4.145864e-01 4.978276e-01 3.141562e+00 78 68 68
4.024212e-01 5.120064e-01 3.139669e+00 136 136 131
4.152347e-01 4.985115e-01 3.141760e+00 124 129 125
4.191304e-01 4.952075e-01 3.147856e+00 143 142 138
4.188163e-01 5.045617e-01 3.141250e+00 132 134 132
4.076768e-01 5.171705e-01 3.141384e+00 138 135 125
4.225381e-01 5.032318e-01 3.145940e+00 126 123 120
4.213030e-01 5.081588e-01 3.142920e+00 118 114 111
4.234224e-01 5.070815e-01 3.145345e+00 128 125 118
4.207346e-01 5.134045e-01 3.141724e+00 144 147 137
4.272443e-01 5.276780e-01 3.142679e+00 138 131 120
4.206230e-01 5.356037e-01 3.141332e+00 151 151 138
4.524460e-01 5.075560e-01 3.147399e+00 169 165 151
3.926383e-01 5.044354e-01 3.140942e+00 70 71 66
4.096161e-01 4.881798e-01 3.148214e+00 110 118 121
4.089272e-01 4.892238e-01 3.146803e+00 73 75 79
4.094947e-01 4.920435e-01 3.144635e+00 105 105 102
4.094568e-01 4.922500e-01 3.144640e+00 91 89 83
4.040940e-01 4.987954e-01 3.139814e+00 113 120 128
4.094239e-01 4.933691e-01 3.142929e+00 96 97 99
4.087758e-01 4.946927e-01 3.139604e+00 88 92 93
4.110887e-01 4.954871e-01 3.142544e+00 63 57 57
4.117544e-01 4.967587e-01 3.141070e+00 157 154 147
4.157860e-01 4.920332e-01 3.148374e+00 106 105 104
4.054844e-01 5.049747e-01 3.137694e+00 125 129 122
4.092685e-01 5.006352e-01 3.138698e+00 142 148 146
4.092685e-01 5.006352e-01 3.138698e+00 142 148 146
4.064083e-01 5.047625e-01 3.137803e+00 133 138 134
4.091516e-01 5.029146e-01 3.138244e+00 111 111 109
4.109116e-01 5.010527e-01 3.138783e+00 144 144 133
4.082889e-01 5.048672e-01 3.137634e+00 164 169 163
4.148978e-01 4.969717e-01 3.143502e+00 84 79 75
4.156147e-01 4.964206e-01 3.144712e+00 137 132 124
4.156134e-01 4.964199e-01 3.144725e+00 137 132 124
4.155514e-01 4.967685e-01 3.144609e+00 137 138 133
4.151743e-01 4.991700e-01 3.141637e+00 98 97 89
4.168591e-01 5.000390e-01 3.143062e+00 142 143 136
4.168177e-01 5.004284e-01 3.141937e+00 91 92 87
4.173285e-01 5.021891e-01 3.141105e+00 148 153 155
4.150639e-01 5.068220e-01 3.137957e+00 149 142 132
4.150342e-01 5.070204e-01 3.137889e+00 90 87 78
4.198479e-01 5.009452e-01 3.145116e+00 99 96 93
4.109547e-01 5.121947e-01 3.137583e+00 114 107 90
4.195441e-01 5.034563e-01 3.142501e+00 147 145 142
4.221971e-01 4.996624e-01 3.147330e+00 140 132 129
4.050086e-01 5.195043e-01 3.142933e+00 109 105 104
4.176422e-01 5.081616e-01 3.138737e+00 87 77 68
4.203335e-01 5.058883e-01 3.143028e+00 141 142 137
4.175444e-01 5.105336e-01 3.137694e+00 104 96 86
4.121142e-01 5.164889e-01 3.140569e+00 119 118 114
4.228306e-01 5.039162e-01 3.146020e+00 159 160 150
4.237313e-01 5.036103e-01 3.146657e+00 139 136 131
4.209618e-01 5.120251e-01 3.142009e+00 132 133 124
4.246588e-01 5.066300e-01 3.146559e+00 135 137 144
4.123470e-01 5.206893e-01 3.143401e+00 99 99 102
4.227935e-01 5.117845e-01 3.144494e+00 103 91 91
4.231304e-01 5.126671e-01 3.144433e+00 160 159 155
4.243997e-01 5.122552e-01 3.145270e+00 130 127 115
4.206567e-01 5.170975e-01 3.143397e+00 167 167 165
4.227035e-01 5.173964e-01 3.144165e+00 138 128 117
4.279794e-01 5.166543e-01 3.144542e+00 166 168 163
4.145964e-01 5.301829e-01 3.142899e+00 103 103 110
4.250840e-01 5.302709e-01 3.142017e+00 142 135 121
4.036375e-01 5.445427e-01 3.137153e+00 11 8 7
4.086821e-01 5.434430e-01 3.136908e+00 33 18 14
4.485073e-01 5.387782e-01 3.121418e+00 30 23 21
4.029811e-01 5.440450e-01 3.137956e+00 68 61 54
4.670496e-01 5.181114e-01 3.138933e+00 82 27 10
4.050753e-01 5.757007e-01 3.124139e+00 155 180 234
4.568086e-01 5.769074e-01 3.127664e+00 171 190 227
4.701990e-01 5.532044e-01 3.133102e+00 251 255 255
4.888324e-01 5.396080e-01 3.137409e+00 106 110 143
4.476864e-01 5.347025e-01 3.132687e+00 65 67 107
4.297546e-01 5.683608e-01 3.127244e+00 143 148 190
4.050065e-01 5.130688e-01 3.138799e+00 116 98 96
4.009444e-01 4.897761e-01 3.140470e+00 58 46 56
4.296285e-01 4.695285e-01 3.149710e+00 67 61 68
4.356503e-01 5.974140e-01 3.121235e+00 225 244 254
4.290779e-01 4.680090e-01 3.150065e+00 87 84 91
4.082597e-01 5.206560e-01 3.143087e+00 179 173 176
4.471130e-01 5.360319e-01 3.131211e+00 189 188 196
3.891753e-01 5.193238e-01 3.137329e+00 59 55 54
3.950216e-01 5.344617e-01 3.131435e+00 66 54 55
3.950216e-01 5.344617e-01 3.131435e+00 66 54 55
3.997239e-01 5.416801e-01 3.137932e+00 119 112 113
3.895078e-01 5.263530e-01 3.238442e+00 44 18 45
4.120410e-01 5.334747e-01 3.141828e+00 164 162 167
4.449270e-01 5.255833e-01 2.947011e+00 156 153 160
4.737712e-01 5.545708e-01 2.900147e+00 145 140 141
4.754895e-01 5.128229e-01 2.850568e+00 89 86 93
4.126694e-01 5.347044e-01 3.207226e+00 135 133 138
5.026606e-01 5.903415e-01 2.662887e+00 137 135 140
3.816184e-01 5.389447e-01 3.132866e+00 146 140 141
4.272917e-01 5.026610e-01 3.147595e+00 196 194 197
4.421130e-01 4.948875e-01 3.149092e+00 189 184 190
4.040012e-01 5.078666e-01 3.136688e+00 164 155 158
4.078535e-01 5.039731e-01 3.137708e+00 166 160 162
3.793970e-01 5.453344e-01 3.136766e+00 72 69 78
4.580479e-01 5.439531e-01 3.134021e+00 181 179 184
3.781585e-01 5.385625e-01 3.120750e+00 87 78 83
3.960379e-01 5.385409e-01 3.135025e+00 94 85 86
4.370711e-01 5.343309e-01 3.131271e+00 25 27 39
4.779335e-01 6.106050e-01 3.116705e+00 16 16 26
4.497386e-01 5.276825e-01 3.133202e+00 62 65 73
3.502880e-01 5.073117e-01 2.876140e+00 83 70 90
4.541760e-01 5.467677e-01 3.133196e+00 134 132 138
3.752262e-01 5.223766e-01 3.117131e+00 63 58 64
3.724943e-01 5.426735e-01 3.116123e+00 135 136 142
3.975544e-01 5.411572e-01 3.113763e+00 132 127 131
4.618640e-01 5.342811e-01 3.135666e+00 152 151 157
4.603182e-01 5.399271e-01 3.134591e+00 104 103 108
4.175962e-01 5.118396e-01 3.142554e+00 40 34 33
4.900558e-01 4.999706e-01 3.145657e+00 255 255 255
5.211167e-01 5.728740e-01 3.099766e+00 255 255 255
4.415005e-01 5.993379e-01 3.121967e+00 111 106 105
5.439726e-01 5.486417e-01 3.135058e+00 255 255 255
5.318486e-01 5.480290e-01 3.136927e+00 86 84 89
4.134179e-01 5.807038e-01 3.124155e+00 255 255 255
5.095382e-01 5.647520e-01 3.101142e+00 255 255 255
3.968284e-01 5.683185e-01 3.125754e+00 121 126 130
5.041588e-01 5.276445e-01 3.144716e+00 95 94 96
4.197789e-01 4.831429e-01 3.146420e+00 23 21 24
4.730241e-01 4.341212e-01 3.107273e+00 32 29 46
4.200309e-01 5.265386e-01 3.141810e+00 27 25 30
4.501639e-01 5.383358e-01 3.131354e+00 124 124 114
4.501639e-01 5.383358e-01 3.131354e+00 124 124 114
4.768872e-01 6.194244e-01 3.121500e+00 133 133 135
4.768559e-01 6.194138e-01 3.121570e+00 133 133 135
4.146189e-01 5.312407e-01 3.141175e+00 32 31 36
4.563268e-01 4.824596e-01 3.153749e+00 125 128 137
4.405275e-01 5.360395e-01 3.131697e+00 118 117 121
4.491544e-01 5.327462e-01 3.132658e+00 36 36 48
4.681634e-01 5.325953e-01 3.140445e+00 144 144 141
4.888048e-01 5.447222e-01 3.140201e+00 62 55 58
4.701721e-01 6.205855e-01 3.117172e+00 97 94 101
3.935674e-01 5.210640e-01 3.139735e+00 79 75 76
3.775485e-01 5.806829e-01 2.957058e+00 109 106 115
4.162902e-01 5.301952e-01 3.141075e+00 20 19 24
4.544232e-01 4.920746e-01 3.150151e+00 117 112 116
4.372860e-01 5.132105e-01 3.144482e+00 35 31 32
4.578995e-01 4.894252e-01 3.152484e+00 120 116 116
4.553334e-01 5.008771e-01 3.148608e+00 31 32 42
4.525855e-01 5.345555e-01 3.131999e+00 33 32 39
4.494229e-01 5.603462e-01 3.134271e+00 137 136 140
4.734140e-01 5.550119e-01 3.100158e+00 254 254 251
4.525606e-01 5.815699e-01 3.126945e+00 121 120 118
4.604406e-01 5.815857e-01 3.127722e+00 22 16 29
4.594045e-01 5.824625e-01 3.128031e+00 24 18 32
4.571342e-01 5.854845e-01 3.127115e+00 72 68 71
4.488006e-01 5.957662e-01 3.127472e+00 79 77 90
4.235954e-01 4.839276e-01 3.143928e+00 77 73 74
4.186419e-01 4.924515e-01 3.149808e+00 93 91 92
3.791263e-01 5.462754e-01 3.137722e+00 86 89 94
3.885932e-01 5.398583e-01 3.136063e+00 75 73 76
4.408598e-01 4.887787e-01 3.151190e+00 49 38 36
4.541727e-01 4.826686e-01 3.154520e+00 61 55 55
4.390625e-01 5.026824e-01 3.148152e+00 89 86 92
4.481521e-01 4.919398e-01 3.150919e+00 87 88 93
4.369407e-01 5.055266e-01 3.148614e+00 114 112 121
4.520793e-01 5.193466e-01 3.139079e+00 45 40 42
4.449700e-01 5.387461e-01 3.131272e+00 45 44 57
4.795636e-01 5.486413e-01 3.100882e+00 252 254 254
4.716489e-01 5.606290e-01 3.131859e+00 106 108 120
4.793811e-01 6.112711e-01 3.116986e+00 19 15 28
4.145337e-01 4.948154e-01 3.144241e+00 37 33 30
4.215078e-01 5.036596e-01 3.144531e+00 31 25 24
3.979182e-01 5.374406e-01 3.136720e+00 33 29 28
4.418618e-01 4.981831e-01 3.150020e+00 40 42 53
4.290999e-01 5.140554e-01 3.145004e+00 22 22 29
4.520976e-01 4.875302e-01 3.151756e+00 127 127 128
4.370666e-01 5.059364e-01 3.147878e+00 44 42 43
4.384706e-01 5.046831e-01 3.148771e+00 24 18 23
4.467205e-01 5.006142e-01 3.147385e+00 96 95 91
5.013248e-01 5.197190e-01 3.144528e+00 49 47 50
4.999199e-01 5.264523e-01 3.140388e+00 58 52 52
4.791638e-01 5.516369e-01 3.133643e+00 66 63 69
5.019879e-01 5.310147e-01 3.140416e+00 142 141 140
5.020328e-01 5.310063e-01 3.140367e+00 142 141 140
4.436685e-01 6.019888e-01 3.121107e+00 107 102 126
4.574715e-01 5.863067e-01 3.127190e+00 123 123 114
5.058423e-01 5.609717e-01 3.102329e+00 250 252 252
4.442616e-01 6.048621e-01 3.120789e+00 254 254 255
5.181485e-01 5.269823e-01 3.138432e+00 254 254 252
4.819470e-01 6.046361e-01 3.120505e+00 64 58 58
3.627549e-01 5.737376e-01 3.025000e+00 181 166 139
4.212775e-01 5.007311e-01 3.146269e+00 102 97 94
4.838298e-01 4.359701e-01 3.103731e+00 254 254 255
4.826934e-01 4.379795e-01 3.101258e+00 96 89 126
4.825171e-01 4.381726e-01 3.101576e+00 96 89 126
4.827154e-01 4.385005e-01 3.101891e+00 247 246 255
4.819584e-01 4.404112e-01 3.114622e+00 87 78 121
3.765151e-01 5.878986e-01 3.001558e+00 104 101 117
3.765385e-01 5.879024e-01 3.001587e+00 104 101 117
4.150815e-01 5.381571e-01 3.137941e+00 110 108 105
4.016760e-01 5.536661e-01 3.135432e+00 113 113 113
4.484505e-01 5.032599e-01 3.148361e+00 28 19 20
4.792660e-01 5.250515e-01 3.139231e+00 90 91 93
5.045698e-01 5.133671e-01 3.141979e+00 252 254 251
4.876360e-01 5.358406e-01 3.137193e+00 120 115 109
4.878687e-01 5.372251e-01 3.136974e+00 126 122 123
5.131993e-01 5.192306e-01 3.142375e+00 97 98 127
4.920475e-01 5.449053e-01 3.140235e+00 43 41 53
4.420903e-01 6.033657e-01 3.121401e+00 148 144 167
4.663521e-01 5.755292e-01 3.132983e+00 137 134 137
4.490296e-01 5.966666e-01 3.126924e+00 44 40 39
4.498320e-01 5.959023e-01 3.127618e+00 132 130 130
4.910213e-01 6.124424e-01 3.120011e+00 132 132 128
4.912461e-01 6.127390e-01 3.119970e+00 57 55 54
4.902219e-01 6.141135e-01 3.119547e+00 40 34 40
4.079637e-01 4.897600e-01 3.145964e+00 55 55 55
4.066495e-01 4.911778e-01 3.142980e+00 21 21 23
4.073690e-01 4.905724e-01 3.144238e+00 18 17 22
4.571323e-01 4.347096e-01 3.126066e+00 12 11 20
3.672415e-01 5.702387e-01 3.004037e+00 207 205 193
4.840777e-01 4.362878e-01 3.103573e+00 119 117 132
4.491239e-01 5.234470e-01 3.134393e+00 117 116 121
4.479177e-01 5.321767e-01 3.133130e+00 126 125 130
4.520632e-01 5.305376e-01 3.132640e+00 113 113 114
4.775330e-01 5.507891e-01 3.133813e+00 130 129 135
4.685283e-01 5.730712e-01 3.133228e+00 136 134 139
5.355725e-01 5.410322e-01 3.136105e+00 251 251 250
5.142403e-01 5.681040e-01 3.134075e+00 97 92 96
4.081315e-01 4.890675e-01 3.146793e+00 59 59 61
4.078809e-01 4.897596e-01 3.143144e+00 17 16 21
5.336498e-01 5.397798e-01 3.136561e+00 138 137 146
5.444659e-01 5.502662e-01 3.134736e+00 255 252 255
4.408545e-01 5.305557e-01 3.140556e+00 174 172 185
4.475293e-01 4.628317e-01 3.148599e+00 166 167 173
4.079295e-01 5.129485e-01 3.138372e+00 85 71 71
3.912460e-01 5.402780e-01 3.135684e+00 139 130 135
3.912460e-01 5.402780e-01 3.135684e+00 139 130 135
4.889841e-01 6.115681e-01 3.118497e+00 92 99 109
4.357982e-01 4.695658e-01 3.155961e+00 94 91 98
3.807248e-01 5.440213e-01 3.138112e+00 63 62 70
3.902404e-01 5.405060e-01 3.134973e+00 143 132 136
4.362063e-01 5.566416e-01 3.130680e+00 98 97 102
3.750013e-01 5.296692e-01 3.138451e+00 150 141 146
3.796966e-01 5.227304e-01 3.295070e+00 21 24 31
3.872571e-01 5.407069e-01 3.135534e+00 97 87 88
4.891881e-01 5.349806e-01 3.137085e+00 67 66 72
4.770011e-01 5.549038e-01 3.132462e+00 159 156 165
4.927558e-01 6.056826e-01 3.120501e+00 107 105 116
5.532434e-01 5.635734e-01 3.128432e+00 199 224 251
3.957061e-01 5.388321e-01 3.135492e+00 97 88 91
4.428599e-01 5.377002e-01 3.130790e+00 145 145 151
4.956462e-01 5.401095e-01 3.137471e+00 90 87 94
4.561860e-01 4.325685e-01 3.126289e+00 128 130 143
4.550606e-01 4.324440e-01 3.126929e+00 31 37 51
4.557669e-01 4.341837e-01 3.126242e+00 36 33 50
4.406084e-01 4.643372e-01 3.147540e+00 173 173 181
4.560692e-01 4.342970e-01 3.126334e+00 120 119 135
4.560692e-01 4.342970e-01 3.126334e+00 120 119 135
4.059842e-01 4.986294e-01 3.122747e+00 42 36 38
4.130069e-01 4.923655e-01 3.124894e+00 103 97 99
4.130069e-01 4.923655e-01 3.124894e+00 103 97 99
3.795762e-01 5.474352e-01 3.119776e+00 137 139 152
4.662174e-01 5.488154e-01 3.133208e+00 255 255 254
4.507606e-01 5.838209e-01 3.125790e+00 22 24 19
4.500492e-01 5.369261e-01 3.133040e+00 48 47 46
4.402060e-01 5.300873e-01 3.134304e+00 41 36 35
4.521797e-01 5.331652e-01 3.133232e+00 169 163 144
4.513878e-01 5.361949e-01 3.133961e+00 153 143 124
4.470017e-01 5.363052e-01 3.133360e+00 51 47 44
4.733055e-01 5.507040e-01 3.133669e+00 253 252 250
5.124780e-01 5.210615e-01 3.144170e+00 155 161 165
3.891200e-01 5.172722e-01 3.141894e+00 80 63 41
3.997104e-01 5.089994e-01 3.138460e+00 118 105 87
3.905569e-01 5.253411e-01 3.140213e+00 69 60 40
4.270948e-01 5.076553e-01 3.138123e+00 95 79 56
4.545963e-01 4.889784e-01 3.143757e+00 150 134 120
4.510389e-01 5.370273e-01 3.133442e+00 165 156 139
3.865757e-01 5.166295e-01 3.143156e+00 100 80 56
3.981110e-01 5.060040e-01 3.139274e+00 101 85 67
3.885116e-01 5.207760e-01 3.141949e+00 118 106 85
3.885116e-01 5.207760e-01 3.141949e+00 118 106 85
3.892178e-01 5.201308e-01 3.141790e+00 122 114 92
3.897772e-01 5.193955e-01 3.141422e+00 132 117 99
3.842758e-01 5.280111e-01 3.141925e+00 63 50 34
3.842742e-01 5.280079e-01 3.141916e+00 63 50 34
3.922399e-01 5.224592e-01 3.140122e+00 122 111 85
4.035382e-01 5.110873e-01 3.138927e+00 83 62 39
3.909101e-01 5.275678e-01 3.139848e+00 98 84 59
3.932777e-01 5.249927e-01 3.138528e+00 75 58 39
3.956400e-01 5.228592e-01 3.139192e+00 113 90 66
3.955467e-01 5.235333e-01 3.139088e+00 124 110 84
3.956481e-01 5.256579e-01 3.138784e+00 126 111 92
4.031524e-01 5.177269e-01 3.137785e+00 99 82 57
4.184185e-01 5.017407e-01 3.138022e+00 88 70 49
3.977328e-01 5.280738e-01 3.137839e+00 127 116 92
4.577015e-01 4.917510e-01 3.143438e+00 167 150 140
4.510920e-01 5.244030e-01 3.135489e+00 154 136 116
4.449941e-01 5.395351e-01 3.132784e+00 32 34 29
4.512855e-01 5.338120e-01 3.133952e+00 63 47 35
4.557508e-01 5.294393e-01 3.134974e+00 137 123 101
4.519063e-01 5.348145e-01 3.134312e+00 51 41 28
4.504715e-01 5.374446e-01 3.133349e+00 45 38 28
3.932606e-01 5.065758e-01 3.140038e+00 67 49 34
3.876916e-01 5.175146e-01 3.142680e+00 105 89 67
3.883705e-01 5.173923e-01 3.142410e+00 132 122 97
3.827732e-01 5.259884e-01 3.143496e+00 62 46 27
3.945648e-01 5.113016e-01 3.139702e+00 79 65 45
3.943274e-01 5.124298e-01 3.139684e+00 168 162 146
3.844397e-01 5.269416e-01 3.142353e+00 114 101 78
3.972861e-01 5.100493e-01 3.139043e+00 120 112 91
3.895331e-01 5.205946e-01 3.141462e+00 101 88 70
4.021826e-01 5.125173e-01 3.138201e+00 88 67 38
4.063493e-01 5.125674e-01 3.137479e+00 123 107 78
4.564352e-01 4.691385e-01 3.148646e+00 97 95 100
4.252266e-01 5.080315e-01 3.137959e+00 140 125 108
4.467741e-01 5.001919e-01 3.140761e+00 143 126 105
4.517081e-01 5.379310e-01 3.133619e+00 50 51 49
4.229061e-01 5.110803e-01 3.143694e+00 28 21 20
4.476339e-01 5.224952e-01 3.133964e+00 130 134 132
4.514669e-01 5.362791e-01 3.131469e+00 12 7 6
3.982099e-01 5.314987e-01 3.135572e+00 83 85 82
4.330639e-01 5.177178e-01 3.144293e+00 12 13 9
5.043626e-01 5.231210e-01 3.142134e+00 139 139 139
4.237770e-01 4.776063e-01 3.141366e+00 18 16 19
4.483182e-01 5.589222e-01 3.135749e+00 91 90 85
5.369819e-01 5.429219e-01 3.136325e+00 93 91 98
4.243930e-01 5.874188e-01 3.122206e+00 118 116 116
4.828985e-01 6.279262e-01 3.115129e+00 114 110 111
4.885831e-01 5.341282e-01 3.135691e+00 136 136 134
4.279644e-01 4.751362e-01 3.141710e+00 114 115 114
4.377011e-01 4.744655e-01 3.156539e+00 66 65 70
4.868839e-01 4.283586e-01 3.105216e+00 252 254 255
4.258972e-01 5.220602e-01 3.142241e+00 54 53 56
4.117514e-01 5.477304e-01 3.136799e+00 42 39 34
4.402239e-01 5.337651e-01 3.131535e+00 43 46 55
4.078297e-01 4.898890e-01 3.144061e+00 36 39 39
4.343769e-01 4.836342e-01 3.142487e+00 120 117 110
4.510383e-01 4.847658e-01 3.152923e+00 81 80 77
4.424461e-01 5.378162e-01 3.131138e+00 150 151 155
4.451253e-01 5.440526e-01 3.130162e+00 128 128 120
4.794962e-01 5.052242e-01 3.147801e+00 87 80 81
5.101258e-01 5.645766e-01 3.101649e+00 254 255 250
3.870055e-01 5.104558e-01 3.147924e+00 83 87 109
4.071523e-01 4.906983e-01 3.143119e+00 24 26 25
4.072742e-01 4.904633e-01 3.142498e+00 24 26 25
4.127420e-01 4.890852e-01 3.146818e+00 61 61 60
3.892004e-01 5.249664e-01 3.135348e+00 52 52 51
4.284400e-01 4.782077e-01 3.146328e+00 110 111 106
3.939010e-01 5.215121e-01 3.140289e+00 115 114 110
3.909559e-01 5.280770e-01 3.134614e+00 67 67 65
3.956873e-01 5.256056e-01 3.137950e+00 110 109 105
4.206454e-01 4.989739e-01 3.145836e+00 62 61 57
4.096693e-01 5.780221e-01 3.121860e+00 253 254 254
4.725554e-01 5.172270e-01 3.138456e+00 78 75 70
4.272063e-01 5.897141e-01 3.122359e+00 254 254 255
5.124630e-01 5.203482e-01 3.141744e+00 72 73 77
4.069863e-01 4.890379e-01 3.142051e+00 47 48 50
3.958558e-01 5.186460e-01 3.144150e+00 73 73 75
3.846123e-01 5.345824e-01 3.133816e+00 50 50 50
4.166527e-01 4.951769e-01 3.145766e+00 120 119 117
4.846098e-01 4.397089e-01 3.112928e+00 254 254 255
4.379788e-01 5.392792e-01 3.130700e+00 36 36 42
4.866276e-01 4.985095e-01 3.143209e+00 138 141 153
4.522767e-01 5.911404e-01 3.125557e+00 41 38 59
5.083561e-01 5.630256e-01 3.102162e+00 251 252 244
4.860619e-01 5.961208e-01 3.120813e+00 165 167 167
4.213097e-01 4.954879e-01 3.150341e+00 159 161 157
4.847815e-01 4.356095e-01 3.102098e+00 122 128 140
4.182719e-01 5.177145e-01 3.143159e+00 133 129 128
4.431525e-01 4.959593e-01 3.149734e+00 79 75 71
4.311533e-01 5.128139e-01 3.145005e+00 142 146 149
4.453974e-01 5.330086e-01 3.132795e+00 162 161 167
4.973140e-01 5.296146e-01 3.139509e+00 76 72 73
4.682117e-01 5.650339e-01 3.130870e+00 69 66 72
5.009768e-01 5.332778e-01 3.139805e+00 60 60 60
5.140462e-01 5.210133e-01 3.141426e+00 241 252 254
5.007751e-01 5.339930e-01 3.139773e+00 145 147 136
5.374527e-01 5.418330e-01 3.136244e+00 119 112 143
4.901231e-01 6.140901e-01 3.119754e+00 71 71 71
4.662887e-01 4.361054e-01 3.114620e+00 140 144 145
4.008640e-01 5.200266e-01 3.144355e+00 54 52 70
4.888517e-01 4.251036e-01 3.102615e+00 249 253 254
3.780010e-01 5.836380e-01 2.953220e+00 128 127 136
4.025758e-01 5.462962e-01 3.136639e+00 134 138 141
4.484024e-01 5.316758e-01 3.131906e+00 50 54 57
4.868514e-01 5.163333e-01 3.141454e+00 51 53 63
4.852520e-01 5.462586e-01 3.101039e+00 134 134 136
4.857436e-01 5.461720e-01 3.101429e+00 120 120 112
4.889881e-01 5.362422e-01 3.137726e+00 148 148 146
4.593523e-01 5.660930e-01 3.134152e+00 93 92 90
4.593523e-01 5.660930e-01 3.134152e+00 93 92 90
4.746959e-01 5.562338e-01 3.132759e+00 89 87 92
4.384604e-01 5.991865e-01 3.121544e+00 241 241 241
4.416477e-01 6.022695e-01 3.121255e+00 125 124 131
4.431460e-01 6.008952e-01 3.121616e+00 113 106 125
4.440666e-01 6.013320e-01 3.121303e+00 227 227 229
5.131122e-01 5.680184e-01 3.130109e+00 104 103 108
4.905892e-01 6.137319e-01 3.119668e+00 64 64 65
4.856612e-01 6.195047e-01 3.118279e+00 60 60 59
4.116166e-01 4.998137e-01 3.139440e+00 70 71 66
4.866605e-01 5.165917e-01 3.141297e+00 58 64 69
4.935242e-01 6.093442e-01 3.120965e+00 138 138 138
4.179282e-01 5.855358e-01 3.124508e+00 255 255 255
4.086089e-01 5.711427e-01 3.127604e+00 84 86 85
4.501012e-01 5.383531e-01 3.131578e+00 148 151 135
4.088253e-01 4.854914e-01 3.152169e+00 27 27 37
3.794976e-01 5.313178e-01 3.269569e+00 87 90 104
4.199043e-01 4.829851e-01 3.146002e+00 51 50 48
3.909917e-01 5.258866e-01 3.135175e+00 104 104 106
4.004618e-01 5.213934e-01 3.144031e+00 47 47 48
4.475775e-01 5.318151e-01 3.132657e+00 154 158 157
3.904083e-01 5.187132e-01 3.140599e+00 101 101 101
4.063189e-01 5.117982e-01 3.138028e+00 109 106 101
3.958025e-01 5.400661e-01 3.137484e+00 61 60 59
4.408588e-01 5.018574e-01 3.148398e+00 48 48 50
4.089987e-01 5.769961e-01 3.121424e+00 133 136 144
4.464612e-01 5.396300e-01 3.131033e+00 155 158 163
4.391521e-01 5.700195e-01 3.129122e+00 150 147 138
4.260573e-01 5.889054e-01 3.122675e+00 148 148 159
3.985703e-01 5.087588e-01 3.140257e+00 94 95 90
3.997919e-01 5.451022e-01 3.137486e+00 148 150 147
4.437377e-01 4.951995e-01 3.150492e+00 90 90 85
4.390934e-01 5.700468e-01 3.129215e+00 152 149 140
4.752078e-01 5.515290e-01 3.130430e+00 105 100 135
4.804623e-01 5.504331e-01 3.134088e+00 160 159 157
4.699079e-01 5.629543e-01 3.131078e+00 79 76 85
5.096797e-01 5.236542e-01 3.145558e+00 242 254 251
4.534411e-01 5.332516e-01 3.132281e+00 53 58 64
5.048539e-01 5.136391e-01 3.141706e+00 133 132 153
4.522752e-01 5.764447e-01 3.128265e+00 153 153 150
5.010027e-01 5.251350e-01 3.140521e+00 60 56 56
4.422859e-01 5.935479e-01 3.126878e+00 103 102 99
4.433631e-01 6.023571e-01 3.120868e+00 240 242 239
4.325948e-01 5.108025e-01 3.145647e+00 150 151 155
4.399320e-01 5.364821e-01 3.131374e+00 41 49 55
4.694793e-01 5.631750e-01 3.131190e+00 154 154 156
4.081721e-01 4.863053e-01 3.147371e+00 75 76 71
4.473279e-01 5.357193e-01 3.131829e+00 158 160 157
4.088316e-01 5.660368e-01 3.133130e+00 149 153 156
4.031296e-01 5.752876e-01 3.125409e+00 255 255 255
4.274054e-01 5.903374e-01 3.121750e+00 254 254 252
5.103145e-01 5.648589e-01 3.100462e+00 255 255 255
5.247013e-01 5.474851e-01 3.130286e+00 43 42 56
4.697405e-01 6.210303e-01 3.115392e+00 255 255 253
4.088629e-01 4.853792e-01 3.151909e+00 23 21 35
4.525309e-01 5.330885e-01 3.132478e+00 151 150 155
4.513861e-01 4.994450e-01 3.149223e+00 135 131 122
4.131024e-01 4.926006e-01 3.144355e+00 45 41 44
4.476557e-01 4.916534e-01 3.151324e+00 67 68 73
4.555268e-01 5.873670e-01 3.126482e+00 48 47 52
4.124206e-01 4.918264e-01 3.144104e+00 46 46 46
4.412580e-01 4.890507e-01 3.149856e+00 77 70 64
4.044714e-01 5.429810e-01 3.137252e+00 35 35 43
4.259426e-01 4.758598e-01 3.144546e+00 105 104 102
4.584384e-01 4.877748e-01 3.152057e+00 134 133 131
4.780375e-01 4.880905e-01 3.146093e+00 118 119 124
4.734148e-01 5.199886e-01 3.140498e+00 104 99 96
4.848859e-01 5.214971e-01 3.138069e+00 43 41 61
4.419948e-01 4.994845e-01 3.148346e+00 69 67 69
4.375264e-01 5.321144e-01 3.131506e+00 145 145 153
4.469298e-01 5.404345e-01 3.131279e+00 65 66 71
4.336874e-01 5.863053e-01 3.127558e+00 80 80 81
4.125611e-01 3.712338e-01 3.022495e+00 195 195 195
4.906324e-01 5.230869e-01 3.138133e+00 35 33 44
4.681392e-01 5.733787e-01 3.133104e+00 141 139 144
4.092968e-01 5.033235e-01 3.138607e+00 80 80 78
4.392552e-01 6.022058e-01 3.117744e+00 236 235 240
5.341372e-01 5.396701e-01 3.136061e+00 142 139 157
4.866986e-01 6.182393e-01 3.118500e+00 85 79 79
3.767518e-01 5.333387e-01 3.124607e+00 171 174 179
3.853110e-01 5.412935e-01 3.133126e+00 182 183 187
4.237074e-01 5.060443e-01 3.146308e+00 177 177 179
4.100714e-01 5.385911e-01 3.138596e+00 181 183 195
3.711183e-01 5.297100e-01 3.124856e+00 193 197 209
4.260261e-01 4.788231e-01 3.147094e+00 121 122 126
3.938075e-01 5.413883e-01 3.137259e+00 185 188 193
3.866540e-01 5.233787e-01 3.130248e+00 179 180 185
3.840123e-01 5.180009e-01 3.131565e+00 135 138 143
4.240901e-01 5.160194e-01 3.144636e+00 196 195 206
4.095270e-01 5.664563e-01 3.127009e+00 130 134 135
4.986912e-01 5.924446e-01 3.121627e+00 108 112 115
5.121717e-01 5.245830e-01 3.141003e+00 103 105 106
4.959630e-01 5.874826e-01 3.122935e+00 255 255 255
5.391029e-01 5.460119e-01 3.135721e+00 123 127 131
3.936535e-01 5.661618e-01 3.126153e+00 121 126 130
4.363950e-01 5.310770e-01 3.135201e+00 26 29 38
4.669042e-01 5.598458e-01 3.127819e+00 250 252 251
4.107861e-01 5.364295e-01 3.140466e+00 106 114 116
4.448366e-01 4.961870e-01 3.148888e+00 123 129 127
4.474943e-01 5.393865e-01 3.130723e+00 136 136 135
4.704586e-01 5.613273e-01 3.130762e+00 51 49 50
5.012155e-01 5.861661e-01 3.096553e+00 255 255 255
4.927689e-01 5.980232e-01 3.124375e+00 64 73 80
4.376651e-01 5.323456e-01 3.138918e+00 34 35 37
4.811699e-01 4.906985e-01 3.142818e+00 137 147 153
4.454327e-01 6.007069e-01 3.123809e+00 99 100 100
4.688553e-01 5.821204e-01 3.123876e+00 112 116 119
5.146553e-01 5.695112e-01 3.131519e+00 80 81 89
4.914686e-01 5.959386e-01 3.126274e+00 83 86 90
5.473750e-01 5.554011e-01 3.133448e+00 117 133 147
4.124549e-01 5.551118e-01 3.134825e+00 109 108 103
4.601818e-01 4.985379e-01 3.148136e+00 120 119 116
4.423799e-01 5.378584e-01 3.131400e+00 136 137 139
4.671734e-01 5.602106e-01 3.128384e+00 252 254 253
4.729725e-01 5.578842e-01 3.132554e+00 132 127 131
4.401402e-01 6.027385e-01 3.116288e+00 130 139 146
5.001067e-01 5.927221e-01 3.124707e+00 139 138 143
4.375291e-01 5.125594e-01 3.145558e+00 39 39 39
4.553114e-01 5.041522e-01 3.147476e+00 134 131 124
4.492822e-01 5.440462e-01 3.130118e+00 32 28 28
4.453924e-01 5.669784e-01 3.129572e+00 128 132 131
5.127216e-01 5.209390e-01 3.141519e+00 251 249 251
5.112754e-01 5.250156e-01 3.145613e+00 125 137 141
5.197403e-01 5.706644e-01 3.096680e+00 253 252 255
5.178532e-01 5.740831e-01 3.127083e+00 234 239 244
4.869464e-01 6.280165e-01 3.117347e+00 247 250 254
4.297223e-01 4.683621e-01 3.153826e+00 35 34 32
4.247310e-01 5.082086e-01 3.146156e+00 68 65 60
4.468248e-01 5.001276e-01 3.148467e+00 121 121 121
4.369268e-01 5.321312e-01 3.131941e+00 98 103 106
4.681602e-01 5.607267e-01 3.128794e+00 251 249 252
4.382634e-01 5.991838e-01 3.120988e+00 125 136 141
4.807934e-01 5.503120e-01 3.133381e+00 126 124 125
4.561836e-01 5.880839e-01 3.126208e+00 121 119 120
5.416381e-01 5.483625e-01 3.135370e+00 155 164 170
4.975240e-01 6.321736e-01 3.112676e+00 163 163 163
3.981757e-01 5.071926e-01 3.136668e+00 28 28 29
4.249411e-01 4.910029e-01 3.148966e+00 66 60 53
4.174227e-01 5.285437e-01 3.141881e+00 115 120 123
4.578210e-01 4.868162e-01 3.153154e+00 87 87 87
4.472419e-01 5.002717e-01 3.148559e+00 80 80 80
4.536290e-01 5.341538e-01 3.131973e+00 33 32 37
4.518987e-01 5.364167e-01 3.132149e+00 136 133 132
4.518987e-01 5.364167e-01 3.132149e+00 136 133 132
4.889337e-01 5.344723e-01 3.137391e+00 119 119 119
4.811187e-01 5.493248e-01 3.133739e+00 48 48 48
5.520504e-01 5.625377e-01 3.128402e+00 144 164 176
4.007847e-01 5.069311e-01 3.136933e+00 29 28 26
4.172943e-01 5.304517e-01 3.140836e+00 100 99 95
3.713388e-01 5.308434e-01 3.134014e+00 81 84 85
4.529814e-01 4.865056e-01 3.150983e+00 142 144 149
4.530845e-01 5.068567e-01 3.146528e+00 132 132 126
4.527140e-01 5.309631e-01 3.132370e+00 143 138 135
4.572452e-01 4.888352e-01 3.151318e+00 44 44 48
4.151960e-01 5.257985e-01 3.142071e+00 146 149 149
4.393888e-01 5.405587e-01 3.130776e+00 17 22 28
4.325353e-01 5.478405e-01 3.137418e+00 73 74 76
4.514918e-01 5.303062e-01 3.132960e+00 120 120 107
4.512545e-01 5.303548e-01 3.133427e+00 120 120 107
4.213170e-01 4.973971e-01 3.146718e+00 64 60 59
4.485091e-01 5.323048e-01 3.132741e+00 122 123 122
4.451717e-01 5.403726e-01 3.130652e+00 14 15 20
4.216544e-01 4.928616e-01 3.150066e+00 105 105 107
4.119296e-01 5.149644e-01 3.139602e+00 24 20 17
4.539323e-01 4.831089e-01 3.154213e+00 67 63 60
4.539323e-01 4.831089e-01 3.154213e+00 67 63 60
4.322874e-01 5.113521e-01 3.145865e+00 49 47 48
4.244131e-01 5.208704e-01 3.143557e+00 108 109 113
4.537028e-01 4.940092e-01 3.150680e+00 87 83 88
4.367956e-01 5.368791e-01 3.131252e+00 10 13 18
3.771732e-01 5.345693e-01 3.136818e+00 14 15 17
4.208544e-01 5.089358e-01 3.142082e+00 32 27 21
4.328795e-01 5.089226e-01 3.147375e+00 42 44 49
4.420548e-01 5.392917e-01 3.131006e+00 131 136 130
4.420098e-01 5.392966e-01 3.131122e+00 131 136 130
4.443697e-01 5.386566e-01 3.131636e+00 130 132 129
3.627368e-01 5.737342e-01 3.024686e+00 179 166 133
3.714454e-01 5.983960e-01 3.076316e+00 254 253 255
3.775916e-01 5.783480e-01 2.957364e+00 246 245 252
4.502769e-01 5.441408e-01 3.130362e+00 32 27 23
4.081333e-01 4.897038e-01 3.144994e+00 20 18 21
3.834328e-01 5.431840e-01 3.137136e+00 174 180 189
4.484451e-01 5.166588e-01 3.144946e+00 218 218 222
4.075580e-01 5.354873e-01 3.139687e+00 185 189 192
4.014671e-01 5.592944e-01 3.135716e+00 172 171 177
4.462000e-01 5.386144e-01 3.130734e+00 56 60 75
3.863641e-01 5.241733e-01 3.134847e+00 122 119 116
4.153568e-01 5.251423e-01 3.142629e+00 164 153 143
4.401775e-01 5.337712e-01 3.131466e+00 48 49 70
4.081312e-01 4.928814e-01 3.141813e+00 60 60 63
4.701194e-01 4.986382e-01 3.149933e+00 153 156 167
4.583635e-01 5.398043e-01 3.132592e+00 164 151 134
4.068773e-01 5.034933e-01 3.138324e+00 90 87 82
3.857881e-01 5.308162e-01 3.133415e+00 117 115 111
3.958048e-01 5.359039e-01 3.135147e+00 114 106 97
4.106286e-01 5.209180e-01 3.143139e+00 188 188 191
4.454157e-01 4.941874e-01 3.150813e+00 124 133 148
4.246061e-01 5.026423e-01 3.147683e+00 194 192 193
4.497178e-01 5.487769e-01 3.132629e+00 193 183 181
4.137310e-01 5.188952e-01 3.142464e+00 108 106 102
4.225938e-01 5.365879e-01 3.142019e+00 139 132 129
4.491523e-01 5.343086e-01 3.131893e+00 74 77 92
4.480839e-01 5.445767e-01 3.129698e+00 75 68 63
4.608268e-01 5.394858e-01 3.134696e+00 181 171 169
5.248280e-01 5.581766e-01 3.124988e+00 67 71 70
4.807940e-01 6.094636e-01 3.116301e+00 8 11 16
4.278799e-01 5.429152e-01 3.138810e+00 118 123 133
4.669597e-01 5.293552e-01 3.140888e+00 196 190 195
4.856944e-01 5.272877e-01 3.139001e+00 183 175 162
5.254550e-01 5.742145e-01 3.130228e+00 109 91 81
4.672744e-01 5.177204e-01 3.138678e+00 176 166 157
4.736470e-01 5.218449e-01 3.140234e+00 192 181 177
5.214498e-01 5.538223e-01 3.129183e+00 143 138 134
5.287669e-01 5.614104e-01 3.131981e+00 186 176 175
4.264360e-01 5.602106e-01 3.129567e+00 54 54 62
4.578588e-01 5.704364e-01 3.128278e+00 45 37 37
4.120904e-01 5.665233e-01 3.132372e+00 84 99 115
4.786290e-01 5.150093e-01 3.141494e+00 221 214 208
4.521008e-01 4.957008e-01 3.149921e+00 173 164 152
4.554002e-01 4.992798e-01 3.149736e+00 153 152 148
4.314267e-01 5.434330e-01 3.137890e+00 124 127 139
4.275595e-01 5.766109e-01 3.126110e+00 30 31 34
4.758096e-01 5.286153e-01 3.138024e+00 167 163 161
4.843956e-01 5.179354e-01 3.141758e+00 206 200 196
4.839871e-01 5.327890e-01 3.135402e+00 68 66 65
4.993685e-01 5.255523e-01 3.139794e+00 135 125 112
4.957127e-01 5.299419e-01 3.138806e+00 115 105 92
4.667421e-01 5.660338e-01 3.130746e+00 114 109 105
