ply
format ascii 1.0
element face 0
property list uchar int vertex_indices
element vertex 936
property float x
property float y
property float z
property uchar diffuse_red
property uchar diffuse_green
property uchar diffuse_blue
end_header
-5.945698e+00 -1.357737e+00 4.076032e+00 109 103 99
-7.942384e+00 -8.957450e-01 4.261496e+00 174 158 163
-8.438305e+00 -7.731757e-01 4.296743e+00 134 133 141
-4.264621e+00 -1.735653e+00 3.821896e+00 91 77 76
-4.264621e+00 -1.735653e+00 3.821896e+00 91 77 76
-4.415805e+00 -1.692318e+00 3.843609e+00 139 127 123
-4.289662e+00 -1.717620e+00 3.828013e+00 107 91 90
-5.277916e+00 -1.471556e+00 3.990465e+00 115 107 104
-5.277916e+00 -1.471556e+00 3.990465e+00 115 107 104
-1.080483e+01 -2.266539e-01 4.289372e+00 104 94 84
-5.808068e+00 -1.344433e+00 4.065933e+00 121 107 98
-5.396096e+00 -1.431012e+00 4.007744e+00 129 126 119
-8.378690e+00 -7.441545e-01 4.290935e+00 107 97 104
-4.502879e+00 -1.637372e+00 3.859712e+00 217 206 200
-5.333089e+00 -1.436458e+00 3.996969e+00 198 192 184
-5.975710e+00 -1.283619e+00 4.087644e+00 146 137 135
-5.975710e+00 -1.283619e+00 4.087644e+00 146 137 135
-5.953093e+00 -1.288649e+00 4.069429e+00 210 209 205
-5.857944e+00 -1.301191e+00 4.071557e+00 146 129 125
-5.395364e+00 -1.408061e+00 4.010566e+00 193 185 182
-8.468674e+00 -6.970439e-01 4.300611e+00 161 151 158
-5.320812e+00 -1.420523e+00 3.996120e+00 145 138 135
-5.320812e+00 -1.420523e+00 3.996120e+00 145 138 135
-5.456288e+00 -1.369642e+00 4.019670e+00 148 142 138
-7.599773e+00 -8.717386e-01 4.245773e+00 210 200 198
-3.965410e+00 -1.715597e+00 3.762951e+00 101 84 75
-3.988393e+00 -1.707716e+00 3.774660e+00 127 117 106
-7.818593e+00 -7.815830e-01 4.277194e+00 110 108 111
-3.813761e+00 -1.715668e+00 3.737724e+00 122 104 84
-3.813761e+00 -1.715668e+00 3.737724e+00 122 104 84
-5.341748e+00 -1.354397e+00 4.005519e+00 122 107 101
-3.816818e+00 -1.696577e+00 3.739797e+00 208 189 170
-7.115047e+00 -9.303084e-01 4.181145e+00 151 131 140
-4.920131e+00 -1.433054e+00 3.942072e+00 166 163 158
-3.945160e+00 -1.659599e+00 3.767727e+00 137 117 108
-8.502876e+00 -5.941543e-01 4.298356e+00 148 134 135
-7.410599e+00 -8.414918e-01 4.236322e+00 130 120 128
-8.771660e+00 -5.241067e-01 4.306694e+00 121 112 103
-1.606545e+00 -2.199698e+00 3.172083e+00 211 204 196
-4.374976e+00 -1.531623e+00 3.853599e+00 204 190 179
-9.905341e+00 -2.630333e-01 4.315311e+00 108 98 95
-5.757745e+00 -1.197784e+00 4.069995e+00 128 107 94
-8.052112e+00 -6.666099e-01 4.286214e+00 192 191 196
-4.764274e+00 -1.429070e+00 3.914937e+00 127 104 98
-8.021289e+00 -6.581016e-01 4.285379e+00 187 185 191
-6.718446e+00 -9.525646e-01 4.174467e+00 87 78 75
-5.810077e+00 -1.158534e+00 4.072938e+00 107 88 81
-5.842643e+00 -1.149864e+00 4.064755e+00 139 125 117
-2.825932e+00 -1.857274e+00 3.523077e+00 182 165 156
-5.311541e+00 -1.268372e+00 4.006552e+00 141 131 122
-5.311541e+00 -1.268372e+00 4.006552e+00 141 131 122
-8.410462e+00 -5.357357e-01 4.299568e+00 137 132 130
-5.393377e+00 -1.223772e+00 4.005971e+00 191 182 169
-7.109867e+00 -8.287708e-01 4.198920e+00 201 210 223
-5.296194e+00 -1.235653e+00 4.005516e+00 156 140 130
2.199549e+00 -3.021302e+00 2.109032e+00 90 78 78
-7.754067e+00 -6.284170e-01 4.266324e+00 106 96 97
-4.209375e+00 -1.443540e+00 3.831061e+00 132 111 97
-8.831374e+00 -3.751574e-01 4.321202e+00 100 89 87
1.951699e+00 -2.905926e+00 2.169511e+00 113 103 110
-4.238987e+00 -1.412650e+00 3.831658e+00 148 134 121
-7.398018e+00 -6.662148e-01 4.248987e+00 146 138 137
-3.717400e+00 -1.516523e+00 3.741836e+00 190 180 171
-5.907012e+00 -1.003014e+00 4.090947e+00 201 199 197
-6.954691e+00 -7.621677e-01 4.191798e+00 176 182 197
-6.954691e+00 -7.621677e-01 4.191798e+00 176 182 197
-1.688633e+00 -1.999212e+00 3.223099e+00 208 199 189
-4.233005e+00 -1.387138e+00 3.838112e+00 210 196 186
-4.233005e+00 -1.387138e+00 3.838112e+00 210 196 186
-4.266045e+00 -1.376596e+00 3.849981e+00 205 193 179
2.240711e+00 -2.928490e+00 2.095191e+00 126 106 107
-7.452688e+00 -6.284729e-01 4.265605e+00 157 146 139
-4.245447e+00 -1.370105e+00 3.848181e+00 144 130 121
-5.822355e+00 -1.004758e+00 4.086003e+00 109 94 81
-6.989930e+00 -7.363507e-01 4.194862e+00 196 196 219
-1.782280e+00 -1.949695e+00 3.247609e+00 118 101 94
-6.583758e+00 -8.006114e-01 4.108942e+00 163 161 164
-8.757126e+00 -2.893998e-01 4.318816e+00 103 97 81
-3.607044e+00 -1.471441e+00 3.715431e+00 182 164 142
-3.839266e+00 -1.418168e+00 3.756714e+00 183 170 173
-8.864876e+00 -2.568927e-01 4.317315e+00 124 114 107
-6.766004e+00 -7.333395e-01 4.155923e+00 147 147 153
-5.223681e+00 -1.085309e+00 3.994007e+00 200 187 171
-1.058950e+01 1.344579e-01 4.296513e+00 176 164 164
-1.510500e+00 -1.947973e+00 3.170558e+00 212 193 184
-1.034481e+01 1.033534e-01 4.334861e+00 107 93 100
-1.562898e+00 -1.916903e+00 3.188187e+00 121 96 86
-1.048784e+01 1.485950e-01 4.323502e+00 141 137 125
-8.021023e+00 -3.867095e-01 4.297815e+00 132 130 126
-5.175257e+00 -1.028841e+00 4.010878e+00 183 176 178
-7.421225e+00 -5.051422e-01 4.260250e+00 125 110 107
-1.047342e+01 1.872223e-01 4.307212e+00 104 95 93
-1.051563e+01 1.981367e-01 4.308576e+00 130 122 120
-4.105171e+00 -1.262514e+00 3.829266e+00 134 120 117
-4.105171e+00 -1.262514e+00 3.829266e+00 134 120 117
-7.525885e+00 -4.610195e-01 4.273706e+00 145 141 136
1.842789e+00 -2.651415e+00 2.203319e+00 176 171 152
-8.793924e+00 -1.539170e-01 4.322366e+00 182 165 158
-1.010932e+01 1.380632e-01 4.324234e+00 175 174 157
-9.557408e+00 2.200102e-02 4.324048e+00 153 149 136
-1.037158e+01 2.053612e-01 4.306643e+00 147 131 134
-7.006453e+00 -5.386616e-01 4.229942e+00 147 143 152
-7.291745e+00 -4.733767e-01 4.229052e+00 196 193 194
-7.299811e+00 -4.566103e-01 4.231973e+00 115 108 108
-1.037564e+01 2.384065e-01 4.319594e+00 100 86 83
-1.004718e+01 1.745036e-01 4.325806e+00 148 150 142
1.498945e+00 -2.501329e+00 2.276136e+00 173 159 159
-1.008183e+01 1.923214e-01 4.319389e+00 135 140 145
-5.800600e+00 -7.766828e-01 4.093856e+00 126 117 108
-5.693414e+00 -7.987748e-01 4.076354e+00 128 113 101
-6.742949e+00 -5.590226e-01 4.177975e+00 180 184 199
-7.342150e+00 -4.170016e-01 4.221056e+00 83 67 68
-5.346892e+00 -8.620819e-01 4.034039e+00 219 212 204
-8.324898e+00 -1.685959e-01 4.301543e+00 118 103 90
-8.562613e+00 -1.138742e-01 4.323310e+00 132 125 113
-3.127113e+00 -1.364066e+00 3.630993e+00 131 111 104
-7.567045e+00 -3.316017e-01 4.271804e+00 188 172 172
-6.440999e+00 -5.907002e-01 4.137080e+00 213 216 233
-7.955067e+00 -2.305363e-01 4.304155e+00 179 167 167
-5.707874e+00 -7.491410e-01 4.080363e+00 199 184 175
-3.130927e+00 -1.329263e+00 3.627920e+00 149 133 126
-5.725051e+00 -7.176506e-01 4.090951e+00 197 187 177
-6.912650e+00 -4.421481e-01 4.205874e+00 212 215 230
2.349548e+00 -2.585393e+00 2.067680e+00 122 112 103
-9.865316e+00 2.579761e-01 4.324321e+00 175 170 148
-8.069842e+00 -1.418038e-01 4.304620e+00 154 150 144
-7.287296e+00 -3.128145e-01 4.231209e+00 183 180 175
-4.135605e+00 -1.036857e+00 3.847386e+00 182 164 138
-3.720783e+00 -1.119997e+00 3.764497e+00 185 169 155
-1.092322e+01 5.293759e-01 4.301055e+00 203 202 211
-3.696879e+00 -1.118064e+00 3.760735e+00 101 80 69
-9.406122e+00 2.188875e-01 4.332867e+00 95 80 73
-7.457922e+00 -2.136503e-01 4.252938e+00 197 188 193
-6.414080e+00 -4.301169e-01 4.151375e+00 135 128 142
-5.655621e+00 -5.896574e-01 4.085688e+00 125 108 97
1.386003e+00 -2.211302e+00 2.306872e+00 122 107 104
-5.772723e+00 -5.523928e-01 4.095558e+00 220 212 210
-7.990376e+00 -1.522133e-02 4.305204e+00 158 148 146
-5.606977e+00 -5.509488e-01 4.084197e+00 120 105 92
-5.749538e+00 -5.092035e-01 4.092468e+00 130 119 112
-7.676602e+00 -4.589310e-02 4.289153e+00 150 137 128
-2.947910e+00 -1.117180e+00 3.600882e+00 97 79 65
-4.601181e+00 -7.329967e-01 3.933465e+00 193 178 153
-4.700544e+00 -6.994272e-01 3.951236e+00 202 184 164
-4.560452e+00 -7.302716e-01 3.934958e+00 180 168 143
-7.471616e+00 -6.263079e-02 4.250780e+00 200 190 190
-7.631024e+00 -1.679319e-02 4.292658e+00 124 111 103
-7.450124e+00 -5.458366e-02 4.266293e+00 145 135 134
-2.135043e+00 -1.276863e+00 3.392400e+00 132 113 98
-6.358069e+00 -3.040140e-01 4.164764e+00 182 170 180
-6.283598e+00 -3.202939e-01 4.143404e+00 189 179 179
-6.283598e+00 -3.202939e-01 4.143404e+00 189 179 179
-6.262819e+00 -3.191251e-01 4.150377e+00 104 98 95
-8.463931e+00 1.953016e-01 4.317316e+00 182 167 164
-8.463931e+00 1.953016e-01 4.317316e+00 182 167 164
-1.992102e+00 -1.290791e+00 3.359349e+00 147 130 112
-5.118883e+00 -5.461539e-01 4.016486e+00 96 84 74
-5.118883e+00 -5.461539e-01 4.016486e+00 96 84 74
-5.222666e+00 -5.150841e-01 4.024368e+00 207 197 179
-5.222666e+00 -5.150841e-01 4.024368e+00 207 197 179
2.288447e+00 -2.225879e+00 2.093709e+00 161 154 148
-7.491509e+00 1.462655e-02 4.272341e+00 180 163 163
-3.520426e+00 -8.834625e-01 3.736231e+00 99 73 49
-6.644586e+00 -1.591574e-01 4.179272e+00 81 87 101
-4.075997e+00 -7.461096e-01 3.841706e+00 115 92 84
-6.350305e+00 -2.228064e-01 4.164111e+00 141 135 135
-1.782107e+00 -1.259686e+00 3.306921e+00 135 109 92
-3.573227e+00 -8.439466e-01 3.749486e+00 187 160 139
-4.507588e+00 -6.253074e-01 3.928811e+00 119 101 86
-6.626617e+00 -1.400237e-01 4.175347e+00 211 223 232
-6.967620e+00 -6.085282e-02 4.206630e+00 105 102 90
-7.395404e+00 4.218011e-02 4.263025e+00 100 78 91
-4.542997e+00 -6.097739e-01 3.928568e+00 210 188 170
-8.697144e+00 3.470167e-01 4.326999e+00 83 68 55
-6.586075e+00 -1.336640e-01 4.184402e+00 172 189 190
-6.474087e+00 -1.546222e-01 4.160490e+00 208 206 220
-4.970283e+00 -4.934282e-01 3.997966e+00 194 181 165
-4.130728e+00 -6.797319e-01 3.855162e+00 205 188 172
-8.694183e+00 3.705669e-01 4.331260e+00 151 137 124
-7.522394e+00 1.040061e-01 4.283977e+00 168 149 151
-9.744466e+00 6.099754e-01 4.319714e+00 150 135 119
-9.892298e+00 6.677138e-01 4.335153e+00 130 113 106
-7.072424e+00 3.107851e-02 4.236129e+00 137 137 135
-8.757054e+00 4.325010e-01 4.334758e+00 113 102 95
-7.342923e+00 1.067130e-01 4.253253e+00 143 132 145
-1.856282e+00 -1.140907e+00 3.336038e+00 128 110 104
-4.001470e+00 -6.463192e-01 3.842691e+00 198 178 153
-9.975873e+00 7.481748e-01 4.332756e+00 87 75 64
-9.025075e+00 5.345892e-01 4.331745e+00 126 107 99
-5.488944e+00 -2.802165e-01 4.062131e+00 142 125 115
-7.637845e+00 2.303634e-01 4.283777e+00 197 185 180
-3.096088e+00 -8.071831e-01 3.654150e+00 181 157 148
-6.609606e+00 -5.627216e-04 4.211627e+00 151 138 149
-3.954705e+00 -6.096465e-01 3.829896e+00 214 200 183
-9.948637e+00 7.735503e-01 4.326115e+00 98 88 79
-9.483452e+00 6.979447e-01 4.332139e+00 182 171 143
-7.585426e+00 2.681412e-01 4.274717e+00 123 108 112
-4.584551e+00 -4.162797e-01 3.944086e+00 136 126 124
-4.584551e+00 -4.162797e-01 3.944086e+00 136 126 124
-6.255771e+00 -2.345666e-02 4.152173e+00 211 222 233
-8.025625e+00 3.864452e-01 4.300835e+00 125 112 103
-8.146964e+00 4.170281e-01 4.317605e+00 180 164 153
-3.855763e+00 -5.680569e-01 3.814893e+00 180 159 144
-4.571839e+00 -3.992538e-01 3.945854e+00 207 198 200
-4.571839e+00 -3.992538e-01 3.945854e+00 207 198 200
-8.123871e+00 4.253998e-01 4.307820e+00 130 114 99
-9.841412e+00 8.201313e-01 4.307797e+00 158 144 144
-2.175437e+00 -9.241103e-01 3.420992e+00 142 120 105
-8.605881e+00 5.463084e-01 4.305641e+00 181 168 158
-9.949095e+00 8.607233e-01 4.333404e+00 176 164 168
-7.352918e+00 2.693609e-01 4.248575e+00 221 207 209
-9.875389e+00 8.542690e-01 4.328120e+00 118 116 98
-7.387969e+00 2.805426e-01 4.254271e+00 189 177 176
-8.905069e+00 6.538490e-01 4.320432e+00 70 52 38
-9.821947e+00 8.665252e-01 4.317630e+00 146 135 125
-2.769104e+00 -7.450031e-01 3.577716e+00 172 147 143
-2.802947e+00 -7.179377e-01 3.593042e+00 97 73 67
-6.420098e+00 1.038569e-01 4.179217e+00 174 179 191
-3.589651e+00 -5.348697e-01 3.770653e+00 205 192 183
-9.841953e+00 9.066214e-01 4.316353e+00 149 136 130
-1.699274e+00 -9.475889e-01 3.299401e+00 114 98 99
-8.355208e+00 5.708244e-01 4.324628e+00 144 126 112
-9.815875e+00 9.110187e-01 4.327400e+00 83 70 62
-9.815875e+00 9.110187e-01 4.327400e+00 83 70 62
-4.489915e+00 -3.106706e-01 3.928775e+00 184 181 176
-4.489915e+00 -3.106706e-01 3.928775e+00 184 181 176
-9.836859e+00 9.346421e-01 4.319822e+00 94 86 75
-3.540587e+00 -5.000970e-01 3.759930e+00 167 158 153
-6.569343e+00 1.859040e-01 4.185040e+00 173 171 191
-9.815677e+00 9.379981e-01 4.325358e+00 156 146 135
-3.923492e+00 -4.121275e-01 3.833303e+00 126 110 96
-6.811503e+00 2.502835e-01 4.200051e+00 172 170 184
-8.348684e+00 6.113729e-01 4.319490e+00 164 147 125
-6.444889e+00 1.760399e-01 4.162915e+00 239 238 254
-6.594489e+00 2.127333e-01 4.183610e+00 149 150 165
-6.525886e+00 2.107749e-01 4.172084e+00 211 211 219
-2.739930e-01 -1.188149e+00 2.865483e+00 165 148 137
-1.641009e+00 -8.884618e-01 3.279861e+00 113 90 81
-2.160835e+00 -7.187718e-01 3.433507e+00 172 153 142
-6.443683e+00 2.536455e-01 4.161811e+00 222 223 233
2.339613e+00 -1.684851e+00 2.066291e+00 151 138 132
-2.960076e+00 -5.180447e-01 3.625864e+00 181 170 167
-4.385068e+00 -1.877774e-01 3.917925e+00 140 119 97
1.991700e+00 -1.567927e+00 2.161785e+00 119 98 100
-8.796352e+00 8.501335e-01 4.324772e+00 158 144 136
2.681119e+00 -1.700565e+00 1.988319e+00 95 79 77
-3.893833e+00 -2.616073e-01 3.833915e+00 148 132 121
-6.710924e+00 3.869196e-01 4.190237e+00 138 124 132
-2.857991e+00 -4.757778e-01 3.605214e+00 130 102 81
-3.403682e+00 -3.527843e-01 3.735687e+00 142 124 115
-4.835906e+00 2.739663e-04 4.000921e+00 206 194 169
-6.628677e+00 4.100594e-01 4.186498e+00 187 178 184
2.233269e+00 -1.524688e+00 2.097806e+00 103 88 81
-2.441706e+00 -5.132288e-01 3.518600e+00 128 110 95
-3.890142e+00 -1.829788e-01 3.821290e+00 147 129 124
-9.643822e+00 1.145478e+00 4.328956e+00 96 90 83
-5.447160e+00 1.791888e-01 4.068749e+00 195 182 174
-3.686074e+00 -2.123272e-01 3.805361e+00 171 153 133
-4.856745e+00 7.027298e-02 4.006126e+00 161 151 142
-9.674584e+00 1.177851e+00 4.326298e+00 102 88 88
-9.674185e+00 1.196731e+00 4.340373e+00 183 172 172
-4.260009e+00 -2.977631e-02 3.893299e+00 103 85 74
-6.336983e+00 4.577299e-01 4.156214e+00 134 140 136
-5.360605e+00 2.593710e-01 4.059656e+00 136 119 112
-5.330751e+00 2.577393e-01 4.057901e+00 204 196 181
-9.072371e+00 1.121192e+00 4.321406e+00 139 133 105
-9.646823e+00 1.256515e+00 4.341091e+00 141 138 129
-4.300452e+00 3.233611e-02 3.911374e+00 199 182 172
-4.360915e+00 4.561722e-02 3.920665e+00 184 171 162
-5.277690e+00 2.549648e-01 4.048941e+00 130 115 99
-6.264161e+00 4.791763e-01 4.154093e+00 193 205 205
-5.211630e+00 2.444605e-01 4.047691e+00 218 200 186
-9.628566e+00 1.262820e+00 4.319247e+00 184 178 163
-5.357967e+00 2.783543e-01 4.060083e+00 201 185 178
-9.428094e+00 1.236511e+00 4.331420e+00 183 170 166
-3.113276e+00 -2.068568e-01 3.662600e+00 111 91 79
-3.672672e+00 -7.376070e-02 3.787119e+00 199 177 160
-3.113835e+00 -1.853042e-01 3.680877e+00 188 173 155
-8.327757e-01 -6.764850e-01 3.064522e+00 102 77 54
-5.433846e+00 3.497376e-01 4.050566e+00 185 173 167
-1.987844e+00 -3.997435e-01 3.407436e+00 117 88 68
2.459696e+00 -1.328084e+00 2.027827e+00 114 101 95
-4.794758e-01 -7.121733e-01 2.948935e+00 192 181 173
-4.665709e+00 1.981824e-01 3.953417e+00 108 88 74
-9.345335e+00 1.285086e+00 4.319422e+00 106 83 78
-1.977067e+00 -3.827034e-01 3.385856e+00 168 143 120
-5.407637e+00 3.771610e-01 4.061826e+00 207 200 188
-5.200753e-01 -6.714803e-01 2.971059e+00 112 102 92
-4.639308e+00 2.260915e-01 3.949449e+00 140 123 107
-9.477846e+00 1.348021e+00 4.340385e+00 140 130 120
-2.736044e+00 -1.862400e-01 3.592393e+00 200 172 176
2.391411e+00 -1.267711e+00 2.053093e+00 79 64 57
-3.451074e-01 -6.973888e-01 2.899179e+00 202 183 174
-3.451074e-01 -6.973888e-01 2.899179e+00 202 183 174
-3.140882e+00 -6.049092e-02 3.700065e+00 117 96 78
-1.215240e+00 -4.680713e-01 3.166646e+00 194 174 159
-4.817475e+00 3.282450e-01 3.975509e+00 169 163 158
-4.817475e+00 3.282450e-01 3.975509e+00 169 163 158
-2.191305e+00 -2.377044e-01 3.467110e+00 118 92 69
-8.866739e+00 1.282929e+00 4.317868e+00 141 125 116
-4.674087e+00 3.223740e-01 3.964087e+00 206 187 174
-8.903069e+00 1.320317e+00 4.326844e+00 115 99 92
-2.966641e+00 -2.781355e-02 3.651213e+00 182 162 137
-5.080953e-01 -5.401224e-01 2.957659e+00 173 165 153
-3.575656e+00 1.174425e-01 3.772597e+00 192 176 163
-9.183563e+00 1.401379e+00 4.313243e+00 179 160 153
-2.151971e+00 -1.886685e-01 3.462279e+00 124 95 76
-3.621314e+00 1.764135e-01 3.777451e+00 207 188 178
-5.366832e+00 5.763734e-01 4.058006e+00 166 157 148
-4.783326e+00 4.515882e-01 3.976549e+00 168 158 148
-5.308043e+00 5.819982e-01 4.046627e+00 207 192 178
-3.606172e+00 2.055574e-01 3.773296e+00 215 197 187
-5.289491e+00 6.052769e-01 4.035383e+00 223 205 194
-5.289491e+00 6.052769e-01 4.035383e+00 223 205 194
-8.832022e+00 1.426853e+00 4.311321e+00 141 132 104
6.587405e-03 -5.130247e-01 2.798859e+00 119 91 81
-4.663146e+00 5.002288e-01 3.974845e+00 135 120 113
-1.973292e+00 -4.701025e-02 3.405622e+00 111 81 70
-5.265177e+00 6.760970e-01 4.032782e+00 167 153 144
-3.047466e+00 2.014455e-01 3.663974e+00 151 137 114
-3.504245e+00 3.443701e-01 3.754730e+00 195 174 150
-3.138514e-01 -3.012678e-01 2.913711e+00 198 180 166
3.841119e-01 -4.398191e-01 2.688889e+00 140 132 122
-3.469155e+00 3.762048e-01 3.756462e+00 205 187 169
-2.403368e+00 1.658297e-01 3.523615e+00 154 141 143
-5.109722e+00 7.677534e-01 4.018975e+00 156 141 122
-8.990509e+00 1.669779e+00 4.307633e+00 121 103 94
-2.898267e+00 2.992996e-01 3.629907e+00 221 196 176
-7.927889e-01 -1.350416e-01 3.066062e+00 168 141 126
-8.168079e-01 -9.823868e-02 3.069898e+00 198 187 160
-7.764560e-01 -9.260818e-02 3.074327e+00 181 166 153
3.925081e-01 -3.013417e-01 2.682426e+00 138 126 117
3.214298e-01 -2.672928e-01 2.713229e+00 150 145 137
-2.140659e-02 -1.854391e-01 2.821852e+00 208 192 176
-1.882097e+00 1.947949e-01 3.391995e+00 118 93 71
-1.753961e+00 1.756707e-01 3.346823e+00 97 68 47
-9.511895e-01 1.393250e-02 3.115729e+00 97 77 70
-3.456022e+00 5.371863e-01 3.750531e+00 188 169 138
-3.022599e+00 4.568936e-01 3.673195e+00 149 129 117
-3.435628e+00 5.621853e-01 3.734488e+00 209 186 166
-3.325990e+00 5.444369e-01 3.721826e+00 153 136 119
-2.157815e+00 3.128158e-01 3.453185e+00 158 138 119
-8.010821e-01 5.368480e-02 3.075260e+00 130 123 113
-5.000069e+00 9.524720e-01 3.997243e+00 140 124 102
-4.875986e+00 9.624020e-01 3.974415e+00 141 123 99
-3.238914e+00 6.249650e-01 3.703992e+00 158 136 116
-2.881160e+00 5.571750e-01 3.622381e+00 188 169 159
-5.933117e-01 1.000863e-01 2.998260e+00 185 180 184
-4.353355e+00 9.275174e-01 3.894319e+00 183 166 141
-2.844638e+00 6.050299e-01 3.621286e+00 135 114 93
-1.119023e+00 2.576893e-01 3.169562e+00 151 129 125
-4.427397e+00 9.747846e-01 3.918463e+00 196 175 161
-5.017696e+00 1.151429e+00 3.973743e+00 197 184 173
-5.017696e+00 1.151429e+00 3.973743e+00 197 184 173
-1.433061e+00 4.151148e-01 3.212866e+00 182 154 132
-1.671157e+00 4.603108e-01 3.310324e+00 202 183 168
5.630018e-01 5.646390e-02 2.638016e+00 182 174 157
-4.817606e+00 1.230152e+00 3.950004e+00 184 171 163
3.982001e-01 1.765681e-01 2.692374e+00 192 169 186
-4.716347e+00 1.247754e+00 3.941233e+00 160 144 122
-4.716347e+00 1.247754e+00 3.941233e+00 160 144 122
-1.561075e+00 5.956723e-01 3.292256e+00 194 177 151
3.691100e-01 2.293132e-01 2.702818e+00 143 125 111
3.691100e-01 2.293132e-01 2.702818e+00 143 125 111
-4.816019e+00 1.282932e+00 3.954451e+00 163 146 135
-1.455069e+00 6.114898e-01 3.263753e+00 179 159 132
-4.079723e+00 1.188751e+00 3.825320e+00 162 140 132
-3.677697e+00 1.106628e+00 3.762577e+00 188 166 146
-2.199688e+00 8.181395e-01 3.446835e+00 155 138 118
-4.725492e+00 1.351299e+00 3.932934e+00 208 193 175
-4.066275e+00 1.209807e+00 3.817457e+00 169 146 141
4.578294e-01 3.188147e-01 2.663194e+00 193 181 174
-5.395432e-01 5.137901e-01 2.997424e+00 158 134 120
-4.756868e+00 1.378974e+00 3.933168e+00 204 192 178
-3.476845e+00 1.110902e+00 3.724538e+00 147 124 108
-3.658729e+00 1.175718e+00 3.759250e+00 218 200 180
-3.070001e+00 1.096547e+00 3.646133e+00 172 161 152
-3.070001e+00 1.096547e+00 3.646133e+00 172 161 152
-1.386200e+00 8.035537e-01 3.257367e+00 135 114 93
-4.709657e+00 1.495564e+00 3.916018e+00 136 117 103
1.169996e+00 3.387553e-01 2.422696e+00 143 122 127
-4.682183e+00 1.526024e+00 3.915707e+00 143 122 108
-4.229300e+00 1.445330e+00 3.840973e+00 217 205 211
-3.576404e-01 6.903828e-01 2.940452e+00 174 157 141
-2.218001e+00 1.043900e+00 3.460281e+00 189 169 139
1.756272e-01 5.940704e-01 2.771339e+00 122 106 112
-3.643517e+00 1.339933e+00 3.747415e+00 214 202 182
-2.329642e+00 1.077159e+00 3.475422e+00 179 158 139
-2.306455e+00 1.077257e+00 3.475809e+00 131 110 89
-1.835069e+00 9.956754e-01 3.362750e+00 174 151 121
-4.170287e+00 1.477846e+00 3.828575e+00 208 197 189
-2.311955e+00 1.097179e+00 3.471301e+00 166 139 122
-3.357220e+00 1.332792e+00 3.697388e+00 146 124 98
-4.013758e+00 1.479357e+00 3.798550e+00 128 104 84
-4.071265e+00 1.519859e+00 3.813395e+00 158 142 123
-2.865141e+00 1.284711e+00 3.590725e+00 167 143 128
-2.836418e+00 1.290809e+00 3.584126e+00 213 189 170
-3.919970e+00 1.553433e+00 3.784964e+00 204 187 162
-4.433884e+00 1.691159e+00 3.856322e+00 154 135 115
1.809272e+00 5.273918e-01 2.219506e+00 93 83 84
2.038504e+00 5.439327e-01 2.137441e+00 99 81 65
-2.104231e+00 1.295521e+00 3.419429e+00 146 127 120
-4.027699e+00 1.707192e+00 3.797070e+00 175 162 156
-1.585708e+00 1.243305e+00 3.278496e+00 178 152 124
-1.949489e+00 1.338355e+00 3.375361e+00 186 162 134
-4.054313e+00 1.758558e+00 3.793559e+00 170 152 150
-1.905737e+00 1.378270e+00 3.355125e+00 191 165 150
-3.951420e+00 1.791058e+00 3.768112e+00 169 154 147
-4.345541e+00 1.931794e+00 3.827884e+00 198 181 165
1.000739e+00 9.279002e-01 2.488370e+00 119 98 80
-3.220081e+00 1.723554e+00 3.633360e+00 188 163 154
-1.079466e+01 3.470470e+00 4.331317e+00 107 107 107
-1.926973e+00 1.495315e+00 3.351044e+00 171 148 119
-3.221427e+00 1.764157e+00 3.645367e+00 209 201 189
-3.178854e+00 1.769631e+00 3.626348e+00 130 116 106
-3.178854e+00 1.769631e+00 3.626348e+00 130 116 106
-2.533799e+00 1.655981e+00 3.506041e+00 174 158 140
2.202850e+00 8.454064e-01 2.084885e+00 148 135 126
-3.731741e+00 1.959154e+00 3.727407e+00 200 183 175
-3.747193e+00 1.989040e+00 3.714906e+00 198 181 171
6.068891e-01 1.184556e+00 2.608755e+00 71 51 44
-3.111128e+00 1.889388e+00 3.609636e+00 204 192 174
1.620135e+00 1.047288e+00 2.263538e+00 99 86 69
-4.263132e+00 2.143310e+00 3.801118e+00 214 205 188
-2.522798e+00 1.802942e+00 3.482281e+00 117 91 86
-3.072940e+00 1.913063e+00 3.587373e+00 157 135 122
-4.420919e+00 2.192469e+00 3.812273e+00 178 169 167
2.172556e+00 9.943562e-01 2.082997e+00 206 192 175
-2.528156e+00 1.841384e+00 3.487883e+00 113 97 75
-2.840418e+00 1.910620e+00 3.544817e+00 171 145 129
-2.592846e+00 1.872681e+00 3.499978e+00 135 121 105
-4.189667e+00 2.201181e+00 3.835600e+00 206 185 169
-2.555204e+00 1.872027e+00 3.492200e+00 96 84 65
-3.574422e+00 2.097518e+00 3.678753e+00 191 171 147
1.463973e+00 1.209537e+00 2.322910e+00 167 144 131
-2.911670e+00 1.982300e+00 3.559224e+00 169 150 133
7.590328e-01 1.357087e+00 2.560416e+00 189 166 149
7.590328e-01 1.357087e+00 2.560416e+00 189 166 149
-1.169061e+00 1.686671e+00 3.134759e+00 152 134 111
-3.604343e+00 2.151546e+00 3.680001e+00 137 117 106
-4.106658e+00 2.256426e+00 3.754030e+00 118 101 76
2.375692e+00 1.100743e+00 2.015091e+00 125 113 96
1.999764e+00 1.161439e+00 2.132535e+00 119 101 86
8.181391e-01 1.362171e+00 2.542345e+00 118 96 73
7.501454e-01 1.374998e+00 2.551531e+00 100 75 68
-2.154366e+00 1.885102e+00 3.396011e+00 155 130 106
-2.371723e+00 1.925197e+00 3.435617e+00 163 144 131
2.497882e+00 1.109777e+00 1.969478e+00 182 173 171
-4.312518e+00 4.845839e+00 8.100073e+00 189 193 193
-2.605750e+00 1.982146e+00 1.691804e+01 195 186 177
-3.058928e-01 3.484036e+00 1.563152e+01 188 179 172
-4.576403e+00 4.976989e+00 8.353869e+00 49 49 49
-8.422156e-01 4.681093e+00 1.249750e+01 64 60 63
3.121920e+00 -1.277411e-01 8.809122e+00 215 212 211
-3.740975e+00 4.641828e+00 8.729987e+00 54 55 59
7.989345e+00 -6.745939e-02 -2.624680e+01 153 144 135
1.146518e+01 8.216720e-01 -6.214174e+00 100 89 85
1.000973e+01 2.321412e+00 -1.661985e+01 138 128 120
3.016981e+00 5.181428e+00 -1.928860e+00 93 81 72
1.780328e+00 4.907132e+00 9.475981e-01 164 157 147
2.261665e+00 4.885245e+00 3.219348e+00 178 173 170
2.386225e-01 3.790122e+00 8.343857e+00 219 216 211
-5.611465e+00 5.326693e+00 4.996666e+00 88 86 88
-5.264596e+00 5.279931e+00 6.063625e+00 18 13 17
-5.890868e+00 5.354532e+00 4.137774e+00 119 115 116
-4.369569e+00 4.436886e+00 9.224986e+00 107 107 110
-1.182724e+01 1.898067e+00 9.779377e+00 109 120 128
-9.161579e+00 5.894884e+00 1.663338e+01 134 136 140
-9.200911e+00 8.847673e+00 1.542669e+01 153 157 162
-7.267187e+00 4.509505e+00 1.351701e+01 121 129 126
-8.996551e+00 5.140472e+00 1.610197e+01 82 83 78
-9.094501e+00 9.057626e+00 1.549017e+01 92 93 90
-8.972167e+00 3.791553e+00 1.964624e+01 115 115 103
-6.629327e+00 2.570198e+00 1.832246e+01 37 35 37
-5.131010e+00 1.051320e+01 1.524004e+01 131 139 140
-9.044075e+00 3.902684e+00 1.957359e+01 82 82 80
-5.608891e+00 8.221995e+00 1.603110e+01 67 66 64
-1.200942e+01 8.847322e+00 1.751527e+01 137 138 133
-1.169591e+01 5.528848e+00 -6.888018e-02 47 52 56
-6.133881e+00 1.198879e+01 1.693473e+01 55 59 67
-7.034985e+00 9.792914e+00 1.795447e+01 144 144 141
-8.023799e+00 1.140934e+01 1.230950e+01 168 110 86
-1.080835e+01 9.974786e+00 1.990028e+01 118 122 125
-1.436303e+01 1.082753e+01 2.114206e+01 7 5 18
-7.431500e+00 5.769730e+00 6.145164e+00 87 81 81
-1.341985e+01 3.951004e+00 8.856850e+00 87 89 101
-9.418213e+00 9.677594e+00 5.958069e+00 128 133 136
-1.182647e+01 5.024029e+00 1.436830e+01 115 115 117
-1.340786e+01 7.396461e+00 1.449678e+01 42 39 32
-1.313071e+01 7.929510e+00 1.612161e+01 97 97 99
-1.013664e+01 7.719678e+00 1.718964e+01 93 89 88
-1.132249e+01 8.668319e+00 1.691520e+01 2 5 9
-4.771240e+00 6.929511e+00 6.344194e+00 95 91 90
-1.351773e+01 4.819686e+00 9.396561e+00 95 95 105
-2.185290e+00 6.549006e+00 4.105057e+00 105 105 107
-9.146181e+00 5.645402e+00 6.131921e+00 90 88 89
-9.445792e+00 5.667604e+00 6.463856e+00 29 23 23
-7.674601e+00 5.453688e+00 9.143974e+00 111 111 107
5.616137e+00 1.082339e+01 4.858360e+00 88 85 81
-1.113105e+01 8.778016e+00 1.724079e+01 116 110 112
-1.454461e+01 9.008016e+00 1.819347e+01 86 93 99
-1.282413e+01 1.299906e+01 2.334576e+01 129 130 134
-9.351089e+00 4.128117e+00 4.940325e+00 91 95 98
2.773590e-02 6.486452e+00 5.509975e+00 121 118 125
-6.931277e+00 4.650369e+00 6.639156e+00 9 3 7
-8.016869e+00 3.939026e+00 9.380702e+00 103 100 103
-1.298238e+01 2.977983e+00 8.272176e+00 82 85 88
-6.398223e+00 5.944930e+00 8.201400e+00 33 29 29
-1.116732e+01 5.741508e+00 8.503153e+00 64 64 69
3.633365e+00 1.106654e+01 1.155551e+01 117 117 121
-1.321566e+01 6.485983e+00 1.225848e+01 128 128 128
-8.350049e+00 5.107713e+00 1.945366e+01 80 76 72
-1.225574e+01 1.250056e+01 2.264887e+01 44 43 49
-8.688694e+00 5.068825e+00 5.297752e+00 35 33 38
-1.308190e+01 2.835365e+00 8.562956e+00 4 6 3
-7.413838e+00 6.470589e+00 6.217731e+00 13 11 13
-1.338082e+01 2.694468e+00 8.877204e+00 18 18 20
-8.563967e+00 6.123761e+00 6.332567e+00 11 7 6
-7.374314e+00 6.507168e+00 7.307647e+00 21 19 14
-8.993673e+00 6.515678e+00 8.941830e+00 72 72 76
-1.388496e+01 4.189166e+00 9.385318e+00 40 39 37
-1.159165e+01 5.794391e+00 8.825599e+00 50 45 41
-1.210958e+01 6.056983e+00 9.532944e+00 90 87 94
-3.481272e+00 1.060801e+01 1.565819e+01 135 137 136
-1.272342e+01 7.663575e+00 1.529915e+01 6 7 12
-1.102986e+01 8.234335e+00 1.564564e+01 14 13 22
-1.102986e+01 8.234335e+00 1.564564e+01 14 13 22
-1.276928e+01 7.918394e+00 1.598387e+01 1 4 9
-1.040958e+01 7.678498e+00 1.716980e+01 71 68 75
-8.790064e+00 8.421389e+00 1.789607e+01 78 74 70
-1.336581e+01 1.191570e+01 2.202142e+01 68 68 67
-6.801999e+00 1.682451e+01 2.604486e+01 190 217 238
-1.014305e+01 3.886655e+00 5.496411e+00 19 19 20
-1.021669e+01 4.172030e+00 5.463835e+00 29 26 24
-9.120351e+00 5.083354e+00 5.387617e+00 106 105 105
-4.584144e+00 6.585267e+00 5.095363e+00 118 116 113
-6.032203e+00 6.181878e+00 5.380764e+00 18 11 15
-1.188230e+01 3.604781e+00 7.068380e+00 9 11 13
-1.281964e+01 2.686112e+00 8.290245e+00 95 98 98
-1.215078e+01 3.939108e+00 7.151351e+00 78 76 78
-1.204028e+01 4.104934e+00 7.101264e+00 11 11 9
-1.130066e+01 4.683536e+00 6.684167e+00 9 7 11
-1.130606e+01 4.690199e+00 6.669346e+00 9 7 11
-1.259663e+01 4.038385e+00 7.653181e+00 87 83 82
-9.255986e+00 6.019195e+00 7.085869e+00 15 9 9
-1.263465e+01 5.273070e+00 8.691814e+00 113 108 107
-1.289013e+01 5.090895e+00 8.772587e+00 119 118 116
-1.289013e+01 5.090895e+00 8.772587e+00 119 118 116
-1.313799e+01 4.903347e+00 8.854398e+00 114 111 108
-1.313799e+01 4.903347e+00 8.854398e+00 114 111 108
-1.235439e+01 5.440875e+00 8.669450e+00 85 82 78
-9.241724e+00 6.621736e+00 8.971735e+00 118 116 115
1.363414e+01 1.185498e+01 9.745531e+00 69 71 76
5.795486e+00 1.028047e+01 1.019642e+01 138 139 135
9.588291e+00 1.142968e+01 9.617887e+00 144 144 144
1.234025e+01 1.187913e+01 9.650180e+00 143 143 146
-1.169995e+01 5.896434e+00 9.549179e+00 75 79 85
-4.710713e+00 5.226194e+00 1.536335e+01 10 8 13
-6.906559e+00 6.801935e+00 1.291093e+01 128 127 131
-1.328593e+01 7.844773e+00 1.587279e+01 5 3 10
-1.328593e+01 7.844773e+00 1.587279e+01 5 3 10
-1.513354e+01 8.010935e+00 1.645782e+01 123 124 128
-1.411931e+01 8.166291e+00 1.681953e+01 83 84 88
-1.153704e+01 6.910637e+00 1.791848e+01 8 8 15
-9.704189e+00 9.869769e+00 1.919275e+01 128 129 131
-9.504424e+00 1.139019e+01 2.015625e+01 115 119 122
-1.529876e+00 2.052149e+01 2.877140e+01 142 146 149
-7.009606e+00 1.644259e+01 2.579850e+01 100 113 128
-1.128294e+01 2.798227e+00 6.610553e+00 16 16 12
-1.084822e+01 3.235532e+00 5.990121e+00 6 6 10
-1.084822e+01 3.235532e+00 5.990121e+00 6 6 10
-3.755123e+00 6.247170e+00 3.794913e+00 1 1 5
-6.246418e+00 5.584232e+00 4.083635e+00 6 6 8
-1.141091e+01 2.821708e+00 6.789206e+00 95 94 95
-1.000328e+01 3.929599e+00 5.394164e+00 88 87 83
-1.112422e+01 3.121453e+00 6.382362e+00 4 4 2
-9.228174e+00 4.205266e+00 8.506690e+00 5 1 2
-9.228174e+00 4.205266e+00 8.506690e+00 5 1 2
-6.279692e+00 6.481736e+00 6.323902e+00 18 16 19
-2.311030e-01 7.901304e+00 6.490872e+00 8 9 11
-3.304204e+00 7.099627e+00 6.813477e+00 22 21 16
-8.854709e+00 5.874748e+00 6.308286e+00 19 15 14
-1.340905e+01 2.968127e+00 8.970038e+00 8 7 8
-1.234754e+01 4.273671e+00 7.666796e+00 13 6 7
-1.248395e+01 4.371057e+00 7.670242e+00 71 69 65
-1.350283e+01 4.375258e+00 9.013666e+00 15 16 18
-1.350283e+01 4.375258e+00 9.013666e+00 15 16 18
-1.188107e+01 5.581163e+00 8.542971e+00 105 108 113
-1.218227e+01 5.497182e+00 8.622964e+00 17 16 13
-1.218227e+01 5.497182e+00 8.622964e+00 17 16 13
-7.140588e+00 8.810652e+00 6.284304e+00 35 33 37
-1.205877e+01 5.573998e+00 8.723865e+00 83 84 76
-1.086356e+01 6.121049e+00 8.754802e+00 96 92 89
-1.086356e+01 6.121049e+00 8.754802e+00 96 92 89
-9.610610e+00 6.550935e+00 8.919550e+00 87 84 82
-1.426229e+01 3.974441e+00 9.682804e+00 95 97 101
6.351504e+00 1.047964e+01 9.978768e+00 57 59 62
-1.195907e+01 6.222023e+00 1.014670e+01 66 65 71
-1.438533e+01 4.856778e+00 1.051534e+01 13 14 18
-1.037036e+01 5.270447e+00 1.276223e+01 106 104 109
2.159771e+00 9.672865e+00 1.298318e+01 119 119 124
-4.708434e+00 5.645922e+00 1.572471e+01 130 130 132
-6.471029e+00 5.963211e+00 1.494245e+01 142 142 144
-1.328396e+01 6.251513e+00 1.154715e+01 93 87 83
-1.090282e+01 3.950202e+00 1.519202e+01 37 30 24
-6.567741e+00 6.390148e+00 1.492675e+01 15 16 20
-1.077320e+01 6.021671e+00 1.483774e+01 103 97 91
-1.377345e+01 6.881120e+00 1.349719e+01 106 107 112
-5.857908e+00 9.012225e+00 1.555051e+01 68 61 55
-9.173260e+00 5.699541e+00 1.661736e+01 31 30 28
-1.381364e+01 7.379623e+00 1.462737e+01 107 112 121
-8.876456e+00 1.056403e+01 1.482839e+01 104 110 116
-1.312824e+01 7.537974e+00 1.514289e+01 125 123 127
-1.091770e+01 8.275035e+00 1.557636e+01 134 134 139
-1.114763e+01 8.222676e+00 1.564788e+01 105 106 111
-1.160966e+01 6.379039e+00 1.709968e+01 111 110 110
-1.308726e+01 8.223445e+00 1.672607e+01 97 95 96
-1.041574e+01 9.101549e+00 1.768084e+01 120 118 116
-6.444444e+00 5.306971e+00 1.994484e+01 146 148 154
-1.241942e+01 8.547941e+00 1.744709e+01 118 116 116
-4.111714e+00 6.404421e+00 2.071000e+01 142 142 144
-8.587969e+00 9.192525e+00 1.855084e+01 126 124 125
-8.697251e+00 1.363956e+01 1.800519e+01 120 118 119
-3.143651e+00 1.999954e+01 1.917552e+01 73 76 79
-1.211096e+01 1.104209e+01 1.799824e+01 10 8 13
-1.128676e+01 1.613245e+01 1.747497e+01 115 108 105
-1.128676e+01 1.613245e+01 1.747497e+01 115 108 105
-1.486131e+01 8.815802e+00 1.796854e+01 5 5 13
-1.123214e+01 1.643974e+01 1.777819e+01 130 129 135
-1.496946e+01 8.786475e+00 1.803305e+01 120 120 122
-9.560303e+00 1.147065e+01 2.030377e+01 115 120 129
-9.560303e+00 1.147065e+01 2.030377e+01 115 120 129
-1.300045e+01 1.012896e+01 1.997367e+01 129 130 134
-1.031852e+01 1.075843e+01 2.086687e+01 127 130 137
-1.196579e+01 1.113119e+01 2.109529e+01 126 125 131
-6.497945e+00 1.510077e+01 2.414548e+01 145 148 154
-5.675667e+00 1.617763e+01 2.535369e+01 149 150 155
-1.077204e+01 1.298271e+01 2.303252e+01 74 88 103
-1.114407e+01 1.287523e+01 2.299070e+01 125 125 133
-7.032302e+00 1.551323e+01 2.490052e+01 64 81 104
-1.227866e+01 1.268392e+01 2.310951e+01 34 31 38
-4.417982e+00 1.870912e+01 2.775340e+01 139 138 144
-3.756841e+00 3.840207e+00 4.941171e+00 23 17 18
-1.080239e+01 1.281147e+00 6.875926e+00 113 108 114
-1.080239e+01 1.281147e+00 6.875926e+00 113 108 114
-1.043101e+01 3.422154e+00 5.686098e+00 10 8 14
-1.178522e+01 2.236092e+00 7.335556e+00 7 9 13
-9.563593e+00 3.992265e+00 5.124522e+00 5 4 7
-3.400360e+00 5.854002e+00 5.318177e+00 119 119 121
-2.542207e-01 6.937289e+00 3.849343e+00 122 123 127
-5.399141e+00 5.761409e+00 4.222767e+00 37 36 34
-5.966221e+00 6.605932e+00 6.286873e+00 71 63 62
-6.738667e+00 6.418102e+00 6.204513e+00 96 95 93
-1.350088e+01 2.264740e+00 9.288093e+00 1 2 6
-1.253122e+01 3.863844e+00 7.706312e+00 99 95 86
-1.029908e+01 5.503677e+00 6.881999e+00 21 12 14
-8.150282e+00 9.134791e+00 3.936385e+00 115 116 120
-1.324996e+01 4.823755e+00 8.816580e+00 17 11 12
-1.392741e+01 4.029171e+00 9.538417e+00 68 68 69
-1.437626e+01 3.460487e+00 1.014198e+01 24 24 32
-5.450182e+00 7.990116e+00 8.987613e+00 110 106 109
1.386818e+01 1.216107e+01 9.308867e+00 131 132 137
-1.128360e+01 5.993148e+00 9.535463e+00 49 48 53
-1.026049e+01 4.840685e+00 1.209795e+01 87 88 92
-5.949603e+00 7.877101e+00 1.018893e+01 119 120 124
-5.949603e+00 7.877101e+00 1.018893e+01 119 120 124
-9.678453e+00 6.604014e+00 1.018856e+01 99 99 102
-1.041993e+01 4.962683e+00 1.241122e+01 111 113 117
-1.040328e+01 5.260068e+00 1.292946e+01 36 34 35
-1.023390e+01 5.600143e+00 1.347621e+01 94 89 83
-1.023390e+01 5.600143e+00 1.347621e+01 94 89 83
-1.142602e+01 5.386584e+00 1.436677e+01 126 127 129
-1.246865e+01 6.828670e+00 1.265465e+01 130 132 134
-1.396863e+01 7.163978e+00 1.245035e+01 123 121 122
-1.354616e+01 6.804178e+00 1.316769e+01 136 135 140
-1.134096e+01 6.232984e+00 1.466931e+01 41 34 28
-1.340514e+01 7.051632e+00 1.357711e+01 84 84 85
-1.269588e+01 7.200090e+00 1.386362e+01 130 130 130
-9.925923e+00 6.251243e+00 1.597567e+01 138 138 138
-5.902899e+00 5.749173e+00 1.801664e+01 148 144 143
-8.086297e+00 1.039560e+01 1.488980e+01 51 46 50
-1.438341e+01 7.216623e+00 1.465634e+01 106 106 110
-1.459358e+01 7.218716e+00 1.473585e+01 13 17 19
3.364239e+00 1.361413e+01 1.827394e+01 97 111 112
3.364239e+00 1.361413e+01 1.827394e+01 97 111 112
-1.092990e+01 8.298902e+00 1.574855e+01 135 136 138
-1.263277e+01 7.824397e+00 1.575474e+01 135 130 134
-1.239756e+01 8.121672e+00 1.658477e+01 119 117 118
-1.158184e+01 8.380698e+00 1.678388e+01 64 63 64
-1.380243e+01 8.047107e+00 1.639684e+01 100 98 97
-1.139295e+01 8.592771e+00 1.690718e+01 56 60 63
-1.123421e+01 8.636440e+00 1.711402e+01 8 8 10
-9.259980e-01 1.255194e+01 1.954083e+01 81 82 90
-5.486902e+00 1.366341e+01 1.803934e+01 66 70 73
-5.709961e+00 1.249649e+01 1.834618e+01 149 148 155
-1.495112e+01 8.151212e+00 1.687070e+01 131 132 130
-1.492522e+01 8.459774e+00 1.738956e+01 124 124 126
-1.245030e+01 9.191109e+00 1.858432e+01 130 131 135
-1.044556e+01 9.606476e+00 1.915773e+01 33 33 37
-1.265513e+01 9.560863e+00 1.917883e+01 132 136 141
-1.270201e+01 9.638218e+00 1.931748e+01 132 135 142
-1.282306e+01 9.843065e+00 1.956556e+01 137 140 147
-1.313680e+01 1.034644e+01 2.020254e+01 129 132 134
-1.329818e+01 1.058845e+01 2.059276e+01 130 135 138
-1.329818e+01 1.058845e+01 2.059276e+01 130 135 138
-1.432361e+01 1.135024e+01 2.144102e+01 13 12 21
-1.180215e+01 1.201581e+01 2.226254e+01 135 134 139
-1.186068e+01 1.212728e+01 2.237871e+01 136 136 142
-1.564294e+01 1.060173e+01 2.169671e+01 94 92 102
-1.216291e+01 1.229162e+01 2.251343e+01 112 110 113
-1.563337e+01 1.076925e+01 2.187387e+01 112 113 118
-1.230674e+01 1.236936e+01 2.258851e+01 32 29 38
-1.539745e+01 1.103147e+01 2.211773e+01 125 129 130
-1.390860e+01 1.209642e+01 2.254124e+01 129 130 132
-7.013691e+00 1.565631e+01 2.507273e+01 203 221 243
-1.428138e+01 1.199785e+01 2.262329e+01 46 46 50
-4.619523e+00 1.835816e+01 2.708811e+01 136 137 141
-1.535502e+01 1.100249e+01 2.250144e+01 27 31 34
-1.322696e+01 1.284886e+01 2.335879e+01 129 130 135
-1.512375e+01 1.140275e+01 2.281353e+01 127 128 132
-1.458911e+01 1.200561e+01 2.332770e+01 111 112 117
-8.755362e-01 6.803649e+00 3.494141e+00 19 21 26
-1.093306e+01 3.250944e+00 6.165551e+00 13 15 16
-9.067569e+00 4.501064e+00 4.738041e+00 85 80 86
-1.921904e+00 6.799744e+00 3.841077e+00 114 115 119
-1.235759e+01 2.937101e+00 7.585940e+00 107 107 109
-8.215612e+00 5.702329e+00 5.506209e+00 107 105 105
-1.024191e+01 4.768428e+00 6.167957e+00 12 8 7
-1.245349e+01 3.249502e+00 7.510680e+00 38 38 38
-8.283276e+00 5.823533e+00 5.756655e+00 116 115 117
-9.859174e+00 5.325506e+00 5.641460e+00 83 81 80
-1.150535e+01 4.252553e+00 6.670694e+00 68 67 65
-9.409640e+00 5.516238e+00 5.951321e+00 18 16 14
-1.192847e+01 4.018341e+00 7.105264e+00 27 23 22
-1.260109e+01 3.580203e+00 7.744415e+00 65 63 68
-1.119535e+01 4.771148e+00 6.747167e+00 77 75 78
-1.210426e+01 4.088466e+00 7.293185e+00 51 51 50
-7.734170e+00 6.321775e+00 6.596311e+00 26 25 23
-8.664992e+00 6.163449e+00 6.818812e+00 80 73 67
-9.983349e+00 5.597343e+00 6.926053e+00 8 3 2
-1.133916e+01 5.552491e+00 8.087575e+00 43 46 51
-1.384802e+01 3.851541e+00 9.394530e+00 14 17 22
-9.268875e+00 6.485766e+00 8.908038e+00 50 48 51
-1.184560e+01 5.583387e+00 8.661189e+00 99 101 103
-1.138573e+01 6.140260e+00 9.880899e+00 104 101 108
-1.130696e+01 6.263248e+00 1.024550e+01 50 54 57
-1.136199e+01 6.340658e+00 1.062203e+01 105 108 110
-1.126814e+01 6.536938e+00 1.109086e+01 28 27 25
-1.133198e+01 6.646689e+00 1.192727e+01 35 30 27
-1.317944e+01 6.973038e+00 1.305049e+01 107 101 101
-8.867763e-02 8.450422e+00 1.707139e+01 106 106 106
-8.090842e+00 9.733746e+00 1.311505e+01 129 127 127
-1.398729e+01 6.678001e+00 1.304941e+01 62 62 62
-1.159140e+01 7.316041e+00 1.364451e+01 49 39 37
-1.363832e+01 6.914200e+00 1.363122e+01 120 122 121
-1.389581e+01 6.898943e+00 1.353364e+01 101 101 103
-1.203820e+01 7.404859e+00 1.415614e+01 43 38 34
-6.888015e+00 5.701408e+00 1.756577e+01 134 130 129
-1.396765e+01 7.195209e+00 1.457346e+01 25 28 33
-1.435403e+01 7.145732e+00 1.452320e+01 26 26 27
-1.373474e+01 7.422692e+00 1.498737e+01 121 121 128
-3.754829e+00 6.382676e+00 1.948585e+01 87 91 94
4.164221e+00 1.540323e+01 1.955830e+01 99 106 112
-1.326105e+01 8.049972e+00 1.644028e+01 7 7 12
-8.216605e+00 1.111577e+01 1.751508e+01 207 210 225
-1.243722e+01 9.801688e+00 1.690530e+01 125 124 122
-1.202129e+01 6.570475e+00 1.801381e+01 7 8 8
3.781390e+00 1.650030e+01 2.122296e+01 114 118 121
-1.464015e+01 8.461429e+00 1.722028e+01 22 26 27
-1.352192e+01 8.745311e+00 1.790268e+01 117 116 122
-1.363108e+01 8.881636e+00 1.798768e+01 110 112 111
-1.434217e+01 8.856157e+00 1.794732e+01 91 93 106
-1.555353e+01 8.656370e+00 1.803505e+01 23 24 29
-9.600252e+00 9.840409e+00 1.915057e+01 25 26 28
-1.446850e+01 9.046136e+00 1.830835e+01 112 114 127
-1.064536e+01 9.510580e+00 1.910447e+01 41 45 48
-5.335769e+00 1.207575e+01 2.078214e+01 91 90 95
-1.134240e+01 1.002418e+01 1.983929e+01 139 140 142
-1.480221e+01 9.828401e+00 1.953316e+01 41 47 56
-1.466640e+01 1.034438e+01 2.029008e+01 91 96 105
-1.421708e+01 1.131198e+01 2.146629e+01 112 110 116
-1.498874e+01 1.113412e+01 2.145391e+01 11 11 19
-1.381736e+01 1.156621e+01 2.173924e+01 28 29 33
-6.055962e+00 1.575467e+01 2.479802e+01 56 59 65
-1.528586e+01 1.119656e+01 2.227522e+01 124 124 124
-1.403962e+01 1.215133e+01 2.265145e+01 127 128 130
-1.322828e+01 1.276302e+01 2.326437e+01 44 44 49
-1.479534e+01 1.169416e+01 2.296266e+01 102 104 109
-8.568984e+00 6.771554e+00 1.103178e+01 120 126 127
-3.682557e+00 4.869283e+00 2.018005e+01 111 115 118
-1.080337e+01 5.458304e+00 1.387530e+01 103 109 107
-1.009354e+01 6.242759e+00 1.436754e+01 130 130 128
-1.043757e+01 3.757080e+00 1.199008e+01 123 126 130
-6.810227e+00 4.060014e+00 6.841840e+00 50 52 51
-5.313762e+00 5.804361e+00 1.812552e+01 138 140 137
-5.313762e+00 5.804361e+00 1.812552e+01 138 140 137
-6.232886e+00 4.317859e+00 2.017822e+01 137 137 139
-4.903221e-01 7.350335e+00 7.890998e+00 124 124 122
-1.039833e+01 5.090605e+00 1.324048e+01 51 51 49
-9.765380e+00 7.960551e+00 1.552011e+01 61 57 54
-9.004938e+00 8.529767e+00 1.843542e+01 53 51 52
-7.234947e+00 4.452623e+00 7.104600e+00 103 109 113
-1.018116e+01 5.043755e+00 1.300540e+01 109 109 109
4.225628e+00 1.153568e+01 9.648347e+00 150 161 165
-4.285687e+00 5.068388e+00 1.608567e+01 26 34 40
-4.927513e+00 5.415689e+00 1.877855e+01 37 33 32
-8.337552e+00 5.904594e+00 1.780620e+01 127 136 140
9.473769e-01 1.870314e+01 1.922120e+01 94 96 94
-6.426803e+00 4.322869e+00 2.008550e+01 37 32 39
-6.056852e+00 6.265722e+00 8.837539e+00 26 17 17
-7.798130e+00 6.012139e+00 1.637003e+01 129 133 136
-1.380967e+00 1.343785e+01 1.400405e+01 132 128 120
-4.585916e+00 2.910370e+00 6.509214e+00 44 43 39
-7.618566e-01 7.763739e+00 8.273197e+00 113 114 106
-1.208588e+00 7.928822e+00 8.020688e+00 100 95 89
-1.049339e+01 5.873184e+00 1.459370e+01 121 121 118
-1.037436e+01 6.316547e+00 1.489985e+01 122 122 114
-8.031347e+00 7.898580e+00 1.485213e+01 119 124 127
-1.189271e+01 5.390535e+00 1.563930e+01 59 63 64
-8.707018e+00 3.822531e+00 1.867654e+01 130 133 129
-1.017117e+01 7.507327e+00 1.718032e+01 119 118 114
-8.992278e+00 8.987865e+00 1.800361e+01 92 87 87
1.882755e-01 2.016988e+01 1.862736e+01 77 77 74
-1.034217e+01 3.563191e+00 1.017957e+01 87 85 78
-3.729882e+00 5.647317e+00 1.430512e+01 123 128 129
-4.444553e+00 5.600580e+00 1.524486e+01 2 2 5
-7.068079e+00 6.525095e+00 1.396445e+01 117 118 119
-1.205701e+01 4.507913e+00 1.447233e+01 110 115 118
-6.041935e+00 7.171882e+00 1.505679e+01 135 142 137
-1.109556e+01 5.555979e+00 1.480537e+01 34 33 29
-6.872210e+00 7.720046e+00 1.517085e+01 94 89 86
-1.721056e+00 1.340656e+01 1.418632e+01 55 52 47
-9.012529e+00 6.607756e+00 1.855710e+01 123 123 123
-9.553630e+00 9.001137e+00 1.775948e+01 136 137 135
-9.029162e+00 7.344769e+00 1.837197e+01 136 137 135
-1.778357e+00 1.603207e+01 1.947959e+01 85 82 77
-2.330123e+00 7.366148e+00 7.273385e+00 39 35 32
-1.191618e+00 7.473954e+00 7.574334e+00 37 36 32
-1.553090e+00 7.726599e+00 7.434747e+00 89 84 78
-6.458688e+00 6.815896e+00 7.900771e+00 76 67 62
-6.928544e+00 6.570421e+00 8.150486e+00 87 83 74
-1.256160e+00 7.598583e+00 1.084377e+01 78 79 73
-9.569786e+00 3.255546e+00 1.648157e+01 10 8 10
-1.203494e+01 4.331455e+00 1.426070e+01 46 45 51
-7.819584e+00 6.712562e+00 1.392713e+01 96 102 102
-8.571300e+00 2.583655e+00 1.821166e+01 42 46 50
-4.931447e+00 6.278915e+00 1.596892e+01 133 141 143
-8.635569e+00 2.481750e+00 1.835338e+01 126 140 138
-1.079387e+01 5.651201e+00 1.450083e+01 37 34 35
-8.510572e+00 3.093140e+00 1.791727e+01 51 47 49
-5.209125e+00 6.908528e+00 1.562847e+01 141 146 143
-8.672088e+00 2.433010e+00 1.864627e+01 120 119 119
-6.519749e+00 7.530788e+00 1.528167e+01 108 99 90
-6.467387e+00 7.590707e+00 1.539767e+01 102 94 87
-8.401436e+00 3.998552e+00 1.756737e+01 95 95 93
-6.373578e+00 7.585053e+00 1.545285e+01 7 4 5
-1.013904e+01 7.193254e+00 1.658849e+01 99 106 100
-6.514017e+00 4.476034e+00 1.998716e+01 49 44 48
-2.020410e+00 1.597447e+01 1.890847e+01 122 124 121
-7.134136e+00 1.114514e+01 1.843818e+01 128 127 134
-9.377555e+00 6.811493e+00 1.882328e+01 72 76 77
-1.045403e+01 8.009851e+00 1.849070e+01 92 93 88
-1.007456e+01 8.702086e+00 1.880542e+01 95 95 93
-3.847406e+00 3.041703e+00 6.510874e+00 88 85 81
-1.206928e+00 3.747663e+00 6.737252e+00 86 87 82
1.432565e+00 5.041376e+00 1.057952e+01 44 42 42
1.359712e+00 5.752109e+00 1.029316e+01 103 104 99
-3.973672e+00 4.133218e+00 1.304709e+01 120 120 118
-4.586931e+00 6.699990e+00 6.875742e+00 110 109 109
4.353211e-01 6.831193e+00 1.006392e+01 29 28 24
-4.140922e+00 5.262630e+00 1.559530e+01 113 120 122
-3.145170e+00 6.826739e+00 1.392086e+01 13 26 27
-2.447729e+00 7.398876e+00 1.539924e+01 55 56 56
-1.197360e+01 4.899523e+00 1.482341e+01 51 55 58
-1.055859e+01 5.655199e+00 1.482618e+01 56 60 63
-1.184559e+01 5.055780e+00 1.487894e+01 121 121 119
-1.175622e+01 5.192676e+00 1.498029e+01 121 125 121
-1.143132e+01 5.552429e+00 1.504619e+01 56 57 52
-4.934965e+00 7.219983e+00 1.610805e+01 96 83 77
-1.154844e+01 5.498369e+00 1.513480e+01 122 123 119
-1.000742e+01 6.737947e+00 1.488149e+01 138 142 144
-1.020307e+01 6.638106e+00 1.498522e+01 37 36 41
-1.222277e+01 4.989979e+00 1.555302e+01 84 92 97
-1.099478e+01 6.117868e+00 1.534653e+01 117 114 107
-2.821716e+00 6.087009e+00 1.819207e+01 56 55 52
-7.530962e+00 8.349962e+00 1.524017e+01 59 61 63
-6.261541e+00 9.557895e+00 1.575252e+01 125 126 130
-8.649402e+00 4.416780e+00 1.859702e+01 122 122 120
-4.016915e+00 4.364478e+00 2.023649e+01 99 98 103
-9.069988e+00 6.758912e+00 1.858320e+01 115 117 116
-1.107883e+01 7.234896e+00 1.804052e+01 78 79 74
-1.077453e+01 7.660123e+00 1.807366e+01 80 81 80
-6.692969e+00 1.121653e+01 1.859040e+01 68 65 66
-6.453418e+00 1.157257e+01 1.878270e+01 69 68 73
-1.979339e+00 1.592505e+01 1.932389e+01 137 135 136
-1.095884e+00 1.869685e+01 1.896267e+01 137 135 136
-1.979339e+00 1.592505e+01 1.932389e+01 137 135 136
-4.691853e+00 1.354826e+01 1.919891e+01 73 72 70
-9.663688e+00 9.017433e+00 1.880535e+01 41 43 45
-3.432041e+00 1.436469e+01 2.036135e+01 38 40 34
6.543102e-01 5.765462e+00 7.818324e+00 109 118 117
-6.817292e+00 5.576797e+00 7.170791e+00 38 38 42
1.239232e+00 5.127123e+00 1.399831e+01 86 83 76
5.160949e-01 7.861636e+00 1.384134e+01 66 65 63
-7.622136e+00 5.973888e+00 1.631507e+01 126 127 122
-6.853212e+00 7.021232e+00 1.681715e+01 56 55 61
-4.819806e+00 4.796964e+00 1.977319e+01 131 132 136
-4.977337e+00 4.506755e+00 1.984731e+01 5 4 10
-1.172915e+01 6.636175e+00 1.780786e+01 130 133 134
-1.172915e+01 6.636175e+00 1.780786e+01 130 133 134
-3.364646e+00 1.466415e+01 1.829003e+01 107 106 104
-1.043174e+01 7.802609e+00 1.800206e+01 69 70 66
-1.052968e+01 7.991777e+00 1.822657e+01 122 119 118
-1.610229e+00 1.807695e+01 2.007113e+01 133 132 130
-8.540645e+00 7.345790e+00 8.532075e+00 40 36 36
-6.476303e+00 6.830834e+00 1.596643e+01 25 27 26
-4.307949e+00 4.906093e+00 1.751301e+01 119 116 117
-6.807964e+00 3.595829e+00 1.978071e+01 78 71 86
-8.189388e+00 7.627570e+00 1.558786e+01 39 33 27
-1.739482e+00 1.330037e+01 1.434768e+01 71 62 53
-7.283200e+00 8.742331e+00 1.286285e+01 20 18 18
-5.710526e+00 7.577844e+00 1.603845e+01 112 96 82
-5.492509e+00 3.318402e+00 1.980529e+01 177 169 163
-6.777059e+00 3.626252e+00 1.934282e+01 68 59 61
-5.912078e+00 3.004766e+00 2.030083e+01 70 63 55
-6.240772e+00 7.333229e+00 1.472109e+01 22 24 32
-5.474418e+00 3.384812e+00 1.974641e+01 128 127 122
-4.180452e+00 4.206162e+00 1.832460e+01 115 103 90
-6.539692e+00 3.015471e+00 1.985666e+01 214 213 217
-6.547118e+00 3.259256e+00 2.004336e+01 139 131 128
-6.947141e+00 7.676741e+00 1.919031e+01 250 250 252
-5.377991e+00 5.853587e+00 1.576537e+01 36 38 43
3.821535e+00 1.582594e+01 1.077721e+01 86 88 87
-5.967341e+00 7.857698e+00 1.444707e+01 28 30 34
-4.799452e+00 -1.048428e+00 -1.255562e+01 0 255 0
-4.813678e+00 -1.051811e+00 -1.260343e+01 255 255 0
