ply
format ascii 1.0
element face 0
property list uchar int vertex_indices
element vertex 944
property float x
property float y
property float z
property uchar diffuse_red
property uchar diffuse_green
property uchar diffuse_blue
end_header
9.586388e-01 3.251018e-01 3.998514e+00 52 51 56
6.360250e-01 4.513515e-01 3.778878e+00 59 59 59
7.209240e-01 5.155554e-01 3.778645e+00 48 49 47
6.927513e-01 5.420571e-01 3.769711e+00 36 37 32
3.893718e-01 6.137157e-01 3.720544e+00 66 64 62
-1.186276e+00 6.699482e-01 3.392853e+00 115 121 121
-5.390906e-01 8.259887e-01 3.479860e+00 82 81 79
-5.662331e-01 8.477519e-01 3.465287e+00 117 117 117
-6.606961e-01 8.877529e-01 3.538866e+00 78 78 80
-1.384481e+00 8.562763e-01 3.490089e+00 53 53 58
-6.715825e-01 1.033711e+00 3.521211e+00 59 58 59
9.100232e-01 1.386474e+00 3.722555e+00 108 114 121
-1.394575e+00 1.619012e+00 3.170751e+00 67 71 78
-9.595612e-01 1.815900e+00 3.095780e+00 114 124 126
-1.457582e+00 1.946236e+00 3.015212e+00 95 100 111
-4.575749e-01 -1.150945e+00 4.177291e+00 115 116 115
1.416244e-01 -6.283198e-01 4.158777e+00 66 62 63
-1.369181e+00 -6.685275e-01 3.696063e+00 46 42 46
-1.567067e+00 -7.363704e-01 3.496052e+00 67 63 69
4.556298e-01 -1.911479e-01 4.044060e+00 43 43 42
-2.480660e-01 -2.552487e-01 3.993579e+00 55 54 50
8.301591e-01 -1.005243e-01 4.077292e+00 113 112 108
-4.744945e-02 -2.143092e-01 3.987595e+00 115 111 105
-1.670722e-01 -2.061764e-01 3.975893e+00 100 97 90
5.506634e-01 -7.985430e-02 4.049908e+00 94 87 79
-1.201454e+00 -3.166605e-01 3.741303e+00 54 53 50
-7.814241e-01 -2.457522e-01 3.840671e+00 102 107 106
-1.030858e+00 -2.709916e-01 3.771031e+00 51 47 44
-1.048562e+00 -2.700133e-01 3.765835e+00 100 102 96
4.198723e-01 -3.956515e-02 3.917564e+00 94 94 95
-1.284708e+00 -3.230727e-02 3.630330e+00 130 136 136
9.649312e-01 3.426088e-01 4.000793e+00 150 153 160
-1.047150e+00 1.046967e-01 3.592090e+00 68 65 72
-9.760284e-01 1.423547e-01 3.597526e+00 57 55 57
-1.257163e+00 1.086197e-01 3.606894e+00 140 145 149
-1.064115e+00 1.695120e-01 3.568914e+00 45 43 44
8.713088e-01 5.024159e-01 3.836297e+00 69 67 64
8.713088e-01 5.024159e-01 3.836297e+00 69 67 64
4.523997e-01 4.586395e-01 3.765237e+00 81 80 80
8.479403e-01 5.247500e-01 3.827787e+00 74 73 69
5.954865e-01 5.374264e-01 3.752904e+00 107 106 102
6.209299e-01 5.447515e-01 3.759674e+00 49 49 47
5.652209e-01 5.389130e-01 3.763670e+00 63 59 56
6.641804e-01 5.578322e-01 3.848936e+00 103 103 98
6.365363e-01 5.548919e-01 3.758010e+00 107 108 103
-5.121898e-01 4.704570e-01 3.591440e+00 127 129 128
1.044338e-01 5.853897e-01 3.668112e+00 67 67 68
-8.381697e-01 5.903821e-01 3.476494e+00 116 118 117
-9.989731e-01 8.514387e-01 3.418321e+00 120 121 122
9.012895e-01 1.157641e+00 3.736868e+00 109 109 117
9.410108e-01 1.336038e+00 3.723058e+00 46 51 51
-1.342197e+00 1.631101e+00 3.107617e+00 50 51 59
-1.069896e+00 1.878648e+00 3.072018e+00 93 100 110
-9.465862e-01 1.942755e+00 3.090963e+00 57 60 67
2.705146e-01 2.087968e+00 3.286045e+00 110 117 127
2.192002e-01 2.135819e+00 3.266479e+00 53 54 61
-5.337537e-01 -3.222760e-01 3.942897e+00 47 43 44
6.065281e-02 3.461425e-01 3.649209e+00 108 101 95
5.763740e-01 4.109814e-01 3.790107e+00 138 139 143
5.404170e-01 4.932468e-01 3.804700e+00 68 67 65
4.599503e-01 4.984782e-01 3.765269e+00 135 132 127
4.736543e-01 5.148698e-01 3.763861e+00 135 133 123
1.520585e-02 5.259425e-01 3.672746e+00 66 65 68
7.103601e-01 5.991900e-01 3.785725e+00 75 73 67
5.384288e-01 5.925540e-01 3.812745e+00 69 67 70
6.468422e-01 6.432634e-01 3.770419e+00 145 149 149
-1.496849e+00 7.178168e-01 3.403598e+00 120 124 133
-9.798492e-01 8.955735e-01 3.420272e+00 59 58 56
-2.069058e-01 9.676680e-01 3.507943e+00 42 44 50
-9.825198e-01 9.069284e-01 3.426045e+00 104 105 107
3.745541e-01 1.103921e+00 3.590280e+00 43 43 41
5.322846e-01 1.155257e+00 3.610321e+00 126 126 129
4.113086e-01 1.191925e+00 3.596865e+00 97 98 102
1.851526e-01 1.173723e+00 3.616966e+00 53 52 52
-4.450579e-01 1.512483e+00 2.703406e+00 101 102 106
-9.942121e-01 1.593858e+00 3.039905e+00 109 114 117
-1.328852e+00 1.651883e+00 3.083810e+00 68 68 77
-1.364251e+00 2.054156e+00 2.957144e+00 139 146 154
5.711754e-01 2.184217e+00 3.344746e+00 92 95 100
-4.773555e-01 -5.421068e-01 4.064558e+00 146 149 149
9.107865e-02 -2.031461e-01 4.036594e+00 62 62 60
4.661357e-01 4.857331e-01 3.767747e+00 86 83 80
-1.114020e-01 5.438827e-01 3.645027e+00 65 64 65
-1.196700e+00 5.865182e-01 3.413285e+00 62 61 69
1.056461e+00 1.169501e+00 3.683094e+00 58 62 63
3.444470e-01 1.127723e+00 3.581606e+00 49 51 51
-2.756842e-01 1.832960e-01 3.669892e+00 59 66 76
-1.112537e+00 4.364254e-01 3.440796e+00 158 164 163
-1.159587e-01 2.795598e-01 3.630679e+00 133 133 131
2.561864e-01 -1.016053e+00 4.361943e+00 63 62 60
1.540450e-01 -1.194199e+00 4.372621e+00 104 105 108
1.664401e-01 -1.158394e+00 4.353359e+00 36 39 39
-1.283667e+00 2.022463e+00 2.685889e+00 254 254 251
-6.100817e-01 -1.271006e+00 4.409306e+00 83 87 109
1.388635e-01 -1.165575e+00 4.333790e+00 24 26 25
-7.772291e-01 -1.151256e+00 3.910402e+00 52 52 51
6.636116e-01 -9.077673e-01 4.321283e+00 116 116 114
-6.752392e-01 -1.054296e+00 4.072628e+00 115 114 110
-8.120998e-01 -1.077933e+00 3.863419e+00 67 67 65
-7.156723e-01 -9.834905e-01 3.965045e+00 110 109 105
-3.516050e-01 -8.917087e-01 4.049623e+00 50 49 47
-3.155203e-01 -1.286730e+00 4.183198e+00 38 39 41
1.536205e-01 -1.159495e+00 4.375830e+00 35 36 36
1.688641e-01 -1.014597e+00 4.333571e+00 82 84 81
1.718423e-01 -9.860493e-01 4.322644e+00 69 69 67
1.938500e-01 -9.598321e-01 4.362424e+00 64 64 64
-6.172444e-01 -1.017959e+00 4.202008e+00 73 73 75
-1.043142e+00 -1.123309e+00 3.836642e+00 50 50 50
1.901861e-01 -8.974530e-01 4.308889e+00 120 119 117
-3.097272e-01 -7.740983e-01 4.042618e+00 46 45 43
-3.097272e-01 -7.740983e-01 4.042618e+00 46 45 43
2.903394e-02 -6.023247e-01 4.144881e+00 82 78 75
-7.961800e-02 -5.496292e-01 4.096370e+00 68 64 61
-1.185781e-01 -5.583887e-01 4.043907e+00 86 83 77
6.020596e-01 4.456934e-02 4.131454e+00 94 91 86
1.227086e+00 7.833950e-01 3.849909e+00 139 138 155
-1.523347e+00 1.042707e+00 3.033607e+00 253 253 253
-3.877113e-01 -1.287667e+00 4.146743e+00 27 28 32
2.423494e-01 -1.139711e+00 4.404528e+00 108 108 106
-7.476227e-02 -1.169509e+00 4.209472e+00 64 65 67
-2.486570e-01 -1.170469e+00 4.181217e+00 98 100 97
1.428720e-01 -1.095564e+00 4.282726e+00 56 57 59
-3.487618e-01 -1.152591e+00 4.112068e+00 94 96 95
1.702028e-01 -9.933127e-01 4.342361e+00 89 91 90
1.506227e-01 -1.001201e+00 4.295142e+00 58 59 54
1.943604e-01 -8.920236e-01 4.297547e+00 125 124 122
-3.239421e-01 -9.834239e-01 4.080707e+00 116 116 108
2.485128e-01 -8.536288e-01 4.329446e+00 63 61 62
1.793170e-01 -8.270910e-01 4.268978e+00 119 118 111
2.638707e-01 -7.764923e-01 4.383740e+00 55 56 57
7.927012e-02 -8.308846e-01 4.229254e+00 62 61 57
-2.838654e-01 -8.755333e-01 4.056605e+00 106 102 99
-2.960561e-01 -8.459711e-01 4.063571e+00 109 108 104
-3.039515e-01 -8.265526e-01 4.050590e+00 49 45 43
-1.806622e-01 -7.800047e-01 4.094148e+00 111 107 103
-1.078002e-01 -6.746993e-01 4.016503e+00 110 105 98
-3.581426e-01 -6.945610e-01 3.993220e+00 54 53 49
-1.783656e-02 -5.736701e-01 4.114994e+00 64 64 56
-6.955374e-03 -5.713347e-01 4.083924e+00 125 122 116
-6.565227e-02 -5.529406e-01 4.055090e+00 60 56 52
1.370450e-01 -1.181736e+00 4.324260e+00 44 46 45
2.160251e-01 -1.013905e+00 4.384900e+00 112 112 114
1.171399e-01 -1.025544e+00 4.265132e+00 40 41 43
1.326854e-01 -1.015695e+00 4.286820e+00 39 41 40
-2.969612e-01 -1.088776e+00 4.105686e+00 107 108 103
9.113026e-02 -1.023592e+00 4.172918e+00 70 70 68
2.706559e-01 -9.449278e-01 4.346569e+00 107 108 110
-1.303285e-01 -1.028939e+00 4.093392e+00 72 72 70
1.408511e-01 -9.330813e-01 4.250354e+00 115 114 110
6.323042e-01 -8.387593e-01 4.291932e+00 75 74 69
1.329619e-01 -8.883208e-01 4.234995e+00 84 83 79
1.314885e-02 -8.958630e-01 4.230930e+00 70 67 62
-2.978533e-01 -9.456992e-01 4.087858e+00 110 109 98
9.956277e-02 -8.535643e-01 4.240358e+00 64 64 55
1.643275e-01 -8.291482e-01 4.285599e+00 57 57 50
1.687343e-01 -8.308718e-01 4.278854e+00 57 57 50
1.988696e-01 -7.953217e-01 4.256515e+00 78 77 75
-6.192468e-01 -8.936758e-01 4.112487e+00 134 139 143
-3.593368e-01 -8.679254e-01 4.064180e+00 71 70 68
5.641203e-02 -8.158695e-01 4.100581e+00 59 60 54
-1.170887e-02 -8.224460e-01 4.050979e+00 113 112 110
-1.635373e-01 -8.244054e-01 4.086588e+00 71 71 67
-2.540156e-01 -8.175408e-01 4.039206e+00 111 106 106
-3.549428e-01 -8.181055e-01 4.020217e+00 69 65 64
-3.407495e-01 -7.979916e-01 4.021592e+00 130 128 124
-2.731866e-01 -7.750126e-01 4.058226e+00 103 103 94
-3.514382e-01 -7.910364e-01 4.020487e+00 128 127 123
5.166262e-02 -7.101729e-01 4.174859e+00 106 102 99
1.188319e-02 -7.040473e-01 4.166065e+00 71 68 63
-2.303187e-01 -7.274092e-01 4.085694e+00 95 92 83
-2.718687e-01 -7.304253e-01 4.043178e+00 108 107 97
1.247344e-01 -6.380637e-01 4.237858e+00 116 115 111
-5.178097e-02 -6.741257e-01 4.110708e+00 111 106 101
-3.222415e-01 -7.135363e-01 4.012177e+00 116 116 111
-2.078455e-01 -6.857465e-01 4.051371e+00 124 121 112
-1.277706e-01 -6.623979e-01 4.081903e+00 58 54 52
-5.615190e-02 -6.411297e-01 4.118126e+00 70 67 58
-1.807774e-01 -6.785219e-01 4.018769e+00 54 50 52
2.778685e-02 -5.862434e-01 4.161491e+00 95 92 87
2.778685e-02 -5.862434e-01 4.161491e+00 95 92 87
-3.258866e-02 -6.073202e-01 4.099785e+00 63 60 55
-1.000137e-01 -6.200574e-01 4.068653e+00 67 64 59
-1.000137e-01 -6.200574e-01 4.068653e+00 67 64 59
-2.331821e-01 -6.426259e-01 4.033747e+00 115 112 107
-2.402608e-01 -6.297925e-01 4.036869e+00 55 51 48
4.559926e-01 -1.246399e-01 4.202346e+00 127 124 120
-4.732402e-01 -2.581348e-01 3.906224e+00 129 125 114
-4.424950e-02 -1.676399e-01 4.020726e+00 92 87 78
3.014851e-01 2.403607e+00 2.960167e+00 132 128 146
1.127504e-01 -1.222260e+00 4.361135e+00 62 62 60
1.945729e-01 -1.206763e+00 4.392062e+00 72 72 70
1.787021e-01 -1.180892e+00 4.377475e+00 34 36 35
1.481739e-01 -1.199048e+00 4.296925e+00 61 66 62
2.356645e-01 -1.137930e+00 4.433861e+00 94 96 95
2.386602e-01 -1.150897e+00 4.398012e+00 90 90 90
2.386602e-01 -1.150897e+00 4.398012e+00 90 90 90
-3.053416e-01 -1.230901e+00 4.146362e+00 44 49 45
2.072862e-01 -1.023061e+00 4.362606e+00 39 43 42
-3.720322e-02 -1.100390e+00 4.146793e+00 38 39 41
-3.308708e-01 -1.111211e+00 4.117966e+00 47 49 48
1.890014e-01 -1.005121e+00 4.345746e+00 43 45 44
6.246742e-02 -1.061673e+00 4.179160e+00 54 54 56
-1.518838e-01 -1.068893e+00 4.184309e+00 89 90 92
9.451508e-02 -9.769616e-01 4.299818e+00 117 117 114
1.820797e-01 -9.497606e-01 4.337602e+00 111 112 107
2.095605e-01 -9.287459e-01 4.330381e+00 130 131 127
2.573516e-01 -9.164069e-01 4.340463e+00 125 125 122
6.055962e-02 -9.368752e-01 4.251353e+00 108 107 105
-2.219982e-01 -9.562890e-01 4.005099e+00 73 68 62
-2.052926e-01 -9.521965e-01 4.014334e+00 78 74 71
-1.767921e-01 -9.094412e-01 4.125938e+00 67 67 65
1.639843e-01 -8.344184e-01 4.286367e+00 104 103 98
-3.667156e-01 -9.053790e-01 4.066376e+00 82 82 77
1.584244e-02 -8.160456e-01 4.216877e+00 115 115 108
1.350203e-01 -7.827152e-01 4.267128e+00 99 98 94
1.095966e-01 -7.938907e-01 4.226669e+00 71 70 65
-3.103167e-01 -8.723466e-01 4.063320e+00 56 55 50
-3.135402e-01 -8.707263e-01 4.069728e+00 56 55 50
1.455176e-01 -7.818620e-01 4.250484e+00 47 44 41
2.460105e-01 -7.317935e-01 4.376824e+00 75 79 80
3.021143e-01 -7.205454e-01 4.395983e+00 83 89 89
2.539957e-01 -7.277019e-01 4.385078e+00 84 85 87
-4.855443e-02 -7.480383e-01 4.176479e+00 62 62 54
1.972860e-01 -7.088949e-01 4.244925e+00 114 110 111
-4.201862e-01 -8.039439e-01 4.076586e+00 120 117 113
1.110824e-01 -6.764165e-01 4.206983e+00 124 123 119
-4.372918e-01 -7.522871e-01 4.069952e+00 89 89 78
-3.949779e-01 -7.496440e-01 4.001671e+00 76 74 73
-2.742402e-01 -7.231783e-01 4.052603e+00 60 56 54
5.868184e-02 -6.494558e-01 4.163116e+00 60 55 52
-2.024632e-02 -6.611204e-01 4.142390e+00 110 107 100
-1.437279e-01 -6.799393e-01 4.068308e+00 106 103 98
-2.301024e-01 -6.821404e-01 4.033623e+00 103 102 100
1.264016e-01 -6.053850e-01 4.183780e+00 93 92 90
7.746392e-03 -6.287709e-01 4.132866e+00 70 67 62
-3.139193e-01 -6.727899e-01 4.025889e+00 89 88 86
1.137436e-01 -5.898141e-01 4.159863e+00 99 95 96
-2.431480e-01 -6.220616e-01 4.012919e+00 75 72 67
-8.816752e-02 -5.362867e-01 4.042774e+00 127 123 121
-1.351897e-01 -5.433272e-01 4.018047e+00 71 66 62
-1.428371e-01 -5.356978e-01 4.037072e+00 125 121 118
-1.759005e-01 -5.335518e-01 4.060258e+00 128 123 119
-5.174341e-01 -5.246923e-01 3.978441e+00 96 96 96
-2.428798e-01 -1.239223e+00 4.142133e+00 86 86 86
-6.278249e-01 -3.504179e-01 3.941311e+00 137 137 137
8.427964e-02 -1.099565e+00 4.192595e+00 102 100 101
-6.033863e-01 -8.900686e-01 4.156355e+00 47 47 48
1.274249e+00 5.423706e-01 3.938429e+00 113 114 118
-6.697842e-01 -1.161547e+00 4.110818e+00 101 101 101
1.431390e-01 -1.037126e+00 4.295761e+00 103 103 103
-1.027660e+00 -7.812801e-01 3.898261e+00 61 60 59
4.756095e+00 -7.988644e-01 1.752048e+00 98 97 114
4.268949e-01 -2.865223e-01 4.204102e+00 48 48 50
-1.564839e+00 3.001389e-02 3.467948e+00 254 255 253
-1.183367e+00 9.191112e-01 3.252024e+00 45 44 50
-5.394990e-02 -1.243358e+00 4.231621e+00 82 91 94
2.261744e-01 -1.067826e+00 4.366485e+00 38 39 34
-3.834647e-01 -1.309158e+00 4.138748e+00 39 41 40
1.177252e-01 -1.192193e+00 4.343770e+00 41 41 40
1.538806e-01 -1.173619e+00 4.311277e+00 26 28 25
1.915825e-01 -1.123926e+00 4.373265e+00 35 35 35
-3.377070e-01 -1.130098e+00 4.144137e+00 94 95 90
9.554918e-02 -1.065139e+00 4.236130e+00 110 110 108
1.088061e-01 -9.676355e-01 4.224891e+00 80 79 75
-1.087281e+00 -6.256260e-01 3.894761e+00 148 150 147
4.504010e-01 -2.957770e-01 4.193987e+00 58 58 58
-1.544483e+00 3.619816e-01 3.309440e+00 149 146 164
1.067522e-01 -1.207377e+00 4.303426e+00 44 46 43
1.136904e-01 -1.212424e+00 4.295759e+00 44 46 43
1.103373e-01 -1.170549e+00 4.350651e+00 96 96 96
1.103373e-01 -1.170549e+00 4.350651e+00 96 96 96
-3.629246e-01 -1.207388e+00 4.137733e+00 56 58 55
-8.911029e-02 -1.110978e+00 4.123052e+00 33 35 34
-9.412945e-02 -1.051144e+00 4.185240e+00 124 127 125
2.351710e-01 -9.783595e-01 4.362009e+00 128 130 129
2.351710e-01 -9.783595e-01 4.362009e+00 128 130 129
1.148579e-01 -9.415653e-01 4.215837e+00 103 103 95
-2.740539e-01 -8.309840e-01 4.058798e+00 97 93 92
-4.050623e-01 -8.360483e-01 4.055993e+00 125 124 120
4.972474e-02 -7.478593e-01 4.192332e+00 59 55 53
1.229951e-01 -7.309178e-01 4.224857e+00 64 63 59
-2.373211e-01 -7.830591e-01 4.050520e+00 54 51 44
2.832233e-02 -6.849473e-01 4.126727e+00 68 65 60
6.441616e-02 -3.630141e-01 4.127046e+00 39 40 45
1.296639e+00 5.722852e-01 3.912151e+00 133 133 140
-2.849719e-01 -1.275568e+00 4.160272e+00 90 91 92
2.940116e-01 -1.146447e+00 4.361035e+00 59 57 56
-2.792232e-01 -1.197912e+00 4.153652e+00 63 64 66
1.571150e-01 -1.086240e+00 4.340365e+00 102 102 102
1.275959e-01 -1.094384e+00 4.251669e+00 34 36 35
-3.777008e-01 -1.157638e+00 4.114820e+00 93 92 92
1.544446e-01 -1.008943e+00 4.307423e+00 89 89 88
-3.471860e-01 -1.078786e+00 4.088507e+00 66 63 55
-2.627241e-01 -1.035920e+00 4.096310e+00 63 64 59
8.357517e-02 -9.887400e-01 4.170964e+00 74 75 71
1.786564e-01 -9.032383e-01 4.309922e+00 112 109 104
1.910425e-01 -8.840805e-01 4.297299e+00 130 127 122
-3.672010e-01 -9.671047e-01 4.075705e+00 129 125 122
2.403112e-01 -8.188396e-01 4.301006e+00 69 68 63
-3.717295e-01 -9.006041e-01 4.045000e+00 111 108 106
-2.827792e-01 -8.760797e-01 4.054447e+00 110 107 100
-2.467647e-01 -8.179168e-01 4.077403e+00 58 55 47
-2.176384e-01 -7.918549e-01 4.069746e+00 70 62 58
-1.494970e-01 -7.540617e-01 4.094203e+00 65 62 53
-2.213251e-01 -7.293171e-01 4.018714e+00 46 43 38
-3.002634e-01 -6.989314e-01 4.034968e+00 71 70 65
-9.930990e-02 -4.847964e-01 4.044796e+00 75 70 67
-2.119579e+00 -9.513416e-01 2.425600e+00 242 240 252
-4.022950e-01 4.807464e-03 3.672342e+00 36 39 49
-3.010655e-01 -1.274081e+00 4.158900e+00 43 45 43
-3.126367e-01 -1.266646e+00 4.170168e+00 88 90 89
1.074235e-01 -1.200245e+00 4.307459e+00 93 95 94
-3.643422e-01 -1.153792e+00 4.123906e+00 91 93 88
-3.734563e-01 -1.153768e+00 4.117484e+00 44 44 45
-2.363304e-01 -1.103261e+00 4.153339e+00 30 31 35
-3.733127e-01 -1.118685e+00 4.113564e+00 82 82 82
-3.176269e-01 -1.102077e+00 4.130318e+00 56 56 62
-2.501760e-01 -1.029975e+00 4.119341e+00 70 71 66
6.135824e-01 -9.217223e-01 4.306080e+00 77 76 74
1.449433e-01 -9.375649e-01 4.301258e+00 80 77 70
-4.499677e-01 -1.017000e+00 4.143108e+00 70 69 64
-3.846090e-01 -1.017724e+00 4.078342e+00 64 60 58
9.707504e-02 -9.506515e-01 4.177966e+00 50 54 48
1.287379e-01 -9.141528e-01 4.275176e+00 125 121 118
-3.011253e-01 -9.420662e-01 4.083216e+00 65 60 66
1.497567e-01 -8.354612e-01 4.279592e+00 73 69 65
-3.978561e-01 -9.193138e-01 4.063381e+00 79 79 77
-3.888259e-01 -9.122301e-01 4.056829e+00 117 123 121
1.399436e-01 -7.893524e-01 4.242511e+00 68 65 57
-2.001338e-01 -8.379870e-01 4.082699e+00 63 59 56
-3.384618e-01 -8.291512e-01 4.044760e+00 41 40 38
-3.665791e-01 -8.346891e-01 4.031352e+00 51 50 46
-3.915005e-01 -8.239948e-01 4.045036e+00 121 120 116
1.169427e-01 -7.364670e-01 4.219910e+00 61 57 54
-9.820207e-02 -7.697101e-01 4.114011e+00 119 115 112
-2.935728e-01 -6.478640e-01 4.017569e+00 56 52 50
-1.802065e-01 -6.324676e-01 4.031956e+00 123 119 116
-1.487279e-01 -5.916967e-01 4.055260e+00 50 46 43
-2.544965e-01 -5.959444e-01 4.057398e+00 123 120 113
-1.167626e-02 -5.541249e-01 4.093928e+00 89 85 82
-2.696975e-01 -5.737487e-01 4.006929e+00 79 75 74
-8.378976e-02 -4.527559e-01 4.102643e+00 134 130 127
-3.644607e-01 -6.916413e-01 4.010430e+00 84 80 81
1.763001e-01 -1.006126e+00 4.336582e+00 45 41 44
-2.890231e-01 -9.549937e-01 4.043190e+00 49 44 41
5.667568e-01 -2.361158e-01 4.102370e+00 83 79 82
1.934389e-01 -1.204473e+00 4.343244e+00 107 105 106
-2.191004e-01 -1.238222e+00 4.148318e+00 93 93 92
-5.053049e-01 -1.006028e+00 4.164213e+00 82 81 77
2.654570e-01 -7.340084e-01 4.392664e+00 132 131 136
-2.072470e-01 -7.234717e-01 4.050919e+00 59 51 49
-9.658023e-01 -5.652329e-01 3.855753e+00 35 35 43
-1.553734e+00 3.536864e-01 3.320127e+00 253 253 254
8.461174e-01 2.268513e+00 3.198656e+00 49 46 61
-3.203823e-01 -1.275815e+00 4.136898e+00 38 35 42
-3.717329e-01 -1.286297e+00 4.113269e+00 28 28 30
-3.287366e-01 -8.919359e-01 4.048902e+00 112 108 106
-3.389996e-01 -7.812806e-01 4.023931e+00 49 44 41
-1.381554e-01 -5.992858e-01 4.040163e+00 57 49 47
-2.827069e-01 -1.193829e+00 4.124815e+00 106 106 106
2.145441e-01 -9.864627e-01 4.349740e+00 105 100 104
-4.164892e-02 -1.031416e+00 4.212199e+00 72 72 70
-2.683994e-01 -1.056691e+00 4.103676e+00 114 113 109
-3.239526e-01 -1.003381e+00 4.081813e+00 112 109 102
-3.013557e-01 -9.042241e-01 4.048476e+00 111 106 102
-1.364100e-01 -8.818137e-01 4.015662e+00 64 61 53
1.090422e-01 -7.864118e-01 4.244490e+00 56 52 49
-2.653525e-01 -8.285756e-01 4.061271e+00 58 54 51
-8.090043e-02 -6.587404e-01 4.097942e+00 57 49 46
-4.971658e-02 -6.432340e-01 4.106989e+00 67 62 59
-9.148015e-02 -6.218729e-01 4.073953e+00 59 54 51
-2.990973e-01 -1.340902e+00 4.146622e+00 92 90 93
2.615334e-01 -1.174121e+00 4.480638e+00 81 82 84
-3.902077e-01 -1.239288e+00 4.132222e+00 32 32 35
-2.331941e-01 -1.201504e+00 4.130490e+00 58 59 54
1.948354e-01 -1.073521e+00 4.337623e+00 58 58 60
-2.745424e-01 -1.120396e+00 4.112398e+00 37 37 35
-9.850474e-02 -1.078152e+00 4.185910e+00 100 100 100
-4.157354e-01 -1.121984e+00 4.099379e+00 33 32 37
1.846489e-01 -9.646745e-01 4.344906e+00 78 76 79
-3.566380e-01 -1.079017e+00 4.075006e+00 64 60 57
-2.938198e-01 -1.066333e+00 4.092300e+00 62 58 55
-1.108353e-01 -1.019893e+00 4.159689e+00 77 77 75
-4.827341e-02 -1.019314e+00 4.132483e+00 72 71 67
-2.611349e-01 -1.042169e+00 4.081798e+00 117 116 114
1.848119e-01 -9.215906e-01 4.285854e+00 75 71 68
-1.915303e-01 -1.007189e+00 4.098376e+00 110 109 105
-3.101955e-01 -9.904222e-01 4.082801e+00 108 104 101
-4.036900e-01 -9.948967e-01 4.049952e+00 86 82 79
1.211734e-01 -8.919669e-01 4.259755e+00 85 82 75
1.554532e-01 -8.831931e-01 4.270775e+00 78 73 69
7.923048e-02 -8.808304e-01 4.236698e+00 105 99 99
2.333365e-01 -8.141140e-01 4.376941e+00 86 85 83
1.242740e-01 -8.575771e-01 4.218064e+00 52 47 43
-1.427293e-01 -9.004256e-01 4.110433e+00 52 49 45
-2.570478e-01 -8.775020e-01 4.057255e+00 103 100 93
1.443042e-01 -7.910014e-01 4.235839e+00 65 61 58
-1.294910e-01 -8.458188e-01 4.011207e+00 105 101 98
-5.665549e-02 -7.280997e-01 4.098608e+00 53 48 44
-2.443038e-01 -7.365815e-01 4.048399e+00 118 114 112
-2.437537e-01 -7.371996e-01 4.032256e+00 76 72 69
-2.437537e-01 -7.371996e-01 4.032256e+00 76 72 69
-2.346426e-01 -7.226185e-01 4.030939e+00 38 34 33
-2.180738e-01 -6.103822e-01 4.034404e+00 60 56 47
9.643910e-02 -1.236794e+00 4.325166e+00 54 49 53
2.137774e-01 -1.203054e+00 4.398098e+00 58 57 55
-3.049867e-01 -1.288230e+00 4.140436e+00 93 96 101
1.142425e-01 -1.193963e+00 4.337631e+00 81 81 83
1.249832e-01 -1.194814e+00 4.331305e+00 38 38 40
1.420588e-01 -1.190621e+00 4.311602e+00 89 88 93
1.795953e-01 -1.145245e+00 4.383908e+00 39 36 47
2.210692e-01 -1.143057e+00 4.384296e+00 90 88 91
2.115161e-01 -1.137527e+00 4.375768e+00 111 109 110
-8.074764e-02 -1.165293e+00 4.216976e+00 59 61 60
-9.681854e-02 -1.153129e+00 4.197063e+00 41 42 44
-4.022331e-01 -1.167828e+00 4.082985e+00 65 63 64
-7.649120e-02 -1.078670e+00 4.207610e+00 26 25 31
-2.111618e-01 -1.097441e+00 4.120392e+00 81 79 83
1.107039e-01 -1.029537e+00 4.254097e+00 47 45 46
1.150745e-01 -1.026878e+00 4.256065e+00 99 97 98
1.807217e-01 -9.701450e-01 4.345396e+00 125 123 124
-2.699677e-01 -1.079509e+00 4.087476e+00 76 75 71
-1.131533e-01 -1.062892e+00 4.098056e+00 79 78 76
-1.323145e-02 -1.028039e+00 4.131694e+00 77 77 75
6.119928e-01 -9.213524e-01 4.307092e+00 66 65 63
2.243914e-01 -8.919655e-01 4.427059e+00 92 90 95
1.307826e-01 -9.357420e-01 4.247323e+00 102 98 95
6.092127e-02 -9.303532e-01 4.235493e+00 109 106 101
1.127149e-01 -9.273902e-01 4.203532e+00 97 93 90
-6.559756e-02 -9.722701e-01 4.075477e+00 81 79 80
-3.969021e-01 -9.832971e-01 4.047937e+00 116 112 110
-8.054174e-02 -9.171020e-01 4.164980e+00 77 76 72
-2.753370e-01 -9.510099e-01 4.055122e+00 42 41 38
1.385008e-01 -8.441931e-01 4.244767e+00 103 98 95
-4.102884e-01 -9.294035e-01 4.032892e+00 114 113 112
2.146619e-01 -7.728279e-01 4.391811e+00 100 100 102
1.601151e-01 -8.029510e-01 4.268915e+00 89 85 82
4.765291e-02 -8.124716e-01 4.205820e+00 63 58 54
-1.887769e-01 -8.161699e-01 4.075653e+00 60 55 51
-1.766089e-01 -7.906698e-01 4.066738e+00 64 56 52
1.910227e-01 -7.013508e-01 4.239503e+00 111 105 102
-3.423436e-01 -7.559458e-01 4.043371e+00 62 58 57
-1.218005e-02 -6.946755e-01 4.101158e+00 68 63 57
-3.831775e-01 -7.284892e-01 4.013685e+00 71 66 63
1.241762e-01 -6.197806e-01 4.232008e+00 96 92 89
-9.068269e-02 -6.768310e-01 4.089473e+00 65 60 56
-1.494982e-01 -6.391153e-01 4.067973e+00 102 94 92
-2.187950e-01 -6.437802e-01 4.018802e+00 61 56 52
-7.574827e-02 -5.909023e-01 4.052933e+00 61 56 52
-8.308074e-02 -5.893901e-01 4.054335e+00 66 61 57
-4.019515e-02 -5.658612e-01 4.100408e+00 101 96 92
-2.691453e-01 -5.876342e-01 4.002287e+00 105 97 95
-3.007467e-01 -4.580283e-01 4.038078e+00 79 76 75
-1.892972e-01 -4.819239e-02 3.891143e+00 136 135 136
-1.036984e+00 5.974595e-01 3.477659e+00 156 155 163
-1.181651e+00 1.322402e+00 3.095168e+00 11 11 22
-1.672659e+00 1.596010e+00 3.308741e+00 106 105 121
-1.997721e+00 -9.892006e-01 4.171806e+00 30 29 37
-3.932318e-01 1.965012e-02 4.000521e+00 73 71 84
-1.718596e-01 1.053465e-01 3.980676e+00 195 192 201
-1.899563e+00 -1.036419e+00 4.051445e+00 119 122 137
-1.080376e+00 -5.180711e-01 3.825867e+00 146 141 147
-3.193032e-01 6.580350e-02 3.897626e+00 161 160 168
-2.601505e-01 7.353378e-01 3.698494e+00 67 71 82
-1.095056e+00 1.787761e+00 3.092946e+00 166 166 176
-2.386009e-01 5.462980e-03 4.059180e+00 54 50 64
-1.313033e+00 -1.609577e-01 3.598032e+00 181 181 193
-2.615943e-01 1.211146e-01 3.959819e+00 140 136 150
-1.744376e-01 1.895172e-01 4.030527e+00 74 72 85
1.094345e+00 1.206748e+00 3.489681e+00 172 172 180
3.370577e-01 1.239833e+00 3.578874e+00 139 138 146
-1.212991e+00 9.478464e-01 3.250848e+00 36 36 48
-3.052709e-01 -5.597390e-01 4.058761e+00 163 157 161
-1.006358e+00 -5.527623e-01 3.894427e+00 170 164 178
-1.195242e+00 -4.691436e-01 3.779713e+00 176 173 180
-1.890213e-01 -7.051445e-02 3.915269e+00 153 149 163
-1.035283e+00 -1.736288e-01 3.778360e+00 139 140 145
-4.238060e-01 1.670510e-01 3.980812e+00 175 174 180
-1.222259e+00 7.997766e-01 3.394932e+00 28 26 37
5.592008e-01 2.165676e+00 3.202350e+00 93 92 98
8.599841e-01 -1.378133e-01 4.196489e+00 86 81 88
-1.002755e+00 -1.947898e-01 3.775773e+00 108 107 115
3.745726e-01 5.538657e-01 3.791498e+00 113 110 116
-1.023333e+00 3.328471e-01 3.547149e+00 176 175 183
-1.366731e+00 1.992912e+00 2.907682e+00 199 218 249
-3.430028e-01 -8.440302e-01 4.218900e+00 85 71 71
-1.108094e+00 -8.621903e-01 3.981730e+00 139 130 135
-1.108094e+00 -8.621903e-01 3.981730e+00 139 130 135
-1.390462e+00 -4.412151e-01 3.869610e+00 157 152 159
-1.492793e+00 -4.083850e-01 3.861968e+00 142 139 146
5.738245e-01 3.211655e-01 3.846956e+00 131 122 125
-8.824626e-01 2.586716e-01 3.592505e+00 98 96 101
-9.336979e-01 3.145652e-01 3.527349e+00 186 184 196
-8.140004e-01 3.497697e-01 3.531909e+00 107 104 111
4.776247e-01 6.046115e-01 3.708826e+00 100 95 101
-5.572816e-01 -1.093353e+00 4.306401e+00 177 170 177
1.196504e+00 -8.352421e-01 4.498067e+00 94 91 98
-1.355845e+00 -1.012632e+00 4.022284e+00 63 62 70
-1.124737e+00 -8.802446e-01 3.981253e+00 143 132 136
-9.950171e-01 -5.582036e-01 3.830632e+00 46 40 50
-5.030615e-01 3.227396e-01 3.641836e+00 116 115 120
-1.017660e+00 2.635753e-01 3.601827e+00 152 147 151
4.101143e-01 7.317385e-01 3.661166e+00 173 173 181
4.673349e-02 1.069493e+00 3.350350e+00 141 138 145
-4.369715e-01 1.818929e+00 2.791141e+00 104 130 163
-1.050522e+00 1.858787e+00 3.064524e+00 146 146 156
-1.133479e+00 -1.313225e+00 4.153578e+00 150 141 146
-9.548392e-01 -1.183376e+00 4.159154e+00 130 120 128
-1.199691e+00 -5.851646e-01 3.855727e+00 163 160 169
-1.457445e+00 -5.680364e-01 3.918539e+00 162 159 170
-3.456451e-01 -6.463194e-02 3.773856e+00 93 91 99
-8.420892e-03 5.171756e-02 3.816604e+00 147 144 153
-1.549893e+00 7.289869e-01 3.231565e+00 76 75 84
-1.359470e-01 9.979269e-01 3.314388e+00 139 136 143
-2.522691e-02 1.033014e+00 3.319699e+00 74 72 77
-9.306767e-01 1.802970e+00 2.964483e+00 77 75 86
-3.550657e-01 -1.141590e+00 4.381259e+00 90 80 81
-3.239472e-01 -9.193137e-01 4.172292e+00 132 121 119
-3.232071e-01 -8.771134e-01 4.152773e+00 147 133 133
-1.172888e+00 -9.365773e-01 3.990979e+00 97 87 88
-1.170842e+00 6.184202e-01 3.398825e+00 107 106 114
-1.011132e+00 -7.951821e-01 3.966592e+00 97 88 91
6.673904e-01 1.437285e+00 3.635384e+00 62 64 77
-1.122441e+00 -8.130138e-01 4.432299e+00 151 146 152
-9.619543e-01 -5.880339e-01 3.733592e+00 166 164 168
-1.042673e-01 -2.479237e-01 3.974617e+00 91 80 84
-1.884740e-03 1.950596e-01 3.788276e+00 189 188 196
-1.148670e+00 -8.946341e-01 4.022046e+00 102 98 99
-5.351004e-01 -1.069695e+00 4.193516e+00 175 174 180
3.312076e-01 -7.059733e-01 4.337556e+00 194 196 210
1.237181e-01 -3.345871e-01 4.084493e+00 168 162 166
-1.362513e+00 -1.156987e+00 4.134113e+00 105 107 115
-1.362513e+00 -1.156987e+00 4.134113e+00 105 107 115
3.102996e-01 -7.577767e-01 4.316409e+00 193 191 196
-1.367507e+00 -6.180912e-01 3.951098e+00 139 138 144
-1.105769e+00 -1.075453e+00 4.176222e+00 122 113 114
-1.045793e+00 -1.060933e+00 4.183489e+00 149 140 143
1.078072e+00 -6.829551e-02 4.245999e+00 78 75 82
-1.008957e+00 -1.048422e+00 4.177419e+00 112 103 107
1.257076e+00 -8.369274e-01 4.471327e+00 173 173 181
-4.510784e-01 -7.548241e-01 4.084767e+00 199 194 198
-2.554344e-01 -5.244167e-01 4.049754e+00 192 186 190
-1.196466e+00 -1.301387e+00 4.239485e+00 111 109 114
-3.598381e-01 -9.493055e-01 4.198556e+00 167 152 149
4.971304e-01 -3.310083e-01 4.211598e+00 167 163 164
-1.512434e-01 -1.837339e-01 3.962326e+00 92 84 93
-4.921663e-01 -1.064327e+00 4.212229e+00 158 149 147
-1.350118e+00 -9.627358e-01 4.054707e+00 137 139 152
1.434435e-02 -5.187968e-01 4.132054e+00 188 183 187
-3.734997e-01 -5.124664e-01 4.010644e+00 193 190 197
3.197933e-01 -7.199355e-02 4.091588e+00 97 92 96
-4.578959e-01 -1.077723e+00 4.228888e+00 195 190 196
-4.908006e-01 -9.781610e-01 4.216777e+00 156 146 145
-5.838698e-01 -4.920181e-01 3.966208e+00 103 103 111
-1.127304e-01 -4.017532e-02 3.901020e+00 160 160 172
2.234900e-01 -7.683374e-01 4.279110e+00 64 60 59
2.300531e-03 2.440006e-01 3.665097e+00 106 107 105
-2.724913e-01 -5.601927e-01 4.048791e+00 42 37 34
1.414498e-02 -3.014241e-01 4.111108e+00 39 35 34
-3.081371e-01 8.796081e-02 3.659818e+00 14 14 19
-2.983024e-01 1.169586e-01 3.652826e+00 11 12 17
-2.802970e-01 2.178699e-01 3.623254e+00 14 14 24
3.168641e-01 -8.013101e-01 4.382537e+00 105 105 107
-2.621503e-01 -7.760030e-01 4.027255e+00 24 20 17
9.224257e-02 -3.560951e-01 4.123455e+00 49 47 48
-2.247488e-01 -4.088966e-01 4.043194e+00 108 109 113
-1.180465e+00 -1.234060e+00 3.990423e+00 14 15 17
-3.418629e-01 -7.233440e-01 4.023167e+00 86 81 77
-3.418629e-01 -7.233440e-01 4.023167e+00 86 81 77
-1.063391e-02 -6.543895e-01 4.092271e+00 32 27 21
1.879604e-02 -5.292639e-01 4.119108e+00 41 37 34
1.467688e-01 -3.655060e-01 4.173274e+00 42 44 49
-2.034368e-01 4.401967e-02 3.632465e+00 124 128 131
-3.839933e-02 -1.041273e+00 4.145627e+00 42 41 38
2.207079e-01 -7.679029e-01 4.387628e+00 115 118 122
7.343537e-02 -6.690296e-01 4.186604e+00 46 41 38
-3.558196e-02 -6.796621e-01 4.137386e+00 70 61 53
-3.154768e-01 -7.246115e-01 4.030724e+00 23 18 15
-3.388402e-01 -6.993941e-01 4.033244e+00 20 15 11
-3.059159e-01 -6.624440e-01 4.031860e+00 85 79 79
-2.961167e-01 -5.966642e-01 4.024032e+00 36 31 27
-1.457170e-01 -5.318711e-01 4.047943e+00 82 76 76
-4.115845e-01 -4.477006e-01 3.970898e+00 48 49 42
-2.955300e-02 -1.585611e-01 4.032464e+00 92 84 77
-2.465395e-01 -1.053233e+00 4.124442e+00 34 32 32
5.840867e-02 -1.013816e+00 4.160440e+00 74 73 71
-4.191034e-01 -1.050139e+00 4.092337e+00 83 82 80
2.620110e-01 -8.050901e-01 4.312717e+00 83 83 85
-1.437700e-01 -8.999486e-01 4.112311e+00 19 17 15
2.689542e-01 -7.956205e-01 4.308575e+00 45 45 47
1.790590e-01 -7.844061e-01 4.261736e+00 92 87 84
-2.740970e-01 -8.760739e-01 4.083639e+00 24 19 13
-2.610307e-01 -7.830976e-01 4.078620e+00 72 67 60
1.044611e-01 -6.680580e-01 4.179659e+00 37 33 22
5.535757e-01 -5.625757e-01 4.317468e+00 38 33 29
-3.236389e-02 -5.876492e-01 4.113758e+00 37 32 29
-2.297402e-01 -6.161484e-01 4.040569e+00 35 28 23
-2.297402e-01 -6.161484e-01 4.040569e+00 35 28 23
-3.129208e-01 -5.818915e-01 4.058615e+00 36 32 29
-2.057486e-01 -5.168757e-01 4.023537e+00 39 34 32
-7.433358e-01 -4.953242e-01 3.950809e+00 110 111 114
-2.079458e-01 1.523003e-01 3.653759e+00 12 10 23
-4.132359e-01 -1.302922e+00 4.238437e+00 24 24 24
-2.712308e-01 -1.309778e+00 4.193816e+00 26 26 24
2.249955e-01 -1.201876e+00 4.393484e+00 31 30 25
1.235420e-01 -1.170031e+00 4.328689e+00 19 19 19
1.235420e-01 -1.170031e+00 4.328689e+00 19 19 19
2.249507e-01 -1.173913e+00 4.302037e+00 20 18 21
1.570716e-01 -1.163534e+00 4.337339e+00 18 18 18
2.155568e-01 -1.140880e+00 4.377530e+00 21 20 21
2.518727e-01 -1.135823e+00 4.384683e+00 67 67 67
1.830425e-01 -1.049306e+00 4.305124e+00 32 32 32
-1.987102e-01 -1.057004e+00 4.146667e+00 32 31 30
-3.927667e-01 -1.071894e+00 4.105237e+00 25 21 18
1.133575e-01 -9.908513e-01 4.229265e+00 38 37 33
6.070100e-01 -9.227111e-01 4.298413e+00 33 32 30
-9.215335e-02 -1.035576e+00 4.112600e+00 74 73 70
1.706445e-01 -8.946100e-01 4.300607e+00 66 61 58
2.525316e-01 -8.431174e-01 4.311614e+00 39 36 34
2.525316e-01 -8.431174e-01 4.311614e+00 39 36 34
1.561744e-01 -8.374989e-01 4.281656e+00 74 69 66
1.327249e-01 -8.471773e-01 4.249745e+00 31 25 17
-4.309905e-01 -9.036246e-01 4.100222e+00 26 26 21
-3.073184e-01 -8.878918e-01 4.074612e+00 23 18 15
1.332375e-01 -7.916762e-01 4.221359e+00 84 79 75
1.499224e-01 -7.650490e-01 4.274256e+00 35 31 28
8.182292e-02 -7.451737e-01 4.204664e+00 29 23 15
4.798583e-02 -7.511211e-01 4.183751e+00 72 67 63
1.094130e-01 -6.736328e-01 4.190281e+00 29 24 18
7.255581e-02 -6.790051e-01 4.184826e+00 87 82 76
1.621160e-01 -6.442429e-01 4.208965e+00 68 64 63
-3.665463e-01 -7.193237e-01 4.063661e+00 99 90 90
-3.171475e-01 -6.714775e-01 4.032402e+00 44 40 37
8.161861e-02 -5.789476e-01 4.161138e+00 80 73 68
-3.658351e-01 -6.389195e-01 4.059835e+00 43 39 39
-4.504100e-02 -5.394366e-01 4.063423e+00 55 51 42
-1.589629e-01 -4.876406e-01 4.035108e+00 83 76 73
-2.853752e-01 -4.555389e-01 4.045465e+00 40 38 37
-3.257921e-01 -4.252318e-01 3.993773e+00 100 100 100
-1.084452e-01 -1.882549e-01 4.005846e+00 49 35 31
-1.354536e-01 -1.852477e-01 4.000527e+00 51 42 34
-1.372385e+00 -1.271799e+00 4.181546e+00 114 124 130
-9.344033e-01 -1.030202e+00 4.019013e+00 92 83 86
-1.283692e+00 -9.798746e-01 3.972280e+00 174 180 189
-6.724056e-02 -8.159742e-01 3.995203e+00 144 136 119
-6.675956e-02 -5.295300e-01 4.112621e+00 141 133 122
2.399527e-01 -9.076381e-01 4.326355e+00 149 149 137
2.218074e-01 -8.953191e-01 4.298753e+00 74 75 75
1.292351e-01 -9.388427e-01 4.135029e+00 137 136 124
2.970542e-01 -8.319082e-01 4.416259e+00 165 169 174
1.730427e-01 -7.391100e-01 4.272166e+00 156 152 145
1.730427e-01 -7.391100e-01 4.272166e+00 156 152 145
-4.145878e-02 -7.751346e-01 3.979860e+00 135 120 105
-7.777921e-01 -5.827233e-01 3.968816e+00 185 189 192
-2.559711e-01 -5.524072e-01 4.079805e+00 161 153 142
1.675636e-02 -1.579910e-01 4.098265e+00 138 128 123
-5.723693e-01 -1.123722e+00 4.227241e+00 167 181 189
-8.080230e-01 -1.208814e+00 3.933565e+00 122 119 116
2.726542e-01 -9.435746e-01 4.407788e+00 86 85 90
2.661887e-01 -9.266210e-01 4.410837e+00 143 147 157
-1.342705e-01 -1.063135e+00 4.051103e+00 106 103 96
1.580018e-01 -9.452530e-01 4.172540e+00 127 126 117
-3.619097e-01 -6.782883e-01 4.062753e+00 152 145 134
2.667752e-01 -4.208269e-01 4.322873e+00 165 158 154
-4.592113e-01 -5.433599e-01 4.065149e+00 164 153 143
1.630152e-01 -1.147733e+00 4.199877e+00 60 60 63
1.805352e-01 -1.106093e+00 4.269059e+00 114 113 115
-8.518997e-03 -5.478089e-01 4.138840e+00 156 149 136
-6.737050e-02 -5.296802e-01 4.140302e+00 150 143 127
2.949129e-01 -1.747404e-02 4.126918e+00 185 184 178
-7.137280e-02 -1.048294e+00 4.056876e+00 90 87 82
-1.613889e-01 -1.051813e+00 4.048842e+00 135 136 131
-9.488869e-01 -1.139099e+00 3.859771e+00 117 115 111
1.199686e-01 -6.487095e-01 4.276100e+00 104 103 103
-9.264878e-01 -8.478041e-01 3.868796e+00 114 106 97
-4.410294e-01 -6.938162e-01 4.114844e+00 188 188 191
-1.105260e-01 -5.135230e-01 4.116004e+00 155 149 133
6.833010e-01 -2.797372e-01 4.271829e+00 124 133 148
1.737131e-01 -3.693910e-01 4.273443e+00 126 121 112
-1.209525e-03 -4.110348e-01 4.172142e+00 112 102 98
-3.741943e-01 -2.424003e-01 3.966254e+00 142 132 121
-7.737303e-02 5.985516e-01 3.632273e+00 116 109 112
-1.039306e-01 5.922788e-01 3.628346e+00 101 98 101
1.097981e-01 -1.089446e+00 4.100094e+00 96 98 96
8.727050e-02 -1.011669e+00 4.094083e+00 129 129 122
-1.438129e-01 -1.022802e+00 4.037169e+00 103 97 99
1.600357e-01 -6.252377e-01 4.250397e+00 194 192 193
-4.449296e-02 -5.669067e-01 4.151286e+00 140 135 128
-1.246002e-01 -5.275615e-01 4.107539e+00 147 142 139
3.503260e-01 -3.473778e-01 4.293017e+00 122 117 114
-2.239827e-01 4.818428e-01 3.891707e+00 165 157 144
-5.189889e-02 6.029622e-01 3.634958e+00 110 108 107
4.646946e-01 1.382048e+00 8.546863e-01 111 109 112
2.589001e-01 -1.067102e+00 4.354502e+00 87 85 87
1.096661e-01 -1.079479e+00 4.103293e+00 75 77 76
2.575856e-01 -9.412161e-01 4.411178e+00 80 80 84
-5.644639e-03 -1.056201e+00 4.075940e+00 99 97 94
-6.131048e-01 -9.815824e-01 4.170879e+00 125 126 133
-1.673679e-01 -9.592248e-01 4.012183e+00 128 125 117
-1.782846e-01 -9.407843e-01 4.002687e+00 91 87 75
-8.837233e-03 -9.084435e-01 4.040870e+00 133 130 121
-3.447768e-03 -7.540998e-01 4.037011e+00 112 110 104
2.423646e-02 -7.409351e-01 4.079477e+00 123 118 108
-3.467659e-01 -6.619305e-01 4.093717e+00 108 106 102
-1.902790e-01 -5.771740e-01 4.077094e+00 133 128 122
-1.173107e-01 -4.804418e-01 4.129535e+00 184 180 177
3.549152e-04 -4.482541e-01 4.171297e+00 186 179 176
3.217173e-01 -3.520752e-01 4.293060e+00 126 118 114
-7.515761e-02 -4.459502e-01 4.143787e+00 161 157 153
-6.340186e-01 -5.418482e-01 4.013577e+00 182 180 179
-4.756115e-01 -5.063336e-01 4.017594e+00 160 159 155
-2.011357e-01 -1.941123e-01 4.021673e+00 143 131 132
-4.508870e-01 -2.434077e-01 3.949609e+00 110 92 92
-5.049974e-01 -2.516720e-01 3.934742e+00 107 97 92
-5.129915e-01 5.221656e-02 3.811757e+00 100 91 92
-1.208565e+00 -4.711782e-01 3.817385e+00 45 46 49
1.006276e+00 -1.881853e-01 4.239417e+00 178 163 142
-7.542774e-01 -5.101363e-01 3.941702e+00 54 59 69
-5.871995e-01 -7.772699e-02 3.814769e+00 124 131 149
8.052548e-01 1.141303e+00 3.631665e+00 157 144 135
-4.026174e-01 9.606098e-01 3.433698e+00 34 31 34
6.895195e-01 5.510339e-01 3.803574e+00 192 174 144
7.244794e-01 2.679825e+00 3.090510e+00 174 187 214
8.964372e-01 -1.702032e-01 4.305406e+00 129 120 105
-1.218042e+00 -3.982703e-02 3.638515e+00 36 29 25
-8.722893e-01 8.300697e-01 3.403937e+00 60 53 48
-4.836850e-01 -1.366933e-02 5.767305e+00 128 121 104
6.009535e-01 -2.656539e-01 4.276816e+00 163 157 143
9.358402e-01 2.027657e-02 4.114448e+00 189 189 184
4.123068e-01 7.943424e-01 3.646381e+00 76 67 61
-4.388479e-01 -3.475685e-01 3.952945e+00 109 104 103
-5.667309e-01 -2.179330e-01 3.874668e+00 110 111 114
-5.370441e-01 -1.008511e+00 4.154722e+00 33 32 33
-5.387015e-01 -9.726326e-01 4.117499e+00 32 27 32
-7.233757e-01 -9.494746e-01 4.073111e+00 66 67 67
-8.921618e-01 -7.611628e-01 4.002759e+00 20 16 16
-8.105238e-01 -4.831126e-01 3.952119e+00 100 91 92
-4.099882e-01 -4.190830e-01 3.975145e+00 72 72 73
-4.460227e-01 -3.232313e-01 3.935278e+00 97 96 94
-1.320847e+00 -2.747613e-01 3.870807e+00 60 61 65
-1.270876e+00 -4.463555e-02 3.673093e+00 98 99 101
8.918908e-02 -1.001605e+00 4.169418e+00 24 24 22
-3.592494e-01 -1.037822e+00 4.143507e+00 35 30 22
-7.315024e-01 -1.008643e+00 4.081406e+00 8 5 4
-1.677847e-01 -8.766689e-01 4.079247e+00 67 62 57
2.131440e-01 -7.771462e-01 4.201635e+00 14 10 7
-9.427187e-01 -7.544761e-01 3.982471e+00 66 62 61
-8.644176e-01 -7.054646e-01 3.998852e+00 67 67 68
-7.838515e-01 -6.518146e-01 4.008046e+00 118 118 123
8.883935e-02 -4.816103e-01 4.122282e+00 129 131 130
-6.641319e-01 -5.784986e-01 3.985032e+00 70 71 76
-1.093237e+00 -6.284735e-01 3.931031e+00 81 78 80
-8.706727e-01 -5.622388e-01 3.977433e+00 99 100 96
-1.393356e-01 -4.194904e-01 4.056485e+00 12 13 17
-2.501008e-01 -3.256042e-01 4.000323e+00 110 104 104
-2.753154e-01 7.796109e-02 3.845599e+00 5 6 10
-2.753154e-01 7.796109e-02 3.845599e+00 5 6 10
-1.128113e+00 1.869545e-01 3.565904e+00 118 114 111
-9.605396e-01 8.449275e-01 3.379582e+00 82 76 76
-1.427168e-01 -1.002375e+00 4.141029e+00 21 22 16
-6.834784e-01 -1.016498e+00 4.103531e+00 27 26 24
-5.853985e-01 -9.717456e-01 4.145117e+00 24 24 26
-4.081400e-01 -8.977887e-01 4.123740e+00 85 82 80
-4.230766e-01 -8.262980e-01 4.105111e+00 77 76 73
-3.789784e-01 -7.984969e-01 4.093247e+00 35 30 26
-9.418616e-03 -7.087849e-01 4.100885e+00 68 64 55
-4.964343e-01 -7.249432e-01 4.067818e+00 106 110 113
-8.576882e-01 -6.907335e-01 4.010487e+00 109 107 111
3.138381e-02 -5.177467e-01 4.135950e+00 89 88 89
-2.318315e-01 -4.904600e-01 4.048833e+00 120 119 116
-8.033813e-01 -5.418764e-01 3.972148e+00 40 40 41
6.349455e-01 -3.075661e-01 4.198985e+00 69 67 62
-4.574785e-01 -4.687654e-01 4.019563e+00 14 13 16
-4.329259e-01 -4.596639e-01 3.991225e+00 106 106 111
-4.248527e-01 -4.513533e-01 3.988657e+00 37 36 34
-6.111231e-01 -4.716343e-01 3.964229e+00 17 11 12
-4.537467e-01 -3.445963e-01 3.944526e+00 84 83 82
-1.261564e+00 1.764983e+00 2.940149e+00 131 131 133
-5.724542e-01 -1.068076e+00 4.171038e+00 72 68 74
-4.873263e-01 -1.060432e+00 4.171777e+00 91 83 80
-2.593085e-01 -1.062742e+00 4.135209e+00 29 26 22
-2.593085e-01 -1.062742e+00 4.135209e+00 29 26 22
-4.197014e-01 -1.054359e+00 4.169756e+00 33 29 26
-8.351150e-01 -1.111899e+00 4.079691e+00 45 39 41
-3.849052e-01 -9.562610e-01 4.130503e+00 77 77 69
-4.306891e-01 -9.368438e-01 4.134358e+00 78 69 62
-5.944756e-01 -9.464250e-01 4.130528e+00 84 85 88
-3.463975e-01 -9.106060e-01 4.110777e+00 26 23 16
-4.232016e-01 -8.059232e-01 4.102388e+00 25 19 19
1.846239e-01 -7.094387e-01 4.187717e+00 97 90 87
-2.399257e-01 -7.452081e-01 4.069424e+00 22 16 17
-4.193669e-01 -7.051569e-01 4.086360e+00 38 34 35
-3.354119e-01 -6.740045e-01 4.084475e+00 86 85 82
-2.149548e-01 -6.034478e-01 4.070216e+00 75 72 68
-7.994014e-02 -5.705215e-01 4.089648e+00 32 28 20
-2.135220e-01 -5.655235e-01 4.074443e+00 76 72 70
-3.236035e-01 -5.673800e-01 4.056674e+00 81 77 78
-1.274338e-01 -5.197176e-01 4.076502e+00 82 77 73
-4.879077e-01 -4.850999e-01 4.029050e+00 47 46 41
-5.011160e-01 -4.763443e-01 4.016637e+00 34 32 36
4.108270e-01 -3.277387e-01 4.184687e+00 24 28 31
2.379632e-01 -3.149209e-01 4.128213e+00 126 128 132
-5.105744e-01 -3.812337e-01 3.955156e+00 38 38 38
-7.801429e-02 -2.762962e-01 4.041437e+00 82 80 81
-1.999609e-02 -2.415859e-01 4.038168e+00 90 87 82
5.528651e-01 5.294790e-02 4.111160e+00 68 67 72
-2.504599e-01 2.044116e-02 3.859164e+00 52 50 51
-1.027866e+00 1.580250e+00 2.685287e+00 93 97 98
1.142968e+00 1.138316e+00 3.846186e+00 255 255 255
1.101057e-01 8.766928e-02 3.748853e+00 34 38 50
-1.347247e+00 7.631042e-01 3.360885e+00 79 79 81
-5.040732e-01 -1.172478e+00 4.183581e+00 104 109 113
-1.271781e+00 -4.518956e-01 3.796029e+00 41 40 39
-1.260814e+00 -4.202496e-01 3.792252e+00 94 93 89
-1.337554e-01 6.437639e-02 3.294126e+00 133 133 131
-2.566690e-02 2.072311e-01 3.735692e+00 125 125 121
-9.569524e-01 4.002140e-01 3.532396e+00 81 77 74
-3.198984e-01 -3.965158e-01 4.082355e+00 29 28 26
-1.453678e+00 -4.525569e-01 3.777467e+00 63 59 60
-3.454029e-01 1.955106e-01 5.473101e+00 120 119 114
-2.339339e-01 2.082360e-01 3.915252e+00 37 40 49
4.440257e-01 1.109463e+00 3.908670e+00 117 118 113
9.916294e-01 2.167666e+00 3.418756e+00 254 255 255
-1.621371e-01 -2.379437e-01 4.009755e+00 43 42 41
7.913144e-01 -4.195727e-02 3.593414e+00 46 44 44
-3.594783e-01 3.015160e-01 4.182051e+00 34 41 49
-1.211405e+00 4.690671e-01 3.437834e+00 108 117 116
-1.113281e+00 6.795211e-01 2.935636e+00 32 32 30
-1.482858e+00 1.817364e+00 2.588369e+00 133 137 140
-7.686686e-01 2.147271e+00 2.821864e+00 246 249 254
8.126738e-01 -1.010603e+00 4.338743e+00 67 66 64
2.966890e-02 -5.508760e-01 4.204031e+00 68 65 60
3.867585e-02 -3.647827e-01 4.113468e+00 115 121 120
-4.099692e-01 -3.557410e-01 3.955423e+00 100 99 95
5.420043e-01 -1.801228e-01 4.217943e+00 121 121 121
2.983574e-01 1.643573e+00 2.553258e+00 253 251 254
-3.187980e-01 -1.161961e+00 4.136337e+00 28 28 29
1.092278e+00 -6.472265e-01 4.494103e+00 110 105 105
-4.953717e-01 -4.615329e-01 4.003329e+00 115 120 123
5.471117e-01 -1.688089e-01 4.214443e+00 80 80 80
-6.715580e-01 -6.795017e-01 4.119018e+00 148 148 136
-4.883131e-01 -3.664947e-01 3.940847e+00 92 89 77
2.836687e-01 1.406655e+00 3.389870e+00 128 129 121
-7.467435e-01 -1.245832e+00 4.178960e+00 89 84 74
7.083989e-01 2.151169e+00 3.718950e+00 90 100 97
-7.202145e-01 -1.143758e+00 4.225906e+00 52 46 42
-1.472963e+00 7.442379e-01 3.282122e+00 148 150 138
-4.885108e-01 -1.169432e+00 4.247488e+00 60 60 46
-7.195923e-01 -1.164848e+00 4.172637e+00 48 45 36
-7.195923e-01 -1.164848e+00 4.172637e+00 48 45 36
5.463930e-01 -3.004578e-01 4.181667e+00 144 146 137
4.793225e-01 1.694473e-01 3.862369e+00 128 129 119
5.092031e-01 2.110009e-01 3.793067e+00 123 121 104
-1.202683e+00 7.842992e-01 3.335193e+00 45 46 44
3.382201e-01 1.942760e+00 3.350257e+00 29 39 41
-4.453531e-01 -1.247288e+00 4.299519e+00 54 50 38
-8.070819e-01 -1.175732e+00 4.101007e+00 93 86 74
5.082833e-01 -1.506455e-01 4.123974e+00 61 60 50
-2.653419e-01 1.756133e+00 2.378172e+00 196 217 230
6.291639e-01 2.186317e+00 2.966864e+00 147 149 144
2.323293e-01 2.256004e+00 3.153037e+00 113 115 112
-1.527930e+00 2.025377e+00 2.992040e+00 187 208 210
-3.554257e-01 -1.095522e+00 4.218005e+00 44 37 31
-2.868667e-01 -1.266905e-01 3.919159e+00 125 124 106
-1.294615e+00 2.900826e-01 3.527836e+00 94 95 88
-1.059630e+00 8.517823e-01 3.353049e+00 116 118 104
-1.058710e+00 8.570907e-01 3.355661e+00 116 118 104
-9.689936e-01 8.896727e-01 3.339986e+00 98 99 90
-1.304790e+00 8.397502e-01 3.386726e+00 93 94 87
-1.077962e+00 1.628062e+00 3.014609e+00 76 78 73
-1.113660e+00 1.723854e+00 2.982720e+00 75 77 74
-8.481050e-02 -5.061062e-01 4.150058e+00 56 54 49
-8.265909e-01 2.132124e+00 2.962903e+00 240 253 252
-5.709585e-01 -8.986319e-01 4.163263e+00 86 84 85
-3.250634e-01 1.036597e+00 3.451487e+00 84 83 84
7.537259e-02 -5.964782e-01 4.244932e+00 65 67 64
-1.167541e+00 5.318043e-01 3.411510e+00 63 73 81
-7.949717e-01 1.122389e+00 3.128427e+00 82 89 95
-1.581178e+00 -2.139927e-01 3.505204e+00 35 58 95
-2.783212e-01 6.550433e-02 3.676139e+00 94 102 101
-9.244426e-01 2.209222e+00 2.332755e+00 191 236 254
-1.273345e-01 8.908105e-02 3.464968e+00 37 24 23
-4.310336e-01 -2.449076e-01 3.938466e+00 123 66 38
-5.847239e-01 -3.050930e-01 3.933141e+00 118 74 57
-1.079538e-01 -1.740622e-01 4.035663e+00 119 66 43
-5.616062e-01 -4.917851e-01 4.016107e+00 41 26 21
-8.603165e-02 -3.868539e-01 4.089715e+00 101 66 51
-4.052879e-01 -2.795415e-01 3.956685e+00 99 63 44
-3.212242e-01 -2.654957e-01 3.980368e+00 103 63 43
-7.105249e-01 1.328234e+00 2.070229e+00 71 39 30
-6.784211e-01 1.340129e+00 2.080326e+00 99 49 31
-7.592985e-01 1.407375e+00 2.084281e+00 131 76 55
-8.561595e-01 7.527579e-01 3.883280e+00 151 144 126
-8.106196e-01 -1.468102e-01 3.762645e+00 49 51 49
-1.383290e+00 -2.224313e-01 3.687683e+00 163 157 145
3.568554e-01 1.791362e-01 4.247931e+00 45 46 48
3.513978e-01 1.894847e+00 3.256868e+00 26 26 31
-6.032727e-01 1.217903e-01 4.024960e+00 148 136 119
-1.374262e+00 4.164086e-02 3.559762e+00 173 166 155
-1.595879e+00 6.697856e-01 3.213580e+00 232 233 237
-7.411330e-01 1.022298e+00 3.698786e+00 65 59 47
-1.378028e+00 3.062662e-01 3.499902e+00 169 163 147
-1.349205e+00 8.386570e-01 3.338383e+00 59 55 46
-1.438195e+00 7.996572e-01 3.257260e+00 73 69 58
-8.537566e-01 1.032365e+00 3.704301e+00 93 89 74
2.522893e-01 1.198796e+00 3.588532e+00 58 54 43
-1.288739e+00 -4.739749e-01 3.814928e+00 84 77 67
-1.593563e+00 -3.299972e-02 3.571768e+00 252 253 246
3.304155e-01 6.651945e-01 3.713722e+00 71 64 46
-2.406251e-01 7.030087e-01 3.518261e+00 79 75 64
1.087712e+00 -6.457224e-02 4.229379e+00 156 148 133
-2.449622e-01 2.660678e-01 3.773806e+00 43 40 34
4.076983e-01 6.381732e-01 3.741238e+00 141 130 108
5.359215e-01 7.432531e-01 3.708103e+00 159 156 141
4.916506e-01 9.475690e-01 3.640036e+00 30 31 20
8.880948e-01 1.173589e+00 3.897946e+00 147 140 124
-1.557997e+00 8.551339e-01 3.189295e+00 228 230 226
-1.042452e+00 -1.254454e+00 4.044562e+00 98 89 75
-1.206420e+00 -1.425428e+00 3.449366e+00 90 84 70
-1.246843e+00 -1.360768e+00 3.437743e+00 143 137 123
-1.084295e+00 -7.259519e-01 3.979401e+00 90 78 58
-5.572684e-01 -5.262472e-01 3.897946e+00 139 133 119
1.264884e+00 -2.245858e-01 4.121866e+00 103 96 78
-2.600234e-01 -1.136261e-01 3.919785e+00 56 49 31
-6.094053e-01 -7.633208e-03 3.807141e+00 159 153 135
7.198402e-01 2.422229e-01 3.911904e+00 84 76 57
-1.920051e-01 2.981510e-01 3.788288e+00 38 36 22
8.764135e-01 6.725178e-01 3.850337e+00 144 135 117
-1.496242e+00 2.738355e-01 3.338880e+00 102 100 87
-9.228481e-02 1.022748e+00 3.899618e+00 130 122 103
-1.058927e+00 8.927846e-01 3.276788e+00 130 127 115
-1.427374e+00 9.085004e-01 3.232001e+00 148 143 124
3.690824e-01 1.398372e+00 3.428763e+00 23 23 20
-1.224921e+00 -8.098674e-01 3.532785e+00 142 136 118
1.260961e+00 -4.470778e-01 4.087870e+00 173 165 146
-5.715692e-01 -3.377422e-01 3.926537e+00 47 44 30
-9.470521e-01 -3.257830e-01 3.862388e+00 76 68 57
5.617030e-01 -1.895689e-01 3.886811e+00 120 111 96
4.859931e-01 -1.654672e-01 3.855239e+00 65 58 42
-1.264516e+00 2.211853e-01 3.545177e+00 96 90 74
-1.569284e+00 3.209382e-01 3.399935e+00 245 246 237
-1.537561e+00 3.661444e-01 3.385163e+00 150 148 136
-4.020787e-01 8.887002e-01 3.485264e+00 140 137 121
-6.799672e-01 9.838257e-01 3.431808e+00 73 67 55
