ply
format ascii 1.0
element face 0
property list uchar int vertex_indices
element vertex 954
property float x
property float y
property float z
property uchar diffuse_red
property uchar diffuse_green
property uchar diffuse_blue
end_header
3.968167e-01 4.767776e-01 3.132887e+00 40 38 52
3.428762e-01 5.467725e-01 3.117056e+00 137 115 128
4.053167e-01 4.662788e-01 3.133307e+00 117 124 143
3.937355e-01 4.807551e-01 3.132222e+00 66 73 92
4.120756e-01 4.580375e-01 3.133498e+00 101 99 112
3.825486e-01 4.950926e-01 3.130746e+00 57 60 77
3.825486e-01 4.950926e-01 3.130746e+00 57 60 77
3.825486e-01 4.950926e-01 3.130746e+00 57 60 77
3.582473e-01 5.266797e-01 3.123611e+00 15 22 38
3.755800e-01 5.041393e-01 3.129181e+00 83 91 102
4.149396e-01 4.548093e-01 3.133422e+00 33 36 69
4.294915e-01 4.371984e-01 3.132516e+00 123 118 138
3.794238e-01 4.993319e-01 3.130066e+00 87 90 107
3.785214e-01 5.004988e-01 3.129905e+00 79 86 102
4.111743e-01 4.596476e-01 3.133553e+00 106 102 116
3.939243e-01 4.810779e-01 3.132576e+00 62 68 84
3.951318e-01 4.795854e-01 3.132736e+00 73 81 94
3.951318e-01 4.795854e-01 3.132736e+00 73 81 94
3.520963e-01 5.351266e-01 3.121320e+00 71 65 109
4.025302e-01 4.704009e-01 3.133321e+00 123 126 143
3.959470e-01 4.786479e-01 3.132793e+00 111 115 127
3.818761e-01 4.964217e-01 3.130625e+00 91 51 95
3.687667e-01 5.133614e-01 3.127250e+00 118 110 142
3.687667e-01 5.133614e-01 3.127250e+00 118 110 142
3.439835e-01 5.460919e-01 3.117521e+00 129 108 125
4.340413e-01 4.320510e-01 3.132075e+00 134 115 133
4.124146e-01 4.582986e-01 3.133553e+00 144 137 152
3.866262e-01 4.904101e-01 3.131534e+00 85 92 107
3.866262e-01 4.904101e-01 3.131534e+00 85 92 107
3.866262e-01 4.904101e-01 3.131534e+00 85 92 107
4.148994e-01 4.552899e-01 3.133539e+00 170 174 211
3.811292e-01 4.974790e-01 3.130486e+00 81 25 73
3.753843e-01 5.048988e-01 3.129351e+00 130 134 146
4.359822e-01 4.298652e-01 3.131864e+00 125 105 117
4.154263e-01 4.546956e-01 3.133526e+00 172 176 206
4.154263e-01 4.546956e-01 3.133526e+00 172 176 206
3.771137e-01 5.027493e-01 3.129534e+00 161 163 175
3.653753e-01 5.179459e-01 3.126189e+00 134 145 173
3.896236e-01 4.868332e-01 3.132022e+00 106 106 118
3.827383e-01 4.955379e-01 3.130796e+00 117 116 134
3.801141e-01 4.989438e-01 3.130230e+00 137 139 152
3.763144e-01 5.038245e-01 3.129324e+00 149 151 164
3.853769e-01 4.922274e-01 3.131314e+00 118 119 138
3.814137e-01 4.973358e-01 3.130533e+00 161 94 152
3.760151e-01 5.042055e-01 3.129289e+00 139 145 157
4.112439e-01 4.599836e-01 3.133565e+00 167 161 172
4.109080e-01 4.603993e-01 3.133573e+00 146 145 153
4.098886e-01 4.616725e-01 3.133590e+00 157 157 167
4.057931e-01 4.666560e-01 3.133535e+00 28 29 48
4.228443e-01 4.458735e-01 3.133195e+00 107 114 130
4.228443e-01 4.458735e-01 3.133195e+00 107 114 130
4.240694e-01 4.444685e-01 3.133144e+00 71 69 83
4.096442e-01 4.620859e-01 3.133628e+00 154 155 167
4.096442e-01 4.620859e-01 3.133628e+00 154 155 167
4.087303e-01 4.632451e-01 3.133548e+00 126 131 144
4.087303e-01 4.632451e-01 3.133548e+00 126 131 144
3.881174e-01 4.890143e-01 3.131708e+00 108 114 137
3.775651e-01 5.024461e-01 3.129692e+00 163 165 177
3.585036e-01 5.273524e-01 3.123568e+00 17 25 37
4.038188e-01 4.693921e-01 3.133441e+00 147 147 157
4.038188e-01 4.693921e-01 3.133441e+00 147 147 157
4.129097e-01 4.582561e-01 3.133589e+00 159 148 162
4.072500e-01 4.652086e-01 3.133566e+00 49 51 72
3.903243e-01 4.862964e-01 3.132144e+00 120 122 135
3.899750e-01 4.867393e-01 3.132051e+00 194 196 208
3.785120e-01 5.013668e-01 3.129876e+00 156 158 170
3.788233e-01 5.010007e-01 3.129966e+00 168 172 184
4.112605e-01 4.603815e-01 3.133638e+00 74 71 78
4.079670e-01 4.644251e-01 3.133593e+00 75 77 93
3.791670e-01 5.006447e-01 3.130034e+00 165 169 181
3.425658e-01 5.486578e-01 3.116903e+00 149 139 148
4.115704e-01 4.600274e-01 3.133657e+00 78 70 81
3.794672e-01 5.003063e-01 3.130088e+00 166 168 181
3.579980e-01 5.282710e-01 3.123522e+00 194 210 240
4.093600e-01 4.628399e-01 3.133474e+00 90 93 102
3.700982e-01 5.124406e-01 3.127642e+00 170 158 194
3.807655e-01 4.987664e-01 3.130371e+00 169 163 178
3.780375e-01 5.021960e-01 3.129906e+00 158 160 172
3.780375e-01 5.021960e-01 3.129906e+00 158 160 172
3.906846e-01 4.861949e-01 3.132109e+00 58 58 71
3.906846e-01 4.861949e-01 3.132109e+00 58 58 71
3.783901e-01 5.018508e-01 3.129815e+00 158 160 172
3.611143e-01 5.243479e-01 3.124673e+00 186 190 206
3.453341e-01 5.452276e-01 3.118159e+00 159 171 198
4.370965e-01 4.292995e-01 3.131855e+00 48 39 56
4.285993e-01 4.395301e-01 3.132852e+00 79 69 88
3.972482e-01 4.779713e-01 3.132943e+00 139 140 160
3.903339e-01 4.866906e-01 3.132105e+00 83 85 97
3.597347e-01 5.262731e-01 3.124179e+00 18 27 44
4.211943e-01 4.485540e-01 3.133484e+00 152 155 172
3.876339e-01 4.903165e-01 3.131407e+00 179 179 189
3.799294e-01 5.000580e-01 3.130213e+00 153 153 165
3.524068e-01 5.359869e-01 3.121275e+00 69 69 97
3.495064e-01 5.398431e-01 3.120096e+00 125 107 129
3.975587e-01 4.777690e-01 3.132991e+00 47 44 65
3.940343e-01 4.822334e-01 3.132470e+00 146 146 158
3.940101e-01 4.822396e-01 3.132577e+00 146 146 158
3.448133e-01 5.461762e-01 3.117936e+00 148 132 145
3.426853e-01 5.490760e-01 3.116957e+00 154 142 152
4.145331e-01 4.568903e-01 3.133705e+00 114 115 157
4.142688e-01 4.571813e-01 3.133612e+00 39 38 70
3.934383e-01 4.830413e-01 3.132546e+00 155 155 165
3.934383e-01 4.830413e-01 3.132546e+00 155 155 165
3.826868e-01 4.967165e-01 3.130716e+00 158 149 175
3.699587e-01 5.131032e-01 3.127652e+00 178 163 205
4.350488e-01 4.320588e-01 3.132254e+00 216 207 226
4.000680e-01 4.748309e-01 3.133187e+00 111 111 123
3.680596e-01 5.156057e-01 3.127005e+00 175 172 183
3.606000e-01 5.253812e-01 3.124444e+00 13 16 33
3.906778e-01 4.866534e-01 3.132158e+00 128 130 142
3.903462e-01 4.870336e-01 3.132140e+00 165 167 179
3.871599e-01 4.911410e-01 3.131611e+00 170 170 180
3.810066e-01 4.989679e-01 3.130427e+00 168 162 176
3.704585e-01 5.125709e-01 3.127761e+00 91 75 102
4.093129e-01 4.634860e-01 3.133617e+00 46 46 57
3.932310e-01 4.835494e-01 3.132467e+00 149 147 158
3.932310e-01 4.835494e-01 3.132467e+00 149 147 158
3.616718e-01 5.242141e-01 3.124832e+00 141 141 153
3.543480e-01 5.338884e-01 3.122063e+00 28 22 50
4.279322e-01 4.409281e-01 3.132983e+00 171 174 195
3.837357e-01 4.957113e-01 3.130957e+00 147 146 155
3.697221e-01 5.137890e-01 3.127477e+00 50 40 66
4.157431e-01 4.558532e-01 3.133683e+00 103 123 170
3.976911e-01 4.781639e-01 3.133033e+00 134 136 155
3.976911e-01 4.781639e-01 3.133033e+00 134 136 155
3.730010e-01 5.096291e-01 3.128434e+00 151 155 164
3.835017e-01 4.961654e-01 3.130924e+00 162 161 169
4.087835e-01 4.644913e-01 3.133687e+00 87 87 99
3.762679e-01 5.055310e-01 3.129272e+00 150 156 168
3.475435e-01 5.432677e-01 3.119132e+00 62 59 80
3.460934e-01 5.451566e-01 3.118501e+00 58 59 87
3.458177e-01 5.455381e-01 3.118316e+00 42 38 61
4.137039e-01 4.585604e-01 3.133741e+00 56 44 55
4.025714e-01 4.722854e-01 3.133477e+00 120 127 143
4.025714e-01 4.722854e-01 3.133477e+00 120 127 143
3.950747e-01 4.816947e-01 3.132726e+00 141 140 146
3.656187e-01 5.194443e-01 3.126192e+00 209 220 236
3.530995e-01 5.359461e-01 3.121523e+00 172 166 204
3.913079e-01 4.864770e-01 3.132269e+00 26 29 38
4.131482e-01 4.593007e-01 3.133792e+00 81 69 81
3.742033e-01 5.083881e-01 3.128805e+00 205 211 228
4.379267e-01 4.294072e-01 3.132073e+00 108 108 132
4.234079e-01 4.469964e-01 3.133478e+00 109 116 132
3.658952e-01 5.194272e-01 3.126247e+00 87 94 108
3.500640e-01 5.402682e-01 3.120256e+00 133 121 137
3.500640e-01 5.402682e-01 3.120256e+00 133 121 137
4.289147e-01 4.403899e-01 3.133079e+00 158 160 180
4.101901e-01 4.632634e-01 3.133751e+00 147 146 152
3.703306e-01 5.137402e-01 3.127661e+00 62 50 69
3.523649e-01 5.373440e-01 3.121180e+00 133 129 146
3.513729e-01 5.386336e-01 3.120777e+00 116 111 131
4.060235e-01 4.685276e-01 3.133603e+00 138 133 140
3.533497e-01 5.361587e-01 3.121635e+00 30 23 55
4.250559e-01 4.453028e-01 3.133386e+00 93 90 107
3.905210e-01 4.880698e-01 3.132083e+00 173 173 185
3.779728e-01 5.040488e-01 3.129695e+00 130 129 137
3.516808e-01 5.384709e-01 3.120886e+00 156 153 170
3.642359e-01 5.220268e-01 3.125651e+00 60 59 71
4.112416e-01 4.623748e-01 3.133818e+00 62 57 63
4.168666e-01 4.555169e-01 3.133789e+00 166 193 215
4.053802e-01 4.696325e-01 3.133588e+00 86 83 90
4.053802e-01 4.696325e-01 3.133588e+00 86 83 90
3.975798e-01 4.793387e-01 3.132997e+00 68 72 84
4.350568e-01 4.335066e-01 3.132549e+00 29 32 51
3.611412e-01 5.261981e-01 3.124654e+00 27 23 40
3.545478e-01 5.349095e-01 3.122118e+00 47 40 72
3.903439e-01 4.886152e-01 3.132102e+00 151 147 162
4.094849e-01 4.647520e-01 3.133740e+00 76 68 81
3.705220e-01 5.140907e-01 3.127670e+00 145 135 144
4.295237e-01 4.403057e-01 3.133166e+00 160 162 181
4.043893e-01 4.711266e-01 3.133483e+00 138 137 143
4.292432e-01 4.407054e-01 3.133174e+00 165 171 187
4.276028e-01 4.427084e-01 3.133305e+00 158 160 173
4.272903e-01 4.431747e-01 3.133283e+00 159 163 175
4.190063e-01 4.532726e-01 3.133737e+00 131 139 158
3.844769e-01 4.962838e-01 3.131073e+00 119 113 122
3.736746e-01 5.101677e-01 3.128493e+00 171 174 181
3.593568e-01 5.288165e-01 3.123965e+00 48 51 68
4.282976e-01 4.419736e-01 3.133269e+00 161 167 180
4.279564e-01 4.423546e-01 3.133323e+00 165 167 180
3.920975e-01 4.868038e-01 3.132335e+00 71 77 75
4.177673e-01 4.549574e-01 3.133798e+00 173 147 176
3.607189e-01 5.272626e-01 3.124466e+00 132 125 143
3.842838e-01 4.968087e-01 3.131042e+00 148 144 150
3.826289e-01 4.989310e-01 3.130669e+00 141 123 142
3.772572e-01 5.057565e-01 3.129525e+00 156 162 174
3.591910e-01 5.293562e-01 3.123848e+00 70 74 93
3.744481e-01 5.095835e-01 3.128726e+00 163 165 177
3.568853e-01 5.325055e-01 3.122991e+00 43 37 51
3.568853e-01 5.325055e-01 3.122991e+00 43 37 51
3.760693e-01 5.074952e-01 3.129128e+00 227 230 245
4.114537e-01 4.629527e-01 3.133920e+00 157 152 158
4.111443e-01 4.633612e-01 3.133875e+00 174 172 177
4.111443e-01 4.633612e-01 3.133875e+00 174 172 177
4.092209e-01 4.657244e-01 3.133841e+00 63 61 82
4.088581e-01 4.661866e-01 3.133804e+00 70 66 88
4.031105e-01 4.733282e-01 3.133442e+00 146 148 163
4.227687e-01 4.491955e-01 3.133698e+00 142 145 160
4.224388e-01 4.495980e-01 3.133742e+00 141 144 159
4.062780e-01 4.693987e-01 3.133700e+00 151 146 152
4.062780e-01 4.693987e-01 3.133700e+00 151 146 152
4.053435e-01 4.705856e-01 3.133709e+00 155 152 159
3.797185e-01 5.029153e-01 3.130046e+00 134 133 141
3.797185e-01 5.029153e-01 3.130046e+00 134 133 141
3.590955e-01 5.297889e-01 3.123865e+00 53 56 76
3.985226e-01 4.791950e-01 3.133191e+00 69 73 82
3.729715e-01 5.117697e-01 3.128325e+00 59 56 63
4.025994e-01 4.741830e-01 3.133489e+00 131 134 149
4.196437e-01 4.532198e-01 3.133824e+00 130 135 157
3.895002e-01 4.906447e-01 3.131982e+00 130 130 140
3.665267e-01 5.202758e-01 3.126415e+00 116 119 124
3.676726e-01 5.188786e-01 3.126701e+00 123 122 128
4.040996e-01 4.725373e-01 3.133559e+00 95 99 111
4.040996e-01 4.725373e-01 3.133559e+00 95 99 111
3.833007e-01 4.987632e-01 3.130784e+00 69 57 72
3.629954e-01 5.250130e-01 3.125237e+00 77 71 78
4.119193e-01 4.629313e-01 3.133789e+00 64 59 63
4.039426e-01 4.727685e-01 3.133570e+00 140 146 158
3.843240e-01 4.974782e-01 3.131029e+00 153 153 155
3.843240e-01 4.974782e-01 3.131029e+00 153 153 155
3.820094e-01 5.004617e-01 3.130562e+00 126 125 130
4.012668e-01 4.762275e-01 3.133374e+00 119 117 131
4.012668e-01 4.762275e-01 3.133374e+00 119 117 131
3.923962e-01 4.873532e-01 3.132444e+00 54 53 58
3.552873e-01 5.353621e-01 3.122349e+00 110 99 115
3.552873e-01 5.353621e-01 3.122349e+00 110 99 115
3.439964e-01 5.503234e-01 3.117477e+00 93 71 83
4.193817e-01 4.539318e-01 3.133880e+00 97 103 119
3.560071e-01 5.345322e-01 3.122646e+00 42 32 45
3.897565e-01 4.908878e-01 3.131977e+00 131 130 138
3.564473e-01 5.339914e-01 3.122777e+00 112 106 116
4.118627e-01 4.633000e-01 3.133942e+00 153 148 154
3.734337e-01 5.118173e-01 3.128458e+00 123 118 125
3.712381e-01 5.146592e-01 3.127928e+00 146 136 144
4.060430e-01 4.705294e-01 3.133760e+00 139 136 143
4.282865e-01 4.433472e-01 3.133481e+00 148 152 161
4.282865e-01 4.433472e-01 3.133481e+00 148 152 161
4.169515e-01 4.571305e-01 3.133972e+00 94 106 134
4.200144e-01 4.534813e-01 3.134001e+00 122 125 140
3.572881e-01 5.330789e-01 3.123123e+00 151 145 155
4.030371e-01 4.745259e-01 3.133540e+00 144 141 152
3.776779e-01 5.066456e-01 3.129495e+00 151 155 167
3.609909e-01 5.283042e-01 3.124484e+00 128 121 134
3.984113e-01 4.803064e-01 3.133102e+00 101 98 105
3.734020e-01 5.121948e-01 3.128514e+00 55 50 56
3.734020e-01 5.121948e-01 3.128514e+00 55 50 56
4.300674e-01 4.414327e-01 3.133373e+00 156 158 170
3.832660e-01 4.995864e-01 3.130853e+00 119 116 123
3.965138e-01 4.828570e-01 3.132896e+00 119 117 120
3.562827e-01 5.347279e-01 3.122691e+00 39 29 43
3.462991e-01 5.479752e-01 3.118504e+00 87 90 109
4.157746e-01 4.589621e-01 3.134022e+00 49 42 54
4.064485e-01 4.705187e-01 3.133751e+00 92 89 96
4.054827e-01 4.717021e-01 3.133714e+00 106 105 110
4.054827e-01 4.717021e-01 3.133714e+00 106 105 110
3.900124e-01 4.911093e-01 3.132034e+00 126 124 132
3.850729e-01 4.974289e-01 3.131170e+00 149 144 148
3.847759e-01 4.978348e-01 3.131076e+00 153 151 153
3.844608e-01 4.981967e-01 3.131040e+00 148 151 150
3.827676e-01 5.003965e-01 3.130646e+00 126 124 129
3.760952e-01 5.089349e-01 3.129231e+00 101 103 116
4.286712e-01 4.433540e-01 3.133561e+00 109 113 122
4.286712e-01 4.433540e-01 3.133561e+00 109 113 122
4.286712e-01 4.433540e-01 3.133561e+00 109 113 122
3.989880e-01 4.799625e-01 3.133191e+00 139 138 146
4.280640e-01 4.442201e-01 3.133577e+00 89 93 102
4.160657e-01 4.588237e-01 3.134075e+00 130 122 136
4.119169e-01 4.639893e-01 3.133990e+00 156 151 155
4.115893e-01 4.644276e-01 3.133998e+00 162 157 161
3.893755e-01 4.922760e-01 3.131574e+00 161 161 163
3.605473e-01 5.294722e-01 3.124282e+00 154 144 152
4.064668e-01 4.708749e-01 3.133815e+00 164 162 167
4.058425e-01 4.716552e-01 3.133792e+00 161 159 164
3.839331e-01 4.992412e-01 3.130937e+00 70 69 75
4.055067e-01 4.720804e-01 3.133773e+00 157 155 160
4.051473e-01 4.725228e-01 3.133734e+00 155 154 161
3.845104e-01 4.985469e-01 3.131011e+00 84 85 87
3.498360e-01 5.437197e-01 3.120048e+00 141 146 166
4.284372e-01 4.441665e-01 3.133627e+00 142 146 155
3.806439e-01 5.036623e-01 3.130223e+00 140 134 144
3.619624e-01 5.278893e-01 3.124806e+00 155 152 164
3.561931e-01 5.354862e-01 3.122657e+00 69 55 68
4.287737e-01 4.437760e-01 3.133607e+00 151 154 163
4.287737e-01 4.437760e-01 3.133607e+00 151 154 163
4.287737e-01 4.437760e-01 3.133607e+00 151 154 163
4.174843e-01 4.576253e-01 3.134055e+00 133 129 143
3.891568e-01 4.929591e-01 3.131580e+00 79 78 83
3.520377e-01 5.410862e-01 3.120992e+00 161 168 184
4.126498e-01 4.635999e-01 3.133999e+00 70 61 66
4.119934e-01 4.643898e-01 3.134058e+00 115 110 114
3.777666e-01 5.076780e-01 3.129581e+00 53 54 68
3.800317e-01 5.048110e-01 3.129978e+00 81 79 84
3.800317e-01 5.048110e-01 3.129978e+00 81 79 84
3.717862e-01 5.154570e-01 3.127846e+00 64 58 62
3.802623e-01 5.046471e-01 3.130150e+00 135 133 138
3.520962e-01 5.414233e-01 3.121015e+00 84 92 109
3.520962e-01 5.414233e-01 3.121015e+00 84 92 109
4.309912e-01 4.415966e-01 3.133533e+00 153 151 165
4.288969e-01 4.442134e-01 3.133704e+00 103 106 115
4.220862e-01 4.525019e-01 3.134074e+00 81 79 90
4.220862e-01 4.525019e-01 3.134074e+00 81 79 90
3.502391e-01 5.440651e-01 3.120191e+00 157 159 182
4.001050e-01 4.797592e-01 3.133323e+00 116 115 135
4.001050e-01 4.797592e-01 3.133323e+00 116 115 135
3.571199e-01 5.350732e-01 3.123034e+00 141 138 152
3.480199e-01 5.473974e-01 3.119239e+00 78 68 79
4.306089e-01 4.425932e-01 3.133663e+00 160 158 169
4.296072e-01 4.438014e-01 3.133731e+00 154 157 166
4.026850e-01 4.768887e-01 3.133576e+00 180 179 188
4.290058e-01 4.446361e-01 3.133793e+00 145 148 157
3.903272e-01 4.925302e-01 3.132064e+00 164 159 163
4.283708e-01 4.454650e-01 3.133860e+00 137 140 149
4.280624e-01 4.458940e-01 3.133908e+00 143 143 153
4.277524e-01 4.463013e-01 3.133890e+00 143 142 150
4.277524e-01 4.463013e-01 3.133890e+00 143 142 150
4.178739e-01 4.583902e-01 3.134184e+00 103 97 104
4.178739e-01 4.583902e-01 3.134184e+00 103 97 104
4.083142e-01 4.701525e-01 3.133982e+00 152 147 153
4.309327e-01 4.425460e-01 3.133708e+00 105 105 117
4.306594e-01 4.429734e-01 3.133740e+00 103 103 113
4.299742e-01 4.437726e-01 3.133802e+00 107 110 119
4.303354e-01 4.433759e-01 3.133749e+00 103 103 115
4.297030e-01 4.441839e-01 3.133819e+00 106 107 116
3.895655e-01 4.939049e-01 3.131950e+00 62 57 63
4.375146e-01 4.347844e-01 3.133171e+00 48 51 69
4.290670e-01 4.450189e-01 3.133849e+00 95 96 105
4.290670e-01 4.450189e-01 3.133849e+00 95 96 105
4.281080e-01 4.462211e-01 3.133922e+00 95 95 104
4.277846e-01 4.466631e-01 3.133939e+00 96 96 104
4.277846e-01 4.466631e-01 3.133939e+00 96 96 104
4.303702e-01 4.437814e-01 3.133861e+00 160 160 172
4.300613e-01 4.441743e-01 3.133854e+00 161 161 171
4.025760e-01 4.785095e-01 3.133594e+00 142 130 144
4.375452e-01 4.357353e-01 3.133379e+00 59 65 84
3.621425e-01 5.304626e-01 3.124779e+00 154 145 148
4.375087e-01 4.360614e-01 3.133437e+00 131 136 155
4.388442e-01 4.347672e-01 3.133222e+00 53 55 67
3.906361e-01 4.943467e-01 3.132105e+00 145 138 142
3.453954e-01 5.532956e-01 3.118059e+00 36 17 37
3.464849e-01 5.519489e-01 3.118474e+00 42 13 35
4.050918e-01 4.764458e-01 3.133852e+00 121 119 122
4.419304e-01 4.318204e-01 3.133228e+00 107 110 127
4.219198e-01 4.562090e-01 3.134421e+00 82 77 81
4.219198e-01 4.562090e-01 3.134421e+00 82 77 81
3.627088e-01 5.312309e-01 3.124905e+00 162 160 165
3.636246e-01 5.301576e-01 3.126952e+00 180 177 184
3.520703e-01 5.453295e-01 3.120900e+00 73 60 77
3.484325e-01 5.501835e-01 3.119339e+00 25 17 34
4.328631e-01 4.433094e-01 3.134102e+00 151 154 163
4.054719e-01 4.770772e-01 3.133846e+00 180 179 185
3.606636e-01 5.345035e-01 3.124187e+00 110 107 118
3.606636e-01 5.345035e-01 3.124187e+00 110 107 118
4.331565e-01 4.434007e-01 3.134125e+00 36 38 50
4.331565e-01 4.434007e-01 3.134125e+00 36 38 50
3.714155e-01 5.208012e-01 3.127685e+00 54 49 55
4.325875e-01 4.441068e-01 3.134126e+00 159 161 173
3.634358e-01 5.319252e-01 3.125091e+00 110 108 113
3.917986e-01 4.955908e-01 3.132230e+00 56 50 56
3.612332e-01 5.349825e-01 3.124410e+00 117 114 123
4.047283e-01 4.794055e-01 3.133727e+00 189 187 201
4.034535e-01 4.809468e-01 3.133687e+00 145 142 156
3.801668e-01 5.106160e-01 3.129917e+00 193 192 208
4.336150e-01 4.439859e-01 3.134297e+00 157 159 172
3.648430e-01 5.306194e-01 3.125600e+00 103 100 107
4.047353e-01 4.797510e-01 3.133567e+00 69 67 81
4.047353e-01 4.797510e-01 3.133567e+00 69 67 81
4.027017e-01 4.823324e-01 3.133515e+00 66 63 71
3.981793e-01 4.882093e-01 3.132896e+00 100 94 96
4.340186e-01 4.439124e-01 3.134319e+00 43 42 56
4.329494e-01 4.454352e-01 3.134444e+00 162 166 178
4.325801e-01 4.459259e-01 3.134455e+00 160 162 174
3.666281e-01 5.290744e-01 3.126150e+00 160 157 162
3.549569e-01 5.444822e-01 3.121955e+00 51 47 61
4.092261e-01 4.750968e-01 3.134255e+00 89 79 87
4.332233e-01 4.456995e-01 3.134502e+00 101 105 118
3.940449e-01 4.944029e-01 3.132623e+00 131 126 132
4.160457e-01 4.670200e-01 3.134647e+00 142 132 135
4.078142e-01 4.772377e-01 3.134154e+00 162 156 160
3.877895e-01 5.025020e-01 3.131404e+00 93 87 86
3.547513e-01 5.453186e-01 3.121907e+00 28 25 35
4.102963e-01 4.745596e-01 3.134285e+00 95 89 91
4.345153e-01 4.448956e-01 3.134580e+00 109 113 125
4.222994e-01 4.598935e-01 3.134806e+00 123 122 127
3.623963e-01 5.359292e-01 3.124736e+00 114 111 119
4.030288e-01 4.842004e-01 3.133673e+00 82 73 78
3.877307e-01 5.038495e-01 3.131389e+00 145 136 139
3.889246e-01 5.024131e-01 3.131600e+00 94 88 87
3.889246e-01 5.024131e-01 3.131600e+00 94 88 87
3.719967e-01 5.245597e-01 3.127659e+00 70 61 64
4.419816e-01 4.370714e-01 3.134426e+00 33 33 43
3.862509e-01 5.063992e-01 3.131056e+00 106 97 98
4.335200e-01 4.474794e-01 3.134840e+00 159 159 171
4.170864e-01 4.678855e-01 3.134804e+00 145 135 134
3.670245e-01 5.315341e-01 3.126258e+00 149 145 146
3.666728e-01 5.320273e-01 3.126042e+00 137 132 136
3.679929e-01 5.305811e-01 3.126406e+00 62 60 63
4.174708e-01 4.678702e-01 3.134721e+00 75 65 66
3.572172e-01 5.447392e-01 3.122860e+00 186 186 195
4.129055e-01 4.736820e-01 3.134638e+00 73 67 71
3.890071e-01 5.039014e-01 3.131598e+00 66 60 64
4.018498e-01 4.877576e-01 3.133546e+00 69 63 67
3.694473e-01 5.294465e-01 3.126872e+00 149 144 145
4.229540e-01 4.618716e-01 3.135054e+00 65 63 68
3.667572e-01 5.333211e-01 3.126072e+00 123 118 124
4.378794e-01 4.440803e-01 3.134928e+00 112 111 125
4.023452e-01 4.881039e-01 3.133586e+00 93 84 88
4.407737e-01 4.408096e-01 3.134781e+00 21 25 34
4.041483e-01 4.861669e-01 3.133747e+00 89 83 83
4.351970e-01 4.478694e-01 3.135077e+00 173 179 192
4.233983e-01 4.623876e-01 3.135106e+00 92 90 94
3.741237e-01 5.245851e-01 3.128135e+00 166 165 163
4.102367e-01 4.789034e-01 3.134345e+00 92 87 91
4.472139e-01 4.334641e-01 3.134478e+00 90 92 107
3.890700e-01 5.057458e-01 3.131519e+00 82 73 74
3.796650e-01 5.181465e-01 3.129436e+00 106 101 105
3.796383e-01 5.181298e-01 3.129548e+00 106 101 105
4.384547e-01 4.446384e-01 3.134977e+00 118 120 132
4.047349e-01 4.862781e-01 3.133906e+00 146 138 136
3.899784e-01 5.049515e-01 3.131646e+00 149 138 141
3.700318e-01 5.308564e-01 3.126984e+00 96 92 91
3.893898e-01 5.060468e-01 3.131618e+00 73 63 64
4.379600e-01 4.456974e-01 3.135210e+00 52 61 68
3.698714e-01 5.313633e-01 3.126937e+00 104 99 103
4.408029e-01 4.434679e-01 3.135262e+00 29 32 39
4.149590e-01 4.754245e-01 3.134744e+00 69 59 67
3.688414e-01 5.343530e-01 3.127803e+00 85 79 83
3.812964e-01 5.183573e-01 3.129848e+00 84 80 81
4.036683e-01 4.902329e-01 3.133639e+00 100 91 94
3.814059e-01 5.186679e-01 3.129847e+00 133 129 130
3.814059e-01 5.186679e-01 3.129847e+00 133 129 130
3.749293e-01 5.271140e-01 3.128259e+00 112 106 110
4.118741e-01 4.802927e-01 3.134482e+00 91 86 90
3.679757e-01 5.365416e-01 3.127740e+00 85 80 86
3.691669e-01 5.351074e-01 3.126697e+00 77 70 77
4.270150e-01 4.620947e-01 3.135527e+00 96 95 101
3.870169e-01 5.123388e-01 3.131067e+00 111 106 110
4.122446e-01 4.805721e-01 3.134466e+00 105 96 99
4.122446e-01 4.805721e-01 3.134466e+00 105 96 99
3.707054e-01 5.339632e-01 3.128075e+00 69 60 63
3.717819e-01 5.326202e-01 3.127371e+00 72 63 64
4.399309e-01 4.469620e-01 3.135665e+00 138 141 146
3.813339e-01 5.204558e-01 3.129655e+00 113 104 107
4.141924e-01 4.790191e-01 3.134695e+00 84 78 78
4.207188e-01 4.710040e-01 3.135187e+00 144 134 134
3.799681e-01 5.227223e-01 3.129467e+00 141 135 139
4.210527e-01 4.712489e-01 3.135158e+00 132 122 121
4.131091e-01 4.812967e-01 3.134641e+00 100 91 94
4.131231e-01 4.813192e-01 3.134408e+00 100 91 94
3.979732e-01 5.004237e-01 3.132841e+00 51 48 51
3.947240e-01 5.046781e-01 3.132219e+00 133 122 126
3.648686e-01 5.430480e-01 3.125348e+00 87 87 95
3.922250e-01 5.080160e-01 3.131939e+00 134 129 126
3.685070e-01 5.386026e-01 3.126485e+00 166 162 167
3.868793e-01 5.153095e-01 3.130630e+00 145 144 150
4.133580e-01 4.818716e-01 3.134465e+00 147 138 141
3.842516e-01 5.187406e-01 3.130431e+00 186 184 189
4.055771e-01 4.917890e-01 3.133697e+00 129 128 130
3.777062e-01 5.272709e-01 3.128938e+00 93 87 89
3.793450e-01 5.252125e-01 3.129305e+00 150 146 147
3.758792e-01 5.297288e-01 3.128457e+00 105 97 102
3.762486e-01 5.294327e-01 3.128531e+00 93 87 91
3.762486e-01 5.294327e-01 3.128531e+00 93 87 91
3.845230e-01 5.189315e-01 3.130267e+00 183 180 184
3.665613e-01 5.419996e-01 3.125922e+00 163 165 177
3.761725e-01 5.298096e-01 3.128820e+00 140 134 138
3.841049e-01 5.198641e-01 3.130107e+00 112 107 111
3.918147e-01 5.104360e-01 3.131614e+00 61 52 55
3.964065e-01 5.052741e-01 3.132362e+00 98 93 97
3.784172e-01 5.284003e-01 3.129101e+00 88 83 87
4.415048e-01 4.492361e-01 3.136131e+00 64 68 69
3.847767e-01 5.204492e-01 3.130396e+00 113 108 114
3.788449e-01 5.280234e-01 3.129115e+00 82 78 79
4.147408e-01 4.827669e-01 3.134611e+00 116 110 114
4.083866e-01 4.910384e-01 3.133853e+00 49 43 47
4.092970e-01 4.899124e-01 3.134070e+00 57 50 57
3.701622e-01 5.397933e-01 3.126940e+00 121 116 120
3.785313e-01 5.292407e-01 3.128945e+00 141 136 140
4.142014e-01 4.840361e-01 3.134615e+00 77 72 78
4.104396e-01 4.887918e-01 3.134192e+00 103 102 105
3.801915e-01 5.273538e-01 3.129378e+00 117 113 112
3.868114e-01 5.189807e-01 3.130441e+00 176 173 180
3.898649e-01 5.152265e-01 3.131020e+00 86 80 82
3.717211e-01 5.384861e-01 3.127426e+00 110 106 112
4.218935e-01 4.751499e-01 3.135361e+00 150 141 144
4.106149e-01 4.892858e-01 3.134180e+00 75 70 76
4.184814e-01 4.798149e-01 3.135039e+00 107 98 97
3.886337e-01 5.175678e-01 3.130518e+00 116 114 119
3.663225e-01 5.461182e-01 3.125774e+00 114 111 118
3.809631e-01 5.273669e-01 3.129489e+00 109 100 101
4.113812e-01 4.891984e-01 3.134318e+00 171 168 173
3.893944e-01 5.171982e-01 3.131116e+00 135 132 139
4.242001e-01 4.734067e-01 3.135525e+00 149 140 143
3.927284e-01 5.130412e-01 3.131492e+00 145 133 133
3.830882e-01 5.252800e-01 3.129818e+00 155 150 151
3.692489e-01 5.430172e-01 3.126730e+00 133 135 146
3.882829e-01 5.187770e-01 3.130817e+00 114 112 117
4.244627e-01 4.732070e-01 3.135578e+00 95 89 91
3.755899e-01 5.352354e-01 3.128291e+00 71 62 63
3.907037e-01 5.161443e-01 3.131002e+00 177 174 177
3.884023e-01 5.190632e-01 3.130994e+00 168 166 171
3.863184e-01 5.218579e-01 3.130303e+00 98 91 95
4.129317e-01 4.887093e-01 3.134250e+00 88 85 94
4.221060e-01 4.773254e-01 3.135380e+00 128 120 121
4.239763e-01 4.750992e-01 3.135467e+00 145 137 134
4.157837e-01 4.857664e-01 3.134723e+00 146 144 149
4.211092e-01 4.793097e-01 3.135097e+00 146 138 136
3.862314e-01 5.233501e-01 3.130432e+00 125 119 123
3.736003e-01 5.395623e-01 3.127830e+00 101 95 97
4.169134e-01 4.847057e-01 3.134720e+00 107 103 104
3.867577e-01 5.228250e-01 3.130558e+00 152 146 148
4.246402e-01 4.752520e-01 3.135567e+00 80 74 74
3.953920e-01 5.121070e-01 3.131705e+00 110 98 98
4.302151e-01 4.684209e-01 3.136047e+00 90 81 84
4.279691e-01 4.715556e-01 3.135836e+00 86 80 82
3.961345e-01 5.116400e-01 3.132143e+00 110 96 96
3.941420e-01 5.141778e-01 3.131415e+00 143 135 135
4.333434e-01 4.650013e-01 3.136376e+00 77 72 78
3.954323e-01 5.126071e-01 3.132051e+00 166 154 154
3.862568e-01 5.242819e-01 3.130432e+00 97 90 92
3.952859e-01 5.128435e-01 3.131912e+00 110 100 98
3.829423e-01 5.286189e-01 3.129745e+00 161 153 158
3.764499e-01 5.370809e-01 3.128565e+00 144 135 136
3.933254e-01 5.158200e-01 3.131652e+00 95 87 85
4.352001e-01 4.643540e-01 3.136476e+00 115 114 122
4.118474e-01 4.938396e-01 3.134018e+00 87 82 84
4.153732e-01 4.895790e-01 3.134585e+00 175 170 177
3.794684e-01 5.352272e-01 3.129102e+00 153 144 145
4.357526e-01 4.648627e-01 3.136687e+00 111 109 120
3.830985e-01 5.312262e-01 3.129851e+00 133 124 129
3.838614e-01 5.303450e-01 3.130001e+00 144 138 138
4.083815e-01 4.996685e-01 3.133581e+00 115 104 102
4.202705e-01 4.849421e-01 3.134949e+00 108 98 99
4.202705e-01 4.849421e-01 3.134949e+00 108 98 99
3.838722e-01 5.308808e-01 3.129987e+00 62 56 56
4.336877e-01 4.683576e-01 3.136434e+00 84 78 82
4.086899e-01 5.000467e-01 3.133544e+00 162 148 147
4.086899e-01 5.000467e-01 3.133544e+00 162 148 147
4.368562e-01 4.658358e-01 3.136718e+00 102 101 109
3.980393e-01 5.145982e-01 3.132098e+00 98 88 87
3.861344e-01 5.296682e-01 3.130355e+00 113 107 107
3.861344e-01 5.296682e-01 3.130355e+00 113 107 107
3.963367e-01 5.171285e-01 3.131827e+00 101 91 90
3.963367e-01 5.171285e-01 3.131827e+00 101 91 90
4.119701e-01 4.981884e-01 3.133713e+00 72 64 62
3.933151e-01 5.218915e-01 3.131325e+00 145 142 151
3.896948e-01 5.269093e-01 3.131019e+00 134 125 128
3.866073e-01 5.314732e-01 3.130385e+00 161 155 157
3.917582e-01 5.252218e-01 3.131069e+00 124 122 127
4.257335e-01 4.824863e-01 3.135416e+00 115 107 105
3.919586e-01 5.250746e-01 3.131218e+00 183 184 189
3.895194e-01 5.281461e-01 3.130840e+00 78 72 76
4.264243e-01 4.824766e-01 3.135615e+00 124 116 114
4.346968e-01 4.722709e-01 3.136584e+00 94 91 89
4.154428e-01 4.967103e-01 3.133926e+00 147 143 144
4.082323e-01 5.057276e-01 3.133287e+00 159 145 142
3.888451e-01 5.306688e-01 3.130411e+00 140 135 139
4.327605e-01 4.756455e-01 3.136238e+00 108 100 98
4.410812e-01 4.652116e-01 3.137527e+00 161 161 169
4.066505e-01 5.086716e-01 3.132963e+00 107 94 88
4.309755e-01 4.781788e-01 3.136086e+00 125 115 113
4.285349e-01 4.824715e-01 3.135609e+00 118 108 107
4.242759e-01 4.879667e-01 3.134997e+00 122 113 116
4.264833e-01 4.853460e-01 3.135233e+00 116 106 104
4.125065e-01 5.029085e-01 3.133526e+00 76 67 68
4.429591e-01 4.652127e-01 3.137885e+00 158 160 172
4.279612e-01 4.840235e-01 3.135291e+00 117 107 105
4.075297e-01 5.097598e-01 3.133055e+00 144 132 132
3.999984e-01 5.194048e-01 3.132075e+00 124 114 117
4.248481e-01 4.885406e-01 3.134968e+00 102 94 92
4.092669e-01 5.094435e-01 3.133158e+00 150 142 140
3.999134e-01 5.215241e-01 3.131845e+00 177 172 178
4.159277e-01 5.017689e-01 3.133762e+00 58 54 55
4.130447e-01 5.055687e-01 3.133307e+00 111 106 105
4.289329e-01 4.857683e-01 3.135402e+00 101 95 97
4.272750e-01 4.879170e-01 3.135233e+00 110 101 104
4.169258e-01 5.028370e-01 3.133557e+00 77 71 71
4.101735e-01 5.126493e-01 3.132778e+00 70 59 53
4.304099e-01 4.872108e-01 3.135344e+00 92 83 84
4.145770e-01 5.072008e-01 3.133339e+00 125 116 117
4.168843e-01 5.061437e-01 3.133245e+00 121 115 117
4.092857e-01 5.156023e-01 3.132745e+00 79 71 69
3.898387e-01 5.408672e-01 3.130755e+00 128 123 127
4.357554e-01 4.845102e-01 3.135782e+00 61 51 49
4.117683e-01 5.147954e-01 3.132401e+00 126 118 116
4.322442e-01 4.892675e-01 3.135325e+00 169 160 163
4.195150e-01 5.097234e-01 3.133082e+00 140 136 135
4.354190e-01 4.909122e-01 3.135373e+00 178 176 181
4.307828e-01 5.082713e-01 3.132763e+00 77 72 79
4.072596e-01 5.376044e-01 3.132011e+00 153 153 161
4.426925e-01 4.943592e-01 3.135682e+00 90 88 94
4.485559e-01 4.882946e-01 3.137067e+00 75 75 87
4.405361e-01 5.115121e-01 3.131532e+00 148 142 144
4.420737e-01 5.208395e-01 3.129408e+00 74 72 77
4.608788e-01 5.065633e-01 3.143714e+00 171 166 172
3.447637e-01 4.553814e-01 3.119631e+00 179 56 81
3.579023e-01 4.388768e-01 3.121179e+00 202 160 178
3.563550e-01 4.411175e-01 3.121164e+00 191 135 143
3.503589e-01 4.492576e-01 3.120686e+00 183 136 151
3.482553e-01 4.520388e-01 3.120377e+00 248 64 99
3.482553e-01 4.520388e-01 3.120377e+00 248 64 99
3.622443e-01 4.348550e-01 3.121508e+00 201 186 193
3.556446e-01 4.443978e-01 3.121436e+00 195 146 165
3.475073e-01 4.551949e-01 3.120465e+00 180 141 154
3.518028e-01 4.504017e-01 3.121279e+00 195 121 133
3.488367e-01 4.545628e-01 3.120755e+00 161 16 50
3.537558e-01 4.486406e-01 3.121535e+00 194 127 142
3.460257e-01 4.585819e-01 3.120293e+00 201 138 147
3.642262e-01 4.358429e-01 3.122098e+00 158 21 47
3.681798e-01 4.311846e-01 3.122034e+00 182 153 176
3.673877e-01 4.321643e-01 3.122066e+00 243 61 87
3.673877e-01 4.321643e-01 3.122066e+00 243 61 87
3.551179e-01 4.474381e-01 3.121749e+00 141 71 73
3.484423e-01 4.559971e-01 3.120848e+00 192 136 148
3.535243e-01 4.495937e-01 3.121615e+00 223 161 135
3.615648e-01 4.396271e-01 3.122214e+00 174 46 75
3.523882e-01 4.512035e-01 3.121548e+00 177 132 140
3.594519e-01 4.425151e-01 3.122185e+00 163 129 86
3.639482e-01 4.372294e-01 3.122319e+00 161 36 48
3.630827e-01 4.385559e-01 3.122338e+00 181 142 120
3.594462e-01 4.433626e-01 3.122295e+00 247 151 133
3.479968e-01 4.577373e-01 3.120850e+00 240 199 154
3.479968e-01 4.577373e-01 3.120850e+00 240 199 154
3.540092e-01 4.501823e-01 3.121832e+00 167 131 91
3.651139e-01 4.365976e-01 3.122474e+00 152 10 35
3.666271e-01 4.348864e-01 3.122415e+00 188 119 132
3.464276e-01 4.601500e-01 3.120538e+00 203 49 44
3.609398e-01 4.420162e-01 3.122429e+00 208 116 103
3.574038e-01 4.464912e-01 3.122220e+00 195 132 122
3.661357e-01 4.357948e-01 3.122543e+00 190 73 77
3.532276e-01 4.518339e-01 3.121778e+00 181 126 133
3.634710e-01 4.391032e-01 3.122575e+00 158 30 35
3.453290e-01 4.620163e-01 3.120312e+00 201 176 144
3.453290e-01 4.620163e-01 3.120312e+00 201 176 144
3.535236e-01 4.517967e-01 3.121827e+00 128 53 64
3.578861e-01 4.463588e-01 3.122326e+00 146 68 72
3.578861e-01 4.463588e-01 3.122326e+00 146 68 72
3.537507e-01 4.516549e-01 3.121908e+00 185 123 122
3.637805e-01 4.392207e-01 3.122638e+00 207 90 88
3.524936e-01 4.533311e-01 3.121750e+00 188 109 125
3.550078e-01 4.502284e-01 3.122083e+00 181 134 122
3.503217e-01 4.562949e-01 3.121414e+00 175 111 109
3.567025e-01 4.483478e-01 3.122289e+00 190 93 105
3.697261e-01 4.325560e-01 3.122593e+00 195 129 147
3.459750e-01 4.623555e-01 3.120538e+00 202 90 93
3.566461e-01 4.489414e-01 3.122360e+00 185 113 127
3.548298e-01 4.512103e-01 3.122160e+00 218 193 162
3.548298e-01 4.512103e-01 3.122160e+00 218 193 162
3.464392e-01 4.619132e-01 3.120610e+00 203 132 121
3.603603e-01 4.444285e-01 3.122669e+00 192 128 94
3.603603e-01 4.444285e-01 3.122669e+00 192 128 94
3.463982e-01 4.621545e-01 3.120498e+00 147 22 30
3.516293e-01 4.555139e-01 3.121730e+00 212 139 112
3.574451e-01 4.483956e-01 3.122512e+00 155 86 75
3.497664e-01 4.581279e-01 3.121399e+00 165 108 83
3.647166e-01 4.395535e-01 3.122873e+00 184 129 98
3.554750e-01 4.511663e-01 3.122338e+00 224 178 153
3.554750e-01 4.511663e-01 3.122338e+00 224 178 153
3.634607e-01 4.412821e-01 3.122909e+00 147 100 83
3.605931e-01 4.452288e-01 3.122858e+00 203 158 133
3.452276e-01 4.647810e-01 3.120420e+00 199 146 125
3.524692e-01 4.555889e-01 3.121965e+00 222 173 141
3.484070e-01 4.607754e-01 3.121175e+00 144 65 58
3.604971e-01 4.455327e-01 3.122863e+00 186 137 123
3.473992e-01 4.621720e-01 3.120989e+00 187 138 131
3.524876e-01 4.558639e-01 3.122008e+00 155 113 81
3.556015e-01 4.521332e-01 3.122490e+00 196 162 134
3.486979e-01 4.609613e-01 3.121311e+00 197 112 106
3.476686e-01 4.622470e-01 3.121116e+00 124 86 76
3.675432e-01 4.374333e-01 3.123117e+00 146 111 71
3.463152e-01 4.641350e-01 3.120760e+00 203 120 109
3.438032e-01 4.673688e-01 3.120094e+00 222 51 52
3.459055e-01 4.647572e-01 3.120661e+00 146 116 92
3.711098e-01 4.332747e-01 3.123070e+00 201 177 186
3.706234e-01 4.340060e-01 3.123091e+00 141 103 89
3.631837e-01 4.431109e-01 3.123163e+00 148 95 62
3.478290e-01 4.625005e-01 3.121122e+00 179 107 108
3.441317e-01 4.675630e-01 3.120166e+00 213 101 95
3.699796e-01 4.352237e-01 3.123189e+00 194 159 141
3.699796e-01 4.352237e-01 3.123189e+00 194 159 141
3.565005e-01 4.518868e-01 3.122721e+00 151 89 74
3.704960e-01 4.347307e-01 3.123218e+00 138 108 80
3.581715e-01 4.499195e-01 3.122878e+00 134 68 54
3.585358e-01 4.496336e-01 3.122951e+00 198 153 124
3.675713e-01 4.385443e-01 3.123351e+00 132 81 78
3.659561e-01 4.405936e-01 3.123391e+00 148 120 96
3.567724e-01 4.520173e-01 3.122729e+00 188 132 112
3.567724e-01 4.520173e-01 3.122729e+00 188 132 112
3.615358e-01 4.461138e-01 3.123254e+00 191 143 127
3.615358e-01 4.461138e-01 3.123254e+00 191 143 127
3.525421e-01 4.575342e-01 3.122191e+00 182 11 23
3.520213e-01 4.583436e-01 3.122078e+00 209 47 52
3.690775e-01 4.371622e-01 3.123410e+00 157 76 62
3.673881e-01 4.393192e-01 3.123481e+00 182 148 145
3.495914e-01 4.617320e-01 3.121673e+00 163 87 52
3.709199e-01 4.351716e-01 3.123401e+00 221 195 173
3.665943e-01 4.404312e-01 3.123499e+00 142 111 88
3.562898e-01 4.534923e-01 3.122853e+00 121 75 59
3.522789e-01 4.585741e-01 3.122195e+00 190 61 64
3.506853e-01 4.607199e-01 3.121893e+00 150 84 67
3.523257e-01 4.589148e-01 3.122239e+00 222 133 115
3.540293e-01 4.569276e-01 3.122586e+00 141 111 79
3.502359e-01 4.618950e-01 3.121874e+00 130 76 53
3.630088e-01 4.458663e-01 3.123548e+00 216 166 147
3.477114e-01 4.652261e-01 3.121251e+00 190 139 110
3.436281e-01 4.706802e-01 3.120122e+00 155 77 56
3.520292e-01 4.599434e-01 3.122232e+00 136 94 76
3.481479e-01 4.649009e-01 3.121411e+00 158 111 85
3.599441e-01 4.500402e-01 3.123377e+00 191 148 117
3.599441e-01 4.500402e-01 3.123377e+00 191 148 117
3.598111e-01 4.504193e-01 3.123404e+00 194 107 92
3.688509e-01 4.393207e-01 3.123761e+00 175 145 147
3.587619e-01 4.520667e-01 3.123337e+00 213 35 40
3.558173e-01 4.558724e-01 3.122935e+00 205 149 125
3.694978e-01 4.391290e-01 3.123863e+00 170 131 122
3.678022e-01 4.413188e-01 3.123914e+00 212 161 130
3.678022e-01 4.413188e-01 3.123914e+00 212 161 130
3.647583e-01 4.450852e-01 3.123830e+00 191 137 103
3.685838e-01 4.404197e-01 3.123888e+00 141 57 74
3.638557e-01 4.462787e-01 3.123789e+00 148 79 55
3.514452e-01 4.619086e-01 3.122211e+00 171 119 95
3.528444e-01 4.601177e-01 3.122539e+00 147 34 36
3.565551e-01 4.555082e-01 3.123102e+00 208 79 75
3.586016e-01 4.529737e-01 3.123319e+00 196 146 116
3.586016e-01 4.529737e-01 3.123319e+00 196 146 116
3.716597e-01 4.368475e-01 3.123923e+00 178 157 169
3.499504e-01 4.640058e-01 3.121896e+00 184 27 40
3.531454e-01 4.600320e-01 3.122575e+00 180 107 99
3.616862e-01 4.493818e-01 3.123707e+00 184 132 106
3.616862e-01 4.493818e-01 3.123707e+00 184 132 106
3.606209e-01 4.507843e-01 3.123652e+00 201 106 99
3.516188e-01 4.621336e-01 3.122302e+00 204 152 128
3.480134e-01 4.668620e-01 3.121421e+00 168 84 72
3.501501e-01 4.641971e-01 3.122003e+00 177 54 51
3.482340e-01 4.667584e-01 3.121503e+00 195 148 120
3.460518e-01 4.696611e-01 3.120923e+00 192 141 120
3.653182e-01 4.453817e-01 3.124011e+00 210 134 101
3.653182e-01 4.453817e-01 3.124011e+00 210 134 101
3.492909e-01 4.655920e-01 3.121792e+00 198 122 112
3.696741e-01 4.400636e-01 3.124064e+00 180 161 166
3.489771e-01 4.660621e-01 3.121765e+00 159 117 93
3.459578e-01 4.699206e-01 3.120933e+00 189 122 116
3.549353e-01 4.585762e-01 3.122978e+00 181 134 111
3.698969e-01 4.399808e-01 3.124131e+00 107 83 85
3.586653e-01 4.539367e-01 3.123497e+00 246 152 145
3.456751e-01 4.706644e-01 3.120847e+00 174 135 141
3.487208e-01 4.670402e-01 3.121657e+00 150 98 74
3.616740e-01 4.506866e-01 3.123888e+00 205 159 134
3.600480e-01 4.527964e-01 3.123762e+00 157 92 62
3.591607e-01 4.540695e-01 3.123660e+00 150 84 62
3.660959e-01 4.455476e-01 3.124208e+00 172 111 85
3.601081e-01 4.530182e-01 3.123759e+00 210 152 123
3.601081e-01 4.530182e-01 3.123759e+00 210 152 123
3.488957e-01 4.673225e-01 3.121742e+00 221 173 152
3.668816e-01 4.448867e-01 3.124304e+00 200 176 169
3.668816e-01 4.448867e-01 3.124304e+00 200 176 169
3.571906e-01 4.571426e-01 3.123442e+00 197 147 120
3.487951e-01 4.680966e-01 3.121770e+00 187 159 158
3.651201e-01 4.475039e-01 3.124316e+00 142 77 68
3.475156e-01 4.698649e-01 3.121428e+00 150 91 64
3.650851e-01 4.478060e-01 3.124313e+00 208 170 152
3.603389e-01 4.537566e-01 3.123917e+00 251 178 169
3.603389e-01 4.537566e-01 3.123917e+00 251 178 169
3.467053e-01 4.711349e-01 3.121193e+00 119 86 87
3.644804e-01 4.485920e-01 3.124323e+00 197 154 130
3.644804e-01 4.485920e-01 3.124323e+00 197 154 130
3.540327e-01 4.617709e-01 3.122961e+00 212 52 67
3.416950e-01 4.777756e-01 3.119599e+00 175 146 156
3.475690e-01 4.701547e-01 3.121454e+00 231 182 155
3.475690e-01 4.701547e-01 3.121454e+00 231 182 155
3.550701e-01 4.605387e-01 3.123151e+00 200 143 153
3.669338e-01 4.457477e-01 3.124405e+00 178 163 167
3.630633e-01 4.506121e-01 3.124193e+00 190 138 133
3.605930e-01 4.537245e-01 3.123988e+00 164 77 68
3.619365e-01 4.522240e-01 3.124137e+00 188 135 108
3.539950e-01 4.624104e-01 3.123030e+00 192 106 103
3.596085e-01 4.553970e-01 3.123931e+00 195 148 115
3.549870e-01 4.612927e-01 3.123187e+00 182 159 181
3.588464e-01 4.565991e-01 3.123869e+00 214 161 133
3.651536e-01 4.487606e-01 3.124506e+00 187 167 166
3.627108e-01 4.518813e-01 3.124283e+00 233 130 113
3.534636e-01 4.636967e-01 3.122903e+00 184 166 174
3.647853e-01 4.494752e-01 3.124493e+00 159 107 106
3.532243e-01 4.640522e-01 3.122879e+00 198 128 120
3.659405e-01 4.480895e-01 3.124551e+00 194 164 173
3.539521e-01 4.631979e-01 3.123059e+00 124 96 92
3.651936e-01 4.490809e-01 3.124523e+00 132 103 107
3.514553e-01 4.664478e-01 3.122520e+00 181 167 180
3.670121e-01 4.468717e-01 3.124629e+00 173 120 92
3.673779e-01 4.466367e-01 3.124681e+00 131 114 113
3.651850e-01 4.493995e-01 3.124575e+00 164 142 145
3.634870e-01 4.515668e-01 3.124448e+00 126 100 93
3.645921e-01 4.502729e-01 3.124569e+00 162 146 149
3.634465e-01 4.518249e-01 3.124416e+00 172 143 132
3.611099e-01 4.547253e-01 3.124218e+00 160 120 99
3.563369e-01 4.608288e-01 3.123543e+00 211 151 133
3.563369e-01 4.608288e-01 3.123543e+00 211 151 133
3.596424e-01 4.566990e-01 3.124062e+00 186 133 102
3.568920e-01 4.602474e-01 3.123679e+00 180 116 91
3.510550e-01 4.676711e-01 3.122431e+00 165 117 97
3.941189e-01 4.150066e-01 3.122242e+00 181 178 189
3.590015e-01 4.578900e-01 3.123998e+00 126 100 99
3.545341e-01 4.635906e-01 3.123262e+00 106 90 88
3.493225e-01 4.705009e-01 3.122007e+00 125 103 112
3.547861e-01 4.635719e-01 3.123296e+00 158 146 148
3.465352e-01 4.743117e-01 3.121233e+00 127 106 109
3.533840e-01 4.655263e-01 3.123021e+00 202 184 170
3.553163e-01 4.631836e-01 3.123443e+00 178 161 164
3.953370e-01 4.144487e-01 3.122218e+00 168 164 175
3.966395e-01 4.153104e-01 3.122684e+00 204 203 211
3.797498e-01 4.360435e-01 3.125224e+00 150 146 154
3.797498e-01 4.360435e-01 3.125224e+00 150 146 154
4.040936e-01 4.080287e-01 3.121447e+00 146 148 146
4.026764e-01 4.098015e-01 3.121797e+00 110 108 109
3.812785e-01 4.353148e-01 3.125374e+00 171 162 167
3.812785e-01 4.353148e-01 3.125374e+00 171 162 167
4.019966e-01 4.107639e-01 3.122015e+00 100 100 100
4.014204e-01 4.115234e-01 3.122204e+00 107 105 106
4.026672e-01 4.110958e-01 3.122246e+00 99 98 87
3.886548e-01 4.277625e-01 3.124913e+00 156 156 166
3.864556e-01 4.306292e-01 3.125168e+00 184 184 192
3.864556e-01 4.306292e-01 3.125168e+00 184 184 192
3.666229e-01 4.549676e-01 3.125599e+00 174 167 174
3.960308e-01 4.195070e-01 3.123773e+00 76 82 80
4.041060e-01 4.100563e-01 3.122151e+00 98 91 85
3.664565e-01 4.555115e-01 3.125633e+00 186 177 182
4.038642e-01 4.107300e-01 3.122216e+00 92 89 81
3.501221e-01 4.767176e-01 3.122478e+00 182 178 185
3.927153e-01 4.241098e-01 3.124561e+00 96 101 95
3.779140e-01 4.420729e-01 3.126050e+00 149 144 150
3.779140e-01 4.420729e-01 3.126050e+00 149 144 150
3.825801e-01 4.367857e-01 3.125895e+00 211 210 218
3.810195e-01 4.389130e-01 3.126082e+00 214 211 218
3.504969e-01 4.772572e-01 3.122610e+00 108 103 109
3.770094e-01 4.438634e-01 3.126249e+00 168 164 171
3.939344e-01 4.235331e-01 3.124561e+00 91 94 85
3.915086e-01 4.264844e-01 3.125015e+00 176 167 168
3.915086e-01 4.264844e-01 3.125015e+00 176 167 168
3.501835e-01 4.778981e-01 3.122491e+00 157 152 156
3.888366e-01 4.304473e-01 3.125558e+00 145 146 141
3.846054e-01 4.355953e-01 3.126047e+00 171 171 169
3.721228e-01 4.510444e-01 3.126347e+00 173 168 174
3.511639e-01 4.776469e-01 3.122808e+00 163 158 164
3.711789e-01 4.522428e-01 3.126303e+00 184 177 184
3.671679e-01 4.576063e-01 3.126032e+00 166 159 166
3.713384e-01 4.525009e-01 3.126397e+00 214 207 214
4.046244e-01 4.125263e-01 3.122897e+00 79 80 74
3.784916e-01 4.437634e-01 3.126504e+00 117 117 114
3.789527e-01 4.436600e-01 3.126602e+00 112 114 109
3.789527e-01 4.436600e-01 3.126602e+00 112 114 109
3.776151e-01 4.454096e-01 3.126630e+00 155 153 154
3.798293e-01 4.428744e-01 3.126548e+00 99 100 94
3.517730e-01 4.783980e-01 3.123016e+00 206 205 213
3.871351e-01 4.342791e-01 3.126126e+00 127 127 116
3.871351e-01 4.342791e-01 3.126126e+00 127 127 116
3.857179e-01 4.359682e-01 3.126331e+00 120 121 107
4.043851e-01 4.138900e-01 3.123336e+00 105 105 93
4.043851e-01 4.138900e-01 3.123336e+00 105 105 93
3.760801e-01 4.478052e-01 3.126693e+00 144 143 132
3.765532e-01 4.475449e-01 3.126746e+00 148 146 133
3.713556e-01 4.540633e-01 3.126577e+00 192 184 182
3.770921e-01 4.472353e-01 3.126801e+00 163 161 148
3.345781e-01 5.020972e-01 3.116040e+00 80 89 82
3.548416e-01 4.758166e-01 3.123944e+00 194 188 192
3.979356e-01 4.227073e-01 3.124859e+00 89 100 84
3.321961e-01 5.059131e-01 3.114802e+00 118 122 105
3.321961e-01 5.059131e-01 3.114802e+00 118 122 105
3.536689e-01 4.774420e-01 3.123564e+00 155 149 156
3.357684e-01 5.011598e-01 3.116593e+00 64 75 62
3.651918e-01 4.627240e-01 3.126055e+00 132 122 113
3.550545e-01 4.759346e-01 3.123957e+00 131 122 124
3.904555e-01 4.320299e-01 3.126176e+00 129 134 130
3.654247e-01 4.628385e-01 3.126097e+00 172 162 152
3.906923e-01 4.319223e-01 3.126146e+00 77 82 76
3.601897e-01 4.699494e-01 3.125227e+00 144 143 140
3.560672e-01 4.753588e-01 3.124249e+00 159 154 150
3.995878e-01 4.219256e-01 3.124949e+00 53 65 29
3.995878e-01 4.219256e-01 3.124949e+00 53 65 29
3.836418e-01 4.410617e-01 3.126882e+00 139 142 135
3.890772e-01 4.345302e-01 3.126506e+00 114 116 113
3.901942e-01 4.332936e-01 3.126359e+00 71 75 74
3.522489e-01 4.807088e-01 3.123213e+00 147 144 139
3.713446e-01 4.565318e-01 3.126856e+00 111 114 106
3.848335e-01 4.400256e-01 3.126953e+00 156 147 148
4.081843e-01 4.123938e-01 3.123372e+00 102 123 67
4.081843e-01 4.123938e-01 3.123372e+00 102 123 67
4.048561e-01 4.163424e-01 3.124085e+00 108 112 96
4.048561e-01 4.163424e-01 3.124085e+00 108 112 96
3.804889e-01 4.455525e-01 3.127168e+00 151 151 149
4.056575e-01 4.155611e-01 3.123943e+00 33 40 24
3.879786e-01 4.365834e-01 3.126778e+00 139 134 138
3.879786e-01 4.365834e-01 3.126778e+00 139 134 138
3.746756e-01 4.528658e-01 3.127108e+00 112 110 98
4.082727e-01 4.126350e-01 3.123324e+00 104 127 71
3.512984e-01 4.827268e-01 3.122915e+00 151 148 143
3.821058e-01 4.441222e-01 3.127198e+00 185 179 180
4.009885e-01 4.215563e-01 3.125006e+00 118 137 91
4.023897e-01 4.200052e-01 3.124809e+00 94 104 80
3.505181e-01 4.842170e-01 3.122623e+00 133 126 123
3.934594e-01 4.308124e-01 3.126339e+00 106 119 100
4.113327e-01 4.097720e-01 3.122925e+00 77 94 58
4.061929e-01 4.159183e-01 3.124123e+00 93 98 77
4.111551e-01 4.101128e-01 3.123024e+00 97 115 78
4.111551e-01 4.101128e-01 3.123024e+00 97 115 78
4.020937e-01 4.209333e-01 3.125005e+00 101 110 84
3.374667e-01 5.022881e-01 3.117195e+00 128 139 127
3.795720e-01 4.481548e-01 3.127413e+00 148 143 140
3.812225e-01 4.461799e-01 3.127427e+00 146 141 137
4.023291e-01 4.210336e-01 3.125068e+00 56 64 40
3.505809e-01 4.852417e-01 3.122701e+00 123 123 115
3.371115e-01 5.032795e-01 3.117043e+00 95 106 98
3.951537e-01 4.297774e-01 3.126325e+00 43 51 38
3.328005e-01 5.092295e-01 3.114801e+00 45 59 44
4.007871e-01 4.232053e-01 3.125483e+00 118 136 97
3.586016e-01 4.751187e-01 3.124993e+00 82 78 67
3.572687e-01 4.769401e-01 3.124698e+00 88 89 84
3.543656e-01 4.808032e-01 3.123873e+00 134 139 135
3.998770e-01 4.245634e-01 3.125685e+00 105 119 96
3.399930e-01 4.999501e-01 3.118379e+00 98 111 101
3.384204e-01 5.021661e-01 3.117632e+00 63 69 55
4.132757e-01 4.090263e-01 3.122921e+00 46 61 32
4.114528e-01 4.111520e-01 3.123358e+00 83 108 69
4.032958e-01 4.207429e-01 3.125063e+00 43 58 26
4.032958e-01 4.207429e-01 3.125063e+00 43 58 26
3.575942e-01 4.769370e-01 3.124789e+00 125 127 117
3.507081e-01 4.858735e-01 3.122694e+00 60 64 46
3.996070e-01 4.251068e-01 3.125850e+00 106 120 94
3.923956e-01 4.337452e-01 3.126821e+00 124 132 108
3.923956e-01 4.337452e-01 3.126821e+00 124 132 108
4.040148e-01 4.201059e-01 3.125062e+00 89 110 71
3.562832e-01 4.788895e-01 3.124435e+00 118 122 100
3.700893e-01 4.614006e-01 3.127054e+00 80 83 61
3.332649e-01 5.096800e-01 3.114985e+00 86 101 78
4.126743e-01 4.101701e-01 3.123208e+00 114 136 89
3.526817e-01 4.837948e-01 3.123369e+00 127 133 119
3.526817e-01 4.837948e-01 3.123369e+00 127 133 119
3.611050e-01 4.730911e-01 3.125642e+00 148 146 134
4.129221e-01 4.101238e-01 3.123199e+00 65 87 41
3.418145e-01 4.984054e-01 3.119167e+00 99 111 93
3.311737e-01 5.128398e-01 3.113899e+00 65 70 57
4.051126e-01 4.193870e-01 3.124971e+00 108 126 78
3.940100e-01 4.326538e-01 3.126862e+00 96 109 91
3.940100e-01 4.326538e-01 3.126862e+00 96 109 91
3.489041e-01 4.893021e-01 3.122043e+00 103 114 99
3.410122e-01 4.997699e-01 3.118835e+00 116 129 113
3.419110e-01 4.986962e-01 3.119184e+00 53 62 45
4.052397e-01 4.196086e-01 3.125012e+00 59 79 30
3.936437e-01 4.334057e-01 3.126983e+00 134 144 118
4.035370e-01 4.217032e-01 3.125421e+00 115 131 94
3.635520e-01 4.705970e-01 3.126159e+00 101 109 88
3.635520e-01 4.705970e-01 3.126159e+00 101 109 88
3.565152e-01 4.796485e-01 3.124512e+00 64 70 34
3.512328e-01 4.865585e-01 3.122869e+00 88 99 65
4.133772e-01 4.102671e-01 3.123328e+00 42 59 27
3.567226e-01 4.794786e-01 3.124624e+00 121 127 91
