ply
format ascii 1.0
element face 0
property list uchar int vertex_indices
element vertex 934
property float x
property float y
property float z
property uchar diffuse_red
property uchar diffuse_green
property uchar diffuse_blue
end_header
3.351829e-02 4.215485e-01 2.596504e+00 99 87 75
-7.707091e-01 3.605030e-01 2.676738e+00 183 179 172
-4.704379e+00 2.177542e-01 2.794749e+00 130 113 93
-5.515429e-01 6.943442e-01 2.699792e+00 107 94 68
-4.806922e+00 3.205690e-01 2.799830e+00 133 125 109
-5.217618e+00 3.777865e-01 2.807050e+00 183 176 151
-6.021870e+00 4.747206e-01 2.766885e+00 176 168 139
-4.681826e+00 6.301484e-01 2.815609e+00 162 151 134
-5.926634e+00 5.485421e-01 2.784729e+00 165 149 135
-6.026072e+00 5.809934e-01 2.756822e+00 222 216 192
-5.830721e+00 6.399858e-01 2.785761e+00 168 153 130
-5.830721e+00 6.399858e-01 2.785761e+00 168 153 130
-5.898101e+00 7.871706e-01 2.770800e+00 221 209 183
-5.887840e+00 8.149784e-01 2.773671e+00 174 165 133
-5.833839e+00 1.132263e+00 2.778410e+00 161 145 130
-5.832063e+00 1.170238e+00 2.766408e+00 221 207 196
-5.628391e+00 1.307405e+00 2.778778e+00 240 227 218
-5.822201e+00 1.289059e+00 2.764087e+00 174 166 155
-5.515887e+00 1.511656e+00 2.784962e+00 227 213 186
-5.447653e+00 1.526651e+00 2.794660e+00 159 147 125
-5.422254e+00 1.556289e+00 2.787729e+00 230 218 190
-5.275953e+00 1.732682e+00 2.793275e+00 152 142 115
-5.538273e+00 1.790927e+00 2.753834e+00 171 161 144
1.825456e+00 4.988842e+00 2.747687e+00 134 121 104
6.323625e-01 8.306368e+00 2.768963e+00 166 170 167
-3.367414e+00 -3.701192e+00 3.564104e+00 60 53 45
-1.232816e+00 -3.678325e+00 3.099679e+00 34 32 33
-3.520716e+00 -3.772801e+00 3.367082e+00 53 52 44
-1.927024e+00 7.337174e+00 2.404329e+00 60 60 60
1.936090e+00 8.716564e+00 2.751891e+00 166 168 167
2.032846e+00 8.399759e+00 2.560422e+00 158 155 152
-2.411935e+00 -3.649519e+00 4.115426e+00 38 40 38
-2.298880e+00 -2.907539e+00 2.686506e+00 152 157 153
-5.913323e-01 -4.194043e+00 2.594289e+00 46 42 41
-2.406313e+00 -3.850546e+00 2.908884e+00 99 101 95
4.748481e+00 -3.968036e-01 1.526017e+00 93 88 87
2.353653e+00 7.799338e+00 2.515370e+00 103 89 90
2.278404e+00 -2.601284e+00 3.202844e+00 95 100 104
5.584423e+00 -7.584717e-01 2.284331e+00 78 68 67
5.694110e+00 -5.548483e-01 3.120271e+00 79 72 72
-5.135526e+00 -6.739856e-01 2.648912e+00 96 95 93
5.391075e+00 4.547784e-01 2.753256e+00 73 64 61
3.242965e+00 -2.935007e+00 3.247704e+00 102 103 100
-3.665661e+00 -2.973091e+00 2.938145e+00 100 100 92
-3.662119e+00 -2.632268e+00 3.144970e+00 103 104 99
6.113466e+00 1.516784e+00 2.436481e+00 135 140 134
-3.889518e+00 3.181744e+00 3.263308e+00 110 112 116
-5.848223e-01 7.416289e+00 2.414170e+00 169 173 173
-3.049068e+00 -1.892296e+00 7.036533e-01 147 144 139
-3.765841e+00 -3.715670e+00 2.775507e+00 147 148 153
-2.451235e+00 -1.040620e+00 1.464294e+00 162 162 164
-2.692429e+00 -4.150997e-01 5.786201e-01 156 150 129
-1.726091e+00 7.745437e-01 7.133115e-01 109 101 90
7.835106e-01 1.113172e+00 1.416352e+00 98 87 79
7.835106e-01 1.113172e+00 1.416352e+00 98 87 79
-1.602365e+00 1.546060e+00 4.853241e-02 103 91 77
-3.582566e+00 3.525368e+00 -4.466534e+00 84 75 70
-6.919400e-01 6.362256e-02 1.339371e+00 96 117 120
-6.364398e-01 1.155356e+00 1.065068e+00 154 150 135
1.959270e+00 1.749348e+00 1.044022e+00 105 98 85
9.884727e-01 2.592422e+00 3.211699e-01 92 85 75
7.646211e-01 4.207833e+00 -2.109982e+00 170 164 152
-3.866018e+00 -3.079615e+00 1.573619e+00 122 118 105
-3.897159e+00 -2.237375e+00 4.470730e-01 170 166 155
-1.667283e+00 -9.009489e-01 1.942447e+00 113 112 105
2.516989e+00 -4.731446e-01 2.684102e+00 162 155 140
-2.668577e-01 -4.766084e-01 1.899993e+00 181 175 162
-3.366938e+00 -7.089405e-01 -1.604540e+00 178 173 167
-3.711976e+00 -7.061545e-01 -1.896567e+00 88 80 73
-2.539791e+00 -2.156389e-01 6.542282e-01 156 142 117
6.561744e-01 9.391403e-01 1.469942e+00 131 128 110
-1.836202e+00 9.339775e-01 3.935490e-01 177 168 151
2.896290e+00 1.471522e+00 1.368361e+00 188 183 171
2.640832e+00 1.814501e+00 1.496818e+00 86 83 79
-2.740865e+00 1.456753e+00 -2.229588e+00 65 61 58
-2.740865e+00 1.456753e+00 -2.229588e+00 65 61 58
-3.364565e+00 1.441272e+00 -2.605867e+00 74 67 64
-8.644220e-01 2.333713e+00 -1.862524e+00 122 117 110
-3.307304e+00 2.472713e+00 -2.250766e+00 182 183 178
-3.307304e+00 2.472713e+00 -2.250766e+00 182 183 178
2.578584e+00 3.511067e+00 -8.932485e-01 98 91 85
1.693747e+00 4.479540e+00 -9.187621e-01 150 144 132
6.877947e-01 4.465507e+00 -1.513305e+00 106 97 81
6.877947e-01 4.465507e+00 -1.513305e+00 106 97 81
1.981095e+00 4.831059e+00 -9.019323e-01 168 166 155
1.280913e+00 5.813531e+00 -2.552119e+00 133 126 118
-3.431746e+00 -5.400864e+00 6.115738e+00 139 141 140
1.149905e-02 -3.846409e+00 3.283956e+00 133 134 139
-3.392143e-01 -3.786325e+00 3.365136e+00 49 48 57
-9.774856e-01 -3.673035e+00 3.809920e+00 126 130 131
-2.411929e+00 -3.102158e+00 2.807505e+00 96 91 87
-3.189633e+00 -2.492521e+00 1.303070e+00 163 156 146
-3.434043e+00 -2.704247e+00 -5.402986e-01 166 162 150
-4.491854e+00 -1.960337e+00 -2.487459e-01 166 166 158
-1.885407e+00 -1.506629e+00 1.778453e+00 163 160 153
-5.184425e-01 -1.314867e+00 4.865751e-01 103 99 96
-1.762917e+00 -1.235520e+00 1.993368e+00 157 156 152
4.049980e-01 -9.054551e-01 2.442921e+00 175 174 170
-2.188454e+00 -8.726713e-01 1.515094e+00 163 164 166
-1.269265e+00 -1.778223e-01 1.631516e+00 113 108 102
-2.388548e+00 -1.991979e-01 8.091083e-01 69 60 45
-2.594835e+00 3.234328e-02 -1.705198e+00 165 161 150
-2.140647e+00 3.306377e-01 -1.193636e+00 69 61 56
-2.748911e+00 4.475084e-01 -1.935409e+00 71 65 65
-8.075121e-01 5.390826e-01 1.562552e+00 103 106 104
-2.319547e+00 5.143689e-01 -5.783376e-01 64 57 50
-2.022737e+00 6.406314e-01 -1.670332e+00 167 167 167
-2.030890e+00 6.269561e-01 4.598742e-01 147 135 110
-2.030890e+00 6.269561e-01 4.598742e-01 147 135 110
6.195772e-01 1.093194e+00 1.108474e+00 164 165 159
-9.905828e-01 1.674931e+00 2.508076e-01 93 82 74
-1.140091e+00 1.680767e+00 1.624926e-01 153 142 123
2.681449e+00 2.438521e+00 6.645189e-01 181 173 160
9.316509e-01 2.377505e+00 4.712032e-01 126 124 113
1.193397e+00 2.478404e+00 3.817900e-01 169 164 152
-2.082349e+00 2.478438e+00 -2.331091e+00 69 66 61
-2.869808e+00 2.336568e+00 -1.694930e+00 67 63 60
7.957086e-01 2.671909e+00 2.431040e-01 169 167 169
-1.528526e+00 2.682774e+00 -1.540758e+00 184 181 176
1.897664e+00 3.434584e+00 -1.232541e+00 169 168 163
-3.146319e+00 2.831277e+00 -1.993934e+00 70 65 61
3.432172e+00 3.565322e+00 -1.212478e-01 178 173 168
-7.778449e-01 3.129265e+00 -1.154959e+00 67 61 58
1.805040e+00 4.017433e+00 -6.639911e-01 182 181 177
1.621583e+00 4.228552e+00 -1.724418e+00 107 96 90
2.098930e-01 4.470299e+00 -1.445343e+00 177 176 171
3.314420e+00 5.210158e+00 -1.409513e+00 178 174 171
-4.823465e-01 5.038046e+00 -2.241972e+00 164 155 148
1.751444e+00 5.324843e+00 -1.577864e+00 118 113 109
2.284848e+00 5.844275e+00 -2.199808e+00 82 71 64
-9.509309e-01 -3.835573e+00 3.579408e+00 38 38 40
-2.862060e+00 -3.360778e+00 2.432493e+00 115 114 110
-1.953328e+00 -2.984877e+00 2.921933e+00 84 84 84
-3.804287e+00 -3.155756e+00 1.671205e+00 167 163 153
-4.208424e+00 -3.119959e+00 1.484459e+00 160 158 159
-4.987175e+00 -4.154114e+00 -4.126806e+00 150 154 157
-2.822197e+00 -2.907930e+00 1.954938e+00 99 90 81
-6.129166e-01 -2.567564e+00 2.877141e+00 180 180 178
-3.206288e+00 -2.828494e+00 1.492136e+00 176 175 170
-2.175463e+00 -2.608527e+00 2.514754e+00 74 70 67
-2.541799e+00 -2.561011e+00 2.057569e+00 171 171 171
-2.197339e+00 -2.384919e+00 2.534227e+00 123 123 121
-3.179462e+00 -2.502408e+00 -5.601267e-01 152 152 154
-3.772805e+00 -2.138358e+00 4.339045e-01 119 111 99
-4.635790e+00 -2.200440e+00 -9.540699e-02 99 96 90
-1.588083e+00 -1.394443e+00 7.339029e-01 92 86 74
-2.650659e+00 -1.276359e+00 2.210319e+00 157 153 144
-3.731274e+00 -1.518397e+00 1.358400e-01 171 167 154
-2.212105e+00 -1.241365e+00 2.139229e+00 152 145 128
1.464933e+00 -1.441189e+00 -5.690332e+00 97 94 89
-2.503273e+00 -1.274583e+00 -1.158512e+00 80 69 62
-3.233838e+00 -1.233034e+00 1.400869e-01 178 174 162
-3.822006e+00 -1.236525e+00 -2.662853e-01 168 168 165
-2.846212e+00 -1.048164e+00 8.450262e-01 168 166 154
-3.342144e+00 -1.252047e+00 -2.576373e+00 79 72 66
-2.971893e+00 -9.288897e-01 -1.474930e+00 180 174 160
-2.565222e+00 -4.669885e-01 -1.361880e+00 152 154 153
-1.528414e+00 -2.624943e-01 1.497049e+00 84 76 78
4.160920e-01 -2.081142e-02 1.189433e+00 163 163 163
-1.540753e+00 -1.815651e-01 1.284334e+00 168 160 143
8.383973e-01 7.713485e-02 2.006395e+00 101 100 98
9.832978e-01 1.253476e-01 1.927065e+00 171 169 171
-2.125835e+00 -8.352528e-02 -1.306232e-01 157 157 152
2.730628e+00 5.064297e-01 1.922306e+00 157 151 141
-2.278770e+00 2.546945e-02 7.203949e-01 73 66 58
-7.922086e-01 1.918922e-01 1.464792e+00 87 89 93
1.110545e+00 4.916821e-01 1.399253e+00 104 104 102
9.507954e-01 5.055809e-01 1.087210e+00 178 178 176
-1.302390e+00 4.307925e-01 1.224872e+00 111 105 105
-1.302390e+00 4.307925e-01 1.224872e+00 111 105 105
3.072173e+00 9.914954e-01 2.155340e+00 74 70 69
1.648270e+00 9.678907e-01 1.594752e+00 152 147 146
8.035694e-01 7.932407e-01 3.437926e+00 152 147 146
4.032162e-01 9.454577e-01 1.020871e+00 101 92 83
1.950924e-01 8.860406e-01 1.618154e+00 101 92 83
-5.435265e-01 8.997447e-01 6.883718e-01 160 157 138
-3.466165e-01 1.058071e+00 -1.185944e+00 170 167 152
2.108357e+00 1.242309e+00 1.410044e+00 102 98 89
8.078745e-01 1.121422e+00 1.422144e+00 100 91 82
-1.590387e+00 9.223968e-01 5.956296e-01 158 153 146
-1.985320e+00 9.821045e-01 -2.704140e-01 178 174 170
1.486585e+00 1.439713e+00 1.112266e+00 75 68 65
2.036656e+00 1.515446e+00 1.446385e+00 182 177 171
1.371593e+00 1.461954e+00 1.058742e+00 159 159 157
-4.001530e-01 1.293027e+00 9.879794e-01 103 96 89
-2.126852e+00 1.300489e+00 -1.403546e+00 151 153 150
-3.603200e+00 1.308680e+00 -2.976396e+00 183 182 178
-1.127202e+00 1.373176e+00 5.897628e-01 94 86 75
3.519878e+00 2.110455e+00 -1.186856e-01 92 90 92
1.905581e+00 1.997251e+00 -9.342102e-01 93 87 74
1.920713e+00 1.921015e+00 8.622623e-01 180 177 172
8.244079e-01 1.830958e+00 9.072752e-01 155 152 145
-6.278978e-01 1.841099e+00 -5.472124e-01 151 147 138
-1.059378e+00 1.937524e+00 -1.820025e+00 167 165 161
-6.662928e-01 1.909922e+00 -2.918366e-01 73 69 60
-1.696038e+00 1.983555e+00 -1.087341e+00 183 183 185
-1.624435e+00 2.181451e+00 -2.152981e+00 115 114 118
-1.624435e+00 2.181451e+00 -2.152981e+00 115 114 118
3.160289e+00 2.534892e+00 8.577464e-01 185 184 180
-3.470117e-01 2.140386e+00 1.859799e-01 168 168 166
4.392828e-01 2.231447e+00 4.073511e-01 164 161 155
5.662565e-01 2.295205e+00 3.368723e-02 164 161 155
3.019104e+00 2.634929e+00 3.943469e-01 70 65 62
2.506235e+00 2.440683e+00 1.393190e+00 70 65 62
2.849542e+00 2.575489e+00 7.308012e-01 70 65 62
1.835807e+00 2.396116e+00 9.060071e-01 72 64 64
-2.049946e+00 2.210311e+00 -1.822519e+00 162 165 168
-3.351986e+00 2.204189e+00 -2.285314e+00 196 195 198
-1.424119e+00 2.475674e+00 -2.253005e+00 59 55 55
2.836061e+00 2.738629e+00 1.128465e+00 87 83 82
2.378184e+00 2.787661e+00 3.925324e-01 162 158 146
2.125462e+00 2.899741e+00 -6.281156e-01 170 163 144
-2.767891e-01 2.749514e+00 -3.010574e-01 169 168 166
-1.142111e+00 2.796186e+00 -1.359445e+00 100 99 97
-1.270629e+00 2.685099e+00 -7.549534e-01 100 99 97
-4.090418e+00 2.751272e+00 -3.205423e+00 137 133 134
3.438896e+00 3.385169e+00 6.791965e-02 113 105 98
-9.301583e-01 2.909129e+00 -1.204355e+00 184 183 179
-9.332277e-01 2.905518e+00 -1.187464e+00 184 183 179
1.755000e+00 3.329214e+00 -1.206982e+00 86 76 75
-7.857564e-01 2.914689e+00 -8.785496e-01 162 161 157
2.296766e+00 3.534318e+00 -8.303310e-01 110 101 92
2.359325e+00 3.569787e+00 -9.825460e-01 110 101 92
-4.777860e-01 3.212169e+00 -4.919256e-01 181 183 182
-3.766230e-01 3.294801e+00 -8.733913e-01 181 183 182
-5.967692e-01 3.717709e+00 -1.497446e+00 97 85 74
-2.610831e+00 3.375570e+00 -1.318951e+00 186 188 191
-4.426829e-01 3.916622e+00 -1.733068e+00 171 168 162
2.362386e+00 4.305785e+00 -8.833614e-01 119 112 101
5.317818e+00 4.807567e+00 -5.491283e-01 126 117 108
1.426090e-01 4.248965e+00 -1.436922e+00 184 180 171
1.451185e+00 4.449616e+00 -1.006437e+00 132 127 115
3.350144e+00 4.814661e+00 -8.926594e-01 118 115 110
3.370752e+00 5.022783e+00 -1.282907e+00 104 99 86
-2.901320e+00 4.393624e+00 -2.996601e+00 142 138 135
3.850768e-01 5.203174e+00 -2.467839e+00 112 107 104
2.395116e+00 5.949634e+00 -2.498850e+00 81 72 65
-3.379141e+00 -5.132671e+00 5.227583e+00 62 62 64
3.659494e+00 -6.164723e+00 3.855022e+00 63 62 67
3.659494e+00 -6.164723e+00 3.855022e+00 63 62 67
-2.372846e+00 -4.029286e+00 2.631788e+00 45 44 49
-2.389993e-01 -3.732301e+00 3.633627e+00 66 65 70
-9.303079e-01 -3.576029e+00 3.976943e+00 103 103 105
-2.930843e+00 -3.803178e+00 3.069116e+00 58 54 58
-7.546528e-01 -3.943023e+00 2.006773e+00 138 138 140
-2.022381e+00 -3.300542e+00 2.832925e+00 105 105 103
-4.478413e+00 -4.559518e+00 -3.414212e+00 71 64 71
-2.598199e+00 -3.143547e+00 2.719818e+00 109 110 105
-4.425974e+00 -3.169324e+00 1.493972e+00 174 175 180
1.913173e+00 -2.326841e+00 3.619338e+00 115 116 111
1.837990e+00 -2.297295e+00 3.592844e+00 184 184 182
5.202437e-01 -2.322761e+00 3.357747e+00 180 184 185
-2.709924e-01 -2.266502e+00 3.352490e+00 169 169 167
2.608622e+00 -1.989517e+00 4.231161e+00 159 155 143
2.135102e+00 -1.888721e+00 3.496981e+00 123 123 121
-3.619332e+00 -2.346931e+00 7.443574e-01 140 132 120
-3.340303e+00 -2.144579e+00 8.706038e-01 145 141 129
-4.832823e+00 -2.419734e+00 -1.107843e+00 106 105 103
-4.709721e+00 -2.227722e+00 -1.204448e+00 177 174 167
-4.486685e+00 -1.846217e+00 -3.418596e-01 103 102 101
-2.691634e+00 -1.750845e+00 -9.228675e-01 59 51 49
-2.468128e+00 -1.427750e+00 1.497956e+00 105 98 90
-2.595501e+00 -1.445496e+00 1.375432e+00 94 86 75
-3.663443e+00 -1.589365e+00 1.822914e-01 78 67 59
-1.407863e+00 -1.239147e+00 2.059610e+00 95 96 90
3.086808e+00 -8.348643e-01 2.890539e+00 156 152 143
-2.317005e+00 -1.169612e+00 2.162098e+00 116 111 107
2.131663e-01 -8.479469e-01 2.326321e+00 171 171 169
-3.747675e+00 -1.172952e+00 -2.754151e-01 96 86 75
4.147112e-01 -6.538026e-01 1.934663e+00 183 175 164
-4.722020e+00 -1.211008e+00 -1.354363e+00 189 198 205
2.757379e+00 -4.346615e-01 2.597672e+00 130 125 120
-2.748150e+00 -8.984885e-01 -1.791739e+00 152 150 138
-2.796303e+00 -7.677282e-01 -1.816751e+00 54 47 41
2.040099e+00 -2.011549e-01 2.318292e+00 106 100 97
-2.245007e+00 -5.983864e-01 -1.085924e+00 85 80 76
-2.267610e+00 -5.950936e-01 -9.623925e-01 85 80 76
-2.830642e+00 -5.479947e-01 -1.476380e-01 74 64 54
-2.118598e+00 -5.110565e-01 -1.446860e+00 165 157 148
-2.118598e+00 -5.110565e-01 -1.446860e+00 165 157 148
2.323309e-01 -1.450267e-01 1.659884e+00 171 166 162
-2.929481e+00 -4.355161e-01 -1.407547e+00 80 73 71
-2.905097e+00 -4.345304e-01 -1.655011e+00 80 73 71
3.341263e+00 1.917023e-01 2.275035e+00 107 102 99
-2.328943e+00 -2.859292e-01 9.642092e-01 141 131 120
-3.653858e+00 -3.463023e-01 -2.137289e+00 105 102 97
-1.510914e+00 4.006251e-03 1.365241e+00 102 97 93
7.968735e-01 2.421659e-01 1.899575e+00 115 114 111
-3.072439e+00 -8.101753e-02 -1.587954e-01 163 161 148
-4.837332e-01 2.549966e-01 -2.760286e-01 110 106 103
-6.192269e-01 5.079878e-01 -1.653761e+00 102 100 102
-5.041980e-01 6.902803e-01 1.044819e+00 185 185 183
2.575225e+00 1.061731e+00 1.538980e+00 100 97 92
-1.862614e+00 6.447075e-01 6.246805e-01 143 137 123
5.397672e-01 9.023330e-01 1.185074e+00 79 77 78
4.176184e-01 8.943085e-01 1.273482e+00 161 156 150
-4.169444e+00 6.775787e-01 -3.024113e+00 70 61 59
-8.357589e-01 8.885183e-01 -2.838014e-02 101 91 84
1.233852e+00 1.212673e+00 1.258241e+00 75 66 69
9.447864e-01 1.633921e+00 9.133531e-01 145 137 125
3.017530e+00 1.969528e+00 1.048250e+00 175 173 162
3.843588e+00 2.103539e+00 1.110167e+00 169 166 159
-9.680712e-01 1.534098e+00 4.896545e-01 158 150 134
3.457080e+00 2.074238e+00 1.963597e+00 180 177 172
3.416703e+00 2.274541e+00 8.271631e-01 192 191 189
-3.169095e+00 1.884129e+00 -3.037096e+00 106 101 98
-1.040168e+00 2.078620e+00 -1.560052e+00 155 147 133
-2.030481e+00 2.273630e+00 -1.605231e+00 67 62 59
8.015565e-01 2.531604e+00 1.956388e-01 113 106 96
2.951599e+00 3.019363e+00 -4.190965e-01 170 165 159
-4.026168e+00 2.615975e+00 -3.583149e+00 91 81 74
1.640286e+00 2.857281e+00 2.000043e-01 85 79 67
4.877277e+00 3.447021e+00 4.781284e-01 139 132 124
-8.201154e-01 3.121555e+00 -2.337479e+00 111 111 109
-1.569854e+00 2.800346e+00 -1.021106e+00 95 85 82
7.655914e-01 3.280223e+00 -1.220858e+00 83 80 73
1.506387e+00 3.340387e+00 -2.913993e-01 96 88 82
1.656031e-01 3.808006e+00 -2.246745e+00 173 176 171
5.584526e-01 3.932427e+00 -2.005210e+00 164 163 159
5.571383e-01 4.216593e+00 -2.255163e+00 70 61 66
1.317495e+00 4.195682e+00 -1.441755e+00 101 92 83
1.317495e+00 4.195682e+00 -1.441755e+00 101 92 83
-8.945987e-01 4.209359e+00 -3.047264e+00 92 84 81
8.405433e-03 4.381684e+00 -1.556966e+00 173 172 169
-1.251671e+00 4.771824e+00 -3.507501e+00 110 101 93
1.846821e+00 5.077620e+00 -2.202529e+00 103 94 89
4.939477e-01 4.825229e+00 -1.752856e+00 80 71 72
3.123553e-01 4.650600e+00 -1.166000e+00 80 71 72
7.620904e-01 4.814838e+00 -1.401598e+00 107 100 94
3.002392e-01 5.072276e+00 -2.499999e+00 187 182 177
2.520676e+00 5.516559e+00 -1.617110e+00 75 69 69
2.464467e+00 5.474549e+00 -1.491723e+00 75 69 69
6.914270e-01 6.249480e+00 -3.279992e+00 93 85 81
9.414940e-01 6.399486e+00 -3.164718e+00 87 77 75
1.019173e+00 6.517785e+00 -3.208156e+00 183 179 170
-2.478433e+00 -9.727320e+00 -1.932537e+00 80 79 77
-3.573852e+00 -5.225000e+00 5.704711e+00 111 112 114
-3.491724e+00 -5.209628e+00 5.586629e+00 132 133 135
4.072418e+00 -6.029155e+00 4.191540e+00 52 50 55
-7.747504e-01 -3.566406e+00 3.956599e+00 54 54 57
4.212898e-01 -3.844142e+00 2.882188e+00 61 60 65
-1.188800e+00 -4.007537e+00 -1.185825e-01 94 90 87
-4.358532e+00 -3.256409e+00 1.596260e+00 161 160 157
-2.322700e+00 -3.048675e+00 2.351087e+00 76 75 76
-4.329439e+00 -2.915096e+00 1.105163e+00 123 123 119
2.955676e+00 -2.169225e+00 3.800999e+00 89 87 88
-3.489028e+00 -2.789251e+00 1.257110e+00 145 145 137
-1.274515e+00 -2.408916e+00 3.022091e+00 94 93 89
-2.735067e-02 -2.350151e+00 2.458914e+00 115 117 116
-3.254073e+00 -2.482537e+00 7.345444e-01 171 164 146
-4.650224e+00 -2.119104e+00 -1.742997e-01 122 120 115
-2.025768e+00 -1.472499e+00 1.935481e+00 114 114 113
-9.110626e-02 -1.199392e+00 2.582793e+00 127 127 121
-2.375121e+00 -1.367979e+00 1.501684e+00 168 161 151
-4.002754e+00 -1.593572e+00 -1.766614e-01 166 163 151
-4.927971e+00 -1.581117e+00 -9.564857e-01 156 153 143
2.872794e-01 -9.192910e-01 2.453990e+00 162 161 159
2.872794e-01 -9.192910e-01 2.453990e+00 162 161 159
-3.011222e+00 -1.132547e+00 6.200917e-01 165 160 153
-3.069174e+00 -1.101217e+00 4.071907e-01 66 56 56
-4.293347e+00 -1.223073e+00 -7.183134e-01 156 157 151
-4.883007e+00 -1.281411e+00 -2.120909e+00 177 185 188
-2.964612e+00 -9.443743e-01 6.236225e-01 177 182 188
2.246493e+00 -3.456160e-01 2.512918e+00 86 79 76
3.067657e+00 -1.857177e-01 2.420965e+00 100 95 95
3.014912e+00 -6.635645e-02 2.388368e+00 126 124 122
3.502382e+00 2.027421e-02 2.375867e+00 85 77 75
2.940082e+00 1.376392e-01 2.278868e+00 118 111 105
3.461217e+00 4.413069e-01 2.067614e+00 175 172 159
1.277166e+00 2.634094e-01 9.780164e-01 173 173 171
2.018440e+00 4.264710e-01 2.080876e+00 70 66 63
-2.019911e+00 2.187741e-01 8.186252e-01 157 154 149
3.194881e+00 7.829560e-01 1.802211e+00 175 168 159
-2.635871e+00 2.333643e-01 2.185313e-01 95 84 78
2.643811e+00 1.289299e+00 -6.195072e-01 88 80 73
-2.055766e+00 7.409964e-01 2.620761e-01 96 87 81
-2.328311e+00 7.658615e-01 1.061729e-01 80 72 66
4.631599e-01 1.044928e+00 1.208856e+00 120 120 118
-2.589259e+00 7.848946e-01 -3.512504e-01 182 182 183
1.264027e+00 1.246997e+00 1.405998e+00 146 140 125
-2.222445e+00 1.282380e+00 -4.253548e-01 62 58 57
1.584603e+00 1.906087e+00 7.532626e-01 89 84 82
-2.469338e+00 1.599292e+00 -1.093273e+00 84 79 73
-2.506047e+00 1.572830e+00 -8.537371e-01 84 79 73
2.424466e+00 2.169849e+00 7.012260e-01 183 180 173
-1.887301e+00 1.787988e+00 -5.565622e-01 185 184 181
-6.924973e-01 1.893240e+00 1.881132e-01 161 159 151
4.042417e+00 2.600654e+00 1.882745e+00 188 185 176
1.490547e-01 2.242504e+00 3.810904e-01 138 135 126
1.490547e-01 2.242504e+00 3.810904e-01 138 135 126
8.268366e-01 2.348141e+00 4.083211e-01 94 88 77
3.998031e+00 2.849865e+00 5.684770e-01 178 175 170
1.024021e+00 2.469350e+00 3.032852e-01 154 150 141
8.970538e-01 2.557849e+00 2.142464e-01 154 151 132
1.491163e+00 3.031572e+00 -1.318304e+00 104 99 96
5.125024e-01 2.796917e+00 -2.878249e-02 152 146 130
-2.415547e+00 2.705186e+00 -2.033936e+00 187 186 184
3.352077e-01 3.000607e+00 -1.269011e+00 164 164 154
3.547289e+00 3.474057e+00 -5.513301e-02 107 102 99
1.314614e+00 3.196537e+00 -2.147647e-01 142 139 119
-1.228776e+00 3.223078e+00 -2.224476e+00 164 170 166
-5.545390e+00 3.403211e+00 -5.932597e+00 93 93 101
4.204694e+00 3.889886e+00 -9.020364e-02 174 169 165
1.448221e+00 3.503664e+00 -3.434859e-01 115 110 106
2.901059e+00 3.803697e+00 -2.999223e-01 173 166 156
3.158316e+00 4.012093e+00 -4.329357e-01 187 184 179
-2.784621e+00 3.250561e+00 -1.512299e+00 107 107 105
-1.110148e+00 3.611401e+00 -1.476654e+00 117 112 106
-5.066540e-01 3.818271e+00 -1.345380e+00 176 173 159
2.534291e+00 4.216517e+00 -6.172214e-01 70 61 56
-3.750138e-01 3.863633e+00 -1.378761e+00 165 158 150
3.443203e+00 4.713853e+00 -7.716168e-01 92 87 87
3.529747e+00 4.902493e+00 -9.872887e-01 200 199 194
-1.700278e-01 4.370362e+00 -1.525941e+00 113 106 101
1.923917e+00 5.025667e+00 -2.090437e+00 107 98 90
5.609798e-01 4.721402e+00 -1.746388e+00 79 75 74
1.979759e+00 4.870471e+00 -1.225642e+00 120 116 107
1.758537e+00 4.906866e+00 -1.448492e+00 158 153 134
3.024315e+00 5.342326e+00 -1.751166e+00 163 156 146
2.930657e+00 5.208840e+00 -4.812497e-01 118 115 110
2.365693e+00 5.449419e+00 -1.528003e+00 172 168 157
-1.553553e+00 5.882206e+00 -4.731899e+00 158 150 127
2.464530e+00 6.189777e+00 -2.707289e+00 67 56 68
1.968300e+00 6.382520e+00 -2.716955e+00 188 189 180
8.418156e-01 6.718923e+00 -3.925879e+00 195 196 189
-3.517014e+00 -5.225796e+00 5.657555e+00 78 79 81
-1.060313e+00 -3.745831e+00 3.730025e+00 95 94 99
-2.425149e-01 -3.662952e+00 3.619199e+00 68 69 73
-4.137263e+00 -3.203126e+00 1.662637e+00 94 94 96
-2.600604e+00 -2.890072e+00 2.063483e+00 104 107 112
-2.764448e+00 -2.647427e+00 1.804735e+00 161 162 163
-2.831673e+00 -2.513812e+00 1.827239e+00 102 97 90
-5.018145e+00 -2.753730e+00 5.823481e-01 103 99 98
-3.236522e+00 -2.425245e+00 1.149475e+00 91 82 77
-3.236522e+00 -2.425245e+00 1.149475e+00 91 82 77
1.860504e+00 -1.798047e+00 3.417625e+00 118 116 113
1.354396e+00 -1.842924e+00 3.232367e+00 136 131 121
-1.674972e-01 -1.623657e+00 2.783133e+00 161 163 162
-3.201594e+00 -1.980273e+00 8.693643e-01 170 163 155
-3.248789e+00 -1.886399e+00 7.612610e-01 170 167 159
1.561587e+00 -1.317471e+00 3.038938e+00 172 169 160
-3.513967e+00 -1.581520e+00 3.326902e-01 155 151 139
1.802466e+00 -1.002421e+00 2.766611e+00 165 159 147
-2.499531e+00 -1.394416e+00 1.378822e+00 178 175 166
-5.020642e+00 -1.684743e+00 -8.013543e-01 157 157 152
2.338293e+00 -1.848450e-01 2.323602e+00 105 101 92
9.541831e-01 -2.318842e-01 2.152793e+00 114 107 100
1.524758e-01 -2.251081e-01 1.907317e+00 113 104 101
-1.656516e+00 -2.500694e-01 1.469369e+00 92 85 75
-1.603751e+00 -1.179634e-01 1.380878e+00 168 164 153
1.951144e+00 2.426386e-01 1.955759e+00 130 122 111
-1.469461e+00 -6.380785e-02 1.403971e+00 165 164 162
-8.224877e-01 1.774793e-01 1.494264e+00 89 86 93
2.523343e+00 6.041961e-01 1.926833e+00 141 132 115
2.774994e+00 7.243887e-01 1.819632e+00 97 93 90
1.582582e+00 7.549874e-01 1.617113e+00 54 50 51
3.261122e+00 9.647285e-01 1.690948e+00 76 71 67
3.047105e+00 9.845350e-01 1.577538e+00 161 158 153
2.578272e+00 1.153717e+00 1.474407e+00 107 106 102
1.328873e+00 1.351310e+00 1.130935e+00 97 92 87
2.730621e+00 1.711304e+00 1.040424e+00 169 165 158
-1.106997e+00 1.413486e+00 5.515906e-01 68 59 51
-1.256106e+00 1.475985e+00 3.682247e-01 110 101 102
9.999943e-01 1.826452e+00 7.548881e-01 70 65 68
3.285643e+00 2.305784e+00 7.765778e-01 179 175 165
4.035148e+00 2.426500e+00 8.242031e-01 167 163 154
-1.222000e+00 1.810302e+00 1.661213e-02 148 139 123
4.125750e+00 2.500446e+00 8.130683e-01 114 108 107
3.098875e+00 2.402319e+00 7.061625e-01 113 109 100
2.793153e+00 2.670161e+00 4.589629e-01 169 161 150
2.746357e+00 2.996146e+00 2.172678e-01 188 185 178
2.684703e+00 2.988399e+00 1.813074e-01 92 87 84
-1.112868e+00 2.571824e+00 -7.469723e-01 87 78 85
-1.738931e+00 2.546601e+00 -1.076983e+00 94 87 84
1.759025e+00 2.922732e+00 6.171024e-02 173 168 150
3.667237e+00 3.250580e+00 1.686274e-01 198 197 192
3.754657e+00 3.394471e+00 2.147190e-01 193 190 183
4.615994e+00 3.557121e+00 2.549204e-01 69 63 75
4.363232e+00 3.524735e+00 2.177170e-01 183 179 167
4.363232e+00 3.524735e+00 2.177170e-01 183 179 167
1.398466e+00 3.254573e+00 -2.316913e-01 79 70 78
1.398466e+00 3.254573e+00 -2.316913e-01 79 70 78
1.245215e+00 3.222533e+00 -2.115129e-01 58 52 54
1.354655e+00 3.351799e+00 -3.230242e-01 130 121 124
-1.460502e-01 3.347755e+00 -8.046597e-01 112 104 98
-9.677222e-01 3.403127e+00 -1.261142e+00 118 111 101
3.036298e+00 3.932018e+00 -3.860877e-01 191 188 179
4.012438e+00 4.257039e+00 -3.265695e-01 184 177 166
2.427466e-01 3.710342e+00 -7.980706e-01 74 69 70
3.091062e+00 4.180269e+00 -5.102124e-01 202 198 195
-4.556550e-01 3.902635e+00 -1.381054e+00 82 78 79
8.735496e-01 4.311516e+00 -1.065420e+00 166 163 156
7.814911e-01 4.317233e+00 -1.011524e+00 77 71 71
3.114556e+00 5.233429e+00 -1.249670e+00 72 65 80
2.524029e+00 5.392796e+00 -1.490729e+00 174 171 163
-3.422076e-01 5.433642e+00 -2.507866e+00 182 176 164
2.310500e+00 5.776232e+00 -1.768767e+00 170 164 148
1.175151e+00 6.768946e+00 -2.543289e+00 187 183 174
2.527188e+00 7.250944e+00 -2.457006e+00 129 127 126
-2.394345e+00 -3.793113e+00 3.042892e+00 123 121 122
-3.067138e+00 -2.233744e+00 1.211693e+00 164 163 159
-2.979930e+00 -1.571528e+00 9.235105e-01 167 164 148
-3.908987e+00 -1.620228e+00 -1.147866e-01 170 163 155
1.095450e+00 -1.063353e+00 2.700210e+00 99 95 96
-1.888973e+00 7.783139e-01 4.730912e-01 168 154 127
-1.938702e+00 9.249985e-01 3.422236e-01 166 160 146
-1.485638e+00 1.277255e+00 3.744434e-01 178 173 149
1.320818e-01 2.169339e+00 4.700821e-01 61 56 52
9.154453e-01 2.421412e+00 3.623757e-01 142 139 131
3.663125e+00 3.329100e+00 1.549710e-01 136 134 135
1.372779e+00 4.041065e+00 -8.004213e-01 167 161 145
-1.121714e+00 3.999549e+00 -1.920522e+00 156 153 139
2.365544e+00 4.689009e+00 -1.077808e+00 194 192 183
6.602752e-01 5.504407e+00 -1.999182e+00 82 77 83
1.596177e+00 6.080808e+00 -2.141767e+00 117 110 106
4.674963e-01 6.150156e+00 -2.579063e+00 186 181 168
2.237575e+00 7.298778e+00 -2.557702e+00 160 157 148
1.136603e+00 8.771842e+00 7.427626e-02 62 52 50
-2.585228e+00 7.027455e+00 6.272708e+00 30 25 30
-6.218497e+00 5.303100e+00 8.605814e+00 88 82 63
-1.727006e+00 -3.219863e+00 3.129778e+00 199 200 168
-6.804222e-01 -2.420006e+00 2.768701e+00 130 132 123
2.820181e-01 3.458393e+00 2.160518e+00 109 100 80
-1.266318e+00 -3.693756e-01 1.622619e+00 107 105 90
-2.990216e+00 3.157889e-01 4.821994e+00 88 70 46
-2.575684e+00 -3.864814e+00 3.104741e+00 183 181 161
-1.219795e+00 -3.169416e+00 3.251606e+00 132 129 111
-1.645324e+00 -3.134263e+00 2.970127e+00 144 136 124
-2.176015e+00 -2.602833e+00 2.514711e+00 100 98 84
-2.154545e+00 -2.469131e+00 2.609218e+00 203 202 173
3.427980e-01 -1.539723e+00 2.273860e+00 118 118 106
-2.883777e+00 -1.018838e+00 6.101366e+00 114 101 84
-1.171472e+00 3.676902e+00 4.835236e+00 68 60 47
3.566449e+00 8.736345e+00 -1.553050e-01 238 236 225
-1.770390e+00 6.455438e+00 4.694343e+00 208 210 207
-8.275478e+00 4.656300e+00 1.050751e+01 115 102 95
-5.599504e+00 6.309091e+00 1.291464e+01 68 70 95
-3.110448e+00 6.444080e+00 1.569799e+01 212 221 214
-1.686803e+00 -1.034970e+00 4.469680e+00 113 110 102
-1.182149e+00 -1.223997e+00 2.088295e+00 103 101 86
-2.216134e+00 -1.119539e+00 4.307587e+00 109 105 96
-3.241562e+00 -1.400009e+00 2.400079e+00 240 228 190
-4.820822e+00 -1.000830e+00 2.494098e+00 249 237 206
2.367595e+00 2.412683e-01 1.750139e+00 89 81 65
-3.872272e+00 -4.725056e-01 3.321957e+00 77 65 54
3.212725e+00 8.404774e-01 1.713485e+00 159 158 139
2.292649e+00 4.480856e+00 1.049100e+00 95 84 77
-6.308706e+00 4.471571e+00 6.535536e+00 113 120 117
-3.424908e+00 7.234967e+00 5.080883e+00 98 103 109
-1.983514e+00 8.052896e+00 6.747784e+00 207 192 169
-2.707759e-01 -3.724781e+00 2.354536e+00 117 115 119
-1.189833e+00 -2.857908e+00 3.053102e+00 139 133 107
-2.606035e+00 -2.815995e+00 2.640593e+00 118 116 105
1.538731e+00 -2.596575e+00 2.560500e+00 106 103 83
-2.425838e+00 -1.331639e+00 2.144365e+00 136 123 98
-4.715805e+00 -9.403730e-01 4.083649e+00 148 128 103
3.267649e+00 3.680737e-01 2.222413e+00 98 94 82
-4.654382e+00 -6.196815e-01 2.298291e+00 87 70 53
-1.079647e-01 3.432648e-01 2.725053e+00 93 85 86
5.305932e-01 9.810514e-01 1.443888e+00 184 183 164
-4.024468e+00 2.363015e-01 4.128548e+00 92 75 42
-4.400440e+00 2.996381e-01 2.135177e+00 74 57 47
-2.788738e+00 1.235631e+00 -7.080217e-01 86 71 51
1.534679e-02 1.964148e+00 2.413807e+00 86 69 63
-2.196847e+00 1.809001e+00 1.139988e+00 239 229 196
4.014140e+00 3.248944e+00 1.187064e+00 82 80 59
3.783015e-01 3.455387e+00 -2.540133e-02 91 75 76
2.822887e-01 3.550997e+00 2.700944e+00 78 76 58
2.527125e+00 4.795975e+00 3.869951e-02 91 82 75
-3.512283e+00 6.205879e+00 1.025003e+00 236 231 210
-2.669886e+00 6.719619e+00 1.008737e+00 254 254 243
-3.141181e+00 6.381166e+00 1.956268e+00 249 246 240
-2.455087e+00 6.624168e+00 1.293784e+01 215 203 179
-6.258500e+00 5.909588e+00 1.289518e+01 84 91 105
-1.644420e+00 -3.012022e+00 2.504808e+00 140 137 131
-1.644552e+00 -2.531379e+00 2.658934e+00 200 201 169
-4.155843e+00 -1.579127e+00 6.147130e+00 209 190 148
-4.228097e+00 -5.700816e-01 2.285100e+00 76 61 40
-3.751246e+00 3.304392e-01 4.135190e+00 95 78 63
1.806786e+00 2.724623e+00 2.166274e+00 111 109 97
-3.476073e+00 1.779303e+00 2.539623e+00 238 231 185
-3.236241e+00 1.967522e+00 1.127522e+00 101 85 76
-2.061254e+00 2.990863e+00 4.440408e+00 234 226 198
-1.199712e+00 6.047821e+00 2.722517e+00 242 241 222
1.120547e+00 6.324095e+00 6.191527e+00 238 248 225
-4.564128e+00 5.272607e+00 5.176798e+00 245 247 229
-1.582658e+00 7.746994e+00 5.074572e-01 240 244 220
-1.947627e+00 7.423182e+00 1.483813e+00 237 239 199
-2.059037e+00 7.667977e+00 6.645645e+00 234 231 206
-4.485602e+00 6.537281e+00 1.228141e+01 99 104 111
-7.555122e+00 5.411850e+00 1.181702e+01 165 145 143
-9.131719e-01 7.381031e-01 1.988911e+00 186 180 155
-2.053526e+00 -2.669436e+00 2.561358e+00 118 115 121
-1.171949e+00 -1.213576e+00 2.046355e+00 43 42 38
-2.601385e+00 -3.161011e+00 2.662290e+00 69 64 66
-2.299191e+00 -1.110061e+00 1.899851e+00 76 58 58
-1.842897e-03 2.565258e+00 1.312979e+00 67 66 63
2.943794e-02 2.565808e+00 1.286464e+00 67 66 63
-5.433403e+00 1.029857e+01 -8.816702e-01 125 125 125
6.823202e-01 1.272146e+01 -2.882252e+00 124 123 121
-4.638605e+00 1.204089e+01 -1.445958e+00 132 128 125
4.147280e+00 9.778512e+00 -2.503633e+00 142 145 149
6.420851e+00 1.025916e+01 -2.487557e+00 134 141 145
4.075302e+00 1.468436e+01 -3.767988e+00 70 68 69
-4.145354e+00 1.141550e+01 -1.090544e+00 78 76 77
-4.955615e+00 1.131135e+01 -1.348649e+00 63 61 62
-2.699160e+00 1.252096e+01 -1.547648e+00 139 136 132
-3.710238e+00 1.271733e+01 -1.637889e+00 51 50 46
-3.710238e+00 1.271733e+01 -1.637889e+00 51 50 46
-1.583813e+00 1.257119e+01 -1.700076e+00 122 121 118
-3.599009e+00 1.196680e+01 -1.341979e+00 134 132 133
-3.584652e+00 1.194466e+01 -1.343585e+00 134 132 133
8.154558e-01 1.406688e+01 -3.131070e+00 128 125 118
8.596912e-01 1.490560e+01 -3.511878e+00 51 43 43
-3.838095e+00 2.679608e-01 1.954611e+00 56 55 51
6.812546e+00 1.130916e+01 -4.345919e+00 78 76 79
-2.475332e+00 9.637458e+00 -1.300449e+00 133 130 126
-3.625074e-01 1.201576e+01 -1.561102e+00 69 67 70
-4.472698e+00 1.130828e+01 -1.922477e+00 132 131 128
2.391854e+00 1.483602e+01 -3.757715e+00 125 121 121
-3.171299e+00 1.255290e+01 -1.582354e+00 55 51 56
-4.315411e+00 2.083245e-01 1.746263e+00 45 41 40
-7.594000e-01 8.570189e+00 -1.146345e+00 135 136 141
3.576735e+00 1.468563e+01 -3.998044e+00 123 122 118
-4.932340e+00 -5.360206e-02 2.009450e+00 85 85 77
9.728357e-01 8.419998e+00 -1.172264e+00 38 37 43
-2.943132e+00 8.076663e+00 -1.071517e+00 45 47 46
8.314420e-01 9.039656e+00 -1.341078e+00 110 110 108
8.932244e+00 1.388168e+01 -5.502681e+00 123 123 126
-1.129201e+00 1.234156e+01 -2.346671e+00 134 132 133
-4.201027e+00 -2.016984e+00 2.682431e+00 122 119 112
-3.503207e+00 -6.068866e-01 2.406883e+00 111 111 99
-2.867416e+00 -4.433747e-01 4.809495e-01 106 102 99
-2.907179e+00 -3.054614e-01 3.669540e-01 62 59 53
-1.160970e-01 1.048600e+00 3.053293e+00 123 120 113
-1.160970e-01 1.048600e+00 3.053293e+00 123 120 113
-4.250254e+00 9.806003e-01 1.233285e+00 76 75 73
-4.250254e+00 9.806003e-01 1.233285e+00 76 75 73
-2.166750e-01 1.730429e+00 5.000506e+00 108 105 97
-2.080017e+00 3.530564e+00 -7.698867e-01 71 70 66
-2.001194e+00 3.518576e+00 -8.309721e-01 71 70 66
2.588904e-01 3.057694e+00 5.203068e+00 125 122 117
-1.494763e+00 3.882789e+00 4.636280e+00 69 64 58
9.846337e+00 1.132981e+01 -4.371295e+00 130 134 143
-3.104805e+00 1.043948e+01 -7.311749e-01 137 136 132
-2.715622e+00 1.215129e+01 -2.093571e+00 117 116 112
-4.029615e+00 -1.464654e+00 2.543816e+00 60 57 52
-4.145132e+00 -1.051639e+00 2.555653e+00 69 65 62
-4.145132e+00 -1.051639e+00 2.555653e+00 69 65 62
-3.165945e+00 -8.721842e-01 2.766169e+00 58 56 51
-3.462160e+00 -8.054796e-01 2.425660e+00 64 64 58
-3.452235e+00 -6.522833e-01 2.459802e+00 54 54 44
-3.535952e-01 -5.529652e-02 3.447288e+00 59 55 51
-5.588812e+00 -5.467671e-01 2.139167e+00 60 59 57
-2.912938e+00 4.407340e-03 2.248373e+00 66 63 57
-4.763088e+00 4.927627e-01 1.816211e+00 48 44 41
-3.481875e+00 8.745540e-01 1.510354e+00 129 128 124
-3.552073e+00 9.336567e-01 1.418164e+00 67 66 64
-3.587639e+00 9.231069e-01 1.580011e+00 67 66 64
-4.358553e+00 8.544981e-01 1.478396e+00 75 74 71
-2.948377e+00 1.423654e+00 1.102035e+00 77 76 76
-1.210843e+00 1.840262e+00 -1.179592e+00 111 108 100
-2.289597e+00 1.730514e+00 9.219691e-01 123 119 116
-4.328082e+00 1.474339e+00 1.198845e+00 53 49 46
-2.199849e+00 1.824730e+00 9.203311e-01 122 119 112
1.992901e+00 2.254714e+00 4.020048e+00 68 65 60
-5.509852e-01 2.564646e+00 -7.751005e-01 108 105 98
1.723206e+00 2.867434e+00 3.774408e+00 132 128 125
-4.053810e+00 3.009373e+00 -6.972800e-02 72 71 69
-2.822115e+00 3.219833e+00 6.241183e-01 121 121 113
-1.667804e+00 3.697773e+00 -9.720898e-02 58 54 54
7.059579e-01 4.810899e+00 -3.031256e+00 127 124 116
-3.218875e+00 4.131542e+00 -7.984865e-01 70 68 69
-4.112291e-01 5.457560e+00 -2.721124e+00 66 63 56
3.409336e+00 5.848154e+00 1.535255e-02 148 144 145
2.869080e+00 5.851604e+00 2.188269e-01 84 83 81
5.618313e-01 7.402724e+00 -1.175636e+00 135 134 132
-6.258669e-01 7.459558e+00 -1.384689e+00 151 150 148
-5.953404e-01 7.253423e+00 -6.109032e-01 149 148 146
-5.953404e-01 7.253423e+00 -6.109032e-01 149 148 146
5.616237e+00 9.501041e+00 -3.039324e+00 150 148 151
9.064936e+00 1.044014e+01 -3.942811e+00 145 146 147
3.747632e+00 9.465820e+00 -2.857344e+00 28 29 33
-4.663772e+00 7.717025e+00 -9.904387e-01 30 30 30
-5.608448e+00 7.674851e+00 -1.010037e+00 153 154 156
8.275701e+00 1.187656e+01 -4.502509e+00 42 42 45
2.393708e+00 1.112652e+01 -2.286758e+00 131 135 136
6.250780e+00 1.304341e+01 -3.765223e+00 98 98 96
4.308994e+00 1.292316e+01 -3.678623e+00 53 51 52
7.667078e+00 1.533466e+01 -5.752048e+00 142 141 139
-1.285724e+00 1.252157e+01 -2.231003e+00 78 77 75
-3.591494e+00 1.206666e+01 -2.052151e+00 140 138 138
2.138244e+00 1.490560e+01 -3.800921e+00 138 134 135
2.433175e+00 1.477041e+01 -3.302514e+00 53 49 50
-3.099929e+00 -1.605649e+00 7.463828e-01 67 64 56
-3.661154e+00 -1.128147e+00 2.551950e+00 116 113 105
-3.804582e+00 -5.375346e-01 2.321256e+00 55 54 49
-4.711546e+00 -5.674832e-01 2.006501e+00 118 118 114
-1.875514e+00 -1.499899e-01 2.616798e+00 56 53 48
-1.245510e+00 -1.542151e-01 -2.286942e-02 106 103 96
-1.451034e-01 3.455939e-01 2.358778e+00 65 65 63
-3.772558e+00 1.400405e-01 1.948244e+00 102 99 95
1.813825e+00 8.011035e-01 3.163249e+00 72 69 64
-4.433765e+00 9.542226e-01 1.227474e+00 80 79 77
-4.235816e+00 1.141421e+00 1.116416e+00 73 72 68
-3.165567e+00 1.995925e+00 5.662447e-01 58 57 53
1.629662e+00 2.445572e+00 4.094145e+00 118 118 113
1.778584e+00 2.525795e+00 3.966038e+00 85 84 79
2.377116e+00 7.313057e+00 -2.274666e+00 143 140 139
-4.722689e-01 7.336034e+00 -1.507056e+00 133 132 130
-3.417197e+00 6.541937e+00 -5.904214e-02 99 99 99
-1.526473e+00 7.587970e+00 -1.026116e+00 140 142 141
-1.374101e+00 7.811688e+00 -1.069907e+00 116 117 119
4.803423e+00 9.311125e+00 -2.181114e+00 125 130 136
3.372612e+00 9.134928e+00 -2.345246e+00 117 119 118
-9.278825e-01 7.946944e+00 -1.108808e+00 52 54 66
6.637766e+00 1.035153e+01 -3.708999e+00 58 59 64
3.418343e+00 9.581692e+00 -2.535530e+00 135 137 134
8.943208e-01 8.732636e+00 -1.348003e+00 38 38 39
5.367416e+00 1.026975e+01 -3.167886e+00 148 148 150
3.348259e+00 9.708448e+00 -2.489356e+00 64 64 61
-2.968436e+00 7.693900e+00 -5.200164e-02 106 107 110
-5.335101e+00 7.459843e+00 -2.049746e-01 126 126 126
7.252991e+00 1.069549e+01 -2.609861e+00 125 128 130
-3.829470e+00 7.778865e+00 -1.519269e-01 139 139 140
-3.716752e+00 8.107579e+00 -1.008526e+00 139 139 140
-1.483005e+00 9.072715e+00 -1.127492e+00 108 107 105
1.029300e+00 1.040724e+01 -1.854410e+00 90 89 85
-3.722321e+00 9.551148e+00 -1.303465e+00 139 139 139
8.440538e+00 1.430811e+01 -4.429436e+00 94 93 98
-2.178751e+00 1.123353e+01 -1.860378e+00 46 47 51
2.443946e+00 1.319483e+01 -3.063735e+00 50 50 51
-4.083088e+00 1.120961e+01 -1.792623e+00 63 67 66
6.758767e+00 1.601631e+01 -5.626550e+00 103 102 100
4.825500e-01 1.332234e+01 -2.861290e+00 60 59 57
-8.869911e-01 1.291780e+01 -2.426180e+00 63 62 60
-3.435603e+00 1.207843e+01 -1.339358e+00 128 124 123
-3.470746e+00 1.236526e+01 -1.498293e+00 121 120 119
-5.437683e+00 9.869193e+00 -5.540988e-04 119 118 114
-1.770511e+00 8.510124e+00 6.866973e-01 135 134 132
-3.160069e+00 9.642753e+00 3.085787e-01 82 80 81
3.019229e-01 1.298669e+01 -1.405841e+00 128 124 119
3.544582e+00 1.489096e+01 -2.849161e+00 50 46 43
3.544582e+00 1.489096e+01 -2.849161e+00 50 46 43
2.910596e+00 1.491533e+01 -2.713880e+00 50 44 44
-8.482965e+00 9.481095e+00 -2.786423e-01 130 130 132
-4.244863e+00 1.182001e+01 -5.492798e-01 57 52 49
-5.240680e+00 -2.156682e+00 2.536641e+00 73 72 70
-3.244768e+00 4.157847e+00 8.679824e-01 144 146 143
6.114936e+00 9.585501e+00 -3.627263e-01 88 88 87
6.111084e+00 9.506414e+00 -4.289159e-01 88 88 87
3.569925e+00 -4.591530e-01 2.336867e+00 70 66 62
-4.202986e+00 -8.980216e-01 2.307920e+00 139 138 133
-3.968618e+00 -4.277847e-03 2.223413e+00 126 125 122
-4.228012e+00 6.688911e-01 1.974272e+00 75 74 72
-3.688874e+00 9.885791e-01 2.019668e+00 120 115 112
-2.132455e+00 1.348141e+00 1.848732e+00 69 64 60
-4.690390e-01 2.647693e+00 2.297272e+00 109 107 102
-9.072219e+00 4.828801e+00 5.750638e-01 151 151 149
-5.420057e+00 6.484057e+00 7.880316e-01 64 69 73
-5.420057e+00 6.484057e+00 7.880316e-01 64 69 73
-6.091797e+00 6.480144e+00 7.212969e-01 125 131 134
-3.567371e+00 7.038975e+00 9.870276e-01 131 132 137
-5.960200e-01 8.060303e+00 5.518765e-01 30 31 35
-5.960200e-01 8.060303e+00 5.518765e-01 30 31 35
1.850899e+00 9.178729e+00 -1.166153e+00 32 32 35
-3.896037e-01 -3.705238e+00 1.878074e+00 84 84 81
-3.501585e+00 -3.434021e+00 1.995216e+00 116 115 110
3.986703e-01 -2.985542e+00 1.885270e+00 109 110 105
-2.411228e+00 -2.776600e+00 2.020154e+00 65 66 61
2.600885e-02 -2.073124e+00 1.861836e+00 113 113 110
-4.885472e+00 -1.532109e+00 2.276060e+00 46 42 39
-3.795602e+00 -1.411140e+00 2.226678e+00 70 66 57
-6.708270e+00 -1.282875e+00 2.216358e+00 41 43 42
-6.528769e+00 -7.801241e-01 2.328236e+00 132 138 140
-4.681415e+00 -4.829157e-01 1.993070e+00 120 119 115
1.139246e+00 1.275495e-01 1.147212e+00 59 58 54
2.390374e+00 7.852538e-01 1.724147e+00 141 138 133
-3.376375e+00 1.133615e+00 1.697039e+00 36 32 29
-3.376375e+00 1.133615e+00 1.697039e+00 36 32 29
-3.480347e+00 1.171141e+00 1.664833e+00 49 45 42
-2.332927e+00 1.669229e+00 1.708102e+00 75 72 65
-1.365249e+00 2.214677e+00 1.659796e+00 68 65 58
-1.639906e+00 2.469925e+00 1.482566e+00 80 78 62
-2.419689e+00 4.991454e+00 1.106470e+00 149 147 146
-3.839285e+00 5.712039e+00 1.091107e+00 151 151 149
3.338976e+00 8.825805e+00 -1.384470e+00 133 136 145
-4.651789e+00 6.784765e+00 8.544238e-01 47 47 52
1.765816e+00 8.866561e+00 -9.015229e-01 60 62 64
-7.137615e+00 7.174462e+00 4.213216e-01 103 103 105
3.223397e+00 1.254880e+01 -2.260294e+00 145 145 143
8.591627e-01 1.173626e+01 -1.318825e+00 126 124 125
-6.531172e+00 1.022282e+01 -2.067357e-01 59 55 52
-5.424789e+00 1.300343e+01 -1.005019e+00 74 75 75
-4.107566e+00 -5.111150e+00 1.669780e+00 31 34 32
-6.725601e-01 -3.840906e+00 1.831140e+00 121 122 117
-6.240493e+00 -4.019506e+00 1.734962e+00 75 75 80
-7.657296e-01 -3.735476e+00 1.869817e+00 76 77 72
-4.904238e+00 -3.528164e+00 1.996994e+00 69 68 64
5.289306e-01 -2.994669e+00 1.902639e+00 68 70 65
-3.928828e+00 -2.900199e+00 2.065292e+00 67 66 59
-5.833240e+00 -2.981541e+00 2.000578e+00 74 74 76
-2.094472e+00 -2.647356e+00 2.026324e+00 114 114 112
-4.726784e+00 -2.087785e+00 2.620908e+00 120 119 115
-7.107003e+00 -2.035848e+00 2.128071e+00 121 126 131
-7.207746e+00 -1.594217e+00 2.118749e+00 71 71 73
-7.585702e+00 -1.277488e+00 2.137552e+00 45 44 49
-4.560819e+00 -1.139169e+00 2.301311e+00 69 67 63
4.756255e-02 -6.416090e-01 2.875235e+00 121 121 111
-7.560355e+00 -8.727147e-01 2.218948e+00 136 140 144
-2.940705e+00 -5.371087e-01 2.475444e+00 66 62 53
-1.512829e+00 2.633229e-01 2.716652e+00 119 118 114
2.456368e+00 8.485763e-01 1.810797e+00 74 72 67
-1.166927e+00 7.624217e-01 2.585092e+00 108 107 103
-4.302307e+00 6.792785e-01 1.754283e+00 118 117 115
-4.016295e+00 1.162801e+00 1.784974e+00 47 43 40
1.988794e+00 2.045410e+00 1.393383e+00 76 71 67
-4.306416e+00 2.687109e+00 1.179705e+00 87 86 84
-3.223465e+00 3.145817e+00 9.749618e-01 81 77 74
-2.170701e-01 3.623626e+00 2.195945e+00 74 70 66
-1.184375e+00 4.057551e+00 8.042771e-01 67 64 57
-1.079977e+00 4.864069e+00 6.255422e-01 68 64 63
-1.449406e+00 5.502367e+00 9.187247e-01 73 68 62
-9.105093e+00 5.899868e+00 3.475556e-01 92 92 94
7.034775e-01 7.727187e+00 -2.377329e-01 141 142 141
-7.790754e+00 6.740163e+00 3.878201e-01 65 66 68
-5.566452e+00 7.054898e+00 7.046217e-01 34 33 38
-9.066963e+00 6.738444e+00 2.183595e-01 130 131 133
5.859167e+00 9.895120e+00 -9.240540e-01 42 42 44
-2.247278e+00 7.943599e+00 8.235688e-01 139 139 139
-1.649003e+00 1.022257e+01 -3.319456e-02 93 91 92
-4.190453e+00 9.747767e+00 1.458484e-01 111 111 113
3.791961e+00 1.282522e+01 -2.519164e+00 84 82 83
-1.233412e+00 1.247610e+01 -9.389211e-01 126 125 120
-2.975093e+00 1.359040e+01 -1.125100e+00 78 78 83
-4.561894e+00 -8.958142e-01 5.261776e+00 31 26 23
-5.277671e+00 -1.610362e+00 1.012338e+01 74 70 67
-3.037638e+00 6.210112e-02 3.835801e+00 25 18 9
-4.328193e+00 2.629399e+00 -4.670823e-01 121 120 118
-5.246954e+00 -1.115831e+00 7.390205e+00 30 26 21
-5.058175e+00 -1.101453e+00 7.283936e+00 21 16 13
-4.389062e+00 -4.696590e-01 2.730033e+00 84 80 77
-9.593871e-01 3.117079e-01 5.309317e+00 44 39 36
-9.593871e-01 3.117079e-01 5.309317e+00 44 39 36
-3.676733e+00 2.222892e+00 2.106862e+00 26 21 15
-4.551789e+00 -6.098605e+00 3.880483e+00 137 126 106
-4.621069e+00 -4.835035e+00 3.829986e+00 244 239 219
-4.810962e+00 -5.679150e+00 4.131432e+00 208 206 192
-4.737727e+00 -5.632435e+00 4.107323e+00 86 75 76
-2.755012e+00 -4.912725e+00 5.610280e+00 119 105 91
5.001858e+00 -2.067574e-01 3.508414e+00 155 149 133
4.935844e+00 -1.206877e+00 3.631897e+00 168 162 145
-6.895040e-03 -6.680897e+00 3.805990e+00 118 115 106
4.815946e+00 -1.164581e+00 3.560610e+00 97 87 63
3.119430e+00 1.251530e-01 4.294765e+00 104 93 69
5.148227e+00 -2.164470e+00 3.786000e+00 73 69 58
4.853658e+00 -7.980717e-01 3.577435e+00 95 89 67
1.778486e-01 9.072111e+00 3.754812e+00 176 177 173
-9.695329e-01 8.013331e+00 3.539674e+00 170 170 168
3.628975e+00 5.712740e+00 7.147389e+00 133 124 117
-3.832931e+00 5.085966e+00 3.772106e+00 194 200 203
3.779530e+00 7.500347e+00 5.454824e+00 187 186 186
2.793564e+00 -5.530342e+00 5.430088e+00 58 61 66
1.084177e+01 -3.647635e+00 1.298893e+00 158 171 180
2.411780e-01 8.977155e+00 4.077615e+00 195 199 203
2.839603e+00 -5.951390e+00 5.114150e+00 82 86 85
4.254324e-01 7.725913e+00 4.049458e+00 127 125 122
-1.423932e+00 8.925821e+00 3.237551e+00 113 106 101
1.126536e+01 -2.085709e+00 8.167811e-01 121 127 136
-7.052780e+00 -1.173472e+00 1.650935e+00 105 105 105
2.006664e+00 2.927720e-01 2.003269e+00 102 94 83
-5.369302e-01 6.269774e+00 -4.259000e+00 184 184 176
-4.413758e+00 -1.270928e+00 -6.157491e-01 141 140 138
7.550303e-01 6.848545e+00 -5.647869e+00 159 158 153
-4.289017e+00 -5.104546e+00 6.624853e+00 140 141 143
-4.006110e+00 -3.988023e+00 3.082027e+00 126 122 110
-4.168238e+00 -3.969167e+00 3.137208e+00 36 32 29
-4.711834e+00 -3.875026e+00 3.004632e+00 56 48 42
-4.962320e+00 -3.279079e+00 1.718516e+00 132 126 114
5.263729e-03 -2.282924e+00 -7.249289e+00 163 160 153
4.623515e+00 -7.405030e+00 2.350904e+00 130 130 122
-4.068438e+00 -5.000647e+00 5.606052e+00 111 120 128
7.251114e+00 -5.760075e+00 1.372630e+00 72 71 69
-3.627128e+00 -4.153885e+00 3.368659e+00 84 86 85
-4.326791e+00 -3.907082e+00 3.054518e+00 66 56 53
-4.346695e+00 -3.766156e+00 2.575601e+00 84 83 88
-5.423838e-01 -1.688324e+00 -5.900964e+00 111 108 102
-4.017103e+00 8.854467e-02 -1.733020e+00 119 118 119
3.878907e+00 1.872787e+00 6.830590e-01 160 157 150
-3.822081e+00 1.206150e+00 -1.925069e+00 118 117 117
5.009803e-01 5.571002e+00 -3.585801e+00 171 171 169
-4.186257e+00 -5.176236e+00 6.755213e+00 104 103 108
-4.069086e+00 -5.209976e+00 6.536377e+00 83 81 82
4.690578e+00 -7.353249e+00 2.432129e+00 43 41 42
6.079611e+00 -6.348143e+00 3.558522e+00 160 159 155
-4.054421e+00 -4.848482e+00 5.118407e+00 144 146 145
7.468786e+00 -5.652028e+00 1.449584e+00 101 100 100
-4.790014e+00 -3.840559e+00 2.812746e+00 119 117 118
-1.635735e+00 -1.114520e+00 3.695361e+00 92 91 87
-3.918003e+00 1.895226e-01 -1.342351e+00 88 79 70
-3.716713e+00 8.175260e-01 -3.294234e+00 110 106 97
4.665017e+00 3.234745e+00 -3.670210e-01 87 82 78
-2.498113e+00 3.774231e+00 -2.670059e+00 115 113 100
-3.703258e+00 -5.064115e+00 5.351001e+00 143 146 150
-2.800517e+00 -4.796308e+00 3.600423e+00 99 94 91
-3.727825e+00 -4.503413e+00 4.073907e+00 82 83 85
-3.790281e+00 -4.440174e+00 3.955828e+00 89 88 89
-4.610768e+00 -4.182853e+00 3.637695e+00 79 79 81
-4.369050e+00 -4.146714e+00 3.389686e+00 64 65 64
-4.015904e+00 -3.885563e+00 2.815102e+00 113 112 110
-4.693303e+00 -3.616730e+00 2.267028e+00 92 90 93
2.037255e+00 -2.083709e-01 3.176582e+00 177 171 157
-4.363027e+00 -5.949566e-02 -1.633440e+00 135 131 132
-2.956883e+00 1.167578e+00 -1.036424e+00 95 94 89
-3.171705e+00 1.353622e+00 -2.628745e+00 81 69 71
4.919661e+00 2.282060e+00 1.443869e+00 189 185 179
5.856164e+00 3.912016e+00 4.314148e-01 110 108 110
-1.802934e+00 5.428807e+00 -3.267060e+00 158 150 127
-1.576822e+00 5.888445e+00 -3.362040e+00 134 133 131
-1.383417e+00 -5.975450e+00 5.595744e+00 64 63 68
-4.078859e+00 -4.972143e+00 5.512567e+00 56 58 61
-4.078859e+00 -4.972143e+00 5.512567e+00 56 58 61
-3.914724e+00 -4.985171e+00 5.413258e+00 130 132 131
-3.389670e+00 -4.765064e+00 4.419373e+00 85 85 88
-3.389670e+00 -4.765064e+00 4.419373e+00 85 85 88
-3.891091e+00 -4.318021e+00 3.720324e+00 111 117 123
-4.211620e+00 -4.169454e+00 3.524201e+00 154 153 148
-4.704775e+00 -3.937345e+00 3.148416e+00 138 137 131
-4.644673e+00 -3.580142e+00 2.237390e+00 163 163 162
-4.105650e+00 -7.110234e-01 -8.561188e-01 59 52 59
-3.430903e+00 8.156703e-02 -7.373138e-01 174 171 165
-3.096362e+00 1.529165e-01 -2.841931e-01 123 114 101
-3.781055e+00 5.986539e-01 -1.470110e+00 150 147 138
-2.921197e+00 1.028430e+00 -8.998363e-01 59 49 57
