ply
format ascii 1.0
element face 0
property list uchar int vertex_indices
element vertex 963
property float x
property float y
property float z
property uchar diffuse_red
property uchar diffuse_green
property uchar diffuse_blue
end_header
3.728163e-01 4.810260e-01 3.099007e+00 43 70 19
3.866827e-01 4.709156e-01 3.100845e+00 49 63 52
3.830140e-01 4.737476e-01 3.100516e+00 92 108 72
4.179791e-01 4.480903e-01 3.101095e+00 126 151 94
3.812403e-01 4.753325e-01 3.100274e+00 60 78 24
3.355771e-01 5.102769e-01 3.088130e+00 53 81 21
3.794979e-01 4.767078e-01 3.100001e+00 33 54 15
3.847476e-01 4.729207e-01 3.100718e+00 94 114 79
3.767191e-01 4.789120e-01 3.099626e+00 92 118 73
3.791405e-01 4.771315e-01 3.100036e+00 81 107 62
3.506435e-01 4.989245e-01 3.093533e+00 107 126 63
3.382324e-01 5.086131e-01 3.089220e+00 47 73 12
3.382324e-01 5.086131e-01 3.089220e+00 47 73 12
4.363538e-01 4.353488e-01 3.099268e+00 42 65 37
3.498335e-01 4.996381e-01 3.093261e+00 155 174 113
4.327465e-01 4.380767e-01 3.099766e+00 94 115 77
3.693212e-01 4.848177e-01 3.098510e+00 129 138 92
3.584362e-01 4.930914e-01 3.095784e+00 124 140 85
4.341913e-01 4.371230e-01 3.099544e+00 29 46 12
4.236311e-01 4.447447e-01 3.100752e+00 122 152 92
3.500666e-01 4.999546e-01 3.093310e+00 82 102 42
3.437242e-01 5.048287e-01 3.091200e+00 39 65 7
3.591534e-01 4.930042e-01 3.095979e+00 131 143 93
3.266754e-01 5.182507e-01 3.084386e+00 33 59 19
4.127620e-01 4.531328e-01 3.101578e+00 60 91 31
3.647160e-01 4.889469e-01 3.097359e+00 147 165 104
3.232668e-01 5.211266e-01 3.082758e+00 34 64 14
4.034984e-01 4.600752e-01 3.101786e+00 65 84 57
3.763555e-01 4.801941e-01 3.099596e+00 47 75 27
3.936853e-01 4.673632e-01 3.101512e+00 161 170 171
3.810750e-01 4.767885e-01 3.100308e+00 67 93 35
3.705862e-01 4.846496e-01 3.098611e+00 103 130 76
4.292834e-01 4.413800e-01 3.100297e+00 69 95 61
4.000832e-01 4.627583e-01 3.101727e+00 70 85 62
4.011307e-01 4.620280e-01 3.101773e+00 47 66 46
4.246154e-01 4.450060e-01 3.100843e+00 48 77 20
3.971575e-01 4.650369e-01 3.101677e+00 81 105 69
3.832635e-01 4.754677e-01 3.100607e+00 121 145 97
3.832635e-01 4.754677e-01 3.100607e+00 121 145 97
4.137305e-01 4.530306e-01 3.101627e+00 112 137 78
3.815068e-01 4.769707e-01 3.100374e+00 117 145 87
3.815068e-01 4.769707e-01 3.100374e+00 117 145 87
3.680101e-01 4.871789e-01 3.098046e+00 52 69 15
3.889728e-01 4.714927e-01 3.101192e+00 81 94 71
3.473131e-01 5.031667e-01 3.092424e+00 112 139 88
3.805261e-01 4.779294e-01 3.100239e+00 130 157 102
3.753709e-01 4.817406e-01 3.099444e+00 102 119 77
3.753709e-01 4.817406e-01 3.099444e+00 102 119 77
3.899969e-01 4.709264e-01 3.101343e+00 83 99 64
3.828846e-01 4.762023e-01 3.100557e+00 55 82 28
4.212052e-01 4.480566e-01 3.101188e+00 111 130 99
4.351897e-01 4.380732e-01 3.099847e+00 35 55 30
3.397201e-01 5.094629e-01 3.089645e+00 132 161 95
3.912185e-01 4.705472e-01 3.101431e+00 60 79 46
4.092191e-01 4.573028e-01 3.101879e+00 40 62 25
3.281146e-01 5.188314e-01 3.084944e+00 55 82 39
4.368900e-01 4.372613e-01 3.099724e+00 141 175 159
4.031259e-01 4.619200e-01 3.101937e+00 18 36 10
4.140373e-01 4.540005e-01 3.101771e+00 42 68 30
4.140373e-01 4.540005e-01 3.101771e+00 42 68 30
4.075532e-01 4.587063e-01 3.101915e+00 33 55 32
4.056955e-01 4.600523e-01 3.101943e+00 29 55 20
4.056955e-01 4.600523e-01 3.101943e+00 29 55 20
3.661105e-01 4.896701e-01 3.097577e+00 112 135 81
4.205300e-01 4.494330e-01 3.101433e+00 27 42 21
4.251797e-01 4.461702e-01 3.101080e+00 94 110 84
4.251797e-01 4.461702e-01 3.101080e+00 94 110 84
4.370901e-01 4.376478e-01 3.099845e+00 22 55 40
3.918077e-01 4.707696e-01 3.101493e+00 65 86 48
4.002984e-01 4.646122e-01 3.101882e+00 106 132 83
3.544522e-01 4.990739e-01 3.094551e+00 92 108 70
3.325179e-01 5.161282e-01 3.086811e+00 101 129 81
4.354791e-01 4.390335e-01 3.100037e+00 35 54 35
4.354791e-01 4.390335e-01 3.100037e+00 35 54 35
3.771883e-01 4.819652e-01 3.099782e+00 108 133 75
3.604795e-01 4.946912e-01 3.096231e+00 88 113 73
3.604795e-01 4.946912e-01 3.096231e+00 88 113 73
3.945955e-01 4.690894e-01 3.101732e+00 25 47 11
3.596946e-01 4.953834e-01 3.096039e+00 28 54 15
4.048815e-01 4.616124e-01 3.102032e+00 31 52 24
3.671134e-01 4.899022e-01 3.097891e+00 102 122 83
3.614675e-01 4.941864e-01 3.096536e+00 32 55 17
4.060444e-01 4.608721e-01 3.102053e+00 44 68 41
4.060444e-01 4.608721e-01 3.102053e+00 44 68 41
3.845418e-01 4.770892e-01 3.100787e+00 99 127 79
3.838599e-01 4.775723e-01 3.100682e+00 34 61 16
3.483261e-01 5.046085e-01 3.092613e+00 96 121 82
3.413783e-01 5.100036e-01 3.090198e+00 65 91 28
3.517917e-01 5.020871e-01 3.093758e+00 11 38 6
4.419990e-01 4.351634e-01 3.099379e+00 15 33 32
4.000849e-01 4.657561e-01 3.102038e+00 100 117 83
4.289344e-01 4.447868e-01 3.100984e+00 70 87 81
4.096654e-01 4.588072e-01 3.102120e+00 28 43 33
3.952628e-01 4.694411e-01 3.101784e+00 117 139 96
3.784724e-01 4.820294e-01 3.099973e+00 116 135 79
4.286478e-01 4.450590e-01 3.101041e+00 69 88 82
3.686262e-01 4.895813e-01 3.098160e+00 31 49 23
3.686262e-01 4.895813e-01 3.098160e+00 31 49 23
3.582495e-01 4.974561e-01 3.095637e+00 85 102 66
3.582495e-01 4.974561e-01 3.095637e+00 85 102 66
4.114588e-01 4.575946e-01 3.101793e+00 150 164 141
3.547984e-01 5.002770e-01 3.094593e+00 133 139 111
4.238583e-01 4.488150e-01 3.101514e+00 99 114 91
3.299780e-01 5.197561e-01 3.085647e+00 138 168 108
4.286083e-01 4.455762e-01 3.101125e+00 19 42 26
3.918742e-01 4.725450e-01 3.101564e+00 132 155 113
3.993560e-01 4.671038e-01 3.102005e+00 32 43 27
3.871926e-01 4.761483e-01 3.101135e+00 42 64 23
3.744951e-01 4.857165e-01 3.099209e+00 87 104 76
3.649163e-01 4.929518e-01 3.097309e+00 84 106 78
3.496549e-01 5.046910e-01 3.093041e+00 18 36 12
3.437829e-01 5.093203e-01 3.090994e+00 103 130 87
3.437829e-01 5.093203e-01 3.090994e+00 103 130 87
3.818644e-01 4.803553e-01 3.100494e+00 76 106 68
3.757961e-01 4.848413e-01 3.099521e+00 46 71 30
3.282819e-01 5.215095e-01 3.084844e+00 60 85 20
4.309013e-01 4.443056e-01 3.100966e+00 85 103 79
3.517858e-01 5.033616e-01 3.093683e+00 66 84 60
3.473887e-01 5.067647e-01 3.092252e+00 33 56 22
4.254863e-01 4.483656e-01 3.101477e+00 98 117 85
3.958430e-01 4.701781e-01 3.101894e+00 103 119 83
3.923713e-01 4.727485e-01 3.101640e+00 34 56 21
3.923713e-01 4.727485e-01 3.101640e+00 34 56 21
3.829841e-01 4.797730e-01 3.100646e+00 37 63 26
3.805459e-01 4.815846e-01 3.100309e+00 98 124 95
3.805459e-01 4.815846e-01 3.100309e+00 98 124 95
3.763863e-01 4.848184e-01 3.099667e+00 26 51 14
4.074159e-01 4.617635e-01 3.102258e+00 41 61 49
4.314670e-01 4.442738e-01 3.100971e+00 35 57 20
4.250855e-01 4.489544e-01 3.101527e+00 102 127 88
4.130851e-01 4.576957e-01 3.102178e+00 77 89 85
3.937596e-01 4.719454e-01 3.101747e+00 108 129 99
3.808900e-01 4.817013e-01 3.100379e+00 26 52 25
3.703401e-01 4.896573e-01 3.098487e+00 36 61 22
3.574246e-01 4.994453e-01 3.095270e+00 76 98 62
3.981559e-01 4.689987e-01 3.102071e+00 32 54 31
3.883644e-01 4.763188e-01 3.101318e+00 28 48 22
3.739414e-01 4.872071e-01 3.099222e+00 23 44 25
3.458979e-01 5.086195e-01 3.091696e+00 16 40 8
4.243446e-01 4.499213e-01 3.101700e+00 78 101 73
3.733423e-01 4.877301e-01 3.099062e+00 98 121 101
3.320076e-01 5.195463e-01 3.086404e+00 50 82 17
3.257966e-01 5.244051e-01 3.083756e+00 139 160 104
4.115867e-01 4.593346e-01 3.102286e+00 40 57 46
3.910311e-01 4.745199e-01 3.101523e+00 42 65 37
3.670091e-01 4.926198e-01 3.097759e+00 80 103 81
3.606446e-01 4.974496e-01 3.096179e+00 27 55 7
3.695914e-01 4.908407e-01 3.098326e+00 80 103 74
3.389747e-01 5.143447e-01 3.089173e+00 96 126 72
3.389747e-01 5.143447e-01 3.089173e+00 96 126 72
3.274363e-01 5.233957e-01 3.084428e+00 149 172 116
3.274363e-01 5.233957e-01 3.084428e+00 149 172 116
3.564506e-01 5.009422e-01 3.095020e+00 83 110 68
3.271276e-01 5.237026e-01 3.084324e+00 84 108 60
3.271276e-01 5.237026e-01 3.084324e+00 84 108 60
3.437715e-01 5.108578e-01 3.090879e+00 70 95 63
3.922934e-01 4.740407e-01 3.101692e+00 75 93 77
3.791333e-01 4.838554e-01 3.100083e+00 28 48 13
3.537669e-01 5.031862e-01 3.094231e+00 79 102 75
3.223791e-01 5.277648e-01 3.082174e+00 27 45 45
4.066133e-01 4.635656e-01 3.102349e+00 100 118 96
3.810591e-01 4.826204e-01 3.100407e+00 113 130 106
3.269730e-01 5.241691e-01 3.084152e+00 161 187 142
3.449402e-01 5.103477e-01 3.091326e+00 35 62 19
3.922609e-01 4.744598e-01 3.101691e+00 26 43 27
3.256607e-01 5.255532e-01 3.083629e+00 87 101 87
3.997886e-01 4.690406e-01 3.102139e+00 29 52 24
3.997886e-01 4.690406e-01 3.102139e+00 29 52 24
3.678393e-01 4.929772e-01 3.097900e+00 123 141 120
3.564942e-01 5.017571e-01 3.094998e+00 41 69 21
3.856909e-01 4.796306e-01 3.101009e+00 58 87 41
3.856909e-01 4.796306e-01 3.101009e+00 58 87 41
3.578877e-01 5.007355e-01 3.095392e+00 32 51 23
4.107514e-01 4.611320e-01 3.102427e+00 25 48 30
4.014349e-01 4.681430e-01 3.102269e+00 35 52 20
3.595929e-01 4.996906e-01 3.095862e+00 27 44 15
3.207476e-01 5.298977e-01 3.081394e+00 94 106 106
3.207476e-01 5.298977e-01 3.081394e+00 94 106 106
4.252253e-01 4.508286e-01 3.101843e+00 45 73 25
4.059619e-01 4.649539e-01 3.102403e+00 98 129 88
4.256031e-01 4.506844e-01 3.101830e+00 98 127 76
4.101905e-01 4.619111e-01 3.102472e+00 70 96 69
3.764939e-01 4.870896e-01 3.099648e+00 31 52 13
4.167234e-01 4.574095e-01 3.102311e+00 54 82 36
4.113963e-01 4.612712e-01 3.102458e+00 20 44 18
3.590830e-01 5.005018e-01 3.095714e+00 107 123 94
3.280833e-01 5.246893e-01 3.084669e+00 95 105 94
3.886328e-01 4.783286e-01 3.101376e+00 30 55 15
3.886328e-01 4.783286e-01 3.101376e+00 30 55 15
3.289328e-01 5.241864e-01 3.085004e+00 86 99 81
3.513630e-01 5.067845e-01 3.093401e+00 22 48 11
3.265821e-01 5.260950e-01 3.083996e+00 96 103 113
4.154336e-01 4.588192e-01 3.102470e+00 28 54 15
3.582016e-01 5.017589e-01 3.095447e+00 85 107 71
3.582016e-01 5.017589e-01 3.095447e+00 85 107 71
3.349952e-01 5.196749e-01 3.087494e+00 120 149 95
3.653161e-01 4.963619e-01 3.097304e+00 95 120 80
3.558777e-01 5.037058e-01 3.094738e+00 89 109 74
3.648735e-01 4.968610e-01 3.097170e+00 102 127 87
3.488795e-01 5.092594e-01 3.092584e+00 31 58 17
3.305306e-01 5.235611e-01 3.085681e+00 156 164 144
3.635496e-01 4.981283e-01 3.096965e+00 72 95 53
4.126260e-01 4.617199e-01 3.102602e+00 49 75 28
3.517500e-01 5.075560e-01 3.093465e+00 107 134 91
3.592028e-01 5.018916e-01 3.095689e+00 76 102 57
3.483211e-01 5.103633e-01 3.092364e+00 47 79 32
3.306228e-01 5.241013e-01 3.085676e+00 124 128 122
4.428419e-01 4.399268e-01 3.100444e+00 61 79 92
3.990363e-01 4.720520e-01 3.102314e+00 130 157 104
3.990363e-01 4.720520e-01 3.102314e+00 130 157 104
4.160978e-01 4.597860e-01 3.102577e+00 95 129 69
3.617287e-01 5.004282e-01 3.096330e+00 24 45 4
3.511071e-01 5.085847e-01 3.093218e+00 143 172 128
3.817479e-01 4.853418e-01 3.100504e+00 117 140 91
3.682223e-01 4.956188e-01 3.097944e+00 100 125 68
3.239426e-01 5.298193e-01 3.082694e+00 25 31 56
4.138649e-01 4.615633e-01 3.102674e+00 72 99 44
4.407291e-01 4.421470e-01 3.100859e+00 100 129 121
3.487944e-01 5.107839e-01 3.092482e+00 45 75 25
4.243456e-01 4.541902e-01 3.102361e+00 124 152 94
3.690237e-01 4.953899e-01 3.098061e+00 106 133 80
3.690237e-01 4.953899e-01 3.098061e+00 106 133 80
3.510215e-01 5.092929e-01 3.093189e+00 94 124 74
3.333682e-01 5.230600e-01 3.086706e+00 124 141 162
4.430497e-01 4.409536e-01 3.100736e+00 180 197 225
4.430497e-01 4.409536e-01 3.100736e+00 180 197 225
3.634552e-01 4.999425e-01 3.096739e+00 101 128 76
3.634552e-01 4.999425e-01 3.096739e+00 101 128 76
4.283538e-01 4.519094e-01 3.102165e+00 63 88 31
4.176437e-01 4.598366e-01 3.102764e+00 46 80 19
3.463205e-01 5.139284e-01 3.091519e+00 136 163 122
4.118123e-01 4.645677e-01 3.102840e+00 86 111 53
4.283537e-01 4.526654e-01 3.102319e+00 103 129 81
4.112756e-01 4.651751e-01 3.102836e+00 82 106 47
4.109389e-01 4.653992e-01 3.102827e+00 121 149 88
4.105510e-01 4.656613e-01 3.102835e+00 66 96 34
3.427005e-01 5.172996e-01 3.090299e+00 140 156 143
3.427005e-01 5.172996e-01 3.090299e+00 140 156 143
3.740428e-01 4.934439e-01 3.099115e+00 119 148 90
3.481757e-01 5.133330e-01 3.092161e+00 139 163 131
3.481757e-01 5.133330e-01 3.092161e+00 139 163 131
3.968664e-01 4.766000e-01 3.102256e+00 47 84 30
4.362595e-01 4.477942e-01 3.101753e+00 106 129 101
3.519321e-01 5.106952e-01 3.093364e+00 99 131 81
3.974069e-01 4.764776e-01 3.102333e+00 47 76 27
4.123953e-01 4.660132e-01 3.102922e+00 153 171 119
4.082555e-01 4.690840e-01 3.102912e+00 51 74 19
3.492205e-01 5.136707e-01 3.092456e+00 29 44 24
4.308807e-01 4.526117e-01 3.102422e+00 87 116 87
4.313600e-01 4.524324e-01 3.102365e+00 34 59 38
3.527867e-01 5.113447e-01 3.093543e+00 107 132 101
3.527867e-01 5.113447e-01 3.093543e+00 107 132 101
4.455337e-01 4.423081e-01 3.101090e+00 0 56 133
4.168651e-01 4.634058e-01 3.103046e+00 161 168 121
3.507958e-01 5.132237e-01 3.092924e+00 114 128 102
4.430990e-01 4.444485e-01 3.101456e+00 44 104 157
4.060685e-01 4.715626e-01 3.102904e+00 85 88 39
3.528754e-01 5.117618e-01 3.093563e+00 32 51 59
3.520723e-01 5.124113e-01 3.093323e+00 58 83 86
3.713191e-01 4.977782e-01 3.098472e+00 58 81 39
3.612794e-01 5.054048e-01 3.095996e+00 48 39 7
3.684358e-01 5.000418e-01 3.097851e+00 49 76 30
3.864203e-01 4.865266e-01 3.101142e+00 41 70 11
4.181223e-01 4.631008e-01 3.103094e+00 86 105 99
3.869417e-01 4.862254e-01 3.101199e+00 113 140 84
3.869417e-01 4.862254e-01 3.101199e+00 113 140 84
3.808645e-01 4.908320e-01 3.100262e+00 88 107 50
4.136212e-01 4.665707e-01 3.103130e+00 148 164 140
4.136212e-01 4.665707e-01 3.103130e+00 148 164 140
3.606862e-01 5.062705e-01 3.095851e+00 173 99 85
3.606862e-01 5.062705e-01 3.095851e+00 173 99 85
3.585848e-01 5.079200e-01 3.095288e+00 144 144 139
3.585848e-01 5.079200e-01 3.095288e+00 144 144 139
3.990150e-01 4.777342e-01 3.102531e+00 55 68 49
3.871246e-01 4.866328e-01 3.101227e+00 59 86 34
3.677319e-01 5.013126e-01 3.097618e+00 134 153 156
3.691332e-01 5.003247e-01 3.097930e+00 32 49 29
3.691332e-01 5.003247e-01 3.097930e+00 32 49 29
3.653213e-01 5.032224e-01 3.097089e+00 129 147 149
4.019313e-01 4.757650e-01 3.102695e+00 40 55 43
4.114156e-01 4.688451e-01 3.103149e+00 46 59 30
4.089634e-01 4.706456e-01 3.103075e+00 61 78 65
3.441303e-01 5.197213e-01 3.090661e+00 96 100 112
4.161480e-01 4.653960e-01 3.103190e+00 70 70 89
4.161480e-01 4.653960e-01 3.103190e+00 70 70 89
3.921008e-01 4.832655e-01 3.101828e+00 72 89 69
3.590744e-01 5.082723e-01 3.095360e+00 152 138 147
3.561144e-01 5.105007e-01 3.094514e+00 173 183 192
4.173770e-01 4.645903e-01 3.103212e+00 78 71 94
4.260082e-01 4.584676e-01 3.102972e+00 117 118 136
3.236738e-01 5.361359e-01 3.082362e+00 25 23 43
3.942472e-01 4.821604e-01 3.102011e+00 122 135 126
4.119272e-01 4.692538e-01 3.103225e+00 116 125 122
4.119272e-01 4.692538e-01 3.103225e+00 116 125 122
3.999769e-01 4.780779e-01 3.102607e+00 134 143 143
3.932180e-01 4.833873e-01 3.101989e+00 197 198 200
3.858602e-01 4.888991e-01 3.100999e+00 25 41 30
3.817122e-01 4.920060e-01 3.100359e+00 102 111 117
3.941151e-01 4.827642e-01 3.102076e+00 39 43 42
3.276013e-01 5.337884e-01 3.084036e+00 33 41 77
3.779987e-01 4.951747e-01 3.099681e+00 47 49 68
4.117485e-01 4.701337e-01 3.103205e+00 34 41 59
3.310829e-01 5.315789e-01 3.085411e+00 120 132 156
4.114812e-01 4.707337e-01 3.103268e+00 214 220 242
3.578063e-01 5.111115e-01 3.094852e+00 35 29 43
3.394809e-01 5.255584e-01 3.088816e+00 128 127 141
4.315455e-01 4.563269e-01 3.103192e+00 29 35 56
3.572200e-01 5.120392e-01 3.094703e+00 169 161 174
3.572200e-01 5.120392e-01 3.094703e+00 169 161 174
3.831656e-01 4.925427e-01 3.100548e+00 149 154 176
3.633547e-01 5.076228e-01 3.096332e+00 48 61 80
3.630540e-01 5.079610e-01 3.096313e+00 144 151 169
3.284872e-01 5.348114e-01 3.084339e+00 58 71 105
4.416101e-01 4.496504e-01 3.102412e+00 128 116 126
4.416101e-01 4.496504e-01 3.102412e+00 128 116 126
4.065811e-01 4.756638e-01 3.103151e+00 196 201 221
4.303111e-01 4.582656e-01 3.103314e+00 44 51 70
3.330973e-01 5.316449e-01 3.086286e+00 38 46 65
3.333911e-01 5.314435e-01 3.086379e+00 119 127 146
3.569401e-01 5.133502e-01 3.094626e+00 96 90 100
3.537195e-01 5.158719e-01 3.093595e+00 124 136 150
3.537195e-01 5.158719e-01 3.093595e+00 124 136 150
4.337293e-01 4.561056e-01 3.103134e+00 22 13 31
4.225936e-01 4.642457e-01 3.103466e+00 114 119 148
4.223002e-01 4.644961e-01 3.103497e+00 32 37 66
3.952508e-01 4.846097e-01 3.102227e+00 22 29 50
3.952508e-01 4.846097e-01 3.102227e+00 22 29 50
3.477001e-01 5.207488e-01 3.091651e+00 171 176 206
3.477001e-01 5.207488e-01 3.091651e+00 171 176 206
4.416574e-01 4.505003e-01 3.102546e+00 44 24 35
3.324643e-01 5.327482e-01 3.085992e+00 122 124 139
4.317014e-01 4.580015e-01 3.103279e+00 62 56 76
4.301976e-01 4.591965e-01 3.103352e+00 60 65 87
4.360796e-01 4.550386e-01 3.103081e+00 130 104 129
3.836037e-01 4.939251e-01 3.100620e+00 138 141 160
4.003243e-01 4.815137e-01 3.102685e+00 50 52 73
4.299581e-01 4.596934e-01 3.103469e+00 33 38 58
3.538935e-01 5.169440e-01 3.093594e+00 58 69 98
3.312612e-01 5.345009e-01 3.085404e+00 83 68 99
3.305002e-01 5.350307e-01 3.085209e+00 149 141 164
4.198371e-01 4.674911e-01 3.103626e+00 67 44 70
3.339367e-01 5.326227e-01 3.086630e+00 65 62 76
3.308967e-01 5.350126e-01 3.085261e+00 99 84 110
4.318934e-01 4.588791e-01 3.103442e+00 212 199 219
4.059543e-01 4.780171e-01 3.103177e+00 226 233 251
3.496658e-01 5.206340e-01 3.092266e+00 192 204 230
4.393432e-01 4.534911e-01 3.103011e+00 49 37 49
4.128656e-01 4.731535e-01 3.103527e+00 104 102 116
3.970666e-01 4.848967e-01 3.102428e+00 42 45 60
3.314508e-01 5.351704e-01 3.085483e+00 196 176 204
3.376787e-01 5.304788e-01 3.087949e+00 143 135 157
3.376787e-01 5.304788e-01 3.087949e+00 143 135 157
3.335027e-01 5.337118e-01 3.086368e+00 41 17 45
3.319248e-01 5.348431e-01 3.085742e+00 209 188 221
4.449456e-01 4.499742e-01 3.102567e+00 152 138 148
4.449456e-01 4.499742e-01 3.102567e+00 152 138 148
3.730121e-01 5.034439e-01 3.098562e+00 120 116 139
4.239829e-01 4.655738e-01 3.103649e+00 119 124 143
4.147913e-01 4.723693e-01 3.103602e+00 30 27 42
4.088548e-01 4.767583e-01 3.103399e+00 57 64 81
3.930670e-01 4.885798e-01 3.101943e+00 74 77 92
3.736102e-01 5.032970e-01 3.098638e+00 73 44 75
3.852953e-01 4.945825e-01 3.100803e+00 188 187 202
3.797729e-01 4.987187e-01 3.099776e+00 69 74 95
3.268392e-01 5.393715e-01 3.083536e+00 94 113 146
3.453438e-01 5.251690e-01 3.090789e+00 13 21 40
4.231589e-01 4.665147e-01 3.103798e+00 80 88 104
3.548987e-01 5.178621e-01 3.093829e+00 48 52 80
4.297773e-01 4.617538e-01 3.103652e+00 122 120 134
4.025504e-01 4.819243e-01 3.102954e+00 132 135 147
3.244462e-01 5.415586e-01 3.082525e+00 116 101 114
3.362009e-01 5.324534e-01 3.087364e+00 138 136 176
4.310478e-01 4.610167e-01 3.103720e+00 45 51 67
4.122793e-01 4.748334e-01 3.103548e+00 134 132 143
3.596412e-01 5.144815e-01 3.095174e+00 38 29 49
3.500965e-01 5.220809e-01 3.092333e+00 29 33 49
3.379920e-01 5.314416e-01 3.088034e+00 83 74 119
3.464780e-01 5.249908e-01 3.091106e+00 62 71 88
3.278779e-01 5.393923e-01 3.083971e+00 103 126 166
3.944643e-01 4.885710e-01 3.102063e+00 183 186 202
3.611662e-01 5.137499e-01 3.095577e+00 112 104 110
3.303560e-01 5.375438e-01 3.084965e+00 118 124 149
4.465669e-01 4.502440e-01 3.102695e+00 100 99 123
4.278945e-01 4.639549e-01 3.103794e+00 108 115 131
4.182254e-01 4.710490e-01 3.103441e+00 108 115 162
4.337015e-01 4.598681e-01 3.103695e+00 167 165 181
3.786320e-01 5.008588e-01 3.099606e+00 126 129 138
3.277818e-01 5.398329e-01 3.083944e+00 116 130 166
4.351417e-01 4.589045e-01 3.103586e+00 67 64 85
4.109648e-01 4.766506e-01 3.103588e+00 164 163 171
3.284782e-01 5.394315e-01 3.084165e+00 106 113 146
3.262808e-01 5.411525e-01 3.083291e+00 67 53 66
3.467637e-01 5.254039e-01 3.091129e+00 183 188 207
4.357832e-01 4.586750e-01 3.103572e+00 73 68 86
4.472583e-01 4.504063e-01 3.102833e+00 109 106 135
4.472583e-01 4.504063e-01 3.102833e+00 109 106 135
4.004179e-01 4.849660e-01 3.102720e+00 128 131 149
3.471461e-01 5.254498e-01 3.091237e+00 27 25 44
3.340201e-01 5.355337e-01 3.086428e+00 170 160 184
3.240500e-01 5.432806e-01 3.082276e+00 55 45 54
4.332433e-01 4.608097e-01 3.103716e+00 60 58 72
4.326005e-01 4.613387e-01 3.103560e+00 83 81 94
3.854499e-01 4.962814e-01 3.100809e+00 49 49 62
4.250223e-01 4.669559e-01 3.103866e+00 50 64 104
3.543699e-01 5.200302e-01 3.093534e+00 93 99 114
4.156696e-01 4.738952e-01 3.103784e+00 74 64 75
3.320056e-01 5.373451e-01 3.085682e+00 85 81 98
4.211079e-01 4.699783e-01 3.103915e+00 88 42 76
3.750820e-01 5.044428e-01 3.098663e+00 69 27 68
3.389157e-01 5.321357e-01 3.088362e+00 35 29 59
3.477255e-01 5.254352e-01 3.091255e+00 75 68 84
4.082643e-01 4.796846e-01 3.103349e+00 54 52 73
3.665367e-01 5.110625e-01 3.096915e+00 232 234 249
4.236061e-01 4.683868e-01 3.103973e+00 57 72 103
3.992750e-01 4.865145e-01 3.102631e+00 99 102 119
3.947219e-01 4.899400e-01 3.102074e+00 181 183 196
3.947219e-01 4.899400e-01 3.102074e+00 181 183 196
3.923279e-01 4.917229e-01 3.101772e+00 63 61 64
3.522655e-01 5.221627e-01 3.092977e+00 231 236 251
3.518611e-01 5.225243e-01 3.092767e+00 75 75 87
3.442165e-01 5.285552e-01 3.090238e+00 225 230 252
3.868968e-01 4.961242e-01 3.100935e+00 65 68 73
3.323373e-01 5.378347e-01 3.085785e+00 51 49 70
3.595537e-01 5.169834e-01 3.094946e+00 51 44 52
4.038339e-01 4.836818e-01 3.103053e+00 158 157 164
3.426922e-01 5.300870e-01 3.089679e+00 167 171 189
3.426922e-01 5.300870e-01 3.089679e+00 167 171 189
4.320509e-01 4.629032e-01 3.103996e+00 60 62 75
4.311571e-01 4.635172e-01 3.103991e+00 68 67 81
4.258187e-01 4.674434e-01 3.104025e+00 131 144 162
4.307755e-01 4.639208e-01 3.103979e+00 71 70 86
4.083273e-01 4.806675e-01 3.103404e+00 251 239 252
3.956657e-01 4.901422e-01 3.102106e+00 200 200 209
3.656292e-01 5.128597e-01 3.096530e+00 240 241 251
3.314016e-01 5.391485e-01 3.085339e+00 144 146 167
4.079454e-01 4.810858e-01 3.103412e+00 154 142 152
3.653392e-01 5.131164e-01 3.096543e+00 56 56 67
3.625568e-01 5.154719e-01 3.095769e+00 124 119 125
3.625568e-01 5.154719e-01 3.095769e+00 124 119 125
4.066907e-01 4.822578e-01 3.103270e+00 161 154 162
3.485432e-01 5.263210e-01 3.091630e+00 108 98 109
4.257548e-01 4.682307e-01 3.104088e+00 122 127 150
4.233935e-01 4.700412e-01 3.104032e+00 122 125 139
4.207436e-01 4.719889e-01 3.104047e+00 201 208 226
4.207436e-01 4.719889e-01 3.104047e+00 201 208 226
4.008137e-01 4.867905e-01 3.102764e+00 54 51 60
4.008137e-01 4.867905e-01 3.102764e+00 54 51 60
4.206840e-01 4.724275e-01 3.104072e+00 113 116 133
4.090935e-01 4.809582e-01 3.103502e+00 146 135 151
3.483579e-01 5.270658e-01 3.091578e+00 125 120 127
3.409521e-01 5.328849e-01 3.089125e+00 132 126 140
3.394742e-01 5.339552e-01 3.088429e+00 70 57 75
4.012496e-01 4.870228e-01 3.102826e+00 118 113 120
3.978509e-01 4.895515e-01 3.102424e+00 127 125 143
3.391369e-01 5.342579e-01 3.088328e+00 149 137 159
3.427160e-01 5.315397e-01 3.089600e+00 81 81 93
4.318528e-01 4.645596e-01 3.104065e+00 144 147 156
3.975698e-01 4.899152e-01 3.102430e+00 40 42 58
4.211927e-01 4.725457e-01 3.104156e+00 178 180 194
4.201527e-01 4.734360e-01 3.104102e+00 81 75 87
4.197178e-01 4.737752e-01 3.104046e+00 79 72 83
3.336730e-01 5.389728e-01 3.086221e+00 95 106 124
3.410118e-01 5.336304e-01 3.088982e+00 31 25 37
3.393502e-01 5.350637e-01 3.088493e+00 123 114 137
3.671983e-01 5.141202e-01 3.096832e+00 161 155 173
3.638048e-01 5.166844e-01 3.096054e+00 87 81 81
3.638048e-01 5.166844e-01 3.096054e+00 87 81 81
3.684061e-01 5.132927e-01 3.097077e+00 77 65 78
3.270601e-01 5.452892e-01 3.083521e+00 115 53 94
4.459034e-01 4.558413e-01 3.103811e+00 50 52 65
3.984036e-01 4.910584e-01 3.102437e+00 162 156 182
3.902146e-01 4.972190e-01 3.101316e+00 134 125 126
4.313302e-01 4.675263e-01 3.105940e+00 161 167 183
3.694391e-01 5.136549e-01 3.097259e+00 36 34 48
3.487600e-01 5.297002e-01 3.093350e+00 110 104 114
3.999600e-01 4.910724e-01 3.102581e+00 170 158 179
3.562959e-01 5.242623e-01 3.093752e+00 127 120 127
4.470268e-01 4.564753e-01 3.103780e+00 67 70 79
3.336802e-01 5.419702e-01 3.086155e+00 74 60 77
4.449827e-01 4.581887e-01 3.104062e+00 61 63 75
3.489293e-01 5.305784e-01 3.091540e+00 123 118 125
3.336855e-01 5.423578e-01 3.086145e+00 37 23 38
3.625670e-01 5.208669e-01 3.095513e+00 127 121 125
4.070856e-01 4.888738e-01 3.103288e+00 83 73 81
4.263091e-01 4.748154e-01 3.104586e+00 76 75 80
4.263091e-01 4.748154e-01 3.104586e+00 76 75 80
4.158968e-01 4.827385e-01 3.104029e+00 99 93 95
4.400293e-01 4.653811e-01 3.104797e+00 149 156 166
4.565750e-01 4.532506e-01 3.103859e+00 107 113 125
4.152324e-01 4.838965e-01 3.103984e+00 60 53 61
4.105452e-01 4.874986e-01 3.104680e+00 161 155 159
3.537462e-01 5.304527e-01 3.092865e+00 92 88 89
4.096873e-01 4.882123e-01 3.103509e+00 123 117 117
4.245682e-01 4.772637e-01 3.104876e+00 71 69 70
4.239094e-01 4.785121e-01 3.104567e+00 56 54 59
3.964582e-01 4.990180e-01 3.101828e+00 133 128 132
3.540800e-01 5.312338e-01 3.094057e+00 94 90 89
3.689369e-01 5.205564e-01 3.096846e+00 196 194 203
3.886203e-01 5.058925e-01 3.100623e+00 107 99 101
3.605460e-01 5.274331e-01 3.095148e+00 110 109 107
3.548354e-01 5.323189e-01 3.093059e+00 156 151 155
4.425198e-01 4.667055e-01 3.105101e+00 110 119 126
3.977628e-01 5.000112e-01 3.101921e+00 93 82 86
4.248762e-01 4.802478e-01 3.104668e+00 72 71 76
3.387086e-01 5.456444e-01 3.087936e+00 58 59 63
3.549839e-01 5.343002e-01 3.093110e+00 79 71 69
4.287830e-01 4.792476e-01 3.105017e+00 160 159 164
3.617929e-01 5.299796e-01 3.095186e+00 88 84 85
4.180010e-01 4.878520e-01 3.104180e+00 58 52 55
4.192970e-01 4.870418e-01 3.104293e+00 153 143 147
3.541462e-01 5.362256e-01 3.094071e+00 158 149 154
3.689960e-01 5.254716e-01 3.096483e+00 59 53 55
3.683574e-01 5.259156e-01 3.096431e+00 65 59 63
3.681862e-01 5.264416e-01 3.096364e+00 131 125 127
3.784095e-01 5.187768e-01 3.098442e+00 104 98 99
3.834222e-01 5.152489e-01 3.098997e+00 93 87 89
3.502522e-01 5.404860e-01 3.091654e+00 155 150 156
4.250601e-01 4.842709e-01 3.104707e+00 147 140 142
3.653196e-01 5.301087e-01 3.095607e+00 87 82 86
3.653196e-01 5.301087e-01 3.095607e+00 87 82 86
3.684042e-01 5.282709e-01 3.096317e+00 95 86 87
3.926996e-01 5.100838e-01 3.100614e+00 130 126 127
3.557941e-01 5.382932e-01 3.094140e+00 162 152 151
3.558756e-01 5.381369e-01 3.093258e+00 162 152 151
3.471613e-01 5.448351e-01 3.090656e+00 164 161 172
4.043805e-01 5.027035e-01 3.102125e+00 62 56 63
3.740244e-01 5.256781e-01 3.097216e+00 102 99 106
4.223140e-01 4.895081e-01 3.104569e+00 36 26 34
4.320429e-01 4.827023e-01 3.105368e+00 92 87 93
3.662067e-01 5.324838e-01 3.095701e+00 100 94 94
3.815959e-01 5.209033e-01 3.098639e+00 117 107 106
4.111987e-01 4.989644e-01 3.102889e+00 118 111 118
4.107355e-01 4.994770e-01 3.103012e+00 112 109 116
4.025793e-01 5.057998e-01 3.101915e+00 97 91 93
4.025793e-01 5.057998e-01 3.101915e+00 97 91 93
3.564990e-01 5.406754e-01 3.093314e+00 93 87 89
3.511423e-01 5.448217e-01 3.091684e+00 185 185 195
3.511423e-01 5.448217e-01 3.091684e+00 185 185 195
3.813983e-01 5.219661e-01 3.098586e+00 112 100 100
4.379002e-01 4.798491e-01 3.106522e+00 125 125 135
3.627867e-01 5.362667e-01 3.095161e+00 104 95 100
4.333987e-01 4.832804e-01 3.105561e+00 155 153 164
3.717832e-01 5.296051e-01 3.096761e+00 142 136 140
3.561272e-01 5.415533e-01 3.093130e+00 79 73 75
3.730806e-01 5.287885e-01 3.097092e+00 149 143 147
3.715353e-01 5.300863e-01 3.096746e+00 64 58 60
3.994995e-01 5.096335e-01 3.101376e+00 150 141 142
3.900743e-01 5.168067e-01 3.099935e+00 157 151 151
3.825799e-01 5.224265e-01 3.098674e+00 116 108 106
3.604078e-01 5.392495e-01 3.094244e+00 91 82 85
4.240274e-01 4.916157e-01 3.104582e+00 87 78 83
4.204176e-01 4.942887e-01 3.104213e+00 93 82 86
3.899273e-01 5.172148e-01 3.099803e+00 115 106 107
4.375305e-01 4.822351e-01 3.106410e+00 168 167 175
3.886220e-01 5.188833e-01 3.099557e+00 116 106 105
4.351429e-01 4.841738e-01 3.105611e+00 114 114 122
3.740898e-01 5.299586e-01 3.097200e+00 96 87 88
3.697047e-01 5.334613e-01 3.096291e+00 102 96 100
3.745200e-01 5.299650e-01 3.097168e+00 167 161 161
3.641252e-01 5.378696e-01 3.095311e+00 162 156 158
4.355949e-01 4.842914e-01 3.105696e+00 168 167 173
3.772440e-01 5.292884e-01 3.097586e+00 182 181 187
3.668964e-01 5.371202e-01 3.095695e+00 138 127 133
3.682529e-01 5.361661e-01 3.095887e+00 132 123 124
3.789461e-01 5.284510e-01 3.097641e+00 135 135 143
3.793164e-01 5.284350e-01 3.098001e+00 174 173 179
3.689173e-01 5.362419e-01 3.096016e+00 78 72 72
4.209167e-01 4.974624e-01 3.103643e+00 165 153 153
3.722673e-01 5.343109e-01 3.096571e+00 71 62 65
3.722673e-01 5.343109e-01 3.096571e+00 71 62 65
3.722673e-01 5.343109e-01 3.096571e+00 71 62 65
4.377404e-01 4.855293e-01 3.105979e+00 97 96 101
3.694122e-01 5.373610e-01 3.096056e+00 156 150 154
3.837820e-01 5.267128e-01 3.098479e+00 101 91 92
4.400005e-01 4.845862e-01 3.106764e+00 109 108 116
4.136051e-01 5.047968e-01 3.102670e+00 149 144 148
4.356326e-01 4.888545e-01 3.105793e+00 82 73 76
4.159271e-01 5.038677e-01 3.103038e+00 108 98 99
3.877193e-01 5.257306e-01 3.098985e+00 181 171 170
3.729859e-01 5.372498e-01 3.096499e+00 76 70 74
4.444842e-01 4.836612e-01 3.106882e+00 110 110 120
3.905552e-01 5.241898e-01 3.099311e+00 93 83 81
3.882434e-01 5.262874e-01 3.098886e+00 98 90 87
3.882434e-01 5.262874e-01 3.098886e+00 98 90 87
4.007013e-01 5.172672e-01 3.100628e+00 99 87 87
3.905849e-01 5.252173e-01 3.099071e+00 104 94 92
4.042168e-01 5.151267e-01 3.101107e+00 119 110 115
3.758404e-01 5.365856e-01 3.096976e+00 137 132 133
4.260150e-01 4.991390e-01 3.104344e+00 115 106 106
4.287411e-01 4.974002e-01 3.104521e+00 98 90 87
3.936331e-01 5.250001e-01 3.099416e+00 87 77 75
3.879364e-01 5.295299e-01 3.098632e+00 158 150 148
3.892857e-01 5.286106e-01 3.098833e+00 91 82 83
3.883215e-01 5.293386e-01 3.098732e+00 109 100 101
3.903890e-01 5.307993e-01 3.098786e+00 163 155 156
4.217757e-01 5.076535e-01 3.103145e+00 105 95 96
3.964706e-01 5.277821e-01 3.099495e+00 145 136 136
4.272503e-01 5.047419e-01 3.103979e+00 132 123 123
4.037105e-01 5.240778e-01 3.100020e+00 66 57 58
3.991975e-01 5.274501e-01 3.102677e+00 84 74 73
4.258557e-01 5.089056e-01 3.103244e+00 90 84 84
4.090912e-01 5.238359e-01 3.100199e+00 139 135 134
4.302218e-01 5.086536e-01 3.103862e+00 135 128 126
3.884889e-01 5.488559e-01 3.097822e+00 128 131 140
3.866591e-01 5.507353e-01 3.097870e+00 141 144 151
4.097360e-01 5.339234e-01 3.109693e+00 180 180 188
4.271443e-01 5.376022e-01 3.098017e+00 158 161 169
4.258969e-01 5.427907e-01 3.097266e+00 155 152 159
4.286820e-01 5.437701e-01 3.097268e+00 162 160 171
4.054288e-01 5.650641e-01 3.094796e+00 147 144 151
4.141441e-01 5.590763e-01 3.104736e+00 55 55 65
4.400592e-01 5.559988e-01 3.108173e+00 59 56 63
4.384074e-01 5.617678e-01 3.107579e+00 69 69 79
4.079854e-01 5.878472e-01 3.101112e+00 148 153 159
4.492850e-01 5.619725e-01 3.103625e+00 118 118 126
4.506969e-01 5.779435e-01 3.105394e+00 26 25 31
3.486889e-01 4.518548e-01 3.092376e+00 197 148 159
3.698824e-01 4.360461e-01 3.094854e+00 200 156 181
3.491495e-01 4.525260e-01 3.092471e+00 254 75 99
3.640147e-01 4.414869e-01 3.094548e+00 199 145 146
3.505083e-01 4.526764e-01 3.092834e+00 209 43 57
3.470403e-01 4.553278e-01 3.092072e+00 171 14 47
3.740153e-01 4.357892e-01 3.095389e+00 191 162 175
3.614127e-01 4.460096e-01 3.094638e+00 191 61 65
3.541324e-01 4.519241e-01 3.093674e+00 192 79 75
3.585177e-01 4.486532e-01 3.094344e+00 205 75 77
3.631347e-01 4.455127e-01 3.094900e+00 198 154 169
3.574430e-01 4.498193e-01 3.094211e+00 136 56 67
3.719858e-01 4.394330e-01 3.095640e+00 201 137 121
3.732024e-01 4.385592e-01 3.095687e+00 146 12 35
3.523932e-01 4.544029e-01 3.093426e+00 149 22 43
3.665009e-01 4.439292e-01 3.095372e+00 156 114 75
3.722120e-01 4.397452e-01 3.095702e+00 164 93 78
3.635844e-01 4.464861e-01 3.095117e+00 132 60 68
3.518776e-01 4.553726e-01 3.093365e+00 169 129 95
3.744595e-01 4.385580e-01 3.095880e+00 255 206 199
3.744595e-01 4.385580e-01 3.095880e+00 255 206 199
3.617644e-01 4.480937e-01 3.094876e+00 142 71 80
3.742691e-01 4.388374e-01 3.095875e+00 194 60 73
3.620082e-01 4.479225e-01 3.094936e+00 186 137 130
3.547747e-01 4.535403e-01 3.093945e+00 192 147 113
3.597177e-01 4.498744e-01 3.094695e+00 229 185 163
3.562314e-01 4.527376e-01 3.094194e+00 200 120 107
3.686107e-01 4.435584e-01 3.095667e+00 210 113 94
3.671271e-01 4.446528e-01 3.095561e+00 208 155 123
3.473045e-01 4.596293e-01 3.092484e+00 155 23 28
3.461682e-01 4.605193e-01 3.092165e+00 185 91 76
3.632436e-01 4.476757e-01 3.095182e+00 220 155 122
3.635541e-01 4.478356e-01 3.095288e+00 165 106 77
3.750419e-01 4.396603e-01 3.096149e+00 159 116 90
3.726562e-01 4.414859e-01 3.096043e+00 215 167 129
3.726562e-01 4.414859e-01 3.096043e+00 215 167 129
3.682299e-01 4.448206e-01 3.095767e+00 189 126 128
3.680049e-01 4.451336e-01 3.095789e+00 147 78 68
3.524339e-01 4.570596e-01 3.093641e+00 162 106 89
3.726358e-01 4.419712e-01 3.096099e+00 139 94 61
3.608960e-01 4.507389e-01 3.094967e+00 187 123 110
3.692500e-01 4.448144e-01 3.095900e+00 222 93 102
3.552590e-01 4.553828e-01 3.094157e+00 188 121 102
3.540368e-01 4.563392e-01 3.093972e+00 178 15 26
3.508670e-01 4.587320e-01 3.093324e+00 219 170 150
3.503383e-01 4.593541e-01 3.093258e+00 135 95 80
3.568838e-01 4.545493e-01 3.094479e+00 155 117 83
3.655194e-01 4.480958e-01 3.095688e+00 147 38 60
3.676660e-01 4.466326e-01 3.095875e+00 209 153 124
3.432027e-01 4.652133e-01 3.091490e+00 132 69 36
3.704687e-01 4.446713e-01 3.096102e+00 181 130 99
3.737077e-01 4.423729e-01 3.096229e+00 147 99 73
3.737077e-01 4.423729e-01 3.096229e+00 147 99 73
3.676212e-01 4.469841e-01 3.095951e+00 175 119 98
3.506974e-01 4.597781e-01 3.093382e+00 145 68 60
3.560057e-01 4.559716e-01 3.094378e+00 208 95 94
3.702790e-01 4.454867e-01 3.096187e+00 204 162 131
3.702790e-01 4.454867e-01 3.096187e+00 204 162 131
3.700500e-01 4.457984e-01 3.096151e+00 185 117 101
3.584787e-01 4.545101e-01 3.094847e+00 158 33 41
3.656659e-01 4.492581e-01 3.095824e+00 201 80 79
3.581299e-01 4.548842e-01 3.094783e+00 148 98 76
3.769277e-01 4.409985e-01 3.096581e+00 238 189 159
3.749275e-01 4.425287e-01 3.096510e+00 102 69 60
3.555195e-01 4.570301e-01 3.094375e+00 255 210 189
3.558509e-01 4.569439e-01 3.094469e+00 188 42 45
3.729975e-01 4.442427e-01 3.096447e+00 136 73 81
3.517107e-01 4.603303e-01 3.093618e+00 171 103 82
3.458153e-01 4.648223e-01 3.092275e+00 171 111 82
3.528598e-01 4.595898e-01 3.093902e+00 149 62 52
3.703060e-01 4.465299e-01 3.096308e+00 188 98 90
3.649754e-01 4.506462e-01 3.095835e+00 167 99 70
3.617773e-01 4.530503e-01 3.095456e+00 143 107 82
3.754910e-01 4.428643e-01 3.096564e+00 118 70 81
3.468980e-01 4.643680e-01 3.092553e+00 122 77 70
3.468980e-01 4.643680e-01 3.092553e+00 122 77 70
3.660878e-01 4.499209e-01 3.095962e+00 156 81 58
3.531633e-01 4.596129e-01 3.094018e+00 252 204 181
3.543310e-01 4.588071e-01 3.094236e+00 126 88 67
3.684472e-01 4.482607e-01 3.096241e+00 202 158 134
3.684472e-01 4.482607e-01 3.096241e+00 202 158 134
3.778241e-01 4.413840e-01 3.096751e+00 161 93 70
3.664618e-01 4.498490e-01 3.096057e+00 199 99 83
3.501997e-01 4.621644e-01 3.093383e+00 141 105 76
3.461518e-01 4.652919e-01 3.092382e+00 147 111 79
3.576779e-01 4.565815e-01 3.094855e+00 137 97 67
3.519661e-01 4.609100e-01 3.093751e+00 138 101 78
3.740162e-01 4.445325e-01 3.096659e+00 195 133 117
3.551447e-01 4.586301e-01 3.094407e+00 180 133 114
3.816002e-01 4.392572e-01 3.096883e+00 172 168 177
3.739669e-01 4.448829e-01 3.096682e+00 131 83 71
3.565171e-01 4.579306e-01 3.094658e+00 175 119 86
3.560158e-01 4.582917e-01 3.094591e+00 167 107 77
3.504833e-01 4.625757e-01 3.093460e+00 177 106 88
3.585821e-01 4.565590e-01 3.094975e+00 166 127 97
3.585821e-01 4.565590e-01 3.094975e+00 166 127 97
3.631519e-01 4.532278e-01 3.095684e+00 182 108 95
3.600948e-01 4.554633e-01 3.095280e+00 255 196 171
3.444502e-01 4.673868e-01 3.091971e+00 216 156 120
3.543519e-01 4.599334e-01 3.094315e+00 154 100 76
3.721187e-01 4.466500e-01 3.096619e+00 197 149 126
3.617728e-01 4.544994e-01 3.095540e+00 189 111 98
3.617728e-01 4.544994e-01 3.095540e+00 189 111 98
3.515539e-01 4.622313e-01 3.093716e+00 255 196 188
3.515539e-01 4.622313e-01 3.093716e+00 255 196 188
3.579898e-01 4.576411e-01 3.094995e+00 144 89 69
3.514576e-01 4.625760e-01 3.093731e+00 184 51 57
3.507864e-01 4.631103e-01 3.093580e+00 138 20 22
3.788929e-01 4.420463e-01 3.097055e+00 181 173 186
3.536023e-01 4.610352e-01 3.094152e+00 186 109 96
3.676928e-01 4.504704e-01 3.096326e+00 254 201 173
3.647645e-01 4.526891e-01 3.096017e+00 255 206 177
3.752506e-01 4.449417e-01 3.096899e+00 205 139 115
3.680201e-01 4.504383e-01 3.096419e+00 205 79 67
3.651182e-01 4.526484e-01 3.096045e+00 202 46 49
3.646974e-01 4.530605e-01 3.096013e+00 196 67 56
3.447238e-01 4.683584e-01 3.092060e+00 134 88 59
3.530267e-01 4.620768e-01 3.094052e+00 179 7 26
3.697068e-01 4.495516e-01 3.096562e+00 236 185 140
3.549007e-01 4.607922e-01 3.094508e+00 236 205 176
3.470581e-01 4.668999e-01 3.092698e+00 221 155 129
3.631246e-01 4.548759e-01 3.095873e+00 254 191 164
3.631246e-01 4.548759e-01 3.095873e+00 254 191 164
3.672546e-01 4.518702e-01 3.096396e+00 138 88 65
3.501734e-01 4.649280e-01 3.093467e+00 148 95 79
3.664931e-01 4.530475e-01 3.096367e+00 213 80 76
3.762905e-01 4.458028e-01 3.097164e+00 190 138 117
3.670821e-01 4.526726e-01 3.096444e+00 210 82 70
3.406743e-01 4.728600e-01 3.090896e+00 148 99 79
3.533745e-01 4.631797e-01 3.094194e+00 192 122 120
3.530075e-01 4.636131e-01 3.094138e+00 139 110 103
3.554146e-01 4.619190e-01 3.094648e+00 177 150 139
3.774607e-01 4.455806e-01 3.097282e+00 172 165 177
3.455583e-01 4.695838e-01 3.092339e+00 255 202 188
3.571256e-01 4.608180e-01 3.095018e+00 171 66 91
3.523123e-01 4.645038e-01 3.094027e+00 191 159 166
3.625564e-01 4.568210e-01 3.095890e+00 161 100 75
3.517467e-01 4.650472e-01 3.093911e+00 166 39 53
3.455723e-01 4.699525e-01 3.092369e+00 162 81 74
3.455723e-01 4.699525e-01 3.092369e+00 162 81 74
3.720466e-01 4.500614e-01 3.097004e+00 250 201 161
3.733003e-01 4.491814e-01 3.097136e+00 183 177 188
3.719956e-01 4.504294e-01 3.097088e+00 135 96 83
3.639972e-01 4.564646e-01 3.096207e+00 181 161 172
3.419990e-01 4.732471e-01 3.091293e+00 190 165 172
3.585339e-01 4.606426e-01 3.095309e+00 144 88 86
3.487094e-01 4.680827e-01 3.093164e+00 167 112 80
3.675972e-01 4.538944e-01 3.096645e+00 236 199 180
3.591169e-01 4.604622e-01 3.095447e+00 174 116 89
3.729632e-01 4.502624e-01 3.097194e+00 114 101 108
3.433691e-01 4.726674e-01 3.091721e+00 140 95 71
3.700660e-01 4.527853e-01 3.096972e+00 172 166 185
3.618787e-01 4.591691e-01 3.095962e+00 120 101 107
3.555134e-01 4.639884e-01 3.094809e+00 187 170 159
3.679290e-01 4.547126e-01 3.096799e+00 166 163 180
3.461463e-01 4.712265e-01 3.092546e+00 173 155 152
4.032043e-01 4.290470e-01 3.096791e+00 137 136 143
4.003935e-01 4.314756e-01 3.097122e+00 134 131 140
4.091042e-01 4.252375e-01 3.096227e+00 183 180 187
4.105562e-01 4.267294e-01 3.096652e+00 131 131 139
4.104830e-01 4.270896e-01 3.096685e+00 131 132 137
4.192642e-01 4.211268e-01 3.095606e+00 135 135 133
4.124669e-01 4.261926e-01 3.096574e+00 91 91 91
4.144797e-01 4.248971e-01 3.096353e+00 104 104 104
4.125759e-01 4.264555e-01 3.096587e+00 157 159 154
4.087392e-01 4.295729e-01 3.097150e+00 114 118 119
4.108108e-01 4.283069e-01 3.096971e+00 165 166 158
4.108108e-01 4.283069e-01 3.096971e+00 165 166 158
3.681068e-01 4.596187e-01 3.097236e+00 211 202 207
4.187631e-01 4.227742e-01 3.095950e+00 169 161 158
4.062413e-01 4.317924e-01 3.097497e+00 105 105 107
4.046409e-01 4.331724e-01 3.097749e+00 119 125 122
3.688541e-01 4.595825e-01 3.097301e+00 209 200 203
3.486686e-01 4.752144e-01 3.093311e+00 187 182 186
4.002245e-01 4.369437e-01 3.098207e+00 123 114 118
3.889256e-01 4.452374e-01 3.098627e+00 208 205 212
3.830908e-01 4.499170e-01 3.098576e+00 141 138 145
4.013003e-01 4.366380e-01 3.098171e+00 160 151 152
4.183776e-01 4.243629e-01 3.096330e+00 59 60 55
3.490736e-01 4.756088e-01 3.093424e+00 206 201 205
4.188048e-01 4.241210e-01 3.096301e+00 67 67 61
4.188048e-01 4.241210e-01 3.096301e+00 67 67 61
3.998669e-01 4.379430e-01 3.098344e+00 198 188 187
3.825142e-01 4.506805e-01 3.098596e+00 208 206 211
3.805419e-01 4.523164e-01 3.098559e+00 210 208 213
3.987402e-01 4.390798e-01 3.098469e+00 98 98 92
3.964513e-01 4.409062e-01 3.098601e+00 204 205 197
3.667861e-01 4.628625e-01 3.097202e+00 172 165 172
3.308690e-01 4.904023e-01 3.087269e+00 136 136 144
3.774271e-01 4.549539e-01 3.098371e+00 216 211 217
3.672621e-01 4.625104e-01 3.097305e+00 173 166 173
3.672621e-01 4.625104e-01 3.097305e+00 173 166 173
3.888970e-01 4.465535e-01 3.098785e+00 110 108 109
3.760387e-01 4.560916e-01 3.098267e+00 218 213 219
3.903467e-01 4.455911e-01 3.098804e+00 140 141 145
3.733401e-01 4.583698e-01 3.098058e+00 220 215 221
3.242133e-01 4.960869e-01 3.084478e+00 195 194 199
3.890084e-01 4.468737e-01 3.098843e+00 164 165 160
4.037442e-01 4.361551e-01 3.098255e+00 125 124 119
3.663777e-01 4.638485e-01 3.097193e+00 215 210 216
4.167360e-01 4.269608e-01 3.096852e+00 75 77 64
4.016409e-01 4.378814e-01 3.098442e+00 143 135 133
3.882109e-01 4.477314e-01 3.098897e+00 163 158 155
3.887188e-01 4.474156e-01 3.098902e+00 178 175 170
3.817442e-01 4.526674e-01 3.098736e+00 119 119 111
3.827589e-01 4.522573e-01 3.098819e+00 173 168 162
4.070543e-01 4.346698e-01 3.098104e+00 128 130 125
4.115866e-01 4.315564e-01 3.097712e+00 117 125 114
3.793764e-01 4.550942e-01 3.098686e+00 181 176 173
3.804622e-01 4.545054e-01 3.098768e+00 183 173 168
3.763745e-01 4.576684e-01 3.098523e+00 110 106 97
3.819084e-01 4.539023e-01 3.098890e+00 135 131 119
3.819084e-01 4.539023e-01 3.098890e+00 135 131 119
3.766907e-01 4.577665e-01 3.098542e+00 168 164 152
3.766907e-01 4.577665e-01 3.098542e+00 168 164 152
3.766907e-01 4.577665e-01 3.098542e+00 168 164 152
3.298798e-01 4.936758e-01 3.086794e+00 152 158 146
4.146822e-01 4.301421e-01 3.097490e+00 95 106 89
4.146822e-01 4.301421e-01 3.097490e+00 95 106 89
3.657912e-01 4.662474e-01 3.097201e+00 203 198 194
3.930180e-01 4.465509e-01 3.099197e+00 162 158 157
4.228715e-01 4.251214e-01 3.096620e+00 101 119 79
4.258011e-01 4.231226e-01 3.096179e+00 34 49 26
3.785351e-01 4.578109e-01 3.098854e+00 92 89 80
4.151377e-01 4.311109e-01 3.097714e+00 100 116 90
3.858255e-01 4.524536e-01 3.099209e+00 159 156 151
3.825701e-01 4.548611e-01 3.099088e+00 150 149 145
3.731771e-01 4.618457e-01 3.098299e+00 83 78 73
3.726909e-01 4.622234e-01 3.098237e+00 147 144 139
3.830371e-01 4.545704e-01 3.099100e+00 143 142 138
4.036235e-01 4.395932e-01 3.098907e+00 65 73 64
3.877539e-01 4.513472e-01 3.099296e+00 164 164 164
3.868693e-01 4.520164e-01 3.099313e+00 99 99 97
3.921119e-01 4.481946e-01 3.099359e+00 107 98 97
3.787976e-01 4.580640e-01 3.098874e+00 146 148 137
3.787976e-01 4.580640e-01 3.098874e+00 146 148 137
4.111974e-01 4.344581e-01 3.098267e+00 54 70 34
4.055341e-01 4.385213e-01 3.098766e+00 113 117 102
3.784089e-01 4.584342e-01 3.098845e+00 133 136 125
3.784089e-01 4.584342e-01 3.098845e+00 133 136 125
4.030172e-01 4.403906e-01 3.098958e+00 60 73 55
4.030172e-01 4.403906e-01 3.098958e+00 60 73 55
3.890796e-01 4.505678e-01 3.099340e+00 96 87 90
3.976072e-01 4.443737e-01 3.099265e+00 130 133 116
4.232072e-01 4.259194e-01 3.096797e+00 41 60 14
4.230615e-01 4.262256e-01 3.096860e+00 107 126 80
3.899462e-01 4.502961e-01 3.099407e+00 106 100 100
3.981143e-01 4.443731e-01 3.099283e+00 80 88 67
3.895666e-01 4.506093e-01 3.099432e+00 124 115 118
3.996494e-01 4.432760e-01 3.099255e+00 56 64 51
3.996494e-01 4.432760e-01 3.099255e+00 56 64 51
4.167753e-01 4.310601e-01 3.097798e+00 105 116 85
4.247810e-01 4.253799e-01 3.096685e+00 43 64 24
4.267976e-01 4.239567e-01 3.096463e+00 50 71 32
3.301709e-01 4.960540e-01 3.086803e+00 59 69 56
4.212937e-01 4.279401e-01 3.097225e+00 107 121 85
4.212937e-01 4.279401e-01 3.097225e+00 107 121 85
4.257813e-01 4.249705e-01 3.096637e+00 44 67 25
3.754585e-01 4.617701e-01 3.098694e+00 81 83 69
4.063587e-01 4.391100e-01 3.098871e+00 102 113 99
3.699605e-01 4.659585e-01 3.097943e+00 151 145 139
3.320459e-01 4.951318e-01 3.087569e+00 126 135 123
3.320459e-01 4.951318e-01 3.087569e+00 126 135 123
4.092452e-01 4.371365e-01 3.098716e+00 124 140 114
3.483379e-01 4.825083e-01 3.093246e+00 70 73 65
3.992462e-01 4.444688e-01 3.099414e+00 111 127 100
4.136445e-01 4.341353e-01 3.098289e+00 94 109 76
3.283014e-01 4.983503e-01 3.086011e+00 113 120 105
3.275296e-01 4.989283e-01 3.085657e+00 101 110 93
4.118991e-01 4.355357e-01 3.098488e+00 61 77 41
4.115469e-01 4.358311e-01 3.098576e+00 113 128 97
4.019870e-01 4.428204e-01 3.099370e+00 114 119 97
4.088417e-01 4.378818e-01 3.098799e+00 111 125 99
3.417433e-01 4.881374e-01 3.091138e+00 66 77 44
3.601892e-01 4.742191e-01 3.096266e+00 132 130 118
3.601892e-01 4.742191e-01 3.096266e+00 132 130 118
4.236208e-01 4.275530e-01 3.097169e+00 111 123 85
4.236208e-01 4.275530e-01 3.097169e+00 111 123 85
3.528406e-01 4.798441e-01 3.094495e+00 129 131 116
3.725503e-01 4.649569e-01 3.098431e+00 124 129 99
3.254519e-01 5.012699e-01 3.084743e+00 115 128 108
3.992394e-01 4.452974e-01 3.099489e+00 129 144 111
4.265486e-01 4.256895e-01 3.096810e+00 104 126 82
3.359565e-01 4.931628e-01 3.089045e+00 110 123 97
3.356817e-01 4.933543e-01 3.088945e+00 49 61 38
3.205881e-01 5.052258e-01 3.082623e+00 111 120 103
4.062878e-01 4.403565e-01 3.099205e+00 39 50 33
3.730949e-01 4.648448e-01 3.098500e+00 68 75 42
3.730949e-01 4.648448e-01 3.098500e+00 68 75 42
4.169131e-01 4.327726e-01 3.098174e+00 91 113 66
4.147580e-01 4.343341e-01 3.098534e+00 50 66 29
3.321662e-01 4.962841e-01 3.087571e+00 54 62 41
3.377862e-01 4.919693e-01 3.089718e+00 107 120 110
3.530556e-01 4.802009e-01 3.094531e+00 55 57 37
4.065783e-01 4.405943e-01 3.099223e+00 105 117 95
4.061804e-01 4.409563e-01 3.099228e+00 118 132 107
4.061804e-01 4.409563e-01 3.099228e+00 118 132 107
4.028774e-01 4.433833e-01 3.099467e+00 144 156 134
3.637964e-01 4.723869e-01 3.097058e+00 69 77 54
3.465510e-01 4.855768e-01 3.092715e+00 103 114 71
4.021914e-01 4.439396e-01 3.099490e+00 112 126 81
4.208053e-01 4.305315e-01 3.097782e+00 43 58 17
3.915628e-01 4.518357e-01 3.099751e+00 141 140 145
3.555262e-01 4.788124e-01 3.095173e+00 44 56 20
3.509487e-01 4.823488e-01 3.093981e+00 111 124 100
3.221684e-01 5.047833e-01 3.083238e+00 113 116 105
4.248583e-01 4.277143e-01 3.097232e+00 100 117 75
4.214460e-01 4.301600e-01 3.097710e+00 131 145 112
4.168495e-01 4.334659e-01 3.098303e+00 106 129 85
4.082517e-01 4.397940e-01 3.099180e+00 119 132 106
4.082517e-01 4.397940e-01 3.099180e+00 119 132 106
3.981049e-01 4.472377e-01 3.099742e+00 183 183 171
4.226813e-01 4.294910e-01 3.097570e+00 112 129 90
3.969135e-01 4.481299e-01 3.099744e+00 115 113 120
3.828071e-01 4.585706e-01 3.099561e+00 97 95 96
3.864784e-01 4.559987e-01 3.099703e+00 94 89 93
3.864784e-01 4.559987e-01 3.099703e+00 94 89 93
4.071251e-01 4.409346e-01 3.099284e+00 113 123 99
3.928402e-01 4.513789e-01 3.099819e+00 116 117 121
3.493339e-01 4.841018e-01 3.093550e+00 117 134 93
3.489560e-01 4.844064e-01 3.093431e+00 122 132 95
3.405511e-01 4.909335e-01 3.090688e+00 137 156 124
3.405511e-01 4.909335e-01 3.090688e+00 137 156 124
3.760622e-01 4.639029e-01 3.098940e+00 60 61 52
3.349331e-01 4.953415e-01 3.088608e+00 161 171 155
3.349331e-01 4.953415e-01 3.088608e+00 161 171 155
3.908115e-01 4.530129e-01 3.099841e+00 109 108 114
3.701443e-01 4.684116e-01 3.098147e+00 130 138 101
3.314263e-01 4.981629e-01 3.087159e+00 125 137 101
3.863975e-01 4.563261e-01 3.099690e+00 223 218 222
3.501869e-01 4.836165e-01 3.093766e+00 48 65 23
3.501869e-01 4.836165e-01 3.093766e+00 48 65 23
3.227813e-01 5.050153e-01 3.083515e+00 95 103 80
4.066901e-01 4.414778e-01 3.099378e+00 113 126 96
3.746335e-01 4.651013e-01 3.098799e+00 115 121 90
3.646519e-01 4.726609e-01 3.097244e+00 60 64 49
3.637813e-01 4.733340e-01 3.097075e+00 92 91 76
3.887661e-01 4.547155e-01 3.099803e+00 104 103 109
4.112607e-01 4.383637e-01 3.099053e+00 100 116 80
4.054154e-01 4.425741e-01 3.099493e+00 128 132 115
3.440938e-01 4.885296e-01 3.091877e+00 99 107 83
3.241971e-01 5.040856e-01 3.084129e+00 111 127 88
3.431226e-01 4.893422e-01 3.091547e+00 113 129 92
3.867473e-01 4.563624e-01 3.099717e+00 100 98 101
3.867473e-01 4.563624e-01 3.099717e+00 100 98 101
3.739678e-01 4.658547e-01 3.098699e+00 58 72 23
3.736870e-01 4.660859e-01 3.098690e+00 123 136 90
