ply
format ascii 1.0
element face 0
property list uchar int vertex_indices
element vertex 925
property float x
property float y
property float z
property uchar diffuse_red
property uchar diffuse_green
property uchar diffuse_blue
end_header
5.965272e-01 -3.317641e-01 3.298343e+00 170 181 239
5.464740e-01 -3.262723e-01 3.288283e+00 144 159 208
6.382878e-01 -3.376858e-01 3.292187e+00 162 171 228
5.580656e-01 -3.283480e-01 3.281816e+00 135 141 195
6.851632e-01 -3.441506e-01 3.293357e+00 241 254 255
5.441658e-01 -3.278853e-01 3.268626e+00 132 149 198
6.385167e-01 -3.353654e-01 3.290191e+00 241 254 255
6.816889e-01 -3.354200e-01 3.291208e+00 235 254 255
6.480457e-01 -3.310578e-01 3.287010e+00 146 160 206
5.965280e-01 -3.215375e-01 3.278052e+00 237 247 255
5.470615e-01 -3.167580e-01 3.270193e+00 230 248 255
5.849835e-01 -3.195530e-01 3.280310e+00 140 156 211
5.612042e-01 -3.175388e-01 3.267711e+00 116 140 185
5.826308e-01 -3.192727e-01 3.274155e+00 232 247 255
5.484883e-01 -3.163893e-01 3.262683e+00 118 137 197
5.467831e-01 -3.158980e-01 3.261782e+00 233 251 255
5.708740e-01 -3.171049e-01 3.276446e+00 142 142 207
5.925222e-01 -3.192278e-01 3.275773e+00 91 115 166
6.784467e-01 -3.246612e-01 3.288021e+00 123 129 184
6.225816e-01 -5.710528e-01 3.202006e+00 166 181 179
6.225816e-01 -5.710528e-01 3.202006e+00 166 181 179
6.011967e-01 -5.741835e-01 3.171329e+00 34 40 54
6.240496e-01 -5.707573e-01 3.198039e+00 209 210 240
6.270494e-01 -5.701920e-01 3.201872e+00 245 251 250
6.381690e-01 -5.678738e-01 3.216715e+00 197 194 223
6.362175e-01 -5.669465e-01 3.215412e+00 98 110 85
4.624689e-01 -5.468761e-01 3.189151e+00 244 209 229
4.630123e-01 -5.460519e-01 3.193630e+00 244 209 229
4.893834e-01 -5.509859e-01 3.163032e+00 44 64 134
4.878796e-01 -5.500745e-01 3.166248e+00 186 204 247
4.549127e-01 -5.294766e-01 3.232951e+00 182 170 188
4.549127e-01 -5.294766e-01 3.232951e+00 182 170 188
4.697993e-01 -5.467788e-01 3.149907e+00 97 84 136
4.866116e-01 -5.443786e-01 3.171616e+00 188 186 252
4.862082e-01 -5.431111e-01 3.173990e+00 115 108 165
4.668494e-01 -5.344049e-01 3.200957e+00 224 202 246
4.676948e-01 -5.337729e-01 3.200379e+00 239 233 247
4.757364e-01 -5.318690e-01 3.195699e+00 215 214 244
4.878059e-01 -5.366062e-01 3.175804e+00 173 183 252
4.830218e-01 -5.323035e-01 3.190764e+00 248 249 254
4.883927e-01 -5.361209e-01 3.173434e+00 169 175 213
4.772995e-01 -5.301032e-01 3.195532e+00 231 226 245
4.893771e-01 -5.341309e-01 3.176046e+00 247 250 255
6.698657e-01 -5.280814e-01 3.329284e+00 153 153 205
4.900132e-01 -5.340242e-01 3.176483e+00 181 186 220
4.837837e-01 -5.308684e-01 3.186230e+00 114 107 155
4.758844e-01 -5.259551e-01 3.203686e+00 188 192 227
4.833355e-01 -5.272235e-01 3.200902e+00 146 146 183
4.825670e-01 -5.274831e-01 3.194464e+00 229 231 252
4.837203e-01 -5.269355e-01 3.194330e+00 227 234 251
4.837203e-01 -5.269355e-01 3.194330e+00 227 234 251
4.828670e-01 -5.263221e-01 3.194406e+00 228 235 250
4.844719e-01 -5.245988e-01 3.198924e+00 114 116 165
4.279919e-01 -5.045327e-01 3.251962e+00 188 156 165
4.877753e-01 -5.255620e-01 3.188237e+00 235 230 254
4.843677e-01 -5.185134e-01 3.209096e+00 176 173 233
6.816983e-01 -5.228407e-01 3.325196e+00 188 179 234
6.700908e-01 -5.202263e-01 3.328603e+00 84 89 145
4.848129e-01 -5.181938e-01 3.209135e+00 85 80 138
4.859812e-01 -5.190506e-01 3.199812e+00 178 184 233
4.860847e-01 -5.200857e-01 3.194081e+00 87 92 149
6.697218e-01 -5.182991e-01 3.331631e+00 178 175 231
6.958337e-01 -5.241391e-01 3.320249e+00 192 185 227
4.842716e-01 -5.173695e-01 3.204500e+00 209 217 246
4.225607e-01 -4.991863e-01 3.248568e+00 205 187 195
4.872877e-01 -5.152634e-01 3.210641e+00 102 108 166
7.570976e-01 -5.377902e-01 3.268836e+00 252 252 255
4.825810e-01 -5.095808e-01 3.219959e+00 74 87 162
4.822961e-01 -5.088984e-01 3.221284e+00 148 165 233
7.210841e-01 -5.252388e-01 3.301713e+00 102 119 171
6.982869e-01 -5.172995e-01 3.325140e+00 70 76 136
4.857498e-01 -5.093037e-01 3.215396e+00 148 142 187
4.034199e-01 -4.900701e-01 3.247200e+00 51 67 24
4.857529e-01 -5.068120e-01 3.222214e+00 148 146 186
4.900530e-01 -5.078377e-01 3.218176e+00 123 104 169
4.815580e-01 -5.059491e-01 3.221714e+00 184 174 245
4.861991e-01 -5.066454e-01 3.214745e+00 182 195 238
4.829644e-01 -5.025579e-01 3.228772e+00 214 232 247
4.175899e-01 -4.864105e-01 3.258399e+00 238 220 216
4.887615e-01 -5.043264e-01 3.218761e+00 255 249 255
4.179540e-01 -4.854784e-01 3.260364e+00 19 12 9
4.870777e-01 -5.041179e-01 3.216193e+00 131 125 199
4.824051e-01 -4.999437e-01 3.232342e+00 94 102 155
4.827231e-01 -5.013447e-01 3.223107e+00 219 237 253
4.069756e-01 -4.824170e-01 3.254165e+00 48 64 59
4.144346e-01 -4.830886e-01 3.256032e+00 56 19 26
7.019150e-01 -5.121151e-01 3.314879e+00 173 172 223
6.914043e-01 -5.085487e-01 3.324864e+00 193 190 238
7.015210e-01 -5.103337e-01 3.321299e+00 97 91 149
4.067418e-01 -4.811564e-01 3.254440e+00 228 227 218
6.905422e-01 -5.066413e-01 3.326456e+00 182 171 237
6.900842e-01 -5.058007e-01 3.326277e+00 251 237 255
4.657129e-01 -4.848222e-01 3.273863e+00 64 56 70
4.171568e-01 -4.789781e-01 3.260978e+00 132 105 94
4.842822e-01 -4.832691e-01 3.289203e+00 186 184 206
4.842822e-01 -4.832691e-01 3.289203e+00 186 184 206
4.457426e-01 -4.771112e-01 3.283727e+00 173 145 168
4.054832e-01 -4.767652e-01 3.253590e+00 237 235 199
4.795635e-01 -4.806355e-01 3.285426e+00 247 251 255
4.779870e-01 -4.804167e-01 3.283174e+00 239 254 255
4.453701e-01 -4.741647e-01 3.284597e+00 67 46 54
4.792727e-01 -4.759777e-01 3.295688e+00 252 251 255
4.128055e-01 -4.732220e-01 3.256707e+00 216 194 190
6.686986e-01 -4.912587e-01 3.334957e+00 151 154 211
6.742720e-01 -4.920821e-01 3.333691e+00 179 180 233
4.069089e-01 -4.682270e-01 3.258715e+00 247 245 190
6.629107e-01 -4.884645e-01 3.336044e+00 169 173 232
6.612477e-01 -4.883184e-01 3.335776e+00 160 163 223
4.347852e-01 -4.673903e-01 3.275195e+00 207 176 194
6.659780e-01 -4.870498e-01 3.333716e+00 152 156 205
4.263330e-01 -4.654603e-01 3.266080e+00 60 54 58
4.018148e-01 -4.621956e-01 3.254859e+00 129 121 82
4.491922e-01 -4.614384e-01 3.289087e+00 188 194 212
4.240991e-01 -4.628186e-01 3.261599e+00 178 183 180
4.499050e-01 -4.605930e-01 3.291691e+00 44 49 69
4.503459e-01 -4.611944e-01 3.288141e+00 57 64 83
3.995893e-01 -4.609187e-01 3.250587e+00 247 244 209
6.621515e-01 -4.806424e-01 3.334609e+00 127 128 185
4.508805e-01 -4.590057e-01 3.292173e+00 220 230 232
4.507134e-01 -4.583471e-01 3.292156e+00 235 240 241
4.153091e-01 -4.615060e-01 3.249830e+00 55 47 48
4.071526e-01 -4.582563e-01 3.260238e+00 244 243 201
6.363660e-01 -4.735924e-01 3.334412e+00 88 82 130
4.186901e-01 -4.577658e-01 3.253542e+00 229 244 227
3.984449e-01 -4.553273e-01 3.246233e+00 221 227 185
4.107674e-01 -4.542003e-01 3.259844e+00 196 211 182
4.693910e-01 -4.531879e-01 3.303878e+00 243 252 255
5.770165e-01 -4.626958e-01 3.326126e+00 111 119 186
4.118624e-01 -4.515649e-01 3.257953e+00 69 67 55
4.125091e-01 -4.512632e-01 3.259494e+00 83 73 71
4.099410e-01 -4.511032e-01 3.255155e+00 241 239 204
4.099410e-01 -4.511032e-01 3.255155e+00 241 239 204
4.457778e-01 -4.476308e-01 3.289717e+00 237 210 186
4.047591e-01 -4.494286e-01 3.250423e+00 198 213 185
4.025835e-01 -4.498264e-01 3.246613e+00 221 234 204
3.990979e-01 -4.485961e-01 3.249400e+00 194 197 201
6.734659e-01 -4.712824e-01 3.329943e+00 154 145 190
6.734659e-01 -4.712824e-01 3.329943e+00 154 145 190
4.626549e-01 -4.472449e-01 3.298513e+00 219 220 230
4.365437e-01 -4.468726e-01 3.277864e+00 198 179 161
4.089715e-01 -4.467645e-01 3.254706e+00 53 70 51
4.089715e-01 -4.467645e-01 3.254706e+00 53 70 51
4.062097e-01 -4.466203e-01 3.251154e+00 233 247 219
6.097592e-01 -4.595784e-01 3.331820e+00 140 153 215
4.092612e-01 -4.461118e-01 3.255485e+00 215 233 206
4.104546e-01 -4.458516e-01 3.255956e+00 181 211 181
4.087990e-01 -4.457755e-01 3.253696e+00 72 86 88
4.102089e-01 -4.450597e-01 3.256971e+00 226 247 228
6.794418e-01 -4.691360e-01 3.327977e+00 156 160 205
4.181229e-01 -4.453516e-01 3.252986e+00 144 168 141
4.073776e-01 -4.420664e-01 3.254443e+00 210 228 213
4.075909e-01 -4.417990e-01 3.253412e+00 101 115 100
4.075909e-01 -4.417990e-01 3.253412e+00 101 115 100
4.084134e-01 -4.413255e-01 3.255720e+00 231 244 225
5.248252e-01 -4.474537e-01 3.302759e+00 142 154 204
4.087632e-01 -4.404187e-01 3.254884e+00 211 222 191
4.215522e-01 -4.410088e-01 3.257257e+00 216 242 211
4.240307e-01 -4.393672e-01 3.258893e+00 140 153 111
4.049709e-01 -4.371127e-01 3.256249e+00 198 205 187
5.291250e-01 -4.440515e-01 3.309540e+00 100 97 161
4.142428e-01 -4.387639e-01 3.251991e+00 190 215 219
4.206317e-01 -4.378838e-01 3.256583e+00 100 125 104
4.103922e-01 -4.369369e-01 3.247799e+00 188 216 195
4.497069e-01 -4.359269e-01 3.279461e+00 224 240 254
4.500709e-01 -4.353306e-01 3.279466e+00 128 137 188
4.007946e-01 -4.339472e-01 3.241985e+00 7 28 20
6.856498e-01 -4.560551e-01 3.328974e+00 150 144 182
5.190186e-01 -4.373615e-01 3.300624e+00 249 253 255
4.387902e-01 -4.292592e-01 3.269108e+00 123 147 119
4.459634e-01 -4.279527e-01 3.276148e+00 211 231 246
4.459634e-01 -4.279527e-01 3.276148e+00 211 231 246
4.250450e-01 -4.265365e-01 3.263151e+00 210 240 224
4.430115e-01 -4.269465e-01 3.272269e+00 223 253 255
5.634929e-01 -4.338017e-01 3.322294e+00 189 199 250
5.469381e-01 -4.318758e-01 3.316334e+00 135 142 195
6.569644e-01 -4.447994e-01 3.329478e+00 165 178 233
6.569644e-01 -4.447994e-01 3.329478e+00 165 178 233
5.644131e-01 -4.329009e-01 3.320362e+00 102 117 177
4.240263e-01 -4.239171e-01 3.261942e+00 47 71 58
4.129983e-01 -4.245307e-01 3.249508e+00 46 60 79
4.129983e-01 -4.245307e-01 3.249508e+00 46 60 79
4.168312e-01 -4.238266e-01 3.253867e+00 17 43 50
4.280413e-01 -4.224061e-01 3.266512e+00 211 231 225
4.290462e-01 -4.222743e-01 3.266813e+00 97 125 115
4.245725e-01 -4.222264e-01 3.261896e+00 52 76 60
4.430461e-01 -4.227785e-01 3.272060e+00 134 139 190
4.430461e-01 -4.227785e-01 3.272060e+00 134 139 190
5.745153e-01 -4.291796e-01 3.326184e+00 188 192 239
4.099692e-01 -4.217283e-01 3.245609e+00 91 114 106
5.604375e-01 -4.289641e-01 3.315639e+00 110 109 162
4.291829e-01 -4.200582e-01 3.265290e+00 67 92 82
4.172060e-01 -4.206236e-01 3.252793e+00 41 61 71
4.233834e-01 -4.204583e-01 3.258298e+00 9 29 54
4.290420e-01 -4.195415e-01 3.264686e+00 218 236 223
4.059433e-01 -4.206449e-01 3.239865e+00 118 138 127
5.650406e-01 -4.264847e-01 3.323861e+00 105 103 150
5.650406e-01 -4.264847e-01 3.323861e+00 105 103 150
4.067063e-01 -4.203527e-01 3.241003e+00 227 243 238
4.051083e-01 -4.203030e-01 3.239576e+00 22 39 29
6.416952e-01 -4.354438e-01 3.330546e+00 149 144 197
4.054837e-01 -4.198696e-01 3.239344e+00 215 238 222
4.054837e-01 -4.198696e-01 3.239344e+00 215 238 222
6.565692e-01 -4.376780e-01 3.327517e+00 133 123 167
5.491677e-01 -4.241452e-01 3.318785e+00 142 138 191
5.443951e-01 -4.237620e-01 3.314182e+00 136 147 200
4.371986e-01 -4.180982e-01 3.265745e+00 166 186 223
5.517584e-01 -4.226911e-01 3.318391e+00 133 135 183
4.358535e-01 -4.169081e-01 3.264425e+00 112 123 169
4.180372e-01 -4.163794e-01 3.254202e+00 212 230 231
5.485292e-01 -4.216885e-01 3.316511e+00 136 134 188
4.349227e-01 -4.162244e-01 3.262831e+00 158 174 204
6.419457e-01 -4.311719e-01 3.328750e+00 117 119 170
5.441479e-01 -4.204462e-01 3.312870e+00 69 77 146
5.441479e-01 -4.204462e-01 3.312870e+00 69 77 146
5.476071e-01 -4.202783e-01 3.315555e+00 119 122 177
4.350357e-01 -4.143165e-01 3.263415e+00 123 142 178
4.254040e-01 -4.136618e-01 3.259691e+00 46 56 67
5.546237e-01 -4.199663e-01 3.316637e+00 148 150 199
4.349574e-01 -4.137569e-01 3.262857e+00 233 254 255
4.156422e-01 -4.135308e-01 3.249800e+00 201 223 211
4.105528e-01 -4.128302e-01 3.244650e+00 203 219 216
4.105528e-01 -4.128302e-01 3.244650e+00 203 219 216
4.156369e-01 -4.123972e-01 3.250270e+00 215 233 220
6.430282e-01 -4.284674e-01 3.327298e+00 148 142 183
4.182095e-01 -4.105722e-01 3.252116e+00 189 214 194
4.255851e-01 -4.096011e-01 3.258875e+00 69 96 112
4.173962e-01 -4.100695e-01 3.250122e+00 42 57 58
5.262282e-01 -4.137652e-01 3.306097e+00 236 243 253
5.260683e-01 -4.130951e-01 3.305448e+00 121 124 179
4.262700e-01 -4.081431e-01 3.259627e+00 96 110 122
4.244471e-01 -4.078981e-01 3.256999e+00 180 200 193
5.347316e-01 -4.125556e-01 3.310748e+00 132 134 188
4.221282e-01 -4.071454e-01 3.253472e+00 29 60 55
4.209723e-01 -4.069668e-01 3.252215e+00 77 99 80
6.725814e-01 -4.280312e-01 3.323702e+00 166 161 211
6.717919e-01 -4.276734e-01 3.325719e+00 96 98 154
4.107965e-01 -4.065388e-01 3.242577e+00 204 222 198
6.360509e-01 -4.213406e-01 3.326060e+00 182 176 223
5.443607e-01 -4.104293e-01 3.315050e+00 143 149 200
6.416940e-01 -4.219407e-01 3.326442e+00 113 112 170
4.275822e-01 -4.047666e-01 3.258830e+00 91 99 162
5.445768e-01 -4.102092e-01 3.313128e+00 89 97 159
5.444179e-01 -4.104133e-01 3.312112e+00 89 97 159
6.715544e-01 -4.263409e-01 3.321187e+00 115 119 180
5.816978e-01 -4.137506e-01 3.321440e+00 75 81 141
4.267169e-01 -4.046062e-01 3.257836e+00 93 117 175
4.109104e-01 -4.051542e-01 3.241170e+00 216 234 224
6.667560e-01 -4.246475e-01 3.324777e+00 212 215 252
5.960912e-01 -4.156835e-01 3.317972e+00 230 229 254
6.712803e-01 -4.256048e-01 3.320521e+00 67 72 135
5.740332e-01 -4.122066e-01 3.318445e+00 183 194 247
6.035485e-01 -4.150837e-01 3.324412e+00 22 11 74
5.988348e-01 -4.146391e-01 3.322911e+00 153 145 191
4.093104e-01 -4.044549e-01 3.239305e+00 193 213 176
6.612112e-01 -4.230445e-01 3.323398e+00 120 121 177
6.054630e-01 -4.149917e-01 3.324309e+00 228 225 253
6.030602e-01 -4.146895e-01 3.323997e+00 210 202 229
5.946242e-01 -4.135566e-01 3.322865e+00 240 241 255
6.851335e-01 -4.267727e-01 3.321056e+00 249 254 255
4.102740e-01 -4.038611e-01 3.239681e+00 203 216 197
4.217677e-01 -4.034068e-01 3.248093e+00 202 238 255
5.457492e-01 -4.080757e-01 3.311113e+00 102 108 171
4.288574e-01 -4.026290e-01 3.254935e+00 113 141 188
6.062186e-01 -4.141134e-01 3.322060e+00 169 172 212
6.028903e-01 -4.132930e-01 3.323671e+00 210 207 237
6.180234e-01 -4.145897e-01 3.326220e+00 235 250 254
6.072844e-01 -4.130254e-01 3.325696e+00 31 31 95
4.081658e-01 -4.026158e-01 3.236061e+00 216 237 222
5.555877e-01 -4.072786e-01 3.314668e+00 16 20 91
5.709657e-01 -4.086971e-01 3.318275e+00 12 17 90
4.277084e-01 -4.011563e-01 3.253539e+00 219 247 255
6.466329e-01 -4.175786e-01 3.324397e+00 79 87 150
4.081042e-01 -4.011143e-01 3.235522e+00 118 142 153
4.089265e-01 -4.006973e-01 3.236532e+00 75 91 125
4.193236e-01 -4.003307e-01 3.244862e+00 57 80 114
4.212138e-01 -4.001317e-01 3.245865e+00 220 250 255
4.188978e-01 -3.994356e-01 3.244590e+00 74 106 149
6.452782e-01 -4.152537e-01 3.323357e+00 50 49 112
4.246834e-01 -3.983415e-01 3.249171e+00 243 252 255
6.504619e-01 -4.152010e-01 3.323488e+00 160 167 219
6.140456e-01 -4.089486e-01 3.324957e+00 107 108 151
4.082453e-01 -3.974662e-01 3.233328e+00 162 192 166
6.506404e-01 -4.133206e-01 3.322887e+00 96 105 154
4.185809e-01 -3.965795e-01 3.242146e+00 204 238 252
4.197293e-01 -3.960900e-01 3.244931e+00 151 173 197
4.183265e-01 -3.959421e-01 3.241634e+00 135 166 204
4.140219e-01 -3.958414e-01 3.237004e+00 212 246 254
4.212567e-01 -3.953595e-01 3.244257e+00 227 250 255
5.922969e-01 -4.038052e-01 3.320567e+00 156 164 212
6.509793e-01 -4.112752e-01 3.322275e+00 156 168 217
4.169758e-01 -3.940059e-01 3.239344e+00 215 250 255
5.407503e-01 -3.970895e-01 3.308310e+00 146 152 205
5.407462e-01 -3.974103e-01 3.308019e+00 146 152 205
6.637728e-01 -4.114404e-01 3.320330e+00 169 163 213
4.151490e-01 -3.926282e-01 3.236617e+00 209 245 255
4.166260e-01 -3.924583e-01 3.237773e+00 196 220 255
4.123163e-01 -3.925198e-01 3.233230e+00 221 253 255
6.463064e-01 -4.079887e-01 3.321688e+00 182 172 224
4.128703e-01 -3.920192e-01 3.233987e+00 87 120 167
6.511828e-01 -4.090398e-01 3.315816e+00 49 50 106
6.427781e-01 -4.066042e-01 3.321915e+00 144 136 187
4.163117e-01 -3.912646e-01 3.237574e+00 223 254 255
4.147679e-01 -3.913194e-01 3.236193e+00 171 203 225
6.604456e-01 -4.093589e-01 3.319726e+00 155 149 202
6.502018e-01 -4.074216e-01 3.321432e+00 74 68 126
4.160913e-01 -3.907148e-01 3.237147e+00 173 199 218
6.635569e-01 -4.092785e-01 3.319657e+00 63 54 121
6.867784e-01 -4.131799e-01 3.315809e+00 251 255 255
6.507096e-01 -4.070824e-01 3.319803e+00 103 96 149
5.602394e-01 -3.957738e-01 3.311691e+00 202 203 251
6.858901e-01 -4.126085e-01 3.313378e+00 189 193 243
5.843237e-01 -3.974697e-01 3.316435e+00 135 135 188
5.916027e-01 -3.976986e-01 3.317968e+00 148 144 195
5.277418e-01 -3.918006e-01 3.302612e+00 108 119 170
5.413306e-01 -3.923342e-01 3.307406e+00 134 135 184
6.152080e-01 -4.001737e-01 3.320195e+00 239 240 255
6.200504e-01 -4.002285e-01 3.321328e+00 152 152 218
6.608219e-01 -4.068443e-01 3.316016e+00 113 108 162
6.132721e-01 -3.991145e-01 3.320781e+00 162 163 210
6.585605e-01 -4.058138e-01 3.318219e+00 154 147 198
6.571675e-01 -4.060065e-01 3.316168e+00 145 141 191
6.571760e-01 -4.059632e-01 3.316286e+00 145 141 191
6.527764e-01 -4.043158e-01 3.319215e+00 177 180 228
6.485187e-01 -4.033758e-01 3.320834e+00 179 183 230
6.243240e-01 -3.996754e-01 3.320394e+00 205 208 248
6.292210e-01 -4.003151e-01 3.320661e+00 140 138 187
5.786422e-01 -3.941329e-01 3.314764e+00 118 116 168
5.691193e-01 -3.931973e-01 3.312229e+00 118 121 176
6.251343e-01 -3.998858e-01 3.318527e+00 143 146 198
5.596225e-01 -3.920962e-01 3.311440e+00 117 116 174
6.773738e-01 -4.076394e-01 3.317348e+00 188 188 238
6.670430e-01 -4.058442e-01 3.318734e+00 114 115 159
5.989722e-01 -3.962076e-01 3.318356e+00 174 176 237
5.638879e-01 -3.924756e-01 3.312315e+00 119 119 173
5.522536e-01 -3.913001e-01 3.309333e+00 80 84 131
6.570159e-01 -4.047952e-01 3.315963e+00 108 108 160
6.279899e-01 -3.998984e-01 3.319739e+00 170 173 220
6.155979e-01 -3.980309e-01 3.320047e+00 227 240 254
6.224617e-01 -3.990678e-01 3.319280e+00 189 187 237
6.186447e-01 -3.982520e-01 3.320343e+00 240 245 255
6.821526e-01 -4.080885e-01 3.316111e+00 144 142 196
5.692031e-01 -3.924544e-01 3.313418e+00 181 182 230
6.036911e-01 -3.958484e-01 3.319257e+00 125 119 183
5.290544e-01 -3.886711e-01 3.303074e+00 142 154 193
5.291151e-01 -3.887648e-01 3.302457e+00 142 154 193
6.506158e-01 -4.022992e-01 3.319855e+00 208 206 253
5.294343e-01 -3.882900e-01 3.301271e+00 237 249 255
6.373635e-01 -3.999545e-01 3.318648e+00 155 157 204
6.216749e-01 -3.984875e-01 3.314439e+00 198 200 251
6.149628e-01 -3.966083e-01 3.319238e+00 234 248 255
5.835258e-01 -3.927809e-01 3.315440e+00 160 166 221
6.135881e-01 -3.965003e-01 3.317970e+00 206 209 255
6.044688e-01 -3.949925e-01 3.318362e+00 102 102 157
6.137824e-01 -3.956638e-01 3.319900e+00 189 198 253
6.483428e-01 -4.006652e-01 3.318342e+00 134 137 185
6.104919e-01 -3.952660e-01 3.318574e+00 203 202 251
6.104468e-01 -3.952959e-01 3.318365e+00 203 202 251
6.076373e-01 -3.947900e-01 3.318575e+00 226 230 255
5.842076e-01 -3.920282e-01 3.315459e+00 164 170 230
6.678211e-01 -4.036358e-01 3.316029e+00 208 210 251
6.161387e-01 -3.953803e-01 3.319920e+00 60 50 143
5.929052e-01 -3.927131e-01 3.316618e+00 109 115 175
6.197697e-01 -3.955863e-01 3.320850e+00 142 145 196
5.983303e-01 -3.931828e-01 3.317248e+00 180 180 240
6.076599e-01 -3.942153e-01 3.318467e+00 68 59 143
6.621198e-01 -4.021480e-01 3.316447e+00 167 156 196
6.876949e-01 -4.064887e-01 3.313216e+00 244 249 255
6.476376e-01 -3.992569e-01 3.319420e+00 131 132 174
6.460156e-01 -3.988468e-01 3.319500e+00 143 140 186
6.718761e-01 -4.033050e-01 3.314796e+00 179 173 226
6.879902e-01 -4.057088e-01 3.315326e+00 137 139 178
6.270029e-01 -3.957351e-01 3.320043e+00 126 128 184
6.723832e-01 -4.030690e-01 3.314980e+00 88 82 139
6.624502e-01 -4.012616e-01 3.317641e+00 124 121 161
6.543182e-01 -3.999386e-01 3.317761e+00 112 106 152
6.487835e-01 -3.990744e-01 3.317867e+00 198 194 238
5.612640e-01 -3.879834e-01 3.310474e+00 158 161 200
6.200669e-01 -3.943642e-01 3.318618e+00 204 196 250
6.201216e-01 -3.944051e-01 3.318563e+00 204 196 250
5.929699e-01 -3.909713e-01 3.316361e+00 131 133 185
6.115092e-01 -3.939366e-01 3.313450e+00 216 219 255
6.294054e-01 -3.953088e-01 3.319496e+00 192 186 231
6.112087e-01 -3.926872e-01 3.318950e+00 80 70 129
6.108530e-01 -3.936637e-01 3.313783e+00 80 70 129
6.880264e-01 -4.049338e-01 3.310607e+00 242 247 255
6.134183e-01 -3.926327e-01 3.319245e+00 186 184 231
6.873275e-01 -4.043696e-01 3.312046e+00 190 190 247
5.934818e-01 -3.899365e-01 3.315814e+00 180 183 231
5.931721e-01 -3.894657e-01 3.314483e+00 118 118 172
5.476129e-01 -3.843798e-01 3.307080e+00 70 76 131
6.887539e-01 -4.030582e-01 3.311136e+00 114 120 175
6.005206e-01 -3.885816e-01 3.317358e+00 175 178 226
5.934371e-01 -3.875165e-01 3.315421e+00 119 115 169
5.285847e-01 -3.816281e-01 3.299181e+00 167 181 216
5.285847e-01 -3.816281e-01 3.299181e+00 167 181 216
6.839171e-01 -4.005567e-01 3.312707e+00 128 125 172
5.293939e-01 -3.809730e-01 3.300229e+00 237 251 255
6.844789e-01 -4.002129e-01 3.311567e+00 135 137 184
5.357267e-01 -3.804774e-01 3.302461e+00 133 129 178
6.184483e-01 -3.881213e-01 3.315954e+00 121 141 193
5.904763e-01 -3.831527e-01 3.314734e+00 180 192 244
6.457049e-01 -3.903528e-01 3.314645e+00 202 205 251
5.325213e-01 -3.772069e-01 3.301004e+00 225 243 255
5.332545e-01 -3.782535e-01 3.294096e+00 141 148 215
6.827505e-01 -3.964807e-01 3.308049e+00 191 195 246
6.358963e-01 -3.883333e-01 3.316136e+00 186 190 239
5.302432e-01 -3.767098e-01 3.299417e+00 236 252 255
5.849837e-01 -3.815278e-01 3.312119e+00 102 109 164
5.977505e-01 -3.824945e-01 3.315153e+00 104 120 173
5.556745e-01 -3.783560e-01 3.305913e+00 162 163 217
6.379890e-01 -3.874474e-01 3.317822e+00 183 184 234
6.365872e-01 -3.874183e-01 3.316126e+00 183 186 234
6.464173e-01 -3.890044e-01 3.314197e+00 154 153 222
5.975671e-01 -3.820991e-01 3.314387e+00 234 255 255
5.325597e-01 -3.750793e-01 3.302746e+00 243 254 251
5.322187e-01 -3.761044e-01 3.298218e+00 243 254 251
6.770157e-01 -3.936872e-01 3.311992e+00 87 94 158
5.359030e-01 -3.757002e-01 3.300018e+00 152 174 215
5.922969e-01 -3.807035e-01 3.314211e+00 171 167 219
5.909771e-01 -3.805326e-01 3.313704e+00 169 166 225
6.372026e-01 -3.861841e-01 3.316262e+00 164 173 231
5.912555e-01 -3.800017e-01 3.314346e+00 117 117 180
5.869562e-01 -3.796560e-01 3.312113e+00 110 123 183
5.356414e-01 -3.750290e-01 3.299575e+00 233 248 255
6.765498e-01 -3.923015e-01 3.312702e+00 161 162 225
5.405954e-01 -3.750112e-01 3.301595e+00 118 124 186
6.467208e-01 -3.866213e-01 3.313847e+00 153 160 226
5.308924e-01 -3.736370e-01 3.296926e+00 155 167 208
5.793679e-01 -3.774715e-01 3.311006e+00 157 166 229
5.953903e-01 -3.794580e-01 3.312098e+00 190 193 242
5.978858e-01 -3.790632e-01 3.311049e+00 135 139 174
5.866001e-01 -3.772236e-01 3.312196e+00 178 188 244
5.393513e-01 -3.727412e-01 3.299377e+00 137 149 207
6.705638e-01 -3.887364e-01 3.311398e+00 127 137 196
6.242439e-01 -3.796386e-01 3.313130e+00 238 236 253
6.248250e-01 -3.771503e-01 3.314900e+00 241 243 253
6.246205e-01 -3.756076e-01 3.311226e+00 238 240 254
6.255025e-01 -3.745656e-01 3.314622e+00 129 127 189
5.662577e-01 -3.672920e-01 3.307562e+00 137 145 194
5.428584e-01 -3.626134e-01 3.295654e+00 91 100 159
5.378209e-01 -3.610988e-01 3.298742e+00 231 248 254
5.838631e-01 -3.636924e-01 3.305532e+00 125 132 182
5.984755e-01 -3.632611e-01 3.305511e+00 180 186 224
6.260520e-01 -3.649495e-01 3.306804e+00 138 133 196
5.676949e-01 -3.569243e-01 3.301621e+00 124 130 184
6.320525e-01 -3.622945e-01 3.308766e+00 119 121 172
5.677974e-01 -3.526091e-01 3.297094e+00 127 130 181
5.400152e-01 -3.466236e-01 3.294597e+00 234 249 255
5.844463e-01 -3.507661e-01 3.299973e+00 142 145 200
5.682732e-01 -3.480891e-01 3.294872e+00 131 138 188
5.697755e-01 -3.453366e-01 3.294116e+00 133 140 192
5.830390e-01 -3.434252e-01 3.294983e+00 202 202 253
5.682315e-01 -3.406751e-01 3.298298e+00 187 188 245
5.743418e-01 -3.425200e-01 3.291167e+00 180 185 234
5.692832e-01 -3.401989e-01 3.290262e+00 120 120 161
5.925571e-01 -3.396145e-01 3.301854e+00 189 193 241
6.543194e-01 -3.491390e-01 3.295474e+00 145 148 192
6.672308e-01 -3.503539e-01 3.300051e+00 37 46 95
6.877494e-01 -3.532449e-01 3.292840e+00 244 254 255
5.760589e-01 -3.379509e-01 3.289439e+00 167 179 221
6.393375e-01 -3.449751e-01 3.295330e+00 117 128 184
6.335044e-01 -3.408634e-01 3.301562e+00 83 91 163
6.335044e-01 -3.408634e-01 3.301562e+00 83 91 163
6.881648e-01 -3.499881e-01 3.294655e+00 245 255 255
6.016821e-01 -3.369471e-01 3.292434e+00 141 146 196
6.857585e-01 -3.482576e-01 3.294526e+00 233 246 255
6.857585e-01 -3.482576e-01 3.294526e+00 233 246 255
6.364535e-01 -3.396250e-01 3.299838e+00 183 182 242
6.446101e-01 -3.404988e-01 3.299393e+00 100 111 174
5.436706e-01 -3.282497e-01 3.279523e+00 234 252 255
6.407548e-01 -3.382659e-01 3.300371e+00 81 81 142
5.547867e-01 -3.277372e-01 3.288449e+00 170 185 243
5.420714e-01 -3.287921e-01 3.267261e+00 140 156 193
5.966192e-01 -3.294810e-01 3.292840e+00 180 185 241
5.604783e-01 -3.220846e-01 3.292807e+00 180 180 232
5.590497e-01 -3.247431e-01 3.278738e+00 180 180 232
5.471779e-01 -3.234092e-01 3.274155e+00 151 152 208
5.466373e-01 -3.205087e-01 3.272664e+00 145 148 201
5.542085e-01 -3.205987e-01 3.274819e+00 120 122 171
5.970110e-01 -3.242857e-01 3.280036e+00 241 251 255
6.417409e-01 -3.294747e-01 3.289610e+00 115 116 181
6.436990e-01 -3.272789e-01 3.291509e+00 230 249 255
5.477824e-01 -3.166012e-01 3.270839e+00 117 130 192
5.480796e-01 -3.160353e-01 3.261110e+00 226 245 255
5.640767e-01 -3.171044e-01 3.267781e+00 219 234 255
5.490822e-01 -3.158623e-01 3.261909e+00 223 245 255
5.740129e-01 -3.160010e-01 3.276917e+00 232 254 255
6.371659e-01 -5.704446e-01 3.216729e+00 122 135 142
6.341119e-01 -5.809852e-01 3.160068e+00 17 31 38
5.979651e-01 -5.747281e-01 3.165519e+00 153 158 189
5.987285e-01 -5.744202e-01 3.165885e+00 210 215 240
6.277198e-01 -5.697302e-01 3.202792e+00 54 52 63
6.407954e-01 -5.693252e-01 3.212529e+00 222 221 211
6.151325e-01 -5.694002e-01 3.192367e+00 48 63 70
6.140015e-01 -5.705800e-01 3.187547e+00 190 204 193
4.619479e-01 -5.478861e-01 3.188088e+00 253 186 247
4.694648e-01 -5.467825e-01 3.151160e+00 168 155 208
4.717143e-01 -5.358912e-01 3.201206e+00 193 188 231
4.714509e-01 -5.359286e-01 3.198152e+00 169 163 211
4.725260e-01 -5.330162e-01 3.202161e+00 86 71 116
6.571269e-01 -5.316975e-01 3.333190e+00 51 51 107
4.769186e-01 -5.353205e-01 3.190782e+00 162 163 208
4.771272e-01 -5.341060e-01 3.192663e+00 188 190 238
4.771272e-01 -5.341060e-01 3.192663e+00 188 190 238
4.718715e-01 -5.305356e-01 3.200600e+00 75 65 115
7.419164e-01 -5.505236e-01 3.277386e+00 90 107 109
4.736410e-01 -5.281015e-01 3.205887e+00 68 65 110
4.816364e-01 -5.314362e-01 3.194332e+00 207 205 237
4.822781e-01 -5.300786e-01 3.197540e+00 219 215 246
4.850254e-01 -5.298396e-01 3.197140e+00 183 184 232
4.842463e-01 -5.295584e-01 3.195631e+00 191 193 232
4.778505e-01 -5.280997e-01 3.198685e+00 186 177 223
4.789838e-01 -5.264389e-01 3.203689e+00 156 156 209
4.789838e-01 -5.264389e-01 3.203689e+00 156 156 209
4.788605e-01 -5.261370e-01 3.202447e+00 154 149 210
4.867792e-01 -5.278958e-01 3.194725e+00 128 131 181
4.833949e-01 -5.231399e-01 3.204176e+00 167 171 217
4.257395e-01 -5.022418e-01 3.249858e+00 191 171 172
6.739967e-01 -5.210782e-01 3.328753e+00 126 124 173
6.710044e-01 -5.148189e-01 3.348276e+00 73 66 126
4.222721e-01 -4.997251e-01 3.247864e+00 107 81 88
7.007968e-01 -5.200886e-01 3.317678e+00 132 139 212
4.828608e-01 -5.052790e-01 3.217856e+00 225 237 255
4.086475e-01 -4.859245e-01 3.255050e+00 113 121 114
6.892652e-01 -5.097792e-01 3.326504e+00 243 225 250
4.077993e-01 -4.838867e-01 3.254598e+00 69 77 45
4.806722e-01 -5.006061e-01 3.223431e+00 216 223 244
6.896769e-01 -5.079187e-01 3.330178e+00 156 135 202
4.353158e-01 -4.838715e-01 3.269513e+00 151 128 156
4.424536e-01 -4.827508e-01 3.278505e+00 112 72 83
4.063594e-01 -4.819579e-01 3.252887e+00 75 76 73
4.041938e-01 -4.816443e-01 3.252047e+00 83 82 82
4.216058e-01 -4.810702e-01 3.266391e+00 206 166 156
4.400975e-01 -4.818169e-01 3.275417e+00 173 143 157
6.910366e-01 -5.069742e-01 3.326427e+00 134 136 191
6.461004e-01 -4.989432e-01 3.334802e+00 129 115 154
4.058481e-01 -4.808471e-01 3.253539e+00 236 238 223
4.806224e-01 -4.842318e-01 3.284444e+00 227 242 247
4.663305e-01 -4.816435e-01 3.286971e+00 131 126 153
4.816795e-01 -4.828232e-01 3.287202e+00 161 162 195
4.448953e-01 -4.747221e-01 3.286409e+00 79 46 63
4.800915e-01 -4.762349e-01 3.295421e+00 254 252 255
4.673733e-01 -4.715084e-01 3.302779e+00 191 198 204
6.192649e-01 -4.819341e-01 3.340048e+00 28 29 93
6.587682e-01 -4.866838e-01 3.342217e+00 62 81 142
4.064568e-01 -4.664068e-01 3.258425e+00 134 112 88
4.071514e-01 -4.661305e-01 3.260064e+00 236 216 184
4.269618e-01 -4.663556e-01 3.266691e+00 137 119 131
6.661248e-01 -4.853084e-01 3.334326e+00 158 159 212
4.450806e-01 -4.635915e-01 3.285255e+00 147 166 179
4.011957e-01 -4.625914e-01 3.253683e+00 234 232 187
4.022695e-01 -4.612653e-01 3.257138e+00 225 219 195
6.684154e-01 -4.832608e-01 3.330736e+00 193 197 245
6.611006e-01 -4.798149e-01 3.339539e+00 69 69 121
4.542428e-01 -4.596107e-01 3.294831e+00 88 88 109
4.499481e-01 -4.598589e-01 3.289156e+00 81 92 99
4.060548e-01 -4.580231e-01 3.259251e+00 231 230 177
5.755383e-01 -4.674055e-01 3.329120e+00 135 140 195
4.102150e-01 -4.572377e-01 3.259241e+00 174 181 139
4.520854e-01 -4.557778e-01 3.292663e+00 192 194 188
4.182383e-01 -4.579044e-01 3.253869e+00 130 141 143
4.086748e-01 -4.557434e-01 3.257254e+00 174 200 162
4.060625e-01 -4.563426e-01 3.252228e+00 136 138 99
4.474607e-01 -4.546310e-01 3.288022e+00 76 60 67
4.077096e-01 -4.549819e-01 3.253205e+00 128 136 100
4.152359e-01 -4.538634e-01 3.262910e+00 123 122 113
5.128716e-01 -4.584578e-01 3.293486e+00 118 112 157
4.459737e-01 -4.503605e-01 3.286317e+00 218 197 186
5.140441e-01 -4.581741e-01 3.294903e+00 130 133 175
5.140441e-01 -4.581741e-01 3.294903e+00 130 133 175
4.172197e-01 -4.498300e-01 3.265888e+00 205 211 210
4.098357e-01 -4.503336e-01 3.255418e+00 118 127 108
4.090619e-01 -4.471273e-01 3.255965e+00 212 226 212
6.077269e-01 -4.598755e-01 3.331397e+00 33 37 105
4.407820e-01 -4.447744e-01 3.284849e+00 166 141 122
6.101053e-01 -4.590633e-01 3.332260e+00 77 87 147
6.101053e-01 -4.590633e-01 3.332260e+00 77 87 147
4.264640e-01 -4.458498e-01 3.263139e+00 241 235 208
4.067600e-01 -4.445733e-01 3.252960e+00 124 140 107
4.077527e-01 -4.440389e-01 3.253527e+00 162 170 129
6.089390e-01 -4.545730e-01 3.333574e+00 167 172 235
6.868129e-01 -4.632766e-01 3.329396e+00 248 252 255
5.164641e-01 -4.446642e-01 3.300498e+00 119 122 178
4.155148e-01 -4.387907e-01 3.250994e+00 131 146 151
4.099850e-01 -4.361651e-01 3.247386e+00 131 150 150
4.002047e-01 -4.352710e-01 3.242160e+00 170 191 176
4.000709e-01 -4.348720e-01 3.241477e+00 129 151 142
4.480631e-01 -4.336185e-01 3.278775e+00 146 160 192
5.188265e-01 -4.378665e-01 3.303943e+00 150 156 196
6.860832e-01 -4.574554e-01 3.323664e+00 251 251 255
4.241902e-01 -4.317959e-01 3.262909e+00 50 74 62
6.068543e-01 -4.416621e-01 3.325892e+00 164 169 225
4.169571e-01 -4.269692e-01 3.253907e+00 34 52 40
6.147642e-01 -4.395852e-01 3.325179e+00 17 17 82
6.509767e-01 -4.433380e-01 3.331137e+00 136 135 193
4.162698e-01 -4.249884e-01 3.253792e+00 118 152 126
4.303361e-01 -4.236869e-01 3.268186e+00 191 222 204
5.548758e-01 -4.309591e-01 3.319118e+00 112 118 180
4.286641e-01 -4.231935e-01 3.267124e+00 104 131 111
5.562615e-01 -4.311257e-01 3.317023e+00 96 102 163
4.423246e-01 -4.242111e-01 3.271598e+00 122 138 166
6.456837e-01 -4.407083e-01 3.331122e+00 162 159 205
4.417445e-01 -4.236276e-01 3.271438e+00 105 123 170
4.417445e-01 -4.236276e-01 3.271438e+00 105 123 170
4.402177e-01 -4.234197e-01 3.270589e+00 103 127 173
4.153530e-01 -4.216689e-01 3.253055e+00 40 64 70
4.413167e-01 -4.216809e-01 3.271138e+00 163 177 203
4.413167e-01 -4.216809e-01 3.271138e+00 163 177 203
6.537014e-01 -4.394862e-01 3.330122e+00 188 184 234
4.415072e-01 -4.211257e-01 3.271692e+00 233 250 255
4.171872e-01 -4.209242e-01 3.254108e+00 223 243 241
4.043602e-01 -4.218520e-01 3.238251e+00 66 85 103
5.603375e-01 -4.273307e-01 3.321644e+00 178 180 234
4.047915e-01 -4.216564e-01 3.238170e+00 208 227 227
6.308076e-01 -4.346370e-01 3.325522e+00 124 132 181
4.366478e-01 -4.188360e-01 3.266097e+00 125 155 187
4.377543e-01 -4.180513e-01 3.266780e+00 226 248 255
4.359764e-01 -4.161238e-01 3.264590e+00 186 197 227
5.451651e-01 -4.218226e-01 3.308920e+00 112 112 173
4.168519e-01 -4.127995e-01 3.252122e+00 198 225 183
4.209939e-01 -4.125057e-01 3.256610e+00 113 137 113
6.659218e-01 -4.323262e-01 3.324679e+00 163 160 205
4.097728e-01 -4.118498e-01 3.242393e+00 169 193 189
4.258994e-01 -4.103465e-01 3.258791e+00 123 144 151
4.144755e-01 -4.107569e-01 3.247787e+00 119 144 115
4.195588e-01 -4.099786e-01 3.253372e+00 149 168 174
4.120726e-01 -4.100898e-01 3.243903e+00 201 226 194
4.266141e-01 -4.077655e-01 3.259072e+00 194 212 220
4.105100e-01 -4.084315e-01 3.242832e+00 54 79 78
6.858255e-01 -4.313556e-01 3.321847e+00 246 254 255
4.220630e-01 -4.065331e-01 3.253941e+00 164 195 190
4.114872e-01 -4.070760e-01 3.243439e+00 196 218 199
6.325410e-01 -4.211368e-01 3.328142e+00 70 72 132
6.325410e-01 -4.211368e-01 3.328142e+00 70 72 132
4.153552e-01 -4.062535e-01 3.246437e+00 188 205 170
5.815011e-01 -4.147471e-01 3.318666e+00 158 160 209
6.341711e-01 -4.211241e-01 3.322286e+00 118 123 178
6.630131e-01 -4.247895e-01 3.322298e+00 209 212 254
6.675535e-01 -4.251298e-01 3.322677e+00 198 204 243
6.674616e-01 -4.254412e-01 3.320367e+00 198 204 243
5.441488e-01 -4.102948e-01 3.309501e+00 145 161 218
6.632100e-01 -4.239383e-01 3.325308e+00 139 146 199
6.045465e-01 -4.166208e-01 3.319245e+00 226 225 246
6.664100e-01 -4.244242e-01 3.322477e+00 77 78 140
6.662923e-01 -4.246810e-01 3.321082e+00 77 78 140
5.780384e-01 -4.126121e-01 3.318965e+00 181 188 242
6.049956e-01 -4.150630e-01 3.325363e+00 84 72 128
6.668165e-01 -4.246205e-01 3.319830e+00 210 210 252
6.633225e-01 -4.233429e-01 3.323315e+00 83 87 145
5.984979e-01 -4.139549e-01 3.323961e+00 237 235 255
4.147894e-01 -4.037219e-01 3.244828e+00 99 118 108
4.142154e-01 -4.031156e-01 3.242587e+00 154 173 145
6.069796e-01 -4.137726e-01 3.324610e+00 182 186 229
5.973855e-01 -4.124277e-01 3.323562e+00 230 223 254
5.942404e-01 -4.122850e-01 3.322020e+00 231 237 255
6.065973e-01 -4.137185e-01 3.321238e+00 168 170 226
5.717655e-01 -4.083475e-01 3.316198e+00 161 162 223
6.593275e-01 -4.187754e-01 3.323056e+00 61 58 120
6.611120e-01 -4.191391e-01 3.321668e+00 124 126 175
6.629491e-01 -4.180617e-01 3.321785e+00 64 54 118
4.090546e-01 -3.976143e-01 3.235530e+00 76 107 95
4.213438e-01 -3.971768e-01 3.245675e+00 217 239 255
4.174975e-01 -3.970027e-01 3.241806e+00 113 147 183
4.173235e-01 -3.966439e-01 3.241077e+00 216 244 255
6.599188e-01 -4.143545e-01 3.321539e+00 160 154 226
6.616880e-01 -4.139508e-01 3.321602e+00 127 123 176
6.621160e-01 -4.137839e-01 3.321814e+00 178 176 228
6.636155e-01 -4.135902e-01 3.320104e+00 139 132 190
4.165509e-01 -3.930705e-01 3.238609e+00 126 151 207
4.088645e-01 -3.934603e-01 3.228340e+00 215 236 223
6.485182e-01 -4.089120e-01 3.320423e+00 114 115 171
6.859825e-01 -4.142604e-01 3.315623e+00 163 169 206
6.619789e-01 -4.100847e-01 3.318528e+00 96 86 146
4.180874e-01 -3.913031e-01 3.239683e+00 226 253 255
4.175485e-01 -3.909344e-01 3.238537e+00 187 206 227
6.152885e-01 -4.023804e-01 3.320522e+00 221 218 245
6.609921e-01 -4.083780e-01 3.319110e+00 149 141 200
6.866355e-01 -4.121869e-01 3.314374e+00 186 194 214
6.356770e-01 -4.036028e-01 3.321597e+00 119 117 167
6.154628e-01 -4.007385e-01 3.320747e+00 98 92 155
5.912538e-01 -3.973003e-01 3.318861e+00 191 193 240
6.869044e-01 -4.119061e-01 3.313193e+00 247 253 255
5.456325e-01 -3.926530e-01 3.308233e+00 191 194 243
5.281755e-01 -3.914288e-01 3.302252e+00 245 253 255
6.089936e-01 -3.991307e-01 3.320036e+00 248 254 255
6.485545e-01 -4.047991e-01 3.319453e+00 160 165 216
6.484864e-01 -4.048025e-01 3.318835e+00 160 165 216
5.738127e-01 -3.948593e-01 3.314235e+00 169 170 226
6.646905e-01 -4.069790e-01 3.317835e+00 93 97 145
6.647987e-01 -4.067180e-01 3.319418e+00 93 97 145
5.713934e-01 -3.942493e-01 3.314540e+00 23 26 83
6.241777e-01 -4.004079e-01 3.320447e+00 108 109 165
6.492407e-01 -4.039966e-01 3.319827e+00 127 129 180
5.588941e-01 -3.928058e-01 3.311547e+00 79 80 142
6.542257e-01 -4.044473e-01 3.321124e+00 194 199 241
5.734306e-01 -3.942922e-01 3.312855e+00 184 179 238
5.735479e-01 -3.940031e-01 3.314748e+00 184 179 238
5.712438e-01 -3.937288e-01 3.314740e+00 159 157 213
5.545964e-01 -3.921107e-01 3.310740e+00 153 155 214
6.133242e-01 -3.985675e-01 3.319280e+00 142 144 201
5.522273e-01 -3.918910e-01 3.308645e+00 153 155 203
6.459427e-01 -4.028261e-01 3.320409e+00 126 124 173
6.184545e-01 -3.987736e-01 3.320295e+00 76 64 144
6.590923e-01 -4.053063e-01 3.315887e+00 193 193 237
6.451797e-01 -4.021073e-01 3.319948e+00 177 178 225
6.219877e-01 -3.985446e-01 3.320074e+00 118 119 175
6.134254e-01 -3.974840e-01 3.319313e+00 221 230 255
5.595293e-01 -3.915770e-01 3.310435e+00 176 175 229
6.191508e-01 -3.978787e-01 3.320766e+00 137 137 190
6.568888e-01 -4.040949e-01 3.315489e+00 179 177 226
5.847529e-01 -3.936889e-01 3.315852e+00 190 190 237
6.232387e-01 -3.978760e-01 3.321583e+00 179 179 233
6.052613e-01 -3.958593e-01 3.318418e+00 147 153 208
5.900148e-01 -3.943269e-01 3.314421e+00 115 118 171
5.900148e-01 -3.943269e-01 3.314421e+00 115 118 171
5.743493e-01 -3.921916e-01 3.314928e+00 137 140 187
6.558081e-01 -4.032067e-01 3.317068e+00 109 99 156
6.277784e-01 -3.987517e-01 3.319476e+00 136 135 202
6.417640e-01 -4.011311e-01 3.316302e+00 156 155 202
6.213498e-01 -3.975260e-01 3.319528e+00 109 111 167
6.213498e-01 -3.975260e-01 3.319528e+00 109 111 167
6.064567e-01 -3.956206e-01 3.318825e+00 188 189 238
6.200079e-01 -3.973370e-01 3.318969e+00 206 218 247
6.875716e-01 -4.078785e-01 3.314957e+00 117 122 158
6.129939e-01 -3.962582e-01 3.319257e+00 107 109 165
6.485234e-01 -4.013377e-01 3.317608e+00 176 179 230
6.872388e-01 -4.074422e-01 3.314851e+00 242 253 255
6.278749e-01 -3.985310e-01 3.315215e+00 145 152 205
5.976659e-01 -3.938459e-01 3.317654e+00 161 168 224
5.980678e-01 -3.937318e-01 3.317360e+00 116 121 183
6.061806e-01 -3.945922e-01 3.318026e+00 173 173 231
6.154485e-01 -3.955291e-01 3.319934e+00 167 167 234
5.990163e-01 -3.935198e-01 3.317673e+00 196 200 255
6.252263e-01 -3.965842e-01 3.319028e+00 84 81 137
6.478933e-01 -3.998741e-01 3.318356e+00 173 174 215
6.221391e-01 -3.960854e-01 3.318639e+00 167 167 227
5.976885e-01 -3.936390e-01 3.313512e+00 102 101 158
6.240463e-01 -3.961921e-01 3.318684e+00 148 148 200
6.081617e-01 -3.939550e-01 3.318728e+00 203 196 252
6.256322e-01 -3.962781e-01 3.319281e+00 131 128 180
6.138559e-01 -3.946858e-01 3.318771e+00 170 165 231
6.120570e-01 -3.944804e-01 3.317947e+00 165 161 229
5.997745e-01 -3.926354e-01 3.318160e+00 218 217 254
6.649571e-01 -4.014497e-01 3.318976e+00 190 189 231
6.567849e-01 -4.009002e-01 3.314413e+00 199 191 240
6.499909e-01 -3.992093e-01 3.317615e+00 161 154 194
6.263354e-01 -3.956371e-01 3.318808e+00 166 167 216
5.301430e-01 -3.855205e-01 3.301523e+00 152 167 202
6.451814e-01 -3.980581e-01 3.319660e+00 201 197 244
6.451814e-01 -3.980581e-01 3.319660e+00 201 197 244
6.285028e-01 -3.955328e-01 3.319769e+00 175 173 224
6.085350e-01 -3.929406e-01 3.318021e+00 187 185 235
5.303599e-01 -3.853061e-01 3.300473e+00 220 234 251
6.447126e-01 -3.979189e-01 3.317542e+00 107 105 158
6.148901e-01 -3.936172e-01 3.318008e+00 178 178 234
6.031627e-01 -3.917505e-01 3.317651e+00 196 197 248
5.990484e-01 -3.911621e-01 3.317928e+00 207 208 255
6.127824e-01 -3.929934e-01 3.317756e+00 139 138 187
6.875302e-01 -4.048979e-01 3.310862e+00 109 113 165
6.181185e-01 -3.934490e-01 3.319021e+00 205 207 248
6.194832e-01 -3.935434e-01 3.318974e+00 184 177 230
5.742590e-01 -3.883622e-01 3.312797e+00 134 135 182
5.742590e-01 -3.883622e-01 3.312797e+00 134 135 182
6.883151e-01 -4.036357e-01 3.310085e+00 108 110 162
5.930523e-01 -3.886623e-01 3.317249e+00 200 203 245
6.843027e-01 -4.010022e-01 3.311309e+00 180 181 226
6.849945e-01 -4.005848e-01 3.310048e+00 217 219 252
5.298041e-01 -3.808300e-01 3.298156e+00 135 143 184
6.678168e-01 -3.965364e-01 3.312559e+00 186 195 249
6.484413e-01 -3.933438e-01 3.313675e+00 136 139 194
6.517789e-01 -3.933637e-01 3.315634e+00 172 174 234
6.204218e-01 -3.881321e-01 3.317618e+00 106 128 173
5.302769e-01 -3.791940e-01 3.298430e+00 233 246 254
6.148862e-01 -3.872209e-01 3.317648e+00 148 160 202
6.797944e-01 -3.974701e-01 3.310814e+00 127 136 193
5.981087e-01 -3.849641e-01 3.315849e+00 218 216 251
5.337496e-01 -3.788997e-01 3.300792e+00 124 142 190
6.209527e-01 -3.878538e-01 3.317317e+00 229 249 255
6.172652e-01 -3.872613e-01 3.317307e+00 238 251 254
5.979207e-01 -3.845736e-01 3.315575e+00 163 157 206
6.004050e-01 -3.849063e-01 3.314776e+00 230 241 251
6.850924e-01 -3.977777e-01 3.310054e+00 236 244 255
6.429301e-01 -3.905914e-01 3.314666e+00 166 166 232
6.122603e-01 -3.857026e-01 3.316904e+00 237 243 255
5.344662e-01 -3.776800e-01 3.302774e+00 130 143 194
6.831703e-01 -3.971169e-01 3.309958e+00 200 205 250
6.853494e-01 -3.974763e-01 3.309286e+00 156 165 188
5.607354e-01 -3.801548e-01 3.307046e+00 99 110 165
6.835203e-01 -3.962924e-01 3.312451e+00 139 145 196
6.835203e-01 -3.962924e-01 3.312451e+00 139 145 196
6.767539e-01 -3.950853e-01 3.313364e+00 123 123 177
6.767539e-01 -3.950853e-01 3.313364e+00 123 123 177
5.749576e-01 -3.810890e-01 3.309796e+00 187 191 243
5.703489e-01 -3.804245e-01 3.309925e+00 175 181 231
5.513144e-01 -3.788684e-01 3.304326e+00 145 155 214
6.399101e-01 -3.891390e-01 3.315087e+00 119 126 187
6.399101e-01 -3.891390e-01 3.315087e+00 119 126 187
5.821665e-01 -3.816173e-01 3.311089e+00 107 116 171
5.804688e-01 -3.813333e-01 3.311109e+00 91 97 151
5.765638e-01 -3.810937e-01 3.309097e+00 75 80 134
5.728240e-01 -3.804584e-01 3.309984e+00 97 99 148
5.710361e-01 -3.801316e-01 3.310799e+00 101 104 152
5.594529e-01 -3.792455e-01 3.306969e+00 83 92 145
5.474610e-01 -3.786450e-01 3.300443e+00 140 146 202
6.847840e-01 -3.960707e-01 3.309537e+00 144 154 203
5.968836e-01 -3.823425e-01 3.315153e+00 118 135 180
5.932139e-01 -3.813858e-01 3.315899e+00 134 136 192
5.918995e-01 -3.813939e-01 3.315106e+00 168 175 227
5.924222e-01 -3.818160e-01 3.312627e+00 181 184 236
5.982201e-01 -3.824654e-01 3.313266e+00 233 250 255
5.940580e-01 -3.816326e-01 3.313581e+00 143 151 202
5.922611e-01 -3.811859e-01 3.314592e+00 133 135 184
5.501269e-01 -3.761846e-01 3.306714e+00 156 165 221
5.866573e-01 -3.806923e-01 3.310753e+00 133 135 192
5.480805e-01 -3.756628e-01 3.306612e+00 87 93 148
5.854608e-01 -3.799151e-01 3.313149e+00 188 191 244
5.490524e-01 -3.754465e-01 3.305274e+00 138 141 192
6.578045e-01 -3.895831e-01 3.312239e+00 110 120 181
5.450342e-01 -3.749473e-01 3.305001e+00 124 129 183
6.668848e-01 -3.897401e-01 3.316061e+00 73 93 154
5.318694e-01 -3.724679e-01 3.301774e+00 235 249 255
5.312639e-01 -3.736162e-01 3.295049e+00 235 249 255
6.314975e-01 -3.839060e-01 3.315689e+00 111 118 173
5.870470e-01 -3.766388e-01 3.311969e+00 118 124 191
6.253268e-01 -3.684620e-01 3.307919e+00 224 225 247
6.303206e-01 -3.548677e-01 3.300730e+00 132 144 192
6.287485e-01 -3.531201e-01 3.306690e+00 129 141 193
6.625532e-01 -3.558916e-01 3.297616e+00 175 172 231
6.498257e-01 -3.525815e-01 3.304798e+00 168 166 222
6.623351e-01 -3.554974e-01 3.299664e+00 104 99 152
6.710266e-01 -3.549084e-01 3.301405e+00 134 135 183
6.314370e-01 -3.495852e-01 3.298217e+00 123 124 181
6.881100e-01 -3.563156e-01 3.299662e+00 111 115 185
6.015278e-01 -3.426729e-01 3.301982e+00 174 174 225
5.557591e-01 -3.362468e-01 3.293848e+00 118 114 173
6.879185e-01 -3.529621e-01 3.296199e+00 141 160 199
5.999795e-01 -3.391728e-01 3.301394e+00 130 131 190
5.919292e-01 -3.367656e-01 3.300101e+00 96 102 165
6.700411e-01 -3.472563e-01 3.298381e+00 140 140 186
6.548482e-01 -3.444614e-01 3.296053e+00 184 185 226
5.852099e-01 -3.337087e-01 3.297669e+00 168 168 221
6.877132e-01 -3.479992e-01 3.294076e+00 143 155 188
5.963598e-01 -3.352617e-01 3.290336e+00 178 180 235
5.779203e-01 -3.317853e-01 3.295643e+00 129 133 171
6.012247e-01 -3.340013e-01 3.299333e+00 153 171 209
5.824232e-01 -3.313417e-01 3.295158e+00 165 163 211
6.027094e-01 -3.319700e-01 3.299064e+00 241 252 255
5.422030e-01 -3.277906e-01 3.275673e+00 222 237 254
5.427644e-01 -3.271643e-01 3.267579e+00 233 253 255
5.906174e-01 -3.276688e-01 3.294796e+00 150 152 200
6.850533e-01 -3.413851e-01 3.291709e+00 182 179 246
5.905199e-01 -3.267877e-01 3.294855e+00 142 142 197
5.992305e-01 -3.276472e-01 3.283341e+00 141 148 190
6.702661e-01 -3.328902e-01 3.285055e+00 240 251 255
5.578503e-01 -3.172656e-01 3.266017e+00 166 178 220
5.464617e-01 -3.156110e-01 3.269405e+00 146 172 199
5.500058e-01 -3.160501e-01 3.262304e+00 160 183 218
5.518487e-01 -3.155226e-01 3.271091e+00 140 157 197
5.522607e-01 -3.134581e-01 3.269597e+00 140 160 197
5.246329e-01 -4.425907e-01 3.313922e+00 164 188 239
5.488103e-01 -3.686628e-01 3.292573e+00 123 138 185
6.833917e-01 -3.537490e-01 3.297013e+00 163 174 216
7.238880e-01 -5.174426e-01 3.321732e+00 254 255 254
5.508827e-01 -4.293894e-01 3.318090e+00 174 188 225
6.754540e-01 -4.226784e-01 3.323585e+00 191 198 233
5.974446e-01 -3.567375e-01 3.302984e+00 151 168 214
6.530004e-01 -3.507660e-01 3.297875e+00 60 69 129
4.868125e-01 -5.276804e-01 3.189912e+00 142 146 192
4.925086e-01 -5.374130e-01 3.168856e+00 254 255 254
7.377374e-01 -5.310096e-01 3.310874e+00 88 115 137
4.707423e-01 -4.729991e-01 3.275514e+00 254 254 254
5.791928e-01 -4.544774e-01 3.326370e+00 181 198 237
6.370816e-01 -4.357154e-01 3.332920e+00 153 172 220
5.385408e-01 -4.122640e-01 3.304702e+00 147 154 196
6.744289e-01 -4.246464e-01 3.324713e+00 187 202 237
5.779622e-01 -3.719506e-01 3.304250e+00 37 46 104
4.692653e-01 -5.336370e-01 3.194773e+00 92 85 126
4.817314e-01 -5.141898e-01 3.216339e+00 165 176 222
6.927934e-01 -5.077992e-01 3.329988e+00 178 184 225
6.834303e-01 -4.897487e-01 3.335674e+00 184 190 228
5.282548e-01 -4.435219e-01 3.313060e+00 116 136 191
5.264784e-01 -4.125527e-01 3.301943e+00 168 176 222
5.638099e-01 -3.898794e-01 3.309724e+00 162 166 202
5.369101e-01 -3.809666e-01 3.295565e+00 121 125 166
6.274459e-01 -3.666509e-01 3.304266e+00 110 122 174
6.508360e-01 -3.575826e-01 3.305510e+00 52 64 124
4.820291e-01 -5.110983e-01 3.216969e+00 87 111 182
6.883304e-01 -5.100836e-01 3.331589e+00 254 254 254
6.748431e-01 -4.891548e-01 3.335780e+00 117 134 184
5.293457e-01 -4.704748e-01 3.311517e+00 139 159 210
6.628655e-01 -4.804538e-01 3.337226e+00 177 183 220
5.255100e-01 -4.612068e-01 3.315246e+00 113 117 172
6.315973e-01 -4.599361e-01 3.333717e+00 195 208 242
6.666368e-01 -4.307621e-01 3.327347e+00 197 200 230
5.255799e-01 -4.100886e-01 3.297240e+00 252 253 255
6.128847e-01 -4.157987e-01 3.323206e+00 132 132 164
5.491406e-01 -3.902385e-01 3.308776e+00 85 83 133
5.964086e-01 -3.909747e-01 3.316902e+00 176 185 224
6.370975e-01 -3.901572e-01 3.318006e+00 161 179 229
5.860873e-01 -3.823978e-01 3.312563e+00 161 178 223
5.623610e-01 -3.699042e-01 3.298569e+00 38 42 97
5.782518e-01 -3.315912e-01 3.276503e+00 199 205 238
7.237935e-01 -5.328774e-01 3.316177e+00 92 109 135
7.237935e-01 -5.328774e-01 3.316177e+00 92 109 135
7.238813e-01 -5.307822e-01 3.318342e+00 54 66 110
7.238813e-01 -5.307822e-01 3.318342e+00 54 66 110
7.519397e-01 -5.342366e-01 3.309445e+00 69 93 140
7.470488e-01 -5.280876e-01 3.311185e+00 255 255 254
4.888094e-01 -5.089043e-01 3.213279e+00 104 121 212
5.948716e-01 -4.763520e-01 3.335544e+00 147 157 194
5.338703e-01 -4.631697e-01 3.322124e+00 136 158 205
6.755377e-01 -4.794637e-01 3.334037e+00 111 104 135
4.703822e-01 -4.573138e-01 3.281240e+00 252 255 254
5.160348e-01 -4.458636e-01 3.304040e+00 255 255 255
6.754444e-01 -4.508147e-01 3.330321e+00 145 157 209
5.830244e-01 -4.380927e-01 3.326819e+00 132 139 192
6.626880e-01 -4.235434e-01 3.319114e+00 24 40 99
5.997754e-01 -4.139442e-01 3.322415e+00 157 154 179
6.539842e-01 -4.053324e-01 3.321191e+00 183 189 224
6.144281e-01 -3.994282e-01 3.321929e+00 254 255 254
6.679185e-01 -4.074568e-01 3.316659e+00 109 116 162
6.602727e-01 -4.057051e-01 3.321595e+00 122 127 164
6.602727e-01 -4.057051e-01 3.321595e+00 122 127 164
6.665958e-01 -4.024620e-01 3.320268e+00 98 97 142
6.516174e-01 -3.980665e-01 3.320504e+00 176 181 210
