ply
format ascii 1.0
element face 0
property list uchar int vertex_indices
element vertex 976
property float x
property float y
property float z
property uchar diffuse_red
property uchar diffuse_green
property uchar diffuse_blue
end_header
3.361169e-01 5.130666e-01 3.113625e+00 59 70 38
4.047103e-01 4.263569e-01 3.125094e+00 107 123 87
3.638603e-01 4.764354e-01 3.124468e+00 127 134 101
3.526540e-01 4.910394e-01 3.121133e+00 61 73 51
3.982212e-01 4.342652e-01 3.126049e+00 69 87 43
3.558763e-01 4.869826e-01 3.122206e+00 105 120 77
4.183161e-01 4.107026e-01 3.122457e+00 82 104 59
4.154430e-01 4.140236e-01 3.123073e+00 82 102 78
4.077577e-01 4.230290e-01 3.124617e+00 105 119 94
3.861621e-01 4.488574e-01 3.126932e+00 109 104 110
3.818670e-01 4.541428e-01 3.126845e+00 65 61 54
3.536691e-01 4.899905e-01 3.121467e+00 97 108 68
3.536691e-01 4.899905e-01 3.121467e+00 97 108 68
4.125998e-01 4.174505e-01 3.123694e+00 104 118 95
4.080642e-01 4.227559e-01 3.124596e+00 105 119 96
3.673131e-01 4.724847e-01 3.125226e+00 78 91 38
3.389858e-01 5.096687e-01 3.115101e+00 57 73 36
3.684015e-01 4.712069e-01 3.125460e+00 118 123 95
3.674723e-01 4.723819e-01 3.125312e+00 100 113 60
4.186177e-01 4.106450e-01 3.122429e+00 103 125 79
3.397531e-01 5.088505e-01 3.115481e+00 69 84 48
3.814356e-01 4.550909e-01 3.126908e+00 113 116 99
3.603500e-01 4.817968e-01 3.123610e+00 104 123 77
3.521552e-01 4.924499e-01 3.120946e+00 79 90 37
3.446208e-01 5.024617e-01 3.117806e+00 131 142 108
3.353135e-01 5.151086e-01 3.113109e+00 50 54 27
3.993420e-01 4.335700e-01 3.126110e+00 115 128 101
3.993420e-01 4.335700e-01 3.126110e+00 115 128 101
3.913053e-01 4.432538e-01 3.126815e+00 115 113 116
3.799822e-01 4.570736e-01 3.126922e+00 66 75 43
3.364270e-01 5.136620e-01 3.113747e+00 57 64 35
3.592986e-01 4.833094e-01 3.123342e+00 113 125 87
3.592986e-01 4.833094e-01 3.123342e+00 113 125 87
3.517003e-01 4.932467e-01 3.120762e+00 87 96 52
3.401833e-01 5.087106e-01 3.115564e+00 99 109 72
4.002963e-01 4.326271e-01 3.125999e+00 106 118 104
4.002963e-01 4.326271e-01 3.125999e+00 106 118 104
3.369954e-01 5.131095e-01 3.114049e+00 102 112 88
3.535244e-01 4.911339e-01 3.121408e+00 90 100 74
3.332424e-01 5.183578e-01 3.111914e+00 44 56 32
3.885162e-01 4.470369e-01 3.127011e+00 75 71 78
3.522718e-01 4.928994e-01 3.120900e+00 83 93 39
3.989211e-01 4.345540e-01 3.126219e+00 87 102 71
3.478703e-01 4.988680e-01 3.119193e+00 68 77 55
3.991270e-01 4.345256e-01 3.126252e+00 122 136 109
3.869864e-01 4.491479e-01 3.127111e+00 84 79 85
3.507223e-01 4.952090e-01 3.120345e+00 55 69 34
3.994581e-01 4.341853e-01 3.126216e+00 76 88 67
3.626389e-01 4.797670e-01 3.124211e+00 94 101 68
3.433138e-01 5.051694e-01 3.117159e+00 97 116 70
3.654367e-01 4.762302e-01 3.124848e+00 109 115 88
3.615299e-01 4.813939e-01 3.123922e+00 59 71 31
3.615299e-01 4.813939e-01 3.123922e+00 59 71 31
3.507784e-01 4.954221e-01 3.120343e+00 98 112 78
3.383107e-01 5.121350e-01 3.114714e+00 82 94 70
3.804795e-01 4.575175e-01 3.126991e+00 106 114 94
3.503186e-01 4.960556e-01 3.120181e+00 51 62 30
3.461090e-01 5.016646e-01 3.118445e+00 63 69 43
3.461090e-01 5.016646e-01 3.118445e+00 63 69 43
3.456585e-01 5.022963e-01 3.118202e+00 103 111 88
3.456585e-01 5.022963e-01 3.118202e+00 103 111 88
4.054264e-01 4.274768e-01 3.125485e+00 73 86 68
3.421838e-01 5.070471e-01 3.116576e+00 60 72 32
4.030193e-01 4.304447e-01 3.125878e+00 113 126 100
3.731741e-01 4.668334e-01 3.126289e+00 99 100 86
3.612318e-01 4.820732e-01 3.123813e+00 101 116 73
3.449436e-01 5.035376e-01 3.117852e+00 65 71 44
4.070900e-01 4.257431e-01 3.125290e+00 58 66 55
4.172865e-01 4.138343e-01 3.123258e+00 48 69 38
4.058281e-01 4.272879e-01 3.125518e+00 112 125 107
3.610021e-01 4.824690e-01 3.123884e+00 99 119 70
3.478400e-01 4.997648e-01 3.119124e+00 87 99 63
3.470082e-01 5.009413e-01 3.118761e+00 50 56 30
4.129857e-01 4.190318e-01 3.124223e+00 53 67 41
3.631310e-01 4.799107e-01 3.124356e+00 72 78 42
3.560631e-01 4.891211e-01 3.122283e+00 109 123 72
3.528108e-01 4.934008e-01 3.121115e+00 111 118 86
3.494272e-01 4.978905e-01 3.119779e+00 70 73 55
4.164587e-01 4.150467e-01 3.123514e+00 48 61 31
3.592996e-01 4.852099e-01 3.123333e+00 108 120 84
4.181268e-01 4.133672e-01 3.123224e+00 74 81 60
3.473665e-01 5.010254e-01 3.118879e+00 60 70 35
3.504745e-01 4.969346e-01 3.120249e+00 105 111 85
3.494918e-01 4.982703e-01 3.119763e+00 59 62 41
3.413142e-01 5.093153e-01 3.116069e+00 75 88 55
3.717397e-01 4.696459e-01 3.126186e+00 114 121 81
4.030782e-01 4.314133e-01 3.126106e+00 98 105 71
3.571242e-01 4.885188e-01 3.122632e+00 56 72 36
3.755201e-01 4.650823e-01 3.126749e+00 112 115 84
3.755201e-01 4.650823e-01 3.126749e+00 112 115 84
3.736555e-01 4.675977e-01 3.126509e+00 74 82 58
3.517775e-01 4.957926e-01 3.120715e+00 87 92 70
4.180338e-01 4.141869e-01 3.123467e+00 96 105 78
4.180338e-01 4.141869e-01 3.123467e+00 96 105 78
3.391591e-01 5.127101e-01 3.115010e+00 88 101 80
4.117520e-01 4.215523e-01 3.124732e+00 113 124 98
3.876116e-01 4.504233e-01 3.127397e+00 120 121 125
3.754591e-01 4.654239e-01 3.126684e+00 105 111 75
4.182345e-01 4.140396e-01 3.123469e+00 30 38 11
4.152854e-01 4.174936e-01 3.124097e+00 52 62 37
3.805778e-01 4.591054e-01 3.127206e+00 114 125 100
4.135020e-01 4.195989e-01 3.124475e+00 85 101 79
3.794447e-01 4.605583e-01 3.127177e+00 66 77 37
3.893570e-01 4.484848e-01 3.127438e+00 116 111 118
3.778864e-01 4.626376e-01 3.127010e+00 62 77 44
3.634570e-01 4.808704e-01 3.124488e+00 65 72 41
3.561360e-01 4.904017e-01 3.122312e+00 102 121 66
3.561360e-01 4.904017e-01 3.122312e+00 102 121 66
3.535811e-01 4.937270e-01 3.121389e+00 99 106 90
3.523962e-01 4.953014e-01 3.120980e+00 72 75 55
3.664456e-01 4.770833e-01 3.125213e+00 117 135 85
3.647638e-01 4.792425e-01 3.124861e+00 81 89 48
3.406392e-01 5.112129e-01 3.115709e+00 115 131 104
3.706370e-01 4.719948e-01 3.126061e+00 97 108 78
3.706370e-01 4.719948e-01 3.126061e+00 97 108 78
3.678194e-01 4.755583e-01 3.125526e+00 57 71 36
3.345601e-01 5.196006e-01 3.112491e+00 105 120 91
3.701572e-01 4.727054e-01 3.125982e+00 61 75 42
3.621814e-01 4.829541e-01 3.124128e+00 113 123 88
3.668167e-01 4.770028e-01 3.125318e+00 107 124 81
3.464180e-01 5.036989e-01 3.118451e+00 98 108 84
3.732212e-01 4.689388e-01 3.126453e+00 88 101 84
3.572567e-01 4.894360e-01 3.122667e+00 115 131 95
3.778628e-01 4.631908e-01 3.127079e+00 66 80 55
3.738655e-01 4.682344e-01 3.126553e+00 114 124 99
3.697004e-01 4.735177e-01 3.125912e+00 117 129 109
3.850654e-01 4.543991e-01 3.127502e+00 126 124 127
3.536287e-01 4.943429e-01 3.121407e+00 68 72 55
3.788591e-01 4.620876e-01 3.127219e+00 119 132 106
3.788591e-01 4.620876e-01 3.127219e+00 119 132 106
4.184211e-01 4.146868e-01 3.123627e+00 94 100 64
3.720816e-01 4.706853e-01 3.126346e+00 110 124 99
3.720816e-01 4.706853e-01 3.126346e+00 110 124 99
4.016890e-01 4.344776e-01 3.126577e+00 79 88 71
4.016890e-01 4.344776e-01 3.126577e+00 79 88 71
4.134450e-01 4.206065e-01 3.124773e+00 69 83 60
3.485846e-01 5.012403e-01 3.119394e+00 112 126 95
3.669205e-01 4.774221e-01 3.125308e+00 105 122 80
3.669205e-01 4.774221e-01 3.125308e+00 105 122 80
3.360562e-01 5.182629e-01 3.113265e+00 121 131 107
3.360562e-01 5.182629e-01 3.113265e+00 121 131 107
3.483249e-01 5.017602e-01 3.119236e+00 112 121 96
3.366171e-01 5.175696e-01 3.113527e+00 109 115 105
4.189778e-01 4.143691e-01 3.123638e+00 60 69 24
4.123133e-01 4.222042e-01 3.125046e+00 61 69 48
3.596247e-01 4.870014e-01 3.123431e+00 107 120 94
3.639286e-01 4.815565e-01 3.124643e+00 111 114 95
3.537169e-01 4.948520e-01 3.121438e+00 106 110 92
3.790289e-01 4.625586e-01 3.127241e+00 115 127 109
3.790289e-01 4.625586e-01 3.127241e+00 115 127 109
3.372814e-01 5.169924e-01 3.113911e+00 46 55 34
3.372814e-01 5.169924e-01 3.113911e+00 46 55 34
4.216027e-01 4.116174e-01 3.123149e+00 92 113 67
3.438801e-01 5.081954e-01 3.117204e+00 84 95 79
3.433760e-01 5.088541e-01 3.116961e+00 78 90 70
4.197344e-01 4.141655e-01 3.123673e+00 106 113 69
3.769205e-01 4.657131e-01 3.127070e+00 82 83 70
4.081751e-01 4.278493e-01 3.125926e+00 91 101 76
3.423523e-01 5.107181e-01 3.116400e+00 112 132 97
3.902867e-01 4.493138e-01 3.127689e+00 155 151 148
3.902867e-01 4.493138e-01 3.127689e+00 155 151 148
3.747572e-01 4.685141e-01 3.126807e+00 79 95 59
3.576368e-01 4.905292e-01 3.122767e+00 107 121 95
3.633943e-01 4.830984e-01 3.124520e+00 131 136 107
4.196373e-01 4.145917e-01 3.123812e+00 100 108 57
3.709195e-01 4.735449e-01 3.126113e+00 71 85 52
3.627265e-01 4.840227e-01 3.124325e+00 117 123 95
3.516727e-01 4.984471e-01 3.120564e+00 50 59 38
3.922205e-01 4.471464e-01 3.127679e+00 160 154 156
3.773279e-01 4.655167e-01 3.127175e+00 107 107 95
3.466890e-01 5.051704e-01 3.118409e+00 88 92 67
4.074235e-01 4.290386e-01 3.126160e+00 133 133 121
4.074235e-01 4.290386e-01 3.126160e+00 133 133 121
4.046922e-01 4.322594e-01 3.126558e+00 83 87 64
3.533526e-01 4.963711e-01 3.121248e+00 66 70 53
3.828064e-01 4.588005e-01 3.127582e+00 34 37 29
3.418489e-01 5.117347e-01 3.116214e+00 46 61 32
4.107776e-01 4.251701e-01 3.125602e+00 83 97 71
3.638607e-01 4.828077e-01 3.124613e+00 83 90 56
3.631242e-01 4.838222e-01 3.124444e+00 66 71 41
3.467428e-01 5.053608e-01 3.118524e+00 126 130 105
3.423437e-01 5.112440e-01 3.116373e+00 44 59 28
4.166366e-01 4.184206e-01 3.124598e+00 52 55 36
4.057744e-01 4.312163e-01 3.126460e+00 114 118 103
3.563878e-01 4.926601e-01 3.122336e+00 83 100 68
4.085124e-01 4.280548e-01 3.126037e+00 110 120 95
4.157272e-01 4.196518e-01 3.124772e+00 84 95 63
4.157272e-01 4.196518e-01 3.124772e+00 84 95 63
3.940000e-01 4.454921e-01 3.127629e+00 129 127 128
3.770637e-01 4.663377e-01 3.127158e+00 95 98 80
3.678217e-01 4.779922e-01 3.125657e+00 108 125 107
3.572157e-01 4.917348e-01 3.122658e+00 69 83 57
3.957700e-01 4.433650e-01 3.127549e+00 119 117 122
3.399926e-01 5.146998e-01 3.115223e+00 99 114 96
3.652748e-01 4.813670e-01 3.124992e+00 94 100 75
3.538428e-01 4.962863e-01 3.121396e+00 102 110 87
4.040983e-01 4.335261e-01 3.126708e+00 47 52 20
3.830789e-01 4.590253e-01 3.127665e+00 33 35 24
3.718424e-01 4.730819e-01 3.126409e+00 66 81 44
3.806545e-01 4.620938e-01 3.127539e+00 77 91 59
3.799445e-01 4.629638e-01 3.127464e+00 53 64 42
3.766158e-01 4.671315e-01 3.127117e+00 69 80 50
3.717014e-01 4.733861e-01 3.126411e+00 57 69 33
3.711139e-01 4.741681e-01 3.126271e+00 60 76 50
3.861125e-01 4.555242e-01 3.127845e+00 141 131 132
3.493897e-01 5.025522e-01 3.119567e+00 106 113 78
3.745411e-01 4.700228e-01 3.126832e+00 79 100 45
3.754104e-01 4.689281e-01 3.127004e+00 36 54 6
3.719288e-01 4.733228e-01 3.126448e+00 103 118 80
3.626324e-01 4.852704e-01 3.124311e+00 74 87 43
3.473884e-01 5.052655e-01 3.118721e+00 125 135 102
3.473884e-01 5.052655e-01 3.118721e+00 125 135 102
3.466289e-01 5.062862e-01 3.118421e+00 114 124 97
4.190014e-01 4.164449e-01 3.124265e+00 95 101 63
3.832747e-01 4.591864e-01 3.127725e+00 41 45 31
3.660720e-01 4.808595e-01 3.125252e+00 110 119 76
3.356218e-01 5.212069e-01 3.112917e+00 45 63 23
3.622963e-01 4.858612e-01 3.124230e+00 65 76 46
3.798967e-01 4.635407e-01 3.127513e+00 46 50 33
4.214710e-01 4.137188e-01 3.123785e+00 64 79 38
3.802415e-01 4.631969e-01 3.127604e+00 61 73 45
4.203200e-01 4.151311e-01 3.124035e+00 118 125 81
4.203200e-01 4.151311e-01 3.124035e+00 118 125 81
4.166535e-01 4.194407e-01 3.124838e+00 95 100 64
3.895865e-01 4.516910e-01 3.127939e+00 116 114 119
3.895865e-01 4.516910e-01 3.127939e+00 116 114 119
3.569122e-01 4.930469e-01 3.122520e+00 109 125 88
3.569122e-01 4.930469e-01 3.122520e+00 109 125 88
4.040836e-01 4.343017e-01 3.126909e+00 103 107 80
3.808403e-01 4.625718e-01 3.127598e+00 88 103 69
4.194416e-01 4.162869e-01 3.124322e+00 105 112 68
3.474374e-01 5.056849e-01 3.118721e+00 70 86 45
4.189118e-01 4.170442e-01 3.124436e+00 111 115 82
3.541352e-01 4.969274e-01 3.121491e+00 90 96 68
3.833083e-01 4.597681e-01 3.127764e+00 24 26 13
3.735709e-01 4.719283e-01 3.126743e+00 58 75 33
3.735709e-01 4.719283e-01 3.126743e+00 58 75 33
3.826248e-01 4.606588e-01 3.127745e+00 78 81 64
4.041791e-01 4.345368e-01 3.127008e+00 49 53 29
3.801827e-01 4.637981e-01 3.127619e+00 82 92 68
3.955081e-01 4.450960e-01 3.127775e+00 101 97 111
3.912132e-01 4.503484e-01 3.127997e+00 151 146 152
3.452332e-01 5.091376e-01 3.117640e+00 95 108 83
4.193725e-01 4.169185e-01 3.124463e+00 127 130 84
3.572378e-01 4.933528e-01 3.122589e+00 82 99 56
4.185845e-01 4.178808e-01 3.124670e+00 72 76 48
3.454378e-01 5.090478e-01 3.117753e+00 63 76 50
3.864436e-01 4.564912e-01 3.128009e+00 146 140 146
3.510423e-01 5.019827e-01 3.120213e+00 63 76 52
4.197968e-01 4.168964e-01 3.124592e+00 101 106 52
4.197968e-01 4.168964e-01 3.124592e+00 101 106 52
3.539240e-01 4.981876e-01 3.121350e+00 73 85 49
3.487567e-01 5.050700e-01 3.119265e+00 59 68 41
3.716876e-01 4.752318e-01 3.126466e+00 122 146 95
3.716876e-01 4.752318e-01 3.126466e+00 122 146 95
3.532707e-01 4.991777e-01 3.121143e+00 60 77 32
3.697853e-01 4.778052e-01 3.126096e+00 74 92 46
3.672361e-01 4.810805e-01 3.125545e+00 83 100 45
3.529501e-01 4.997603e-01 3.121024e+00 102 120 82
4.159526e-01 4.217575e-01 3.125382e+00 137 147 87
4.010832e-01 4.393651e-01 3.127590e+00 129 131 149
3.674355e-01 4.810298e-01 3.125672e+00 116 134 76
3.656419e-01 4.834458e-01 3.125156e+00 64 77 42
3.538614e-01 4.987986e-01 3.121353e+00 48 65 21
3.740826e-01 4.727046e-01 3.126937e+00 117 135 83
3.813476e-01 4.636599e-01 3.127803e+00 105 120 91
4.192111e-01 4.183181e-01 3.124858e+00 103 114 74
3.708476e-01 4.770458e-01 3.126294e+00 70 89 34
3.960216e-01 4.458939e-01 3.128047e+00 164 167 181
3.960216e-01 4.458939e-01 3.128047e+00 164 167 181
3.839748e-01 4.606606e-01 3.128030e+00 128 130 126
3.839748e-01 4.606606e-01 3.128030e+00 128 130 126
3.768927e-01 4.694455e-01 3.127346e+00 85 96 63
3.678286e-01 4.809859e-01 3.125613e+00 96 115 57
3.678286e-01 4.809859e-01 3.125613e+00 96 115 57
3.502607e-01 5.038778e-01 3.119886e+00 81 102 61
3.695910e-01 4.788793e-01 3.126116e+00 111 128 84
3.445851e-01 5.117322e-01 3.117292e+00 84 110 66
3.445851e-01 5.117322e-01 3.117292e+00 84 110 66
3.609955e-01 4.900256e-01 3.123859e+00 106 119 67
3.528665e-01 5.007344e-01 3.120944e+00 69 85 56
3.704565e-01 4.779275e-01 3.126269e+00 103 122 67
3.735815e-01 4.740238e-01 3.126903e+00 32 51 5
3.817493e-01 4.639565e-01 3.127947e+00 34 52 12
3.817493e-01 4.639565e-01 3.127947e+00 34 52 12
3.806458e-01 4.653914e-01 3.127810e+00 50 61 29
3.713969e-01 4.769960e-01 3.126421e+00 72 88 39
4.164321e-01 4.221960e-01 3.125620e+00 119 130 73
3.648865e-01 4.853950e-01 3.124932e+00 112 136 78
4.140966e-01 4.251120e-01 3.126041e+00 93 110 70
3.749259e-01 4.727428e-01 3.127137e+00 50 70 17
3.680226e-01 4.815300e-01 3.125729e+00 131 147 85
3.616682e-01 4.897349e-01 3.124069e+00 126 143 88
3.554926e-01 4.978446e-01 3.121922e+00 54 73 28
4.248313e-01 4.126430e-01 3.123925e+00 85 112 62
3.674495e-01 4.823524e-01 3.125632e+00 140 158 100
3.712118e-01 4.775727e-01 3.126445e+00 111 128 78
4.137318e-01 4.257171e-01 3.126157e+00 45 60 16
4.133564e-01 4.261481e-01 3.126204e+00 80 93 50
3.677183e-01 4.821235e-01 3.125700e+00 83 101 39
3.635717e-01 4.874158e-01 3.124632e+00 131 149 99
3.591432e-01 4.932033e-01 3.123233e+00 68 95 42
3.486766e-01 5.070206e-01 3.119137e+00 66 88 40
3.776249e-01 4.696134e-01 3.127419e+00 114 129 88
3.717957e-01 4.769422e-01 3.126568e+00 67 80 36
3.644292e-01 4.863787e-01 3.124830e+00 97 115 55
3.722378e-01 4.765199e-01 3.126636e+00 76 93 48
3.641595e-01 4.868181e-01 3.124762e+00 90 108 49
3.739007e-01 4.744173e-01 3.126972e+00 47 63 27
3.663395e-01 4.841050e-01 3.125348e+00 126 143 101
4.176124e-01 4.214284e-01 3.125553e+00 67 77 32
4.139257e-01 4.257623e-01 3.126244e+00 98 116 65
3.684324e-01 4.814546e-01 3.125843e+00 139 155 96
3.813731e-01 4.651443e-01 3.127946e+00 76 90 53
3.763111e-01 4.714892e-01 3.127357e+00 68 78 41
3.777757e-01 4.697262e-01 3.127622e+00 103 118 77
3.382191e-01 5.214904e-01 3.114005e+00 90 117 67
3.843611e-01 4.615528e-01 3.128231e+00 97 103 96
3.452904e-01 5.120102e-01 3.117548e+00 105 128 83
3.753064e-01 4.729548e-01 3.127291e+00 114 133 83
3.436830e-01 5.142968e-01 3.116794e+00 42 66 23
3.784279e-01 4.691962e-01 3.127653e+00 50 67 23
3.784279e-01 4.691962e-01 3.127653e+00 50 67 23
3.724827e-01 4.766939e-01 3.126767e+00 68 85 39
3.591311e-01 4.938906e-01 3.123170e+00 106 134 76
3.577302e-01 4.957290e-01 3.122738e+00 110 133 81
4.054118e-01 4.363124e-01 3.127550e+00 112 116 93
3.837972e-01 4.625603e-01 3.128240e+00 56 63 30
3.506489e-01 5.051708e-01 3.119970e+00 109 132 86
3.832557e-01 4.633018e-01 3.128222e+00 96 104 70
3.647422e-01 4.867543e-01 3.124920e+00 121 139 87
3.741844e-01 4.748238e-01 3.127012e+00 55 72 34
3.603218e-01 4.926425e-01 3.123575e+00 116 137 81
3.493522e-01 5.071173e-01 3.119373e+00 55 75 23
3.486826e-01 5.079775e-01 3.119047e+00 102 130 69
4.074489e-01 4.341115e-01 3.127344e+00 44 58 23
3.727245e-01 4.767334e-01 3.126764e+00 117 134 86
3.646717e-01 4.870016e-01 3.124898e+00 68 86 37
3.565598e-01 4.975950e-01 3.122299e+00 52 79 34
3.548952e-01 4.998720e-01 3.121613e+00 63 91 33
3.522372e-01 5.033568e-01 3.120629e+00 50 72 23
3.522372e-01 5.033568e-01 3.120629e+00 50 72 23
3.720706e-01 4.776478e-01 3.126603e+00 118 126 89
3.603033e-01 4.928311e-01 3.123609e+00 73 94 38
4.072604e-01 4.344748e-01 3.127446e+00 57 71 35
3.768186e-01 4.716665e-01 3.127528e+00 96 103 72
3.629076e-01 4.894541e-01 3.124394e+00 109 134 79
3.440387e-01 5.144262e-01 3.116907e+00 35 57 18
3.589468e-01 4.946667e-01 3.123142e+00 104 133 79
3.441811e-01 5.142856e-01 3.116987e+00 87 108 69
3.416251e-01 5.177505e-01 3.115721e+00 71 103 53
3.763376e-01 4.724141e-01 3.127410e+00 55 70 29
3.711107e-01 4.790357e-01 3.126483e+00 85 105 56
3.681979e-01 4.827456e-01 3.125825e+00 96 114 60
3.667728e-01 4.845954e-01 3.125510e+00 100 119 73
4.063653e-01 4.357005e-01 3.127585e+00 105 115 79
3.649080e-01 4.871168e-01 3.124958e+00 112 132 83
3.719480e-01 4.781523e-01 3.126647e+00 114 124 89
3.603789e-01 4.930652e-01 3.123595e+00 119 140 83
3.702877e-01 4.803054e-01 3.126314e+00 76 95 40
3.436567e-01 5.153216e-01 3.116677e+00 36 65 11
3.426231e-01 5.166687e-01 3.116197e+00 90 119 65
4.220138e-01 4.175337e-01 3.125039e+00 47 64 22
3.743049e-01 4.753417e-01 3.127073e+00 42 65 21
3.425317e-01 5.169027e-01 3.116145e+00 45 73 22
4.157101e-01 4.249711e-01 3.126273e+00 53 75 36
3.725145e-01 4.776949e-01 3.126738e+00 56 61 29
3.660732e-01 4.859591e-01 3.125259e+00 81 101 48
3.609178e-01 4.926283e-01 3.123815e+00 104 127 71
3.725452e-01 4.779322e-01 3.126823e+00 111 116 86
3.634292e-01 4.896746e-01 3.124512e+00 110 133 81
3.835663e-01 4.641997e-01 3.128292e+00 126 139 89
3.710500e-01 4.800249e-01 3.126429e+00 116 132 85
3.689740e-01 4.826450e-01 3.126023e+00 76 95 40
3.716423e-01 4.793142e-01 3.126590e+00 71 86 43
3.825213e-01 4.656816e-01 3.128214e+00 43 58 17
3.697543e-01 4.817765e-01 3.126218e+00 98 112 59
3.784025e-01 4.708693e-01 3.127771e+00 77 90 62
3.835654e-01 4.644498e-01 3.128326e+00 139 157 100
4.222532e-01 4.180856e-01 3.125208e+00 94 114 76
4.099246e-01 4.325740e-01 3.127405e+00 57 86 31
3.509694e-01 5.065427e-01 3.119964e+00 66 90 38
4.214581e-01 4.190978e-01 3.125380e+00 84 106 59
4.067832e-01 4.364219e-01 3.127773e+00 118 134 91
3.632334e-01 4.905266e-01 3.124444e+00 103 123 70
4.250087e-01 4.150124e-01 3.124659e+00 62 86 34
4.250087e-01 4.150124e-01 3.124659e+00 62 86 34
4.216416e-01 4.189621e-01 3.125350e+00 47 69 22
4.066990e-01 4.366193e-01 3.127763e+00 67 84 40
3.649003e-01 4.884531e-01 3.124952e+00 108 135 84
3.830390e-01 4.655663e-01 3.128319e+00 116 134 85
3.650775e-01 4.883677e-01 3.125003e+00 78 105 52
3.773675e-01 4.727221e-01 3.127682e+00 81 96 63
3.604466e-01 4.943948e-01 3.123626e+00 56 87 27
3.604466e-01 4.943948e-01 3.123626e+00 56 87 27
3.823012e-01 4.665753e-01 3.128241e+00 110 125 92
3.821058e-01 4.668582e-01 3.128195e+00 80 94 61
3.821058e-01 4.668582e-01 3.128195e+00 80 94 61
4.184879e-01 4.230815e-01 3.126094e+00 107 125 86
3.831647e-01 4.657113e-01 3.128356e+00 68 85 41
3.716074e-01 4.802870e-01 3.126615e+00 110 118 79
3.601129e-01 4.954856e-01 3.123433e+00 33 58 3
3.801267e-01 4.699397e-01 3.128073e+00 58 72 37
3.846233e-01 4.644676e-01 3.128473e+00 107 126 80
3.552282e-01 5.022026e-01 3.121655e+00 132 150 100
4.174397e-01 4.250317e-01 3.126510e+00 83 99 61
3.554488e-01 5.019921e-01 3.121846e+00 117 134 86
3.387508e-01 5.243728e-01 3.114028e+00 90 121 63
3.556281e-01 5.018547e-01 3.121847e+00 124 140 93
4.269623e-01 4.140443e-01 3.124695e+00 85 116 74
3.602633e-01 4.960811e-01 3.123522e+00 52 70 18
3.557258e-01 5.020386e-01 3.121897e+00 48 64 17
4.055791e-01 4.395517e-01 3.128221e+00 109 137 84
3.774414e-01 4.742953e-01 3.127717e+00 91 113 70
3.459147e-01 5.153607e-01 3.117651e+00 49 75 12
3.571713e-01 5.004298e-01 3.122416e+00 104 123 68
3.839938e-01 4.661595e-01 3.128557e+00 83 106 64
4.260724e-01 4.156843e-01 3.125039e+00 105 126 93
3.782906e-01 4.734176e-01 3.127854e+00 88 111 72
3.782906e-01 4.734176e-01 3.127854e+00 88 111 72
3.670826e-01 4.877450e-01 3.125545e+00 73 93 33
3.670826e-01 4.877450e-01 3.125545e+00 73 93 33
4.198417e-01 4.231043e-01 3.126334e+00 94 115 74
3.833779e-01 4.671343e-01 3.128538e+00 50 64 29
3.595979e-01 4.975045e-01 3.123259e+00 79 96 41
3.603315e-01 4.966660e-01 3.123497e+00 66 82 30
4.082878e-01 4.369406e-01 3.128055e+00 75 97 54
3.835534e-01 4.670308e-01 3.128573e+00 93 109 73
3.801565e-01 4.712889e-01 3.128183e+00 90 117 73
3.768329e-01 4.754744e-01 3.127691e+00 69 89 40
3.636796e-01 4.923352e-01 3.124586e+00 103 120 75
3.393605e-01 5.246916e-01 3.114355e+00 83 111 61
3.713794e-01 4.824982e-01 3.126533e+00 85 99 50
3.367617e-01 5.282849e-01 3.112909e+00 121 149 103
3.814750e-01 4.697688e-01 3.128292e+00 53 74 30
4.137849e-01 4.305362e-01 3.127403e+00 89 116 65
3.784391e-01 4.736527e-01 3.127881e+00 60 86 46
3.816727e-01 4.696760e-01 3.128362e+00 97 119 72
3.369976e-01 5.282040e-01 3.113075e+00 71 101 50
3.821945e-01 4.691162e-01 3.128475e+00 99 119 66
3.596361e-01 4.980395e-01 3.123273e+00 61 73 23
3.786389e-01 4.736479e-01 3.127977e+00 90 117 74
3.733172e-01 4.804710e-01 3.127055e+00 123 133 87
3.583218e-01 4.998424e-01 3.122752e+00 126 143 81
3.490822e-01 5.120872e-01 3.119055e+00 104 130 69
3.490822e-01 5.120872e-01 3.119055e+00 104 130 69
4.233751e-01 4.195979e-01 3.125825e+00 51 72 32
3.729311e-01 4.810369e-01 3.126936e+00 82 87 46
3.852471e-01 4.656409e-01 3.128738e+00 97 117 82
3.675392e-01 4.881954e-01 3.125650e+00 103 122 69
4.045711e-01 4.422826e-01 3.128662e+00 142 158 130
3.725777e-01 4.818174e-01 3.126946e+00 66 75 30
3.394342e-01 5.255705e-01 3.114287e+00 101 134 91
3.394342e-01 5.255705e-01 3.114287e+00 101 134 91
4.208184e-01 4.230270e-01 3.126408e+00 84 101 65
3.865679e-01 4.642974e-01 3.128906e+00 105 122 89
3.671983e-01 4.888021e-01 3.125536e+00 56 76 25
3.639673e-01 4.930985e-01 3.124642e+00 102 112 68
3.538373e-01 5.063910e-01 3.121039e+00 105 130 69
4.207941e-01 4.232350e-01 3.126441e+00 32 52 17
3.834803e-01 4.683266e-01 3.128611e+00 77 93 46
3.682677e-01 4.876457e-01 3.125907e+00 59 72 26
3.612502e-01 4.968314e-01 3.123779e+00 59 76 31
3.612502e-01 4.968314e-01 3.123779e+00 59 76 31
3.784244e-01 4.748122e-01 3.127989e+00 54 82 34
3.736564e-01 4.808507e-01 3.127191e+00 77 91 42
3.691582e-01 4.865929e-01 3.126094e+00 117 131 78
4.134788e-01 4.320957e-01 3.127696e+00 110 137 94
3.728622e-01 4.819460e-01 3.126974e+00 52 61 16
3.998755e-01 4.484109e-01 3.129034e+00 152 168 157
3.778916e-01 4.756004e-01 3.127905e+00 84 107 61
3.685983e-01 4.874424e-01 3.125961e+00 58 74 27
3.549854e-01 5.051839e-01 3.121552e+00 72 89 41
3.872333e-01 4.639682e-01 3.128961e+00 118 134 110
3.806847e-01 4.721398e-01 3.128327e+00 58 85 34
3.507748e-01 5.108195e-01 3.119758e+00 73 95 33
4.171472e-01 4.279229e-01 3.127110e+00 52 79 28
3.993858e-01 4.491117e-01 3.129110e+00 148 166 152
3.840568e-01 4.680131e-01 3.128701e+00 108 127 82
4.145105e-01 4.311200e-01 3.127617e+00 60 83 37
3.655908e-01 4.915476e-01 3.125165e+00 135 147 97
3.537144e-01 5.071148e-01 3.121039e+00 88 114 57
3.471289e-01 5.158984e-01 3.118048e+00 50 74 12
3.767214e-01 4.773446e-01 3.127723e+00 109 128 83
3.757608e-01 4.786001e-01 3.127563e+00 89 113 65
3.996152e-01 4.491264e-01 3.129129e+00 83 103 78
3.873507e-01 4.641488e-01 3.128964e+00 78 94 64
3.736483e-01 4.813370e-01 3.127159e+00 113 126 82
3.378868e-01 5.285791e-01 3.113379e+00 58 86 35
3.833227e-01 4.692372e-01 3.128626e+00 146 165 110
3.761986e-01 4.782270e-01 3.127661e+00 83 106 60
3.539308e-01 5.071357e-01 3.121034e+00 41 69 11
3.631632e-01 4.950202e-01 3.124390e+00 80 93 46
3.631632e-01 4.950202e-01 3.124390e+00 80 93 46
3.663771e-01 4.909457e-01 3.125334e+00 99 115 70
3.835485e-01 4.691606e-01 3.128719e+00 69 88 32
3.728761e-01 4.826404e-01 3.126922e+00 86 102 55
3.678510e-01 4.891831e-01 3.125811e+00 98 121 65
4.192736e-01 4.261741e-01 3.127082e+00 46 68 32
3.936215e-01 4.569991e-01 3.129287e+00 79 94 74
3.881938e-01 4.636837e-01 3.129145e+00 147 160 142
3.410749e-01 5.248430e-01 3.115115e+00 74 101 66
4.143483e-01 4.320962e-01 3.127826e+00 84 107 61
3.406490e-01 5.254937e-01 3.114826e+00 18 45 12
3.731103e-01 4.827422e-01 3.127071e+00 58 75 23
3.994099e-01 4.501081e-01 3.129281e+00 84 103 75
3.992065e-01 4.503829e-01 3.129258e+00 105 124 96
4.196102e-01 4.260420e-01 3.127035e+00 84 104 76
3.960630e-01 4.543229e-01 3.129358e+00 117 139 93
3.922055e-01 4.590475e-01 3.129325e+00 120 133 116
3.548720e-01 5.066498e-01 3.121432e+00 28 56 8
4.024790e-01 4.466442e-01 3.129191e+00 88 108 80
3.975513e-01 4.526125e-01 3.129346e+00 117 134 98
3.958274e-01 4.547087e-01 3.129423e+00 100 122 76
4.008437e-01 4.486912e-01 3.129187e+00 48 65 32
3.843855e-01 4.689134e-01 3.128834e+00 65 92 41
3.567280e-01 5.044282e-01 3.122125e+00 60 87 36
4.165602e-01 4.299770e-01 3.127595e+00 105 135 76
4.026370e-01 4.465547e-01 3.129183e+00 58 78 50
3.902042e-01 4.617558e-01 3.129289e+00 143 155 132
3.941823e-01 4.569342e-01 3.129420e+00 101 118 84
3.894530e-01 4.627557e-01 3.129136e+00 129 143 113
3.894530e-01 4.627557e-01 3.129136e+00 129 143 113
3.662607e-01 4.920782e-01 3.125304e+00 123 141 93
3.665732e-01 4.917926e-01 3.125433e+00 129 142 96
3.416260e-01 5.249200e-01 3.115295e+00 100 126 89
3.409406e-01 5.258125e-01 3.114918e+00 79 106 73
4.203753e-01 4.256856e-01 3.127046e+00 74 93 71
3.863452e-01 4.668226e-01 3.129042e+00 94 119 80
3.863452e-01 4.668226e-01 3.129042e+00 94 119 80
3.787512e-01 4.763346e-01 3.128123e+00 108 132 84
3.682157e-01 4.897955e-01 3.125852e+00 71 96 38
3.385995e-01 5.292097e-01 3.113742e+00 78 107 52
4.174761e-01 4.292983e-01 3.127596e+00 42 63 30
4.115417e-01 4.363170e-01 3.128435e+00 89 110 68
3.899358e-01 4.625580e-01 3.129322e+00 94 110 73
3.957548e-01 4.554321e-01 3.129449e+00 102 129 82
3.890440e-01 4.636857e-01 3.129276e+00 78 96 58
3.425515e-01 5.239430e-01 3.115669e+00 82 109 64
4.088145e-01 4.397150e-01 3.128743e+00 98 122 77
4.145907e-01 4.328509e-01 3.128026e+00 44 61 27
3.901007e-01 4.624734e-01 3.129367e+00 127 142 108
3.653492e-01 4.938000e-01 3.125046e+00 106 123 78
3.961218e-01 4.551526e-01 3.129470e+00 54 80 33
3.515033e-01 5.120953e-01 3.119994e+00 63 92 26
3.448657e-01 5.210212e-01 3.116944e+00 99 133 81
4.080096e-01 4.409039e-01 3.128855e+00 86 113 69
4.075361e-01 4.414432e-01 3.128882e+00 84 111 67
3.737286e-01 4.832010e-01 3.127223e+00 131 151 88
3.430587e-01 5.235501e-01 3.115996e+00 45 71 24
3.579942e-01 5.036955e-01 3.122518e+00 87 112 70
3.903434e-01 4.624509e-01 3.129349e+00 68 84 50
3.562563e-01 5.060070e-01 3.121909e+00 76 102 58
4.147790e-01 4.330145e-01 3.128105e+00 35 50 18
4.062422e-01 4.432437e-01 3.129063e+00 73 99 64
3.988377e-01 4.521822e-01 3.129494e+00 70 93 65
3.666311e-01 4.925454e-01 3.125401e+00 56 75 32
3.990943e-01 4.519335e-01 3.129501e+00 74 92 66
3.805166e-01 4.748887e-01 3.128401e+00 51 75 25
4.099301e-01 4.388995e-01 3.128690e+00 74 96 58
4.077582e-01 4.414870e-01 3.128967e+00 48 74 35
3.496649e-01 5.149887e-01 3.119150e+00 68 94 39
3.454784e-01 5.206347e-01 3.117129e+00 38 71 19
4.167119e-01 4.308653e-01 3.127840e+00 80 95 61
3.780297e-01 4.781851e-01 3.127999e+00 104 125 69
3.780297e-01 4.781851e-01 3.127999e+00 104 125 69
3.634556e-01 4.968917e-01 3.124451e+00 77 99 61
3.625173e-01 4.981504e-01 3.124178e+00 102 124 78
3.549356e-01 5.081043e-01 3.121381e+00 28 66 15
4.165187e-01 4.311954e-01 3.127936e+00 86 101 72
3.607115e-01 5.005633e-01 3.123556e+00 95 124 70
3.626745e-01 4.980486e-01 3.124239e+00 48 70 24
4.265415e-01 4.195280e-01 3.126244e+00 29 62 42
3.726140e-01 4.852367e-01 3.126970e+00 127 147 95
3.726140e-01 4.852367e-01 3.126970e+00 127 147 95
3.968874e-01 4.549740e-01 3.129578e+00 65 89 46
3.731310e-01 4.846736e-01 3.127061e+00 103 125 74
3.716328e-01 4.865701e-01 3.126721e+00 110 133 84
4.048134e-01 4.453912e-01 3.129296e+00 77 101 75
4.023160e-01 4.484268e-01 3.129421e+00 80 106 76
3.884449e-01 4.654231e-01 3.129253e+00 115 135 84
3.759248e-01 4.811441e-01 3.127656e+00 92 116 58
3.759248e-01 4.811441e-01 3.127656e+00 92 116 58
3.676005e-01 4.918307e-01 3.125679e+00 108 126 84
3.676005e-01 4.918307e-01 3.125679e+00 108 126 84
3.651444e-01 4.950173e-01 3.124973e+00 95 111 64
3.428399e-01 5.246434e-01 3.115861e+00 106 132 85
3.987528e-01 4.529133e-01 3.129570e+00 72 97 65
3.766847e-01 4.804121e-01 3.127822e+00 80 101 45
3.579017e-01 5.046949e-01 3.122496e+00 73 99 60
3.820388e-01 4.736966e-01 3.128689e+00 70 97 46
3.643551e-01 4.963040e-01 3.124729e+00 120 136 100
3.682010e-01 4.913543e-01 3.125908e+00 112 134 85
3.557474e-01 5.076709e-01 3.121661e+00 89 120 76
3.537886e-01 5.103107e-01 3.120851e+00 56 85 37
3.941563e-01 4.588253e-01 3.129606e+00 79 99 70
3.731750e-01 4.852340e-01 3.127024e+00 79 100 58
3.612284e-01 5.006801e-01 3.123696e+00 52 84 34
4.162693e-01 4.322957e-01 3.128117e+00 75 90 64
3.953749e-01 4.574852e-01 3.129646e+00 99 124 82
3.697249e-01 4.897082e-01 3.126265e+00 102 125 77
3.758058e-01 4.819790e-01 3.127615e+00 64 91 36
3.617054e-01 5.001505e-01 3.123864e+00 46 72 24
4.062239e-01 4.443892e-01 3.129298e+00 128 145 113
3.666820e-01 4.937276e-01 3.125401e+00 32 58 21
3.589399e-01 5.038547e-01 3.122878e+00 80 106 69
4.025644e-01 4.488910e-01 3.129559e+00 35 60 31
3.917844e-01 4.621267e-01 3.129550e+00 93 118 77
3.816043e-01 4.748385e-01 3.128665e+00 68 95 42
3.697543e-01 4.899073e-01 3.126270e+00 47 70 26
3.792192e-01 4.779177e-01 3.128303e+00 107 133 69
3.792192e-01 4.779177e-01 3.128303e+00 107 133 69
3.622371e-01 4.998093e-01 3.124021e+00 55 72 31
3.589712e-01 5.040488e-01 3.122894e+00 14 40 3
3.589367e-01 5.042586e-01 3.122884e+00 80 104 68
3.589367e-01 5.042586e-01 3.122884e+00 80 104 68
3.447842e-01 5.230747e-01 3.116764e+00 73 104 45
3.396173e-01 5.300487e-01 3.114086e+00 96 125 68
3.695114e-01 4.904834e-01 3.126246e+00 80 103 61
3.639944e-01 4.976568e-01 3.124553e+00 30 51 20
3.532444e-01 5.117955e-01 3.120584e+00 69 98 34
3.927955e-01 4.612232e-01 3.129635e+00 69 92 50
3.556188e-01 5.087211e-01 3.121565e+00 98 130 84
3.422369e-01 5.266442e-01 3.115442e+00 100 127 74
3.985601e-01 4.542656e-01 3.129695e+00 117 140 100
3.982475e-01 4.546121e-01 3.129709e+00 78 99 57
3.839983e-01 4.722285e-01 3.128930e+00 49 75 37
3.637791e-01 4.980578e-01 3.124475e+00 85 104 74
3.637791e-01 4.980578e-01 3.124475e+00 85 104 74
3.541523e-01 5.107172e-01 3.120982e+00 63 91 41
3.479882e-01 5.189471e-01 3.118250e+00 98 123 75
3.447663e-01 5.232772e-01 3.116760e+00 117 148 89
3.447663e-01 5.232772e-01 3.116760e+00 117 148 89
3.793076e-01 4.781947e-01 3.128280e+00 63 91 30
3.690991e-01 4.912300e-01 3.126084e+00 105 128 85
3.672543e-01 4.936203e-01 3.125498e+00 19 44 5
3.639987e-01 4.978471e-01 3.124558e+00 97 118 85
3.500924e-01 5.161659e-01 3.119206e+00 48 78 27
3.469476e-01 5.204500e-01 3.117717e+00 41 69 21
3.932397e-01 4.609417e-01 3.129712e+00 113 135 97
3.774787e-01 4.807013e-01 3.127987e+00 75 94 48
3.469397e-01 5.206479e-01 3.117745e+00 91 119 71
3.842222e-01 4.722670e-01 3.129045e+00 87 113 77
3.842222e-01 4.722670e-01 3.129045e+00 87 113 77
3.803292e-01 4.771599e-01 3.128480e+00 106 132 83
3.780170e-01 4.801059e-01 3.128049e+00 104 124 82
3.771661e-01 4.812235e-01 3.127964e+00 104 122 82
3.644696e-01 4.975557e-01 3.124800e+00 88 110 74
3.827680e-01 4.742360e-01 3.128828e+00 49 82 38
3.823441e-01 4.748032e-01 3.128784e+00 101 129 81
3.632359e-01 4.992774e-01 3.124335e+00 40 45 22
3.953539e-01 4.586827e-01 3.129849e+00 94 116 78
3.953539e-01 4.586827e-01 3.129849e+00 94 116 78
3.788162e-01 4.793025e-01 3.128222e+00 62 85 43
3.729784e-01 4.867414e-01 3.127046e+00 44 67 38
3.679914e-01 4.932128e-01 3.125792e+00 37 65 25
3.535573e-01 5.121469e-01 3.120709e+00 58 88 28
4.060830e-01 4.457564e-01 3.129485e+00 52 65 55
3.955288e-01 4.585826e-01 3.129809e+00 66 88 48
3.955288e-01 4.585826e-01 3.129809e+00 66 88 48
3.952756e-01 4.589157e-01 3.129800e+00 88 111 74
3.808053e-01 4.768980e-01 3.128566e+00 87 109 64
3.909753e-01 4.642610e-01 3.129617e+00 101 125 76
3.799712e-01 4.780105e-01 3.128439e+00 31 58 5
4.216362e-01 4.273230e-01 3.127621e+00 34 47 36
3.858214e-01 4.706967e-01 3.129225e+00 44 66 28
4.063665e-01 4.455627e-01 3.129537e+00 61 74 57
3.386806e-01 5.323504e-01 3.113530e+00 100 125 68
3.856586e-01 4.710359e-01 3.129294e+00 46 71 32
3.822218e-01 4.753308e-01 3.128803e+00 43 62 21
3.558164e-01 5.094834e-01 3.121574e+00 8 36 0
3.954908e-01 4.589540e-01 3.129820e+00 61 83 47
3.830151e-01 4.744456e-01 3.128843e+00 50 87 47
3.807959e-01 4.772909e-01 3.128578e+00 104 126 87
3.839048e-01 4.733738e-01 3.129018e+00 38 68 32
3.756667e-01 4.838069e-01 3.127655e+00 83 110 67
3.745290e-01 4.852583e-01 3.127410e+00 83 106 75
3.529298e-01 5.134406e-01 3.120418e+00 37 65 14
3.720797e-01 4.884455e-01 3.126897e+00 48 74 49
4.029865e-01 4.500209e-01 3.129807e+00 65 82 62
3.956865e-01 4.589875e-01 3.129754e+00 103 123 86
3.820677e-01 4.758760e-01 3.128794e+00 50 61 27
3.705128e-01 4.905566e-01 3.126446e+00 79 106 73
3.591128e-01 5.054293e-01 3.122836e+00 84 103 75
3.591128e-01 5.054293e-01 3.122836e+00 84 103 75
3.552374e-01 5.105251e-01 3.121410e+00 80 107 64
3.880697e-01 4.684344e-01 3.129469e+00 109 131 92
3.522185e-01 5.146238e-01 3.120039e+00 54 85 26
3.998790e-01 4.539112e-01 3.129905e+00 44 66 45
3.973267e-01 4.570563e-01 3.129858e+00 91 108 89
3.923892e-01 4.631004e-01 3.129771e+00 112 135 91
3.923892e-01 4.631004e-01 3.129771e+00 112 135 91
3.822708e-01 4.757870e-01 3.128806e+00 107 118 88
3.779485e-01 4.812127e-01 3.128121e+00 68 86 59
3.708117e-01 4.903805e-01 3.126508e+00 61 87 57
3.463205e-01 5.226290e-01 3.117319e+00 101 130 76
3.634457e-01 4.999579e-01 3.124376e+00 87 100 70
3.634457e-01 4.999579e-01 3.124376e+00 87 100 70
3.936979e-01 4.616658e-01 3.129848e+00 111 131 103
3.920362e-01 4.636993e-01 3.129786e+00 112 134 95
3.759032e-01 4.839693e-01 3.127737e+00 53 79 40
3.923421e-01 4.633995e-01 3.129784e+00 105 127 88
4.155343e-01 4.353644e-01 3.128705e+00 44 61 45
3.976490e-01 4.569121e-01 3.129931e+00 90 103 86
3.976490e-01 4.569121e-01 3.129931e+00 90 103 86
3.975196e-01 4.570466e-01 3.129907e+00 46 60 43
3.975196e-01 4.570466e-01 3.129907e+00 46 60 43
3.909733e-01 4.651903e-01 3.129741e+00 45 72 29
3.891464e-01 4.674329e-01 3.129619e+00 62 80 42
3.810226e-01 4.776314e-01 3.128612e+00 61 85 52
3.810226e-01 4.776314e-01 3.128612e+00 61 85 52
3.912811e-01 4.648928e-01 3.129704e+00 11 37 3
3.778236e-01 4.817751e-01 3.128038e+00 34 57 32
3.640912e-01 4.993926e-01 3.124556e+00 23 38 5
3.579270e-01 5.074849e-01 3.122402e+00 33 59 22
4.222852e-01 4.274887e-01 3.127781e+00 90 108 86
4.032177e-01 4.503049e-01 3.129839e+00 21 38 20
3.925664e-01 4.633453e-01 3.129824e+00 63 86 46
3.846319e-01 4.731891e-01 3.129120e+00 59 85 47
3.748127e-01 4.855811e-01 3.127463e+00 79 102 73
3.506106e-01 5.172359e-01 3.119426e+00 89 118 73
3.808134e-01 4.780536e-01 3.128649e+00 47 68 38
3.762639e-01 4.838200e-01 3.127767e+00 46 73 38
3.627605e-01 5.012480e-01 3.124123e+00 21 41 14
3.809544e-01 4.779193e-01 3.128609e+00 107 127 99
3.864631e-01 4.710862e-01 3.129364e+00 75 100 61
3.862503e-01 4.714638e-01 3.129391e+00 83 111 71
3.702215e-01 4.918191e-01 3.126363e+00 35 54 24
3.956490e-01 4.598640e-01 3.129937e+00 52 72 35
3.956490e-01 4.598640e-01 3.129937e+00 52 72 35
3.767615e-01 4.834845e-01 3.127918e+00 85 114 86
3.854447e-01 4.726417e-01 3.129230e+00 90 116 79
3.657483e-01 4.977346e-01 3.125089e+00 34 56 19
3.981415e-01 4.569648e-01 3.130044e+00 37 50 33
3.980397e-01 4.571328e-01 3.129988e+00 83 97 80
3.891531e-01 4.680785e-01 3.129625e+00 98 119 88
3.888902e-01 4.683730e-01 3.129616e+00 93 116 87
3.751428e-01 4.857662e-01 3.127552e+00 29 53 20
3.527584e-01 5.149447e-01 3.120276e+00 44 77 20
3.966510e-01 4.589417e-01 3.130043e+00 36 59 30
3.757714e-01 4.850962e-01 3.127673e+00 55 77 38
3.960775e-01 4.597434e-01 3.129984e+00 50 71 40
3.697646e-01 4.928252e-01 3.126229e+00 76 93 57
3.697646e-01 4.928252e-01 3.126229e+00 76 93 57
3.685245e-01 4.944178e-01 3.125903e+00 82 111 66
3.860551e-01 4.721877e-01 3.129354e+00 83 112 71
3.794077e-01 4.806280e-01 3.128419e+00 28 46 22
3.794077e-01 4.806280e-01 3.128419e+00 28 46 22
3.915038e-01 4.655407e-01 3.129804e+00 50 73 45
4.269964e-01 4.228576e-01 3.127261e+00 80 109 79
3.923020e-01 4.645908e-01 3.129896e+00 69 90 71
4.172629e-01 4.344235e-01 3.128749e+00 81 104 76
4.151922e-01 4.368553e-01 3.129017e+00 73 88 69
4.151922e-01 4.368553e-01 3.129017e+00 73 88 69
4.030693e-01 4.514490e-01 3.129966e+00 79 97 75
3.600877e-01 5.057130e-01 3.123174e+00 65 83 57
3.966664e-01 4.593371e-01 3.130032e+00 48 71 42
3.874526e-01 4.707351e-01 3.129503e+00 100 125 86
3.874526e-01 4.707351e-01 3.129503e+00 100 125 86
3.655711e-01 4.986450e-01 3.124966e+00 59 80 48
3.476848e-01 5.222636e-01 3.117956e+00 127 155 96
4.198619e-01 4.314810e-01 3.128419e+00 77 98 67
4.110964e-01 4.419320e-01 3.129440e+00 30 50 26
4.204304e-01 4.308636e-01 3.128314e+00 78 100 64
3.897664e-01 4.680545e-01 3.129721e+00 38 57 35
4.128313e-01 4.399931e-01 3.129342e+00 73 95 66
3.830070e-01 4.765590e-01 3.128934e+00 86 100 77
3.805210e-01 4.797242e-01 3.128582e+00 37 54 27
3.778646e-01 4.830868e-01 3.128099e+00 48 70 51
3.802233e-01 4.801731e-01 3.128523e+00 29 48 20
3.753841e-01 4.862888e-01 3.127589e+00 75 101 66
3.936927e-01 4.635386e-01 3.130033e+00 81 97 73
3.936927e-01 4.635386e-01 3.130033e+00 81 97 73
3.577003e-01 5.094726e-01 3.122267e+00 14 29 6
3.543718e-01 5.138941e-01 3.120876e+00 84 109 68
3.412028e-01 5.315709e-01 3.114666e+00 111 129 102
3.412028e-01 5.315709e-01 3.114666e+00 111 129 102
3.681292e-01 4.958919e-01 3.125795e+00 92 119 73
3.923820e-01 4.652478e-01 3.129931e+00 74 92 78
3.653806e-01 4.995176e-01 3.124944e+00 65 93 52
3.393717e-01 5.341412e-01 3.113777e+00 120 140 139
3.847445e-01 4.748537e-01 3.129232e+00 84 107 70
3.417660e-01 5.309918e-01 3.114928e+00 138 157 113
4.060512e-01 4.486880e-01 3.129950e+00 82 106 90
3.655615e-01 4.993999e-01 3.125006e+00 30 56 17
3.597512e-01 5.069983e-01 3.123015e+00 80 109 70
4.011730e-01 4.546322e-01 3.130121e+00 75 96 68
3.381182e-01 5.360210e-01 3.113090e+00 57 78 71
4.153184e-01 4.376335e-01 3.129187e+00 68 91 65
4.078886e-01 4.465609e-01 3.129880e+00 39 62 44
3.551480e-01 5.131851e-01 3.121210e+00 59 83 49
3.556047e-01 5.126299e-01 3.121377e+00 69 94 61
3.556047e-01 5.126299e-01 3.121377e+00 69 94 61
3.638718e-01 5.018729e-01 3.124447e+00 71 97 60
4.320722e-01 4.180186e-01 3.126641e+00 48 80 39
3.668506e-01 4.980571e-01 3.125425e+00 30 48 22
3.430200e-01 5.296791e-01 3.115633e+00 73 95 56
3.881729e-01 4.710091e-01 3.129636e+00 80 108 64
3.860317e-01 4.736711e-01 3.129430e+00 66 85 59
4.218631e-01 4.301814e-01 3.128406e+00 29 54 14
3.973733e-01 4.596280e-01 3.130183e+00 58 81 53
3.722783e-01 4.911681e-01 3.126899e+00 35 52 20
4.015198e-01 4.546494e-01 3.130236e+00 65 89 53
4.015198e-01 4.546494e-01 3.130236e+00 65 89 53
3.648983e-01 5.007557e-01 3.124743e+00 85 113 65
3.648983e-01 5.007557e-01 3.124743e+00 85 113 65
3.515499e-01 5.183671e-01 3.119661e+00 72 100 42
3.466943e-01 5.249545e-01 3.117445e+00 53 81 20
3.460300e-01 5.258310e-01 3.117113e+00 76 99 37
3.427823e-01 5.301671e-01 3.115566e+00 90 110 81
3.865695e-01 4.732215e-01 3.129445e+00 59 75 52
3.840651e-01 4.764294e-01 3.129184e+00 85 100 77
4.042505e-01 4.515591e-01 3.130121e+00 45 66 35
4.042505e-01 4.515591e-01 3.130121e+00 45 66 35
3.902321e-01 4.687440e-01 3.129844e+00 79 101 78
3.725547e-01 4.911789e-01 3.126872e+00 36 51 22
3.842559e-01 4.763004e-01 3.129223e+00 39 58 34
3.457179e-01 5.265784e-01 3.116952e+00 134 147 93
3.457179e-01 5.265784e-01 3.116952e+00 134 147 93
3.440657e-01 5.288282e-01 3.116049e+00 121 140 94
3.947873e-01 4.633162e-01 3.130218e+00 84 108 77
3.845620e-01 4.760620e-01 3.129301e+00 49 72 46
3.845620e-01 4.760620e-01 3.129301e+00 49 72 46
3.740007e-01 4.894724e-01 3.127323e+00 29 44 21
3.610086e-01 5.062825e-01 3.123425e+00 77 101 69
3.577424e-01 5.106650e-01 3.122187e+00 59 85 46
4.005740e-01 4.563300e-01 3.130309e+00 87 105 70
3.902993e-01 4.689812e-01 3.129843e+00 38 61 34
3.742387e-01 4.892646e-01 3.127355e+00 33 48 27
3.569221e-01 5.118456e-01 3.121874e+00 84 109 66
3.624355e-01 5.046654e-01 3.123917e+00 68 92 59
4.119911e-01 4.427808e-01 3.129723e+00 55 80 33
3.850304e-01 4.758642e-01 3.129275e+00 22 43 16
3.805681e-01 4.814643e-01 3.128641e+00 30 51 12
3.603511e-01 5.075742e-01 3.123174e+00 76 108 69
3.534608e-01 5.167625e-01 3.120439e+00 103 134 75
3.436883e-01 5.298232e-01 3.115918e+00 93 106 88
3.992754e-01 4.583342e-01 3.130309e+00 35 57 18
3.449909e-01 5.281180e-01 3.116535e+00 72 90 47
3.848576e-01 4.762127e-01 3.129372e+00 22 46 19
3.901582e-01 4.696482e-01 3.129884e+00 93 118 82
3.888972e-01 4.712552e-01 3.129784e+00 77 103 64
3.770331e-01 4.862695e-01 3.128001e+00 24 53 9
3.839103e-01 4.775944e-01 3.129184e+00 79 97 61
3.685654e-01 4.971876e-01 3.125845e+00 43 59 22
3.613015e-01 5.067434e-01 3.123519e+00 79 105 66
3.783650e-01 4.847325e-01 3.128297e+00 72 93 75
4.196628e-01 4.341087e-01 3.129023e+00 98 129 70
3.997240e-01 4.581784e-01 3.130384e+00 83 106 60
3.843881e-01 4.772128e-01 3.129297e+00 99 118 86
3.843881e-01 4.772128e-01 3.129297e+00 99 118 86
3.831978e-01 4.787332e-01 3.129108e+00 60 83 40
3.661153e-01 5.006398e-01 3.125117e+00 13 39 1
3.460954e-01 5.271741e-01 3.117004e+00 82 87 51
3.444088e-01 5.294319e-01 3.116216e+00 36 48 32
4.045615e-01 4.524222e-01 3.130323e+00 99 127 78
3.817083e-01 4.807228e-01 3.128852e+00 47 68 29
3.759241e-01 4.880466e-01 3.127734e+00 21 43 7
4.340285e-01 4.173230e-01 3.126753e+00 57 82 75
4.056176e-01 4.512221e-01 3.130305e+00 81 108 65
3.852008e-01 4.764247e-01 3.129406e+00 24 47 18
4.061830e-01 4.505764e-01 3.130288e+00 87 115 71
3.460247e-01 5.274588e-01 3.117003e+00 89 94 63
3.904703e-01 4.699660e-01 3.129948e+00 93 116 74
3.847441e-01 4.771191e-01 3.129329e+00 53 75 39
4.181003e-01 4.363894e-01 3.129319e+00 102 132 78
4.058110e-01 4.511561e-01 3.130327e+00 31 58 15
3.543415e-01 5.164578e-01 3.120764e+00 127 156 98
3.636019e-01 5.043079e-01 3.124295e+00 50 75 33
3.456487e-01 5.281650e-01 3.116834e+00 144 153 126
4.081671e-01 4.484088e-01 3.130215e+00 85 109 76
3.882413e-01 4.729348e-01 3.129765e+00 83 103 66
3.454513e-01 5.286297e-01 3.116740e+00 21 33 12
4.029372e-01 4.550031e-01 3.130447e+00 88 118 66
4.115475e-01 4.447379e-01 3.130107e+00 92 119 74
3.918310e-01 4.688453e-01 3.130126e+00 96 113 70
3.918310e-01 4.688453e-01 3.130126e+00 96 113 70
3.459050e-01 5.284148e-01 3.116879e+00 133 140 123
4.032815e-01 4.549894e-01 3.130502e+00 57 87 35
3.880020e-01 4.738608e-01 3.129805e+00 32 53 20
3.825703e-01 4.806949e-01 3.129000e+00 51 73 28
3.749592e-01 4.903408e-01 3.127502e+00 87 101 68
3.634156e-01 5.052685e-01 3.124266e+00 59 87 38
3.458720e-01 5.286083e-01 3.116875e+00 45 52 39
4.329875e-01 4.195443e-01 3.127228e+00 67 87 88
4.034492e-01 4.548451e-01 3.130486e+00 96 126 74
3.832009e-01 4.799381e-01 3.129162e+00 59 78 36
3.832009e-01 4.799381e-01 3.129162e+00 59 78 36
3.827420e-01 4.805540e-01 3.129024e+00 102 124 78
3.621305e-01 5.071338e-01 3.123739e+00 108 135 92
4.248681e-01 4.292741e-01 3.128551e+00 106 136 82
3.986158e-01 4.609401e-01 3.130499e+00 66 95 41
3.636540e-01 5.052424e-01 3.124260e+00 112 140 88
3.866881e-01 4.757740e-01 3.129649e+00 75 98 57
3.836447e-01 4.795911e-01 3.129232e+00 114 136 89
3.836447e-01 4.795911e-01 3.129232e+00 114 136 89
3.691870e-01 4.981483e-01 3.126012e+00 46 67 26
3.834268e-01 4.799651e-01 3.129195e+00 94 115 72
3.834268e-01 4.799651e-01 3.129195e+00 94 115 72
3.988406e-01 4.609624e-01 3.130539e+00 108 137 83
3.616542e-01 5.081565e-01 3.123546e+00 51 78 35
3.499704e-01 5.236605e-01 3.118803e+00 42 69 20
3.963220e-01 4.641208e-01 3.130439e+00 64 94 40
3.963220e-01 4.641208e-01 3.130439e+00 64 94 40
3.562046e-01 5.154092e-01 3.121500e+00 135 160 105
3.871761e-01 4.755884e-01 3.129607e+00 57 84 34
3.502826e-01 5.233428e-01 3.118953e+00 64 93 38
3.835673e-01 4.801245e-01 3.129217e+00 62 86 38
3.700933e-01 4.973374e-01 3.126229e+00 56 78 35
3.699759e-01 4.975401e-01 3.126254e+00 87 108 67
3.910533e-01 4.708492e-01 3.130110e+00 87 117 63
3.848168e-01 4.786610e-01 3.129411e+00 91 115 63
3.576694e-01 5.137188e-01 3.122014e+00 54 76 38
3.672363e-01 5.012594e-01 3.125367e+00 78 102 53
3.599222e-01 5.107677e-01 3.122938e+00 84 114 63
3.491152e-01 5.251316e-01 3.118383e+00 123 146 141
3.696850e-01 4.981178e-01 3.126130e+00 71 92 50
3.674888e-01 5.009844e-01 3.125450e+00 68 94 46
3.661969e-01 5.026509e-01 3.125067e+00 96 122 77
3.565819e-01 5.153293e-01 3.121612e+00 118 145 92
3.854384e-01 4.781111e-01 3.129494e+00 74 101 50
3.707189e-01 4.968727e-01 3.126449e+00 91 117 70
3.707189e-01 4.968727e-01 3.126449e+00 91 117 70
4.082506e-01 4.502808e-01 3.130491e+00 93 120 65
4.082506e-01 4.502808e-01 3.130491e+00 93 120 65
3.543855e-01 5.185658e-01 3.120685e+00 60 87 34
4.295725e-01 4.248483e-01 3.128096e+00 128 156 107
3.844585e-01 4.796651e-01 3.129349e+00 53 81 30
3.526960e-01 5.208879e-01 3.119987e+00 132 157 115
3.957173e-01 4.656780e-01 3.130535e+00 95 124 70
3.566025e-01 5.157288e-01 3.121581e+00 113 140 87
3.798223e-01 4.857026e-01 3.128551e+00 66 96 46
4.233628e-01 4.323898e-01 3.129107e+00 45 73 33
3.749804e-01 4.919752e-01 3.127533e+00 44 72 14
3.959522e-01 4.656094e-01 3.130537e+00 51 82 27
4.018459e-01 4.584112e-01 3.130681e+00 65 94 43
4.018459e-01 4.584112e-01 3.130681e+00 65 94 43
3.802310e-01 4.854450e-01 3.128624e+00 106 137 78
4.253946e-01 4.302315e-01 3.128876e+00 131 156 99
3.619278e-01 5.091534e-01 3.123630e+00 85 115 65
3.880017e-01 4.757896e-01 3.129870e+00 106 137 77
4.187979e-01 4.381785e-01 3.129789e+00 71 100 42
3.861582e-01 4.781306e-01 3.129653e+00 149 174 117
3.436353e-01 5.336731e-01 3.115649e+00 123 123 144
3.531503e-01 5.209897e-01 3.120171e+00 138 162 135
3.772709e-01 4.895821e-01 3.127999e+00 110 139 72
4.331780e-01 4.213734e-01 3.127773e+00 119 134 165
4.310732e-01 4.238529e-01 3.128065e+00 45 69 64
3.957613e-01 4.663899e-01 3.130540e+00 45 75 21
3.839436e-01 4.811623e-01 3.129335e+00 72 97 42
3.608444e-01 5.110276e-01 3.123206e+00 109 135 88
3.940659e-01 4.686521e-01 3.130513e+00 37 60 6
4.165523e-01 4.413475e-01 3.130089e+00 71 100 44
3.532635e-01 5.211914e-01 3.120117e+00 57 78 63
4.225216e-01 4.342638e-01 3.129428e+00 80 101 44
4.156052e-01 4.426643e-01 3.130235e+00 62 95 38
3.820039e-01 4.841204e-01 3.129008e+00 123 154 87
4.046579e-01 4.560329e-01 3.130823e+00 60 88 32
3.540258e-01 5.205475e-01 3.120506e+00 118 140 132
4.012063e-01 4.604174e-01 3.130816e+00 124 151 98
3.911856e-01 4.727685e-01 3.130297e+00 113 143 83
3.865297e-01 4.786202e-01 3.129663e+00 47 70 24
3.890555e-01 4.755295e-01 3.130071e+00 56 84 33
3.703547e-01 4.993061e-01 3.126311e+00 104 129 74
4.004183e-01 4.614724e-01 3.130854e+00 132 157 101
3.882212e-01 4.766775e-01 3.129923e+00 111 142 85
3.724660e-01 4.967030e-01 3.126915e+00 101 129 68
3.701631e-01 4.997734e-01 3.126328e+00 107 132 75
4.261420e-01 4.306849e-01 3.129100e+00 101 129 80
4.192324e-01 4.389376e-01 3.129969e+00 117 145 87
3.885155e-01 4.764523e-01 3.129985e+00 90 119 63
3.885155e-01 4.764523e-01 3.129985e+00 90 119 63
4.198207e-01 4.382875e-01 3.129941e+00 89 114 59
3.994380e-01 4.630020e-01 3.130795e+00 80 101 45
4.299957e-01 4.262892e-01 3.128563e+00 42 68 45
4.259944e-01 4.310860e-01 3.129251e+00 64 92 49
