ply
format ascii 1.0
element face 0
property list uchar int vertex_indices
element vertex 316
property float x
property float y
property float z
property uchar diffuse_red
property uchar diffuse_green
property uchar diffuse_blue
end_header
-2.976188e+00 -3.927112e+00 3.510320e+00 204 199 168
-3.034091e+00 -3.433778e+00 3.072482e+00 187 186 165
-3.008379e+00 -3.473881e+00 2.952918e+00 204 203 182
-3.028412e+00 -3.578902e+00 3.172060e+00 201 204 185
-3.029747e+00 -3.633375e+00 3.302289e+00 130 127 120
-3.045224e+00 -3.539194e+00 3.246948e+00 203 204 172
-3.045759e+00 -3.569114e+00 3.248569e+00 151 139 119
-3.044049e+00 -3.568833e+00 3.247986e+00 151 139 119
-3.034635e+00 -3.487133e+00 3.176672e+00 114 112 102
-3.055644e+00 -2.805333e+00 3.302755e+00 90 75 65
-3.009241e+00 -3.576954e+00 2.972502e+00 203 202 180
-2.999397e+00 -3.558848e+00 2.949020e+00 107 107 92
-3.037608e+00 -3.466755e+00 3.186757e+00 206 206 183
-3.043285e+00 -3.551104e+00 3.270740e+00 117 113 108
-3.016397e+00 -3.264397e+00 2.767075e+00 202 205 175
-2.863844e+00 -1.870992e+00 2.877804e+00 100 96 85
-3.033560e+00 -3.710354e+00 3.324426e+00 197 189 176
-3.028868e+00 -2.948880e+00 2.510947e+00 191 194 175
-2.858772e+00 -2.028786e+00 2.754242e+00 144 137 121
-3.015123e+00 -3.618996e+00 2.983397e+00 28 23 26
-2.866434e+00 -1.846911e+00 2.944469e+00 226 224 212
-2.996701e+00 -3.588454e+00 2.912390e+00 204 203 182
-2.930156e+00 -2.131995e+00 3.243584e+00 241 227 200
-2.902856e+00 -1.971937e+00 3.081056e+00 144 128 95
-2.881743e+00 -1.905942e+00 3.074861e+00 246 243 233
-2.981714e+00 -1.908216e+00 3.687626e+00 244 242 227
-2.953931e+00 -2.247979e+00 2.940466e+00 190 174 148
-2.902888e+00 -2.016703e+00 3.171450e+00 161 136 105
-2.889946e+00 -1.943807e+00 3.020391e+00 119 102 74
-3.017166e+00 -3.533224e+00 3.081963e+00 199 200 168
-3.017166e+00 -3.533224e+00 3.081963e+00 199 200 168
-3.005619e+00 -3.349193e+00 2.880285e+00 130 132 123
-3.033127e+00 -3.182092e+00 3.509867e+00 221 207 157
-3.035629e+00 -3.164053e+00 3.452643e+00 102 84 62
-3.035760e+00 -3.163488e+00 3.452170e+00 102 84 62
-3.048158e+00 -3.134637e+00 3.407778e+00 212 198 163
-3.039492e+00 -2.893608e+00 3.353627e+00 102 85 66
-3.083406e+00 -2.722703e+00 2.863107e+00 109 105 81
-2.936168e+00 -2.241687e+00 2.794204e+00 187 185 164
-2.809747e+00 -2.140144e+00 2.575656e+00 215 209 202
-2.830993e+00 -2.036096e+00 2.663074e+00 181 181 156
-3.058631e+00 -3.443769e+00 3.307707e+00 204 205 173
-3.039742e+00 -3.394278e+00 3.129910e+00 104 105 96
-3.040877e+00 -3.394111e+00 3.130108e+00 104 105 96
-3.059883e+00 -3.135547e+00 3.362612e+00 115 100 75
-3.073547e+00 -3.046825e+00 3.044249e+00 223 216 197
-3.074503e+00 -2.839603e+00 2.905604e+00 178 174 157
-3.044350e+00 -2.855119e+00 3.318081e+00 196 183 149
-2.971320e+00 -2.465288e+00 3.406987e+00 158 142 116
-2.953118e+00 -2.274313e+00 3.185677e+00 91 75 64
-2.818919e+00 -2.118897e+00 2.620538e+00 207 206 193
-2.841636e+00 -2.057767e+00 2.728572e+00 209 207 185
-2.885063e+00 -2.044565e+00 2.832186e+00 98 86 69
-2.881213e+00 -2.018848e+00 2.852696e+00 209 195 169
-2.898720e+00 -2.029023e+00 2.936416e+00 217 206 165
-2.870505e+00 -1.891385e+00 2.991420e+00 244 236 217
-3.012346e+00 -1.825098e+00 3.956882e+00 231 226 201
-3.037984e+00 -3.679064e+00 3.262548e+00 183 181 161
-3.020610e+00 -3.585757e+00 3.088267e+00 206 206 183
-2.996544e+00 -3.555888e+00 2.894405e+00 141 141 115
-3.002047e+00 -3.518662e+00 2.972429e+00 132 129 111
-3.017573e+00 -3.509135e+00 3.067117e+00 144 136 124
-3.043819e+00 -3.511874e+00 3.229167e+00 102 103 93
-3.010065e+00 -3.530551e+00 3.522645e+00 164 149 120
-3.053373e+00 -3.400370e+00 3.182233e+00 100 98 84
-3.053373e+00 -3.400370e+00 3.182233e+00 100 98 84
-3.044481e+00 -3.374017e+00 3.176787e+00 203 202 173
-3.006212e+00 -3.173873e+00 2.714776e+00 118 118 106
-2.990630e+00 -3.256474e+00 3.699311e+00 174 158 121
-3.070844e+00 -3.130166e+00 3.148597e+00 205 192 159
-2.982352e+00 -3.025320e+00 3.716298e+00 235 233 180
-2.988216e+00 -2.940006e+00 3.734599e+00 246 231 191
-3.090688e+00 -2.878028e+00 3.044136e+00 190 181 150
-3.055455e+00 -2.814215e+00 2.746215e+00 119 125 115
-2.985104e+00 -2.726247e+00 3.606378e+00 138 126 103
-3.005197e+00 -2.652292e+00 3.433112e+00 80 66 53
-3.003255e+00 -2.410052e+00 3.059531e+00 76 68 55
-2.829101e+00 -2.319541e+00 2.504038e+00 195 193 176
-2.988607e+00 -2.379072e+00 2.981630e+00 212 207 187
-2.992693e+00 -2.378483e+00 2.982328e+00 212 207 187
-2.795597e+00 -2.190540e+00 2.503438e+00 215 216 200
-2.949725e+00 -2.223456e+00 3.052491e+00 103 83 62
-2.927847e+00 -2.214654e+00 3.258285e+00 236 223 194
-2.927847e+00 -2.214654e+00 3.258285e+00 236 223 194
-2.763038e+00 -2.062563e+00 2.478207e+00 122 119 110
-2.906481e+00 -2.075977e+00 3.058809e+00 85 75 73
-2.967187e+00 -4.235937e+00 3.455599e+00 98 93 73
-2.972037e+00 -3.662620e+00 2.751443e+00 188 182 157
-3.045854e+00 -3.500345e+00 3.252837e+00 207 207 177
-3.025178e+00 -3.483228e+00 3.131709e+00 107 106 101
-3.019287e+00 -3.414663e+00 3.510619e+00 221 218 186
-3.036727e+00 -3.366273e+00 3.087460e+00 129 125 121
-3.050766e+00 -3.356461e+00 3.185484e+00 132 125 105
-3.018477e+00 -3.218127e+00 2.777554e+00 50 43 40
-3.050435e+00 -3.125038e+00 2.993476e+00 103 101 86
-3.058002e+00 -3.117485e+00 3.058615e+00 210 214 190
-3.052774e+00 -3.112351e+00 3.017527e+00 198 197 172
-3.072023e+00 -3.129443e+00 3.186228e+00 202 190 148
-3.066139e+00 -3.079192e+00 3.028149e+00 134 137 127
-3.072317e+00 -2.811634e+00 2.979860e+00 123 117 92
-3.079402e+00 -2.794427e+00 2.898997e+00 206 201 181
-2.971499e+00 -2.725725e+00 3.746950e+00 246 233 202
-3.025348e+00 -2.600440e+00 2.724294e+00 174 177 157
-3.052070e+00 -2.607671e+00 2.993938e+00 185 176 139
-3.047605e+00 -2.509431e+00 2.875661e+00 80 66 65
-2.991199e+00 -2.470141e+00 3.284419e+00 148 135 107
-2.994317e+00 -2.343105e+00 2.933348e+00 209 200 175
-2.919089e+00 -2.302437e+00 2.702550e+00 184 179 158
-2.948868e+00 -2.228840e+00 2.843251e+00 210 202 188
-2.929444e+00 -2.247395e+00 3.295854e+00 236 228 195
-2.928812e+00 -2.235998e+00 3.276964e+00 123 104 88
-2.881711e+00 -2.163132e+00 2.714180e+00 191 190 168
-2.922639e+00 -2.199577e+00 3.213177e+00 222 212 171
-2.912053e+00 -2.133451e+00 2.843765e+00 207 201 190
-2.922316e+00 -2.168028e+00 3.216328e+00 75 63 69
-2.919620e+00 -2.128149e+00 2.903904e+00 222 209 196
-2.923397e+00 -2.126456e+00 2.934478e+00 221 214 186
-2.928334e+00 -2.145565e+00 3.357288e+00 130 115 83
-2.918247e+00 -2.086035e+00 3.268857e+00 133 108 89
-2.812824e+00 -1.958479e+00 2.665042e+00 113 111 111
-2.900015e+00 -1.983745e+00 3.086783e+00 137 114 77
-2.842437e+00 -1.908970e+00 2.777801e+00 113 104 95
-2.840401e+00 -1.879930e+00 2.797456e+00 249 241 230
-2.871659e+00 -1.840171e+00 2.991305e+00 240 234 210
-2.883193e+00 -1.815254e+00 3.053475e+00 248 240 217
-2.939621e+00 -1.840036e+00 3.385586e+00 241 233 215
-2.958721e+00 -1.774146e+00 3.543622e+00 135 127 126
-2.983399e+00 -1.771739e+00 3.808333e+00 129 123 108
-3.002560e+00 -1.788332e+00 4.154456e+00 237 236 217
-2.928479e+00 -4.359193e+00 3.730848e+00 205 193 147
-2.976440e+00 -4.179762e+00 3.445824e+00 184 176 164
-3.019014e+00 -3.943489e+00 3.320276e+00 114 103 85
-3.022198e+00 -3.542446e+00 3.134140e+00 201 196 175
-3.004968e+00 -3.448032e+00 2.971422e+00 139 133 107
-3.055476e+00 -3.450558e+00 3.269454e+00 118 116 105
-2.967415e+00 -3.354200e+00 2.498066e+00 106 103 83
-3.031627e+00 -3.416144e+00 3.114859e+00 216 209 191
-2.999901e+00 -3.384383e+00 2.865761e+00 206 206 177
-3.015663e+00 -3.432669e+00 3.502287e+00 131 127 101
-2.999872e+00 -3.330102e+00 2.778607e+00 116 116 115
-3.076768e+00 -3.151540e+00 3.230352e+00 136 123 98
-3.038857e+00 -3.109542e+00 2.882119e+00 82 81 58
-3.057065e+00 -3.127104e+00 3.034572e+00 105 104 85
-3.076639e+00 -3.115250e+00 3.205970e+00 119 115 93
-3.081317e+00 -3.118384e+00 3.260996e+00 140 129 109
-3.024466e+00 -3.020177e+00 2.712691e+00 197 192 163
-3.057172e+00 -2.837403e+00 2.748643e+00 202 195 176
-3.057876e+00 -2.757509e+00 2.711896e+00 82 80 70
-2.988688e+00 -2.603428e+00 3.375488e+00 246 233 204
-2.755223e+00 -2.344089e+00 2.348321e+00 128 128 126
-2.951542e+00 -2.451203e+00 3.687132e+00 151 134 115
-2.977425e+00 -2.391004e+00 3.169558e+00 223 205 178
-2.982945e+00 -2.353753e+00 2.960949e+00 218 211 183
-2.974969e+00 -2.300291e+00 2.826009e+00 99 90 81
-2.961882e+00 -2.253059e+00 2.903545e+00 84 69 64
-2.951602e+00 -2.203473e+00 2.879987e+00 186 177 156
-2.948692e+00 -2.232881e+00 3.148769e+00 134 115 78
-2.928122e+00 -2.167283e+00 2.954983e+00 128 114 89
-2.928643e+00 -2.158550e+00 3.385497e+00 107 86 65
-2.852038e+00 -1.891598e+00 2.819489e+00 117 105 103
-2.870661e+00 -1.882240e+00 2.963692e+00 246 235 216
-2.860582e+00 -1.840332e+00 2.905230e+00 236 230 214
-2.843702e+00 -1.815907e+00 2.834492e+00 231 225 203
-2.969746e+00 -1.840581e+00 3.592358e+00 240 234 209
-2.979567e+00 -1.822151e+00 3.680849e+00 146 140 127
-2.973253e+00 -1.815211e+00 3.663990e+00 220 214 187
-3.007578e+00 -1.816949e+00 3.884758e+00 233 225 201
-2.946426e+00 -1.760473e+00 3.527365e+00 249 250 242
-2.908870e+00 -3.914035e+00 2.794002e+00 105 107 94
-3.043811e+00 -3.525481e+00 3.203509e+00 90 80 75
-3.031905e+00 -3.381292e+00 3.073217e+00 200 201 169
-3.054513e+00 -3.104920e+00 3.037896e+00 127 128 111
-3.064123e+00 -2.861364e+00 2.961543e+00 117 109 97
-3.064123e+00 -2.861364e+00 2.961543e+00 117 109 97
-3.061962e+00 -2.652910e+00 3.014069e+00 209 192 161
-3.045094e+00 -2.533037e+00 2.907201e+00 71 61 31
-2.960542e+00 -2.574770e+00 3.751145e+00 250 227 185
-2.999707e+00 -2.481775e+00 3.090920e+00 243 223 190
-2.992578e+00 -2.423608e+00 3.039927e+00 82 74 63
-2.956525e+00 -2.298851e+00 3.202488e+00 136 127 88
-2.910552e+00 -2.093725e+00 2.840108e+00 90 81 72
-2.824801e+00 -1.854442e+00 2.693268e+00 244 237 219
-2.820782e+00 -1.833540e+00 2.683013e+00 235 229 196
-2.830469e+00 -1.834194e+00 2.728816e+00 235 224 203
-2.786011e+00 -1.796099e+00 2.466841e+00 137 127 99
-2.779329e+00 -1.785372e+00 2.464964e+00 200 192 154
-2.818170e+00 -1.816016e+00 2.703953e+00 236 229 208
-2.874276e+00 -1.823554e+00 2.989817e+00 149 141 130
-2.826594e+00 -1.792607e+00 2.775455e+00 212 205 169
-2.854106e+00 -1.804192e+00 2.875555e+00 125 118 92
-2.865787e+00 -1.804444e+00 2.963331e+00 151 144 128
-2.897148e+00 -1.811553e+00 3.132848e+00 237 226 207
-2.798679e+00 -1.754481e+00 2.638846e+00 250 248 234
-2.798169e+00 -1.755191e+00 2.638459e+00 250 248 234
-2.931968e+00 -1.807255e+00 3.345526e+00 136 129 113
-2.962638e+00 -1.815555e+00 3.566167e+00 219 213 191
-2.949879e+00 -1.795462e+00 3.489311e+00 207 202 182
-2.949879e+00 -1.795462e+00 3.489311e+00 207 202 182
-2.997463e+00 -1.778280e+00 3.900519e+00 238 230 207
-3.009981e+00 -1.801817e+00 4.160162e+00 189 187 174
-2.966712e+00 -1.732156e+00 3.471635e+00 245 247 229
-3.058028e+00 -2.677406e+00 3.082114e+00 109 95 71
-2.971677e+00 -2.643593e+00 3.519373e+00 156 138 118
-2.959514e+00 -2.620214e+00 3.804095e+00 162 154 116
-2.987415e+00 -2.536296e+00 3.286556e+00 121 105 70
-2.978151e+00 -2.327296e+00 2.884658e+00 102 88 72
-2.949630e+00 -2.399932e+00 3.636183e+00 125 101 75
-2.986153e+00 -2.407502e+00 3.915087e+00 138 130 117
-2.959717e+00 -2.299073e+00 3.028218e+00 113 99 91
-2.876672e+00 -1.999731e+00 2.818311e+00 106 105 87
-2.795492e+00 -1.797820e+00 2.517392e+00 129 118 96
-2.824339e+00 -1.805445e+00 2.698760e+00 140 134 108
-2.749908e+00 -1.748756e+00 2.376051e+00 225 227 211
-2.749908e+00 -1.748756e+00 2.376051e+00 225 227 211
-2.906974e+00 -1.814267e+00 3.182447e+00 220 209 187
-3.003542e+00 -1.777202e+00 3.922151e+00 227 219 195
-3.002817e+00 -1.762040e+00 4.137287e+00 148 142 124
-2.896391e+00 -1.805160e+00 3.117985e+00 151 142 111
-3.005995e+00 -1.835034e+00 4.117157e+00 237 237 226
-2.903837e+00 -2.023772e+00 3.308038e+00 141 138 145
-2.956856e+00 -3.533267e+00 2.491713e+00 114 110 113
-2.767860e+00 -1.892691e+00 2.497939e+00 153 153 161
-2.920589e+00 -2.570367e+00 3.625659e+00 43 35 37
-3.013407e+00 -3.579563e+00 2.739883e+00 110 108 115
-2.897230e+00 -3.536675e+00 2.393306e+00 91 95 97
-3.113644e+00 -3.050502e+00 3.331927e+00 50 49 45
-2.782121e+00 -2.107361e+00 2.441907e+00 46 46 46
-2.823894e+00 -3.378250e+00 3.488289e+00 133 125 123
-3.025046e+00 -2.750619e+00 3.252790e+00 55 46 46
-2.884331e+00 -3.289029e+00 3.464255e+00 60 56 47
-2.767962e+00 -3.249199e+00 3.568932e+00 143 123 115
-2.784903e+00 -2.000679e+00 2.528920e+00 149 152 167
-2.676305e+00 -3.618863e+00 2.211493e+00 24 21 24
-2.858609e+00 -3.412888e+00 3.578236e+00 84 75 65
-3.051734e+00 -3.362355e+00 2.885390e+00 76 69 73
-2.896819e+00 -3.217249e+00 3.490786e+00 135 124 120
-2.986617e+00 -2.972250e+00 3.429291e+00 128 114 108
-2.932628e+00 -3.657959e+00 2.360838e+00 86 88 83
-2.854137e+00 -2.941094e+00 3.681067e+00 45 38 34
-2.788649e+00 -2.263228e+00 3.456522e+00 72 59 55
-2.848654e+00 -2.166581e+00 2.506373e+00 63 61 71
-2.991942e+00 -3.557444e+00 2.947267e+00 56 55 56
-2.853623e+00 -3.219931e+00 3.636064e+00 138 127 122
-2.920838e+00 -2.767929e+00 3.525471e+00 144 136 128
-2.814965e+00 -3.456705e+00 3.437262e+00 56 39 38
-2.740577e+00 -3.348134e+00 3.529717e+00 130 114 107
-2.945269e+00 -2.652743e+00 2.318633e+00 47 46 45
-2.767305e+00 -2.261963e+00 3.485075e+00 88 71 68
-2.775884e+00 -2.233052e+00 3.457510e+00 92 82 80
-2.988408e+00 -3.602377e+00 2.693538e+00 34 28 32
-2.984677e+00 -3.574187e+00 2.951488e+00 118 114 112
-3.040582e+00 -3.484921e+00 3.196167e+00 57 50 45
-3.093665e+00 -3.280194e+00 2.787285e+00 47 43 42
-3.021759e+00 -2.996973e+00 3.398273e+00 101 95 84
-3.035811e+00 -2.265995e+00 2.791477e+00 54 45 47
-2.943024e+00 -3.721483e+00 3.283255e+00 58 47 52
-2.523006e+00 -3.499113e+00 3.589941e+00 109 104 110
-2.995500e+00 -3.455946e+00 2.761712e+00 100 95 92
-2.999176e+00 -2.406034e+00 3.172154e+00 55 46 44
-2.710105e+00 -2.909167e+00 3.608308e+00 119 102 100
-3.219858e+00 -1.974467e+00 4.581579e+00 193 197 203
-3.158225e+00 -1.821353e+00 4.433719e+00 88 86 86
-3.495521e+00 -1.852240e+00 5.593572e+00 115 106 103
-3.470445e+00 -1.965216e+00 5.473394e+00 168 167 165
-3.148158e+00 -1.504729e+00 4.175261e+00 180 174 176
-3.148158e+00 -1.504729e+00 4.175261e+00 180 174 176
-3.586490e+00 -1.607316e+00 5.804858e+00 168 168 169
-3.528703e+00 -1.502526e+00 5.513062e+00 163 162 163
-3.528703e+00 -1.502526e+00 5.513062e+00 163 162 163
-3.161411e+00 -2.737385e+00 4.587590e+00 188 199 213
-3.481274e+00 -2.327203e+00 5.526826e+00 169 165 164
-3.433575e+00 -2.060392e+00 5.390328e+00 128 121 111
-3.533555e+00 -1.744614e+00 5.679179e+00 185 193 205
-3.239718e+00 -2.286358e+00 4.741267e+00 194 204 213
-3.524785e+00 -1.667542e+00 5.575366e+00 157 152 153
-3.529761e+00 -1.572092e+00 5.565587e+00 169 165 169
-2.889791e+00 -1.178945e+00 2.013560e+00 170 165 160
-3.497356e+00 -2.402133e+00 5.624402e+00 159 159 157
-3.347918e+00 -2.180240e+00 5.085213e+00 194 199 203
-3.379314e+00 -1.436589e+00 4.797619e+00 38 37 46
-2.873808e+00 -1.197806e+00 1.905621e+00 169 164 157
-2.814488e+00 -1.147850e+00 1.571671e+00 88 83 87
-3.342968e+00 -1.901365e+00 4.987597e+00 127 127 127
-3.370304e+00 -1.903838e+00 5.103597e+00 129 125 129
-3.350188e+00 -1.872914e+00 5.019299e+00 167 167 172
-3.356911e+00 -1.159861e+00 4.718514e+00 65 55 56
-2.943061e+00 -1.030303e-01 5.440974e+00 161 153 139
-3.344977e+00 -1.933899e+00 4.986976e+00 192 195 195
-2.800779e+00 -1.570284e+00 1.982568e+00 85 79 89
-2.800779e+00 -1.570284e+00 1.982568e+00 85 79 89
-3.427345e+00 -1.281398e+00 5.004086e+00 87 81 77
-3.404502e+00 -1.139370e+00 4.905004e+00 154 145 138
-3.502060e+00 -2.510631e+00 5.546587e+00 150 148 142
-3.518736e+00 -2.109592e+00 5.734706e+00 158 156 158
-3.301895e+00 -2.032765e+00 4.853595e+00 196 197 198
-3.301895e+00 -2.032765e+00 4.853595e+00 196 197 198
-3.559234e+00 -1.880338e+00 5.850864e+00 98 94 91
-3.205930e+00 -1.259687e+00 4.207437e+00 149 149 150
-3.399304e+00 -2.417194e-02 3.302236e+00 188 178 180
-3.534165e+00 -2.379625e+00 5.858618e+00 177 177 175
-3.305752e+00 -2.100384e+00 4.905613e+00 191 194 199
-3.305752e+00 -2.100384e+00 4.905613e+00 191 194 199
-3.426304e+00 -1.999725e+00 5.339405e+00 155 151 152
-3.505978e+00 -1.607663e+00 5.478762e+00 159 157 153
-4.681926e+01 -4.710481e+00 -1.677762e+01 0 255 0
-4.686524e+01 -4.714124e+00 -1.679691e+01 255 255 0
2.341437e+00 -1.985804e+00 2.211616e+00 255 0 0
2.293540e+00 -1.998851e+00 2.217587e+00 255 255 0
-3.623007e+01 3.258507e+00 -8.645393e+00 0 255 0
-3.627675e+01 3.266988e+00 -8.661168e+00 255 255 0
3.869824e+02 -1.953670e+01 2.718669e+02 255 0 0
3.869412e+02 -1.953482e+01 2.718387e+02 255 255 0
-2.784616e-01 -3.224078e+00 2.262258e+00 0 255 0
-3.272154e-01 -3.218525e+00 2.271861e+00 255 255 0
5.134785e+00 -2.122430e+00 3.241970e+00 255 0 0
5.086782e+00 -2.108445e+00 3.242326e+00 255 255 0
