ply
format ascii 1.0
element face 0
property list uchar int vertex_indices
element vertex 954
property float x
property float y
property float z
property uchar diffuse_red
property uchar diffuse_green
property uchar diffuse_blue
end_header
3.689589e-01 5.151084e-01 3.117300e+00 38 47 58
3.508163e-01 5.392054e-01 3.109992e+00 144 152 183
4.345364e-01 4.332503e-01 3.123249e+00 128 108 129
4.307075e-01 4.378285e-01 3.123710e+00 36 32 46
4.379506e-01 4.292268e-01 3.122823e+00 39 27 37
4.357249e-01 4.319963e-01 3.123122e+00 107 120 137
3.702494e-01 5.139230e-01 3.117808e+00 114 130 153
3.554898e-01 5.334770e-01 3.112080e+00 126 124 135
3.775530e-01 5.045436e-01 3.120058e+00 161 175 196
3.775530e-01 5.045436e-01 3.120058e+00 161 175 196
4.445783e-01 4.217807e-01 3.121969e+00 39 46 39
4.309114e-01 4.381729e-01 3.123777e+00 105 101 116
3.711820e-01 5.130089e-01 3.118002e+00 55 67 96
3.993589e-01 4.770232e-01 3.124041e+00 125 132 150
3.993589e-01 4.770232e-01 3.124041e+00 125 132 150
3.463008e-01 5.461228e-01 3.107873e+00 62 20 40
4.038556e-01 4.714657e-01 3.124235e+00 117 131 160
3.617543e-01 5.256642e-01 3.114702e+00 191 207 236
3.725776e-01 5.115483e-01 3.118486e+00 22 18 33
4.142872e-01 4.589794e-01 3.124800e+00 66 71 90
3.778900e-01 5.048791e-01 3.120046e+00 170 185 208
4.182929e-01 4.541846e-01 3.124719e+00 36 27 43
4.120713e-01 4.618500e-01 3.124728e+00 73 83 103
4.015000e-01 4.749075e-01 3.124319e+00 24 29 42
4.015000e-01 4.749075e-01 3.124319e+00 24 29 42
4.109671e-01 4.632050e-01 3.124775e+00 88 94 118
3.652025e-01 5.216401e-01 3.115964e+00 183 192 221
4.102524e-01 4.641653e-01 3.124768e+00 38 43 63
3.524108e-01 5.386742e-01 3.110677e+00 41 32 53
3.474262e-01 5.453961e-01 3.108323e+00 129 58 86
3.696471e-01 5.159727e-01 3.117512e+00 61 77 101
3.541614e-01 5.365655e-01 3.111486e+00 125 121 138
4.310425e-01 4.391818e-01 3.123999e+00 144 129 148
4.214254e-01 4.509177e-01 3.124696e+00 72 68 91
4.301838e-01 4.403455e-01 3.124128e+00 47 42 64
4.301838e-01 4.403455e-01 3.124128e+00 47 42 64
3.757163e-01 5.084611e-01 3.119413e+00 33 36 50
3.693706e-01 5.167734e-01 3.117396e+00 40 49 77
4.315092e-01 4.389116e-01 3.123982e+00 32 34 47
3.701787e-01 5.158692e-01 3.117716e+00 187 200 234
4.343276e-01 4.356620e-01 3.123771e+00 117 104 115
4.360813e-01 4.336122e-01 3.123557e+00 108 94 109
4.314211e-01 4.392202e-01 3.124081e+00 118 115 130
3.946685e-01 4.845439e-01 3.123505e+00 128 131 150
3.535021e-01 5.381326e-01 3.111137e+00 139 119 154
3.482668e-01 5.453360e-01 3.108647e+00 112 73 100
3.482668e-01 5.453360e-01 3.108647e+00 112 73 100
3.775857e-01 5.066174e-01 3.119947e+00 123 128 150
3.578032e-01 5.326090e-01 3.113014e+00 35 28 46
3.566401e-01 5.341948e-01 3.112530e+00 62 57 89
3.566401e-01 5.341948e-01 3.112530e+00 62 57 89
4.360506e-01 4.339615e-01 3.123664e+00 34 21 31
4.028996e-01 4.745268e-01 3.124385e+00 117 123 135
4.352677e-01 4.349470e-01 3.123757e+00 82 65 71
3.714461e-01 5.149632e-01 3.118072e+00 35 39 68
3.614734e-01 5.281282e-01 3.114489e+00 141 116 135
3.942209e-01 4.857333e-01 3.123418e+00 102 105 122
4.124442e-01 4.629947e-01 3.124939e+00 94 103 120
4.124442e-01 4.629947e-01 3.124939e+00 94 103 120
3.546861e-01 5.372040e-01 3.111671e+00 124 105 132
4.370711e-01 4.331416e-01 3.123611e+00 106 92 105
4.018732e-01 4.763187e-01 3.124394e+00 40 38 52
3.479851e-01 5.463671e-01 3.108552e+00 137 115 128
4.103731e-01 4.658155e-01 3.124805e+00 117 124 143
3.987954e-01 4.802975e-01 3.123726e+00 66 73 92
4.171326e-01 4.575709e-01 3.124989e+00 101 99 112
3.876108e-01 4.946440e-01 3.122261e+00 57 60 77
3.876108e-01 4.946440e-01 3.122261e+00 57 60 77
3.876108e-01 4.946440e-01 3.122261e+00 57 60 77
3.633334e-01 5.262549e-01 3.115120e+00 15 22 38
3.806472e-01 5.036967e-01 3.120697e+00 83 91 102
4.199975e-01 4.543417e-01 3.124911e+00 33 36 69
4.345559e-01 4.367260e-01 3.123986e+00 123 118 138
3.844882e-01 4.988860e-01 3.121582e+00 87 90 107
3.835862e-01 5.000535e-01 3.121422e+00 79 86 102
4.162309e-01 4.591813e-01 3.125047e+00 106 102 116
3.989814e-01 4.806210e-01 3.124086e+00 62 68 84
4.001885e-01 4.791276e-01 3.124246e+00 73 81 94
4.001885e-01 4.791276e-01 3.124246e+00 73 81 94
3.571903e-01 5.347089e-01 3.112827e+00 71 65 109
4.075861e-01 4.699388e-01 3.124825e+00 123 126 143
4.010036e-01 4.781897e-01 3.124302e+00 111 115 127
3.869387e-01 4.959737e-01 3.122141e+00 91 51 95
3.738403e-01 5.129254e-01 3.118767e+00 118 110 142
3.738403e-01 5.129254e-01 3.118767e+00 118 110 142
3.490907e-01 5.456853e-01 3.109021e+00 129 108 125
4.391085e-01 4.315773e-01 3.123540e+00 134 115 133
4.174715e-01 4.578319e-01 3.125046e+00 144 137 152
3.916861e-01 4.899584e-01 3.123049e+00 85 92 107
3.916861e-01 4.899584e-01 3.123049e+00 85 92 107
3.916861e-01 4.899584e-01 3.123049e+00 85 92 107
4.199569e-01 4.548221e-01 3.125029e+00 170 174 211
3.861921e-01 4.970316e-01 3.122003e+00 81 25 73
3.804472e-01 5.044608e-01 3.120895e+00 130 134 146
4.410507e-01 4.293911e-01 3.123328e+00 125 105 117
4.204839e-01 4.542275e-01 3.125017e+00 172 176 206
4.204839e-01 4.542275e-01 3.125017e+00 172 176 206
3.821797e-01 5.023055e-01 3.121052e+00 161 163 175
3.704524e-01 5.175133e-01 3.117705e+00 134 145 173
3.946821e-01 4.863793e-01 3.123536e+00 106 106 118
3.878003e-01 4.950893e-01 3.122313e+00 117 116 134
3.851779e-01 4.984974e-01 3.121748e+00 137 139 152
3.813811e-01 5.033814e-01 3.120842e+00 149 151 164
3.904374e-01 4.917766e-01 3.122830e+00 118 119 138
3.864765e-01 4.968883e-01 3.122051e+00 161 94 152
3.810819e-01 5.037626e-01 3.120807e+00 139 145 157
4.163005e-01 4.595174e-01 3.125060e+00 167 161 172
4.159645e-01 4.599332e-01 3.125069e+00 146 145 153
4.149448e-01 4.612068e-01 3.125088e+00 157 157 167
4.108487e-01 4.661922e-01 3.125037e+00 28 29 48
4.279047e-01 4.454028e-01 3.124676e+00 107 114 130
4.279047e-01 4.454028e-01 3.124676e+00 107 114 130
4.291303e-01 4.439973e-01 3.124624e+00 71 69 83
4.147002e-01 4.616202e-01 3.125126e+00 154 155 167
4.147002e-01 4.616202e-01 3.125126e+00 154 155 167
4.137865e-01 4.627800e-01 3.125047e+00 126 131 144
4.137865e-01 4.627800e-01 3.125047e+00 126 131 144
3.931768e-01 4.885617e-01 3.123223e+00 108 114 137
3.826306e-01 5.020018e-01 3.121211e+00 163 165 177
3.635898e-01 5.269278e-01 3.115080e+00 17 25 37
4.088744e-01 4.689294e-01 3.124946e+00 147 147 157
4.088744e-01 4.689294e-01 3.124946e+00 147 147 157
4.179666e-01 4.577891e-01 3.125084e+00 159 148 162
4.123058e-01 4.647441e-01 3.125067e+00 49 51 72
3.953824e-01 4.858420e-01 3.123660e+00 120 122 135
3.950334e-01 4.862852e-01 3.123566e+00 194 196 208
3.835768e-01 5.009218e-01 3.121395e+00 156 158 170
3.838879e-01 5.005554e-01 3.121485e+00 168 172 184
4.163168e-01 4.599151e-01 3.125136e+00 74 71 78
4.130228e-01 4.639602e-01 3.125094e+00 75 77 93
3.842314e-01 5.001991e-01 3.121554e+00 165 169 181
3.476750e-01 5.482532e-01 3.108405e+00 149 139 148
4.166267e-01 4.595609e-01 3.125154e+00 78 70 81
3.845314e-01 4.998605e-01 3.121607e+00 166 168 181
3.630842e-01 5.278468e-01 3.115036e+00 194 210 240
4.144166e-01 4.623747e-01 3.124973e+00 90 93 102
3.751703e-01 5.120034e-01 3.119162e+00 170 158 194
3.858289e-01 4.983195e-01 3.121891e+00 169 163 178
3.831022e-01 5.017511e-01 3.121426e+00 158 160 172
3.831022e-01 5.017511e-01 3.121426e+00 158 160 172
3.957429e-01 4.857405e-01 3.123625e+00 58 58 71
3.957429e-01 4.857405e-01 3.123625e+00 58 58 71
3.834552e-01 5.014060e-01 3.121334e+00 158 160 172
3.661965e-01 5.239202e-01 3.116189e+00 186 190 206
3.504389e-01 5.448194e-01 3.109663e+00 159 171 198
4.421652e-01 4.288250e-01 3.123321e+00 48 39 56
4.336623e-01 4.390576e-01 3.124329e+00 79 69 88
4.023045e-01 4.775124e-01 3.124455e+00 139 140 160
3.953921e-01 4.862363e-01 3.123621e+00 83 85 97
3.648186e-01 5.258470e-01 3.115695e+00 18 27 44
4.262532e-01 4.480836e-01 3.124970e+00 152 155 172
3.926939e-01 4.898654e-01 3.122923e+00 179 179 189
3.849932e-01 4.996118e-01 3.121734e+00 153 153 165
3.575008e-01 5.355694e-01 3.112786e+00 69 69 97
3.546044e-01 5.394293e-01 3.111606e+00 125 107 129
4.026149e-01 4.773100e-01 3.124503e+00 47 44 65
3.990933e-01 4.817757e-01 3.123980e+00 146 146 158
3.990672e-01 4.817828e-01 3.124092e+00 146 146 158
3.499188e-01 5.457687e-01 3.109442e+00 148 132 145
3.477941e-01 5.486715e-01 3.108461e+00 154 142 152
4.195899e-01 4.564224e-01 3.125201e+00 114 115 157
4.193259e-01 4.567138e-01 3.125107e+00 39 38 70
3.984954e-01 4.825848e-01 3.124061e+00 155 155 165
3.984954e-01 4.825848e-01 3.124061e+00 155 155 165
3.877490e-01 4.962682e-01 3.122236e+00 158 149 175
3.750308e-01 5.126662e-01 3.119173e+00 178 163 205
4.401156e-01 4.315845e-01 3.123723e+00 216 207 226
4.051239e-01 4.743704e-01 3.124698e+00 111 111 123
3.731339e-01 5.151707e-01 3.118526e+00 175 172 183
3.656830e-01 5.249542e-01 3.115960e+00 13 16 33
3.957359e-01 4.861989e-01 3.123675e+00 128 130 142
3.954043e-01 4.865793e-01 3.123658e+00 165 167 179
3.922195e-01 4.906892e-01 3.123130e+00 170 170 180
3.860697e-01 4.985209e-01 3.121948e+00 168 162 176
3.755302e-01 5.121335e-01 3.119283e+00 91 75 102
4.143689e-01 4.630206e-01 3.125119e+00 46 46 57
3.982883e-01 4.830932e-01 3.123983e+00 149 147 158
3.982883e-01 4.830932e-01 3.123983e+00 149 147 158
3.667535e-01 5.237860e-01 3.116351e+00 141 141 153
3.594392e-01 5.334688e-01 3.113577e+00 28 22 50
4.329945e-01 4.404556e-01 3.124462e+00 171 174 195
3.887972e-01 4.952622e-01 3.122478e+00 147 146 155
3.747948e-01 5.133524e-01 3.118999e+00 50 40 66
4.208002e-01 4.553849e-01 3.125178e+00 103 123 170
4.027471e-01 4.777047e-01 3.124547e+00 134 136 155
4.027471e-01 4.777047e-01 3.124547e+00 134 136 155
3.780704e-01 5.091893e-01 3.119956e+00 151 155 164
3.885632e-01 4.957165e-01 3.122446e+00 162 161 169
4.138392e-01 4.640261e-01 3.125191e+00 87 87 99
3.813346e-01 5.050883e-01 3.120795e+00 150 156 168
3.526449e-01 5.428568e-01 3.110642e+00 62 59 80
3.511968e-01 5.447476e-01 3.110010e+00 58 59 87
3.509219e-01 5.451296e-01 3.109825e+00 42 38 61
4.187603e-01 4.580929e-01 3.125240e+00 56 44 55
4.076266e-01 4.718233e-01 3.124988e+00 120 127 143
4.076266e-01 4.718233e-01 3.124988e+00 120 127 143
4.001313e-01 4.812374e-01 3.124242e+00 141 140 146
3.706957e-01 5.190120e-01 3.117713e+00 209 220 236
3.581925e-01 5.355281e-01 3.113038e+00 172 166 204
3.963656e-01 4.860222e-01 3.123788e+00 26 29 38
4.182043e-01 4.588333e-01 3.125292e+00 81 69 81
3.792716e-01 5.079472e-01 3.120329e+00 205 211 228
4.429948e-01 4.289320e-01 3.123542e+00 108 108 132
4.284674e-01 4.465251e-01 3.124966e+00 109 116 132
3.709720e-01 5.189947e-01 3.117769e+00 87 94 108
3.551613e-01 5.398541e-01 3.111770e+00 133 121 137
3.551613e-01 5.398541e-01 3.111770e+00 133 121 137
4.339769e-01 4.399168e-01 3.124561e+00 158 160 180
4.152458e-01 4.627975e-01 3.125255e+00 147 146 152
3.754026e-01 5.133032e-01 3.119185e+00 62 50 69
3.574591e-01 5.369271e-01 3.112695e+00 133 129 146
3.564685e-01 5.382179e-01 3.112291e+00 116 111 131
4.110789e-01 4.680638e-01 3.125112e+00 138 133 140
3.584423e-01 5.357405e-01 3.113152e+00 30 23 55
4.301161e-01 4.448309e-01 3.124873e+00 93 90 107
3.955793e-01 4.876158e-01 3.123604e+00 173 173 185
3.830382e-01 5.036047e-01 3.121221e+00 130 129 137
3.567760e-01 5.380550e-01 3.112402e+00 156 153 170
3.693147e-01 5.215963e-01 3.117174e+00 60 59 71
4.162972e-01 4.619083e-01 3.125322e+00 62 57 63
4.219235e-01 4.550480e-01 3.125287e+00 166 193 215
4.104356e-01 4.691691e-01 3.125098e+00 86 83 90
4.104356e-01 4.691691e-01 3.125098e+00 86 83 90
4.026359e-01 4.788799e-01 3.124515e+00 68 72 84
4.401225e-01 4.330318e-01 3.124025e+00 29 32 51
3.662234e-01 5.257708e-01 3.116177e+00 27 23 40
3.596387e-01 5.344900e-01 3.113637e+00 47 40 72
3.954021e-01 4.881613e-01 3.123624e+00 151 147 162
4.145404e-01 4.642866e-01 3.125246e+00 76 68 81
3.755939e-01 5.136537e-01 3.119196e+00 145 135 144
4.345857e-01 4.398323e-01 3.124649e+00 160 162 181
4.094448e-01 4.706638e-01 3.124995e+00 138 137 143
4.343051e-01 4.402321e-01 3.124658e+00 165 171 187
4.326638e-01 4.422356e-01 3.124791e+00 158 160 173
4.323514e-01 4.427021e-01 3.124769e+00 159 163 175
4.240639e-01 4.528029e-01 3.125233e+00 131 139 158
3.895380e-01 4.958344e-01 3.122599e+00 119 113 122
3.787439e-01 5.097279e-01 3.120020e+00 171 174 181
3.644413e-01 5.283913e-01 3.115487e+00 48 51 68
4.333589e-01 4.415006e-01 3.124754e+00 161 167 180
4.330175e-01 4.418816e-01 3.124809e+00 165 167 180
3.971551e-01 4.863487e-01 3.123858e+00 71 77 75
4.228244e-01 4.544881e-01 3.125297e+00 173 147 176
3.658016e-01 5.268360e-01 3.115990e+00 132 125 143
3.893450e-01 4.963594e-01 3.122568e+00 148 144 150
3.876913e-01 4.984832e-01 3.122196e+00 141 123 142
3.823231e-01 5.053131e-01 3.121053e+00 156 162 174
3.642759e-01 5.289314e-01 3.115371e+00 70 74 93
3.795166e-01 5.091429e-01 3.120254e+00 163 165 177
3.619731e-01 5.320834e-01 3.114513e+00 43 37 51
3.619731e-01 5.320834e-01 3.114513e+00 43 37 51
3.811365e-01 5.070532e-01 3.120656e+00 227 230 245
4.165090e-01 4.624860e-01 3.125427e+00 157 152 158
4.161997e-01 4.628948e-01 3.125382e+00 174 172 177
4.161997e-01 4.628948e-01 3.125382e+00 174 172 177
4.142760e-01 4.652589e-01 3.125351e+00 63 61 82
4.139133e-01 4.657213e-01 3.125313e+00 70 66 88
4.081659e-01 4.728662e-01 3.124957e+00 146 148 163
4.278273e-01 4.487242e-01 3.125192e+00 142 145 160
4.274971e-01 4.491268e-01 3.125237e+00 141 144 159
4.113331e-01 4.689348e-01 3.125212e+00 151 146 152
4.113331e-01 4.689348e-01 3.125212e+00 151 146 152
4.103984e-01 4.701220e-01 3.125222e+00 155 152 159
3.847827e-01 5.024700e-01 3.121575e+00 134 133 141
3.847827e-01 5.024700e-01 3.121575e+00 134 133 141
3.641803e-01 5.293642e-01 3.115389e+00 53 56 76
4.035781e-01 4.787356e-01 3.124711e+00 69 73 82
3.780413e-01 5.113306e-01 3.119854e+00 59 56 63
4.076545e-01 4.737212e-01 3.125006e+00 131 134 149
4.247010e-01 4.527497e-01 3.125323e+00 130 135 157
3.945586e-01 4.901915e-01 3.123508e+00 130 130 140
3.716028e-01 5.198431e-01 3.117943e+00 116 119 124
3.727478e-01 5.184449e-01 3.118230e+00 123 122 128
4.091548e-01 4.720747e-01 3.125074e+00 95 99 111
4.091548e-01 4.720747e-01 3.125074e+00 95 99 111
3.883627e-01 4.983150e-01 3.122313e+00 69 57 72
3.680754e-01 5.245841e-01 3.116765e+00 77 71 78
4.169751e-01 4.624648e-01 3.125297e+00 64 59 63
4.089977e-01 4.723060e-01 3.125086e+00 140 146 158
3.893852e-01 4.970291e-01 3.122557e+00 153 153 155
3.893852e-01 4.970291e-01 3.122557e+00 153 153 155
3.870720e-01 5.000145e-01 3.122091e+00 126 125 130
4.063221e-01 4.757665e-01 3.124893e+00 119 117 131
4.063221e-01 4.757665e-01 3.124893e+00 119 117 131
3.974534e-01 4.868979e-01 3.123970e+00 54 53 58
3.603773e-01 5.349421e-01 3.113873e+00 110 99 115
3.603773e-01 5.349421e-01 3.113873e+00 110 99 115
3.491030e-01 5.499181e-01 3.108993e+00 93 71 83
4.244388e-01 4.534618e-01 3.125380e+00 97 103 119
3.610960e-01 5.341113e-01 3.114171e+00 42 32 45
3.948150e-01 4.904346e-01 3.123504e+00 131 130 138
3.615358e-01 5.335701e-01 3.114303e+00 112 106 116
4.169180e-01 4.628332e-01 3.125451e+00 153 148 154
3.785030e-01 5.113779e-01 3.119989e+00 123 118 125
3.763091e-01 5.142218e-01 3.119459e+00 146 136 144
4.110978e-01 4.700656e-01 3.125276e+00 139 136 143
4.333471e-01 4.428739e-01 3.124972e+00 148 152 161
4.333471e-01 4.428739e-01 3.124972e+00 148 152 161
4.220078e-01 4.566614e-01 3.125476e+00 94 106 134
4.250712e-01 4.530108e-01 3.125503e+00 122 125 140
3.623754e-01 5.326566e-01 3.114650e+00 151 145 155
4.080921e-01 4.740639e-01 3.125059e+00 144 141 152
3.827439e-01 5.062025e-01 3.121026e+00 151 155 167
3.660735e-01 5.278778e-01 3.116013e+00 128 121 134
4.034671e-01 4.798473e-01 3.124625e+00 101 98 105
3.784710e-01 5.117553e-01 3.120047e+00 55 50 56
3.784710e-01 5.117553e-01 3.120047e+00 55 50 56
4.351288e-01 4.409588e-01 3.124862e+00 156 158 170
3.883276e-01 4.991382e-01 3.122385e+00 119 116 123
4.015701e-01 4.823991e-01 3.124421e+00 119 117 120
3.613714e-01 5.343070e-01 3.114218e+00 39 29 43
3.514021e-01 5.475670e-01 3.110025e+00 87 90 109
4.208304e-01 4.584935e-01 3.125529e+00 49 42 54
4.115034e-01 4.700548e-01 3.125268e+00 92 89 96
4.105375e-01 4.712387e-01 3.125232e+00 106 105 110
4.105375e-01 4.712387e-01 3.125232e+00 106 105 110
3.950708e-01 4.906560e-01 3.123563e+00 126 124 132
3.901336e-01 4.969794e-01 3.122701e+00 149 144 148
3.898369e-01 4.973856e-01 3.122607e+00 153 151 153
3.895220e-01 4.977477e-01 3.122572e+00 148 151 150
3.878300e-01 4.999490e-01 3.122177e+00 126 124 129
3.811619e-01 5.084929e-01 3.120765e+00 101 103 116
4.337316e-01 4.428804e-01 3.125053e+00 109 113 122
4.337316e-01 4.428804e-01 3.125053e+00 109 113 122
4.337316e-01 4.428804e-01 3.125053e+00 109 113 122
4.040436e-01 4.795030e-01 3.124715e+00 139 138 146
4.331242e-01 4.437468e-01 3.125070e+00 89 93 102
4.211214e-01 4.583549e-01 3.125582e+00 130 122 136
4.169720e-01 4.635225e-01 3.125502e+00 156 151 155
4.166443e-01 4.639610e-01 3.125510e+00 162 157 161
3.944353e-01 4.918246e-01 3.123100e+00 161 161 163
3.656306e-01 5.290465e-01 3.115812e+00 154 144 152
4.115214e-01 4.704110e-01 3.125333e+00 164 162 167
4.108972e-01 4.711915e-01 3.125310e+00 161 159 164
3.889946e-01 4.987927e-01 3.122469e+00 70 69 75
4.105613e-01 4.716169e-01 3.125293e+00 157 155 160
4.102020e-01 4.720596e-01 3.125253e+00 155 154 161
3.895716e-01 4.980980e-01 3.122543e+00 84 85 87
3.549337e-01 5.433069e-01 3.111572e+00 141 146 166
4.334974e-01 4.436929e-01 3.125121e+00 142 146 155
3.857075e-01 5.032166e-01 3.121757e+00 140 134 144
3.670439e-01 5.274620e-01 3.116338e+00 155 152 164
3.612819e-01 5.350656e-01 3.114186e+00 69 55 68
4.338339e-01 4.433024e-01 3.125101e+00 151 154 163
4.338339e-01 4.433024e-01 3.125101e+00 151 154 163
4.338339e-01 4.433024e-01 3.125101e+00 151 154 163
4.225404e-01 4.571560e-01 3.125562e+00 133 129 143
3.942166e-01 4.925081e-01 3.123107e+00 79 78 83
3.571321e-01 5.406707e-01 3.112519e+00 161 168 184
4.177050e-01 4.631328e-01 3.125512e+00 70 61 66
4.170483e-01 4.639229e-01 3.125572e+00 115 110 114
3.828321e-01 5.072348e-01 3.121117e+00 53 54 68
3.850961e-01 5.043661e-01 3.121513e+00 81 79 84
3.850961e-01 5.043661e-01 3.121513e+00 81 79 84
3.768575e-01 5.150198e-01 3.119381e+00 64 58 62
3.853261e-01 5.042018e-01 3.121686e+00 135 133 138
3.571904e-01 5.410079e-01 3.112543e+00 84 92 109
3.571904e-01 5.410079e-01 3.112543e+00 84 92 109
4.360523e-01 4.411222e-01 3.125026e+00 153 151 165
4.339568e-01 4.437395e-01 3.125200e+00 103 106 115
4.271432e-01 4.520305e-01 3.125578e+00 81 79 90
4.271432e-01 4.520305e-01 3.125578e+00 81 79 90
3.553362e-01 5.436521e-01 3.111719e+00 157 159 182
4.051603e-01 4.792991e-01 3.124849e+00 116 115 135
4.051603e-01 4.792991e-01 3.124849e+00 116 115 135
3.622072e-01 5.346517e-01 3.114566e+00 141 138 152
3.531201e-01 5.469875e-01 3.110767e+00 78 68 79
4.356694e-01 4.421187e-01 3.125159e+00 160 158 169
4.346672e-01 4.433272e-01 3.125228e+00 154 157 166
4.077398e-01 4.764271e-01 3.125102e+00 180 179 188
4.340655e-01 4.441621e-01 3.125291e+00 145 148 157
3.953854e-01 4.920770e-01 3.123598e+00 164 159 163
4.334301e-01 4.449912e-01 3.125360e+00 137 140 149
4.331214e-01 4.454202e-01 3.125408e+00 143 143 153
4.328114e-01 4.458277e-01 3.125390e+00 143 142 150
4.328114e-01 4.458277e-01 3.125390e+00 143 142 150
4.229296e-01 4.579205e-01 3.125695e+00 103 97 104
4.229296e-01 4.579205e-01 3.125695e+00 103 97 104
4.133686e-01 4.696876e-01 3.125503e+00 152 147 153
4.359932e-01 4.420713e-01 3.125205e+00 105 105 117
4.357196e-01 4.424988e-01 3.125238e+00 103 103 113
4.350340e-01 4.432982e-01 3.125300e+00 107 110 119
4.353955e-01 4.429014e-01 3.125247e+00 103 103 115
4.347627e-01 4.437096e-01 3.125318e+00 106 107 116
3.946240e-01 4.934523e-01 3.123486e+00 62 57 63
4.425786e-01 4.343076e-01 3.124662e+00 48 51 69
4.341264e-01 4.445448e-01 3.125349e+00 95 96 105
4.341264e-01 4.445448e-01 3.125349e+00 95 96 105
4.331670e-01 4.457474e-01 3.125423e+00 95 95 104
4.328434e-01 4.461894e-01 3.125441e+00 96 96 104
4.328434e-01 4.461894e-01 3.125441e+00 96 96 104
4.354299e-01 4.433068e-01 3.125360e+00 160 160 172
4.351210e-01 4.436998e-01 3.125354e+00 161 161 171
4.076307e-01 4.780481e-01 3.125125e+00 142 130 144
4.426085e-01 4.352582e-01 3.124873e+00 59 65 84
3.672237e-01 5.300359e-01 3.116320e+00 154 145 148
4.425717e-01 4.355843e-01 3.124933e+00 131 136 155
4.439084e-01 4.342900e-01 3.124717e+00 53 55 67
3.956941e-01 4.938937e-01 3.123646e+00 145 138 142
3.504991e-01 5.528900e-01 3.109595e+00 36 17 37
3.515873e-01 5.515420e-01 3.110011e+00 42 13 35
4.101460e-01 4.759829e-01 3.125384e+00 121 119 122
4.469954e-01 4.313417e-01 3.124724e+00 107 110 127
4.269755e-01 4.557374e-01 3.125938e+00 82 77 81
4.269755e-01 4.557374e-01 3.125938e+00 82 77 81
3.677896e-01 5.308041e-01 3.116452e+00 162 160 165
3.686937e-01 5.297314e-01 3.118565e+00 180 177 184
3.571644e-01 5.449154e-01 3.112443e+00 73 60 77
3.535318e-01 5.497743e-01 3.110880e+00 25 17 34
4.379226e-01 4.428334e-01 3.125609e+00 151 154 163
4.105263e-01 4.766144e-01 3.125381e+00 180 179 185
3.657466e-01 5.340792e-01 3.115735e+00 110 107 118
3.657466e-01 5.340792e-01 3.115735e+00 110 107 118
4.382160e-01 4.429245e-01 3.125632e+00 36 38 50
4.382160e-01 4.429245e-01 3.125632e+00 36 38 50
3.764870e-01 5.203655e-01 3.119237e+00 54 49 55
4.376469e-01 4.436309e-01 3.125635e+00 159 161 173
3.685158e-01 5.314981e-01 3.116643e+00 110 108 113
3.968563e-01 4.951375e-01 3.123779e+00 56 50 56
3.663154e-01 5.345578e-01 3.115963e+00 117 114 123
4.097829e-01 4.789434e-01 3.125266e+00 189 187 201
4.085080e-01 4.804853e-01 3.125227e+00 145 142 156
3.852312e-01 5.101723e-01 3.121471e+00 193 192 208
4.386740e-01 4.435093e-01 3.125808e+00 157 159 172
3.699212e-01 5.301908e-01 3.117155e+00 103 100 107
4.097935e-01 4.792878e-01 3.125102e+00 69 67 81
4.097935e-01 4.792878e-01 3.125102e+00 69 67 81
4.077567e-01 4.818717e-01 3.125056e+00 66 63 71
4.032374e-01 4.877515e-01 3.124434e+00 100 94 96
4.390776e-01 4.434356e-01 3.125832e+00 43 42 56
4.380077e-01 4.449587e-01 3.125959e+00 162 166 178
4.376383e-01 4.454495e-01 3.125970e+00 160 162 174
3.717044e-01 5.286442e-01 3.117707e+00 160 157 162
3.600471e-01 5.440655e-01 3.113510e+00 51 47 61
4.142797e-01 4.746319e-01 3.125795e+00 89 79 87
4.382815e-01 4.452228e-01 3.126019e+00 101 105 118
3.991015e-01 4.939480e-01 3.124176e+00 131 126 132
4.210993e-01 4.665511e-01 3.126181e+00 142 132 135
4.128679e-01 4.767737e-01 3.125697e+00 162 156 160
3.928495e-01 5.020524e-01 3.122960e+00 93 87 86
3.598416e-01 5.449023e-01 3.113464e+00 28 25 35
4.153500e-01 4.740942e-01 3.125826e+00 95 89 91
4.395736e-01 4.444182e-01 3.126099e+00 109 113 125
4.273539e-01 4.594214e-01 3.126336e+00 123 122 127
3.674771e-01 5.355040e-01 3.116297e+00 114 111 119
4.080833e-01 4.837397e-01 3.125222e+00 82 73 78
3.927907e-01 5.034002e-01 3.122949e+00 145 136 139
3.939840e-01 5.019629e-01 3.123159e+00 94 88 87
3.939840e-01 5.019629e-01 3.123159e+00 94 88 87
3.770680e-01 5.241247e-01 3.119225e+00 70 61 64
4.470424e-01 4.365908e-01 3.125943e+00 33 33 43
3.913119e-01 5.059513e-01 3.122618e+00 106 97 98
4.385771e-01 4.470021e-01 3.126364e+00 159 159 171
4.221397e-01 4.674162e-01 3.126345e+00 145 135 134
3.721002e-01 5.311042e-01 3.117825e+00 149 145 146
3.717493e-01 5.315980e-01 3.117609e+00 137 132 136
3.730682e-01 5.301505e-01 3.117974e+00 62 60 63
4.225245e-01 4.674010e-01 3.126262e+00 75 65 66
3.623040e-01 5.443207e-01 3.114427e+00 186 186 195
4.179585e-01 4.732151e-01 3.126185e+00 73 67 71
3.940665e-01 5.034514e-01 3.123162e+00 66 60 64
4.069044e-01 4.872980e-01 3.125102e+00 69 63 67
3.745210e-01 5.290146e-01 3.118443e+00 149 144 145
4.280078e-01 4.613991e-01 3.126593e+00 65 63 68
3.718334e-01 5.328921e-01 3.117644e+00 123 118 124
4.429373e-01 4.436010e-01 3.126456e+00 112 111 125
4.073998e-01 4.876442e-01 3.125144e+00 93 84 88
4.458330e-01 4.403292e-01 3.126306e+00 21 25 34
4.092026e-01 4.857060e-01 3.125305e+00 89 83 83
4.402537e-01 4.473912e-01 3.126608e+00 173 179 192
4.284521e-01 4.619150e-01 3.126647e+00 92 90 94
3.791934e-01 5.241489e-01 3.119709e+00 166 165 163
4.152902e-01 4.784386e-01 3.125899e+00 92 87 91
4.522760e-01 4.329812e-01 3.126002e+00 90 92 107
3.941296e-01 5.052963e-01 3.123088e+00 82 73 74
3.847280e-01 5.177088e-01 3.121032e+00 106 101 105
3.847035e-01 5.176886e-01 3.121123e+00 106 101 105
4.435127e-01 4.441588e-01 3.126507e+00 118 120 132
4.097888e-01 4.858168e-01 3.125466e+00 146 138 136
3.950377e-01 5.045015e-01 3.123216e+00 149 138 141
3.751050e-01 5.304245e-01 3.118561e+00 96 92 91
3.944491e-01 5.055972e-01 3.123189e+00 73 63 64
4.430170e-01 4.452177e-01 3.126744e+00 52 61 68
3.749447e-01 5.309317e-01 3.118516e+00 104 99 103
4.458605e-01 4.429868e-01 3.126798e+00 29 32 39
4.200121e-01 4.749570e-01 3.126301e+00 69 59 67
3.739081e-01 5.339232e-01 3.119433e+00 85 79 83
3.863607e-01 5.179152e-01 3.121429e+00 84 80 81
4.087230e-01 4.897731e-01 3.125207e+00 100 91 94
3.864702e-01 5.182259e-01 3.121430e+00 133 129 130
3.864702e-01 5.182259e-01 3.121430e+00 133 129 130
3.799984e-01 5.266781e-01 3.119844e+00 112 106 110
4.169276e-01 4.798274e-01 3.126044e+00 91 86 90
3.730425e-01 5.361123e-01 3.119374e+00 85 80 86
3.742407e-01 5.346773e-01 3.118285e+00 77 70 77
4.320682e-01 4.616200e-01 3.127078e+00 96 95 101
3.920777e-01 5.118920e-01 3.122649e+00 111 106 110
4.172982e-01 4.801068e-01 3.126029e+00 105 96 99
4.172982e-01 4.801068e-01 3.126029e+00 105 96 99
3.757714e-01 5.335322e-01 3.119705e+00 69 60 63
3.768536e-01 5.321879e-01 3.118961e+00 72 63 64
4.449869e-01 4.464808e-01 3.127210e+00 138 141 146
3.863964e-01 5.200172e-01 3.121261e+00 113 104 107
4.192457e-01 4.785525e-01 3.126259e+00 84 78 78
4.257718e-01 4.705333e-01 3.126746e+00 144 134 134
3.850334e-01 5.222823e-01 3.121057e+00 141 135 139
4.261059e-01 4.707781e-01 3.126718e+00 132 122 121
4.181622e-01 4.808309e-01 3.126209e+00 100 91 94
4.181797e-01 4.808531e-01 3.125973e+00 100 91 94
4.030296e-01 4.999688e-01 3.124422e+00 51 48 51
3.997820e-01 5.042259e-01 3.123802e+00 133 122 126
3.699464e-01 5.426234e-01 3.116946e+00 87 87 95
3.972835e-01 5.075656e-01 3.123525e+00 134 129 126
3.735813e-01 5.381741e-01 3.118083e+00 166 162 167
3.919398e-01 5.148663e-01 3.122230e+00 145 144 150
4.184145e-01 4.814054e-01 3.126033e+00 147 138 141
3.893141e-01 5.182970e-01 3.122024e+00 186 184 189
4.106335e-01 4.913288e-01 3.125269e+00 129 128 130
3.827730e-01 5.268333e-01 3.120534e+00 93 87 89
3.844107e-01 5.247735e-01 3.120900e+00 150 146 147
3.809474e-01 5.292931e-01 3.120055e+00 105 97 102
3.813166e-01 5.289967e-01 3.120129e+00 93 87 91
3.813166e-01 5.289967e-01 3.120129e+00 93 87 91
3.895862e-01 5.184882e-01 3.121860e+00 183 180 184
3.716371e-01 5.415734e-01 3.117523e+00 163 165 177
3.812367e-01 5.293750e-01 3.120445e+00 140 134 138
3.891664e-01 5.194235e-01 3.121716e+00 112 107 111
3.968743e-01 5.099869e-01 3.123205e+00 61 52 55
4.014643e-01 5.048215e-01 3.123952e+00 98 93 97
3.834808e-01 5.279643e-01 3.120726e+00 88 83 87
4.465599e-01 4.487536e-01 3.127687e+00 64 68 69
3.898393e-01 5.200060e-01 3.121995e+00 113 108 114
3.839112e-01 5.275855e-01 3.120718e+00 82 78 79
4.197946e-01 4.823009e-01 3.126187e+00 116 110 114
4.134417e-01 4.905771e-01 3.125434e+00 49 43 47
4.143515e-01 4.894503e-01 3.125651e+00 57 50 57
3.752347e-01 5.393641e-01 3.118549e+00 121 116 120
3.835980e-01 5.288035e-01 3.120549e+00 141 136 140
4.192551e-01 4.835706e-01 3.126192e+00 77 72 78
4.154956e-01 4.883286e-01 3.125770e+00 103 102 105
3.852569e-01 5.269151e-01 3.120983e+00 117 113 112
3.918723e-01 5.185384e-01 3.122054e+00 176 173 180
3.949247e-01 5.147814e-01 3.122626e+00 86 80 82
3.767921e-01 5.380554e-01 3.119037e+00 110 106 112
4.269464e-01 4.746791e-01 3.126935e+00 150 141 144
4.156693e-01 4.888230e-01 3.125762e+00 75 70 76
4.235346e-01 4.793466e-01 3.126616e+00 107 98 97
3.936947e-01 5.171246e-01 3.122129e+00 116 114 119
3.713984e-01 5.456936e-01 3.117389e+00 114 111 118
3.860283e-01 5.269278e-01 3.121097e+00 109 100 101
4.164353e-01 4.887351e-01 3.125902e+00 171 168 173
3.944553e-01 5.167520e-01 3.122719e+00 135 132 139
4.292531e-01 4.729346e-01 3.127099e+00 149 140 143
3.977887e-01 5.125926e-01 3.123092e+00 145 133 133
3.881503e-01 5.248406e-01 3.121440e+00 155 150 151
3.743218e-01 5.425895e-01 3.118346e+00 133 135 146
3.933447e-01 5.183319e-01 3.122421e+00 114 112 117
4.295156e-01 4.727347e-01 3.127152e+00 95 89 91
3.806583e-01 5.348016e-01 3.119905e+00 71 62 63
3.957636e-01 5.156991e-01 3.122613e+00 177 174 177
3.934633e-01 5.186179e-01 3.122601e+00 168 166 171
3.913795e-01 5.214162e-01 3.121922e+00 98 91 95
4.179879e-01 4.882454e-01 3.125833e+00 88 85 94
4.271591e-01 4.768548e-01 3.126959e+00 128 120 121
4.290295e-01 4.746275e-01 3.127045e+00 145 137 134
4.208375e-01 4.853005e-01 3.126309e+00 146 144 149
4.261630e-01 4.788403e-01 3.126677e+00 146 138 136
3.912940e-01 5.229073e-01 3.122043e+00 125 119 123
3.786698e-01 5.391309e-01 3.119452e+00 101 95 97
4.219675e-01 4.842393e-01 3.126305e+00 107 103 104
3.918200e-01 5.223817e-01 3.122170e+00 152 146 148
4.296933e-01 4.747799e-01 3.127147e+00 80 74 74
4.004508e-01 5.116582e-01 3.123312e+00 110 98 98
4.352679e-01 4.679451e-01 3.127624e+00 90 81 84
4.330221e-01 4.710814e-01 3.127414e+00 86 80 82
4.011930e-01 5.111892e-01 3.123750e+00 110 96 96
3.992013e-01 5.137304e-01 3.123026e+00 143 135 135
4.383973e-01 4.645245e-01 3.127968e+00 77 72 78
4.004910e-01 5.121569e-01 3.123659e+00 166 154 154
3.913194e-01 5.238393e-01 3.122047e+00 97 90 92
4.003439e-01 5.123943e-01 3.123522e+00 110 100 98
3.880044e-01 5.281800e-01 3.121376e+00 161 153 158
3.815172e-01 5.366470e-01 3.120189e+00 144 135 136
3.983851e-01 5.153717e-01 3.123262e+00 95 87 85
4.402530e-01 4.638750e-01 3.128055e+00 115 114 122
4.169029e-01 4.933777e-01 3.125614e+00 87 82 84
4.204276e-01 4.891141e-01 3.126179e+00 175 170 177
3.845342e-01 5.347912e-01 3.120730e+00 153 144 145
4.408050e-01 4.643832e-01 3.128270e+00 111 109 120
3.881603e-01 5.307871e-01 3.121489e+00 133 124 129
3.889249e-01 5.299053e-01 3.121628e+00 144 138 138
4.134378e-01 4.992095e-01 3.125185e+00 115 104 102
4.253250e-01 4.844744e-01 3.126542e+00 108 98 99
4.253250e-01 4.844744e-01 3.126542e+00 108 98 99
3.889357e-01 5.304412e-01 3.121615e+00 62 56 56
4.387405e-01 4.678798e-01 3.128020e+00 84 78 82
4.137464e-01 4.995878e-01 3.125148e+00 162 148 147
4.137464e-01 4.995878e-01 3.125148e+00 162 148 147
4.419090e-01 4.653560e-01 3.128305e+00 102 101 109
4.030985e-01 5.141478e-01 3.123716e+00 98 88 87
3.911970e-01 5.292273e-01 3.121987e+00 113 107 107
3.911970e-01 5.292273e-01 3.121987e+00 113 107 107
4.013964e-01 5.166796e-01 3.123449e+00 101 91 90
4.013964e-01 5.166796e-01 3.123449e+00 101 91 90
4.170269e-01 4.977280e-01 3.125319e+00 72 64 62
3.983759e-01 5.214454e-01 3.122952e+00 145 142 151
3.947558e-01 5.264657e-01 3.122652e+00 134 125 128
3.916699e-01 5.310326e-01 3.122024e+00 161 155 157
3.968175e-01 5.247767e-01 3.122708e+00 124 122 127
4.307881e-01 4.820155e-01 3.127014e+00 115 107 105
3.970193e-01 5.246298e-01 3.122852e+00 183 184 189
3.945810e-01 5.277032e-01 3.122476e+00 78 72 76
4.314785e-01 4.820051e-01 3.127216e+00 124 116 114
4.397499e-01 4.717931e-01 3.128181e+00 94 91 89
4.205000e-01 4.962482e-01 3.125535e+00 147 143 144
4.132886e-01 5.052704e-01 3.124907e+00 159 145 142
3.939058e-01 5.302267e-01 3.122055e+00 140 135 139
4.378144e-01 4.751696e-01 3.127836e+00 108 100 98
4.461335e-01 4.647300e-01 3.129136e+00 161 161 169
4.117088e-01 5.082163e-01 3.124585e+00 107 94 88
4.360295e-01 4.777042e-01 3.127687e+00 125 115 113
4.335900e-01 4.819995e-01 3.127213e+00 118 108 107
4.293320e-01 4.874982e-01 3.126604e+00 122 113 116
4.315392e-01 4.848758e-01 3.126838e+00 116 106 104
4.175632e-01 5.024490e-01 3.125146e+00 76 67 68
4.480110e-01 4.647296e-01 3.129497e+00 158 160 172
4.330175e-01 4.835520e-01 3.126895e+00 117 107 105
4.125880e-01 5.093043e-01 3.124682e+00 144 132 132
4.050581e-01 5.189553e-01 3.123711e+00 124 114 117
4.299045e-01 4.880721e-01 3.126577e+00 102 94 92
4.143253e-01 5.089874e-01 3.124787e+00 150 142 140
4.049739e-01 5.210756e-01 3.123486e+00 177 172 178
4.209860e-01 5.013082e-01 3.125384e+00 58 54 55
4.181037e-01 5.051105e-01 3.124933e+00 111 106 105
4.339893e-01 4.852971e-01 3.127012e+00 101 95 97
4.323315e-01 4.874471e-01 3.126845e+00 110 101 104
4.219852e-01 5.023766e-01 3.125182e+00 77 71 71
4.152338e-01 5.121945e-01 3.124415e+00 70 59 53
4.354669e-01 4.867388e-01 3.126957e+00 92 83 84
4.196345e-01 5.067417e-01 3.124971e+00 125 116 117
4.219451e-01 5.056848e-01 3.124877e+00 121 115 117
4.143459e-01 5.151486e-01 3.124388e+00 79 71 69
3.948985e-01 5.404258e-01 3.122419e+00 128 123 127
4.408134e-01 4.840349e-01 3.127396e+00 61 51 49
4.168279e-01 5.143404e-01 3.124044e+00 126 118 116
4.373020e-01 4.887953e-01 3.126944e+00 169 160 163
4.245779e-01 5.092650e-01 3.124724e+00 140 136 135
4.404796e-01 4.904400e-01 3.127001e+00 178 176 181
4.358527e-01 5.078101e-01 3.124408e+00 77 72 79
4.123198e-01 5.371564e-01 3.123690e+00 153 153 161
4.477567e-01 4.938837e-01 3.127313e+00 90 88 94
4.536187e-01 4.878134e-01 3.128703e+00 75 75 87
4.456180e-01 5.110514e-01 3.123176e+00 148 142 144
4.471668e-01 5.203856e-01 3.121054e+00 74 72 77
4.659869e-01 5.060624e-01 3.135109e+00 171 166 172
3.498730e-01 4.549573e-01 3.110816e+00 179 56 81
3.630060e-01 4.384457e-01 3.112359e+00 202 160 178
3.614587e-01 4.406870e-01 3.112346e+00 191 135 143
3.554641e-01 4.488299e-01 3.111874e+00 183 136 151
3.533616e-01 4.516123e-01 3.111566e+00 248 64 99
3.533616e-01 4.516123e-01 3.111566e+00 248 64 99
3.673468e-01 4.344221e-01 3.112690e+00 201 186 193
3.607470e-01 4.439672e-01 3.112629e+00 195 146 165
3.526130e-01 4.547686e-01 3.111665e+00 180 141 154
3.569054e-01 4.499727e-01 3.112481e+00 195 121 133
3.539412e-01 4.541356e-01 3.111958e+00 161 16 50
3.588575e-01 4.482105e-01 3.112739e+00 194 127 142
3.511319e-01 4.581565e-01 3.111498e+00 201 138 147
3.693262e-01 4.354085e-01 3.113294e+00 158 21 47
3.732804e-01 4.307491e-01 3.113226e+00 182 153 176
3.724881e-01 4.317290e-01 3.113259e+00 243 61 87
3.724881e-01 4.317290e-01 3.113259e+00 243 61 87
3.602187e-01 4.470072e-01 3.112954e+00 141 71 73
3.535464e-01 4.555699e-01 3.112056e+00 192 136 148
3.586256e-01 4.491635e-01 3.112822e+00 223 161 135
3.666642e-01 4.391934e-01 3.113416e+00 174 46 75
3.574897e-01 4.507738e-01 3.112756e+00 177 132 140
3.645512e-01 4.420821e-01 3.113390e+00 163 129 86
3.690472e-01 4.367947e-01 3.113520e+00 161 36 48
3.681817e-01 4.381214e-01 3.113541e+00 181 142 120
3.645451e-01 4.429295e-01 3.113504e+00 247 151 133
3.531007e-01 4.573104e-01 3.112062e+00 240 199 154
3.531007e-01 4.573104e-01 3.112062e+00 240 199 154
3.591096e-01 4.497517e-01 3.113044e+00 167 131 91
3.702124e-01 4.361623e-01 3.113678e+00 152 10 35
3.717259e-01 4.344508e-01 3.113617e+00 188 119 132
3.515327e-01 4.597241e-01 3.111752e+00 203 49 44
3.660381e-01 4.415824e-01 3.113638e+00 208 116 103
3.625028e-01 4.460588e-01 3.113432e+00 195 132 122
3.712339e-01 4.353591e-01 3.113749e+00 190 73 77
3.583281e-01 4.514037e-01 3.112994e+00 181 126 133
3.685690e-01 4.386683e-01 3.113783e+00 158 30 35
3.504349e-01 4.615913e-01 3.111527e+00 201 176 144
3.504349e-01 4.615913e-01 3.111527e+00 201 176 144
3.586239e-01 4.513663e-01 3.113043e+00 128 53 64
3.629846e-01 4.459261e-01 3.113540e+00 146 68 72
3.629846e-01 4.459261e-01 3.113540e+00 146 68 72
3.588506e-01 4.512243e-01 3.113125e+00 185 123 122
3.688781e-01 4.387856e-01 3.113848e+00 207 90 88
3.575941e-01 4.529012e-01 3.112968e+00 188 109 125
3.601071e-01 4.497971e-01 3.113300e+00 181 134 122
3.554234e-01 4.558663e-01 3.112633e+00 175 111 109
3.618011e-01 4.479156e-01 3.113507e+00 190 93 105
3.748243e-01 4.321191e-01 3.113799e+00 195 129 147
3.510799e-01 4.619299e-01 3.111758e+00 202 90 93
3.617444e-01 4.485092e-01 3.113580e+00 185 113 127
3.599287e-01 4.507790e-01 3.113381e+00 218 193 162
3.599287e-01 4.507790e-01 3.113381e+00 218 193 162
3.515438e-01 4.614874e-01 3.111831e+00 203 132 121
3.654575e-01 4.439945e-01 3.113887e+00 192 128 94
3.654575e-01 4.439945e-01 3.113887e+00 192 128 94
3.515033e-01 4.617290e-01 3.111719e+00 147 22 30
3.567298e-01 4.550844e-01 3.112952e+00 212 139 112
3.625428e-01 4.479628e-01 3.113734e+00 155 86 75
3.548681e-01 4.576996e-01 3.112623e+00 165 108 83
3.698133e-01 4.391178e-01 3.114089e+00 184 129 98
3.605732e-01 4.507345e-01 3.113562e+00 224 178 153
3.605732e-01 4.507345e-01 3.113562e+00 224 178 153
3.685571e-01 4.408467e-01 3.114128e+00 147 100 83
3.656895e-01 4.447945e-01 3.114081e+00 203 158 133
3.503328e-01 4.643560e-01 3.111645e+00 199 146 125
3.575687e-01 4.551587e-01 3.113193e+00 222 173 141
3.535093e-01 4.603480e-01 3.112403e+00 144 65 58
3.655934e-01 4.450984e-01 3.114087e+00 186 137 123
3.525022e-01 4.617453e-01 3.112217e+00 187 138 131
3.575869e-01 4.554337e-01 3.113236e+00 155 113 81
3.606990e-01 4.517011e-01 3.113719e+00 196 162 134
3.537997e-01 4.605336e-01 3.112541e+00 197 112 106
3.527711e-01 4.618200e-01 3.112345e+00 124 86 76
3.726390e-01 4.369963e-01 3.114337e+00 146 111 71
3.514191e-01 4.637091e-01 3.111990e+00 203 120 109
3.489095e-01 4.669449e-01 3.111322e+00 222 51 52
3.510097e-01 4.643316e-01 3.111891e+00 146 116 92
3.762060e-01 4.328366e-01 3.114286e+00 201 177 186
3.757195e-01 4.335681e-01 3.114308e+00 141 103 89
3.682789e-01 4.426752e-01 3.114389e+00 148 95 62
3.529315e-01 4.620735e-01 3.112353e+00 179 107 108
3.492377e-01 4.671389e-01 3.111397e+00 213 101 95
3.750752e-01 4.347858e-01 3.114409e+00 194 159 141
3.750752e-01 4.347858e-01 3.114409e+00 194 159 141
3.615970e-01 4.514541e-01 3.113954e+00 151 89 74
3.755915e-01 4.342926e-01 3.114438e+00 138 108 80
3.632675e-01 4.494860e-01 3.114110e+00 134 68 54
3.636315e-01 4.491998e-01 3.114184e+00 198 153 124
3.726660e-01 4.381069e-01 3.114577e+00 132 81 78
3.710506e-01 4.401567e-01 3.114618e+00 148 120 96
3.618689e-01 4.515845e-01 3.113963e+00 188 132 112
3.618689e-01 4.515845e-01 3.113963e+00 188 132 112
3.666305e-01 4.456785e-01 3.114486e+00 191 143 127
3.666305e-01 4.456785e-01 3.114486e+00 191 143 127
3.576405e-01 4.571038e-01 3.113428e+00 182 11 23
3.571201e-01 4.579136e-01 3.113315e+00 209 47 52
3.741721e-01 4.367243e-01 3.114635e+00 157 76 62
3.724823e-01 4.388816e-01 3.114710e+00 182 148 145
3.546917e-01 4.613035e-01 3.112911e+00 163 87 52
3.760146e-01 4.347331e-01 3.114625e+00 221 195 173
3.716883e-01 4.399939e-01 3.114729e+00 142 111 88
3.613858e-01 4.530595e-01 3.114092e+00 121 75 59
3.573772e-01 4.581438e-01 3.113434e+00 190 61 64
3.557847e-01 4.602907e-01 3.113132e+00 150 84 67
3.574238e-01 4.584845e-01 3.113479e+00 222 133 115
3.591261e-01 4.564960e-01 3.113828e+00 141 111 79
3.553353e-01 4.614660e-01 3.113116e+00 130 76 53
3.681024e-01 4.454301e-01 3.114786e+00 216 166 147
3.528131e-01 4.647991e-01 3.112493e+00 190 139 110
3.487340e-01 4.702566e-01 3.111362e+00 155 77 56
3.571272e-01 4.595132e-01 3.113476e+00 136 94 76
3.532490e-01 4.644735e-01 3.112654e+00 158 111 85
3.650381e-01 4.496053e-01 3.114619e+00 191 148 117
3.650381e-01 4.496053e-01 3.114619e+00 191 148 117
3.649050e-01 4.499844e-01 3.114647e+00 194 107 92
3.739440e-01 4.388823e-01 3.114996e+00 175 145 147
3.638559e-01 4.516323e-01 3.114582e+00 213 35 40
3.609127e-01 4.554398e-01 3.114181e+00 205 149 125
3.745904e-01 4.386903e-01 3.115101e+00 170 131 122
3.728945e-01 4.408804e-01 3.115154e+00 212 161 130
3.728945e-01 4.408804e-01 3.115154e+00 212 161 130
3.698507e-01 4.446480e-01 3.115073e+00 191 137 103
3.736762e-01 4.399812e-01 3.115127e+00 141 57 74
3.689483e-01 4.458419e-01 3.115033e+00 148 79 55
3.565432e-01 4.614788e-01 3.113460e+00 171 119 95
3.579411e-01 4.596868e-01 3.113789e+00 147 34 36
3.616498e-01 4.550750e-01 3.114351e+00 208 79 75
3.636957e-01 4.525394e-01 3.114566e+00 196 146 116
3.636957e-01 4.525394e-01 3.114566e+00 196 146 116
3.767522e-01 4.364079e-01 3.115160e+00 178 157 169
3.550495e-01 4.635770e-01 3.113145e+00 184 27 40
3.582420e-01 4.596009e-01 3.113825e+00 180 107 99
3.667789e-01 4.489459e-01 3.114954e+00 184 132 106
3.667789e-01 4.489459e-01 3.114954e+00 184 132 106
3.657137e-01 4.503488e-01 3.114901e+00 201 106 99
3.567164e-01 4.617035e-01 3.113553e+00 204 152 128
3.531142e-01 4.664347e-01 3.112671e+00 168 84 72
3.552487e-01 4.637681e-01 3.113254e+00 177 54 51
3.533345e-01 4.663309e-01 3.112754e+00 195 148 120
3.511545e-01 4.692355e-01 3.112172e+00 192 141 120
3.704099e-01 4.449441e-01 3.115258e+00 210 134 101
3.704099e-01 4.449441e-01 3.115258e+00 210 134 101
3.543903e-01 4.651637e-01 3.113044e+00 198 122 112
3.747658e-01 4.396245e-01 3.115307e+00 180 161 166
3.540766e-01 4.656339e-01 3.113017e+00 159 117 93
3.510604e-01 4.694949e-01 3.112184e+00 189 122 116
3.600303e-01 4.581439e-01 3.114231e+00 181 134 111
3.749884e-01 4.395415e-01 3.115374e+00 107 83 85
3.637585e-01 4.535022e-01 3.114750e+00 246 152 145
3.507780e-01 4.702390e-01 3.112099e+00 174 135 141
3.538207e-01 4.666123e-01 3.112911e+00 150 98 74
3.667658e-01 4.502505e-01 3.115141e+00 205 159 134
3.651403e-01 4.523610e-01 3.115016e+00 157 92 62
3.642533e-01 4.536346e-01 3.114916e+00 150 84 62
3.711868e-01 4.451094e-01 3.115459e+00 172 111 85
3.652003e-01 4.525828e-01 3.115015e+00 210 152 123
3.652003e-01 4.525828e-01 3.115015e+00 210 152 123
3.539952e-01 4.668944e-01 3.112999e+00 221 173 152
3.719721e-01 4.444482e-01 3.115557e+00 200 176 169
3.719721e-01 4.444482e-01 3.115557e+00 200 176 169
3.622838e-01 4.567088e-01 3.114701e+00 197 147 120
3.538944e-01 4.676686e-01 3.113029e+00 187 159 158
3.702104e-01 4.470659e-01 3.115572e+00 142 77 68
3.526162e-01 4.694380e-01 3.112687e+00 150 91 64
3.701754e-01 4.473680e-01 3.115570e+00 208 170 152
3.654304e-01 4.533210e-01 3.115177e+00 251 178 169
3.654304e-01 4.533210e-01 3.115177e+00 251 178 169
3.518067e-01 4.707087e-01 3.112453e+00 119 86 87
3.695706e-01 4.481542e-01 3.115581e+00 197 154 130
3.695706e-01 4.481542e-01 3.115581e+00 197 154 130
3.591276e-01 4.613390e-01 3.114222e+00 212 52 67
3.468024e-01 4.773540e-01 3.110854e+00 175 146 156
3.526695e-01 4.697277e-01 3.112714e+00 231 182 155
3.526695e-01 4.697277e-01 3.112714e+00 231 182 155
3.601643e-01 4.601061e-01 3.114414e+00 200 143 153
3.720239e-01 4.453090e-01 3.115661e+00 178 163 167
3.681539e-01 4.501751e-01 3.115453e+00 190 138 133
3.656842e-01 4.532886e-01 3.115250e+00 164 77 68
3.670272e-01 4.517874e-01 3.115399e+00 188 135 108
3.590895e-01 4.619785e-01 3.114295e+00 192 106 103
3.646998e-01 4.549616e-01 3.115195e+00 195 148 115
3.600810e-01 4.608602e-01 3.114452e+00 182 159 181
3.639379e-01 4.561640e-01 3.115134e+00 214 161 133
3.702430e-01 4.483223e-01 3.115768e+00 187 167 166
3.678010e-01 4.514443e-01 3.115547e+00 233 130 113
3.585586e-01 4.632653e-01 3.114169e+00 184 166 174
3.698748e-01 4.490371e-01 3.115756e+00 159 107 106
3.583194e-01 4.636209e-01 3.114146e+00 198 128 120
3.710298e-01 4.476509e-01 3.115813e+00 194 164 173
3.590465e-01 4.627660e-01 3.114327e+00 124 96 92
3.702829e-01 4.486426e-01 3.115786e+00 132 103 107
3.565516e-01 4.660178e-01 3.113787e+00 181 167 180
3.721011e-01 4.464326e-01 3.115891e+00 173 120 92
3.724667e-01 4.461974e-01 3.115944e+00 131 114 113
3.702742e-01 4.489611e-01 3.115840e+00 164 142 145
3.685765e-01 4.511292e-01 3.115714e+00 126 100 93
3.696811e-01 4.498347e-01 3.115836e+00 162 146 149
3.685361e-01 4.513874e-01 3.115683e+00 172 143 132
3.662001e-01 4.542890e-01 3.115486e+00 160 120 99
3.614294e-01 4.603953e-01 3.114813e+00 211 151 133
3.614294e-01 4.603953e-01 3.114813e+00 211 151 133
3.647331e-01 4.562635e-01 3.115331e+00 186 133 102
3.619840e-01 4.598134e-01 3.114950e+00 180 116 91
3.561516e-01 4.672413e-01 3.113700e+00 165 117 97
3.992197e-01 4.145628e-01 3.113462e+00 181 178 189
3.640924e-01 4.574548e-01 3.115269e+00 126 100 99
3.596276e-01 4.631582e-01 3.114534e+00 106 90 88
3.544206e-01 4.700726e-01 3.113278e+00 125 103 112
3.598795e-01 4.631394e-01 3.114569e+00 158 146 148
3.516362e-01 4.738858e-01 3.112503e+00 127 106 109
3.584783e-01 4.650948e-01 3.114295e+00 202 184 170
3.604091e-01 4.627507e-01 3.114718e+00 178 161 164
4.004380e-01 4.140046e-01 3.113439e+00 168 164 175
4.017386e-01 4.148651e-01 3.113916e+00 204 203 211
3.848372e-01 4.355994e-01 3.116492e+00 150 146 154
3.848372e-01 4.355994e-01 3.116492e+00 150 146 154
4.091984e-01 4.075829e-01 3.112668e+00 146 148 146
4.077796e-01 4.093557e-01 3.113023e+00 110 108 109
3.863654e-01 4.348700e-01 3.116646e+00 171 162 167
3.863654e-01 4.348700e-01 3.116646e+00 171 162 167
4.070989e-01 4.103179e-01 3.113244e+00 100 100 100
4.065218e-01 4.110773e-01 3.113435e+00 107 105 106
4.077686e-01 4.106492e-01 3.113480e+00 99 98 87
3.937441e-01 4.273161e-01 3.116179e+00 156 156 166
3.915437e-01 4.301831e-01 3.116439e+00 184 184 192
3.915437e-01 4.301831e-01 3.116439e+00 184 184 192
3.717075e-01 4.545274e-01 3.116896e+00 174 167 174
4.011254e-01 4.190601e-01 3.115025e+00 76 82 80
4.092079e-01 4.096094e-01 3.113384e+00 98 91 85
3.715409e-01 4.550713e-01 3.116931e+00 186 177 182
4.089658e-01 4.102831e-01 3.113452e+00 92 89 81
3.552177e-01 4.762888e-01 3.113778e+00 182 178 185
3.978063e-01 4.236627e-01 3.115824e+00 96 101 95
3.829977e-01 4.416281e-01 3.117339e+00 149 144 150
3.829977e-01 4.416281e-01 3.117339e+00 149 144 150
3.876648e-01 4.363397e-01 3.117180e+00 211 210 218
3.861033e-01 4.384672e-01 3.117371e+00 214 211 218
3.555919e-01 4.768281e-01 3.113914e+00 108 103 109
3.820922e-01 4.434187e-01 3.117544e+00 168 164 171
3.990256e-01 4.230856e-01 3.115826e+00 91 94 85
3.965977e-01 4.260369e-01 3.116286e+00 176 167 168
3.965977e-01 4.260369e-01 3.116286e+00 176 167 168
3.552790e-01 4.774694e-01 3.113795e+00 157 152 156
3.939232e-01 4.299998e-01 3.116838e+00 145 146 141
3.896897e-01 4.351484e-01 3.117335e+00 171 171 169
3.772047e-01 4.506012e-01 3.117652e+00 173 168 174
3.562581e-01 4.772174e-01 3.114116e+00 163 158 164
3.762608e-01 4.518000e-01 3.117609e+00 184 177 184
3.722506e-01 4.571654e-01 3.117342e+00 166 159 166
3.764200e-01 4.520579e-01 3.117705e+00 214 207 214
4.097233e-01 4.120780e-01 3.114146e+00 79 80 74
3.835734e-01 4.433178e-01 3.117804e+00 117 117 114
3.840341e-01 4.432141e-01 3.117904e+00 112 114 109
3.840341e-01 4.432141e-01 3.117904e+00 112 114 109
3.826963e-01 4.449641e-01 3.117934e+00 155 153 154
3.849110e-01 4.424283e-01 3.117851e+00 99 100 94
3.568662e-01 4.779681e-01 3.114331e+00 206 205 213
3.922192e-01 4.338313e-01 3.117418e+00 127 127 116
3.922192e-01 4.338313e-01 3.117418e+00 127 127 116
3.908011e-01 4.355204e-01 3.117626e+00 120 121 107
4.094821e-01 4.134410e-01 3.114593e+00 105 105 93
4.094821e-01 4.134410e-01 3.114593e+00 105 105 93
3.811608e-01 4.473601e-01 3.118002e+00 144 143 132
3.816338e-01 4.470996e-01 3.118055e+00 148 146 133
3.764364e-01 4.536201e-01 3.117892e+00 192 184 182
3.821725e-01 4.467898e-01 3.118112e+00 163 161 148
3.396975e-01 5.016862e-01 3.107336e+00 80 89 82
3.599313e-01 4.753840e-01 3.115265e+00 194 188 192
4.030259e-01 4.222580e-01 3.116136e+00 89 100 84
3.373202e-01 5.055053e-01 3.106095e+00 118 122 105
3.373202e-01 5.055053e-01 3.106095e+00 118 122 105
3.587600e-01 4.770105e-01 3.114885e+00 155 149 156
3.408857e-01 5.007474e-01 3.107893e+00 64 75 62
3.702740e-01 4.622840e-01 3.117378e+00 132 122 113
3.601442e-01 4.755020e-01 3.115280e+00 131 122 124
3.955396e-01 4.315809e-01 3.117471e+00 129 134 130
3.705068e-01 4.623984e-01 3.117421e+00 172 162 152
3.957766e-01 4.314733e-01 3.117441e+00 77 82 76
3.652747e-01 4.695127e-01 3.116553e+00 144 143 140
3.611556e-01 4.749253e-01 3.115575e+00 159 154 150
4.046778e-01 4.214756e-01 3.116229e+00 53 65 29
4.046778e-01 4.214756e-01 3.116229e+00 53 65 29
3.887224e-01 4.406139e-01 3.118192e+00 139 142 135
3.941598e-01 4.340812e-01 3.117807e+00 114 116 113
3.952775e-01 4.328445e-01 3.117658e+00 71 75 74
3.573412e-01 4.802786e-01 3.114538e+00 147 144 139
3.764241e-01 4.560883e-01 3.118182e+00 111 114 106
3.899139e-01 4.395772e-01 3.118264e+00 156 147 148
4.132815e-01 4.119435e-01 3.114635e+00 102 123 67
4.132815e-01 4.119435e-01 3.114635e+00 102 123 67
4.099501e-01 4.158921e-01 3.115357e+00 108 112 96
4.099501e-01 4.158921e-01 3.115357e+00 108 112 96
3.855680e-01 4.451053e-01 3.118486e+00 151 151 149
4.107522e-01 4.151108e-01 3.115213e+00 33 40 24
3.930600e-01 4.361343e-01 3.118085e+00 139 134 138
3.930600e-01 4.361343e-01 3.118085e+00 139 134 138
3.797544e-01 4.524207e-01 3.118433e+00 112 110 98
4.133702e-01 4.121848e-01 3.114588e+00 104 127 71
