ply
format ascii 1.0
element face 0
property list uchar int vertex_indices
element vertex 955
property float x
property float y
property float z
property uchar diffuse_red
property uchar diffuse_green
property uchar diffuse_blue
end_header
4.947109e-01 5.506570e-01 3.143304e+00 120 123 132
4.974270e-01 5.550304e-01 3.135113e+00 124 126 141
4.636332e-01 6.053288e-01 3.128219e+00 98 104 119
5.171084e-01 5.325905e-01 3.136716e+00 170 172 187
5.171084e-01 5.325905e-01 3.136716e+00 170 172 187
5.012589e-01 5.552245e-01 3.134397e+00 122 122 134
5.117181e-01 5.473375e-01 3.130113e+00 159 159 171
5.180224e-01 5.317052e-01 3.139034e+00 101 100 114
5.180224e-01 5.317052e-01 3.139034e+00 101 100 114
4.695039e-01 6.081758e-01 3.123856e+00 103 105 120
5.017518e-01 5.595303e-01 3.134862e+00 111 115 127
4.815942e-01 5.881793e-01 3.131500e+00 114 120 134
5.025836e-01 5.596707e-01 3.134784e+00 168 170 183
4.820319e-01 5.884339e-01 3.132284e+00 114 122 135
4.877184e-01 5.870307e-01 3.126809e+00 118 118 128
4.732732e-01 6.114416e-01 3.122061e+00 114 118 124
5.285627e-01 5.327596e-01 3.132528e+00 220 236 255
5.280631e-01 5.337195e-01 3.133400e+00 117 124 143
4.680999e-01 6.176210e-01 3.125148e+00 99 99 115
5.253194e-01 5.366055e-01 3.135868e+00 103 106 121
5.253042e-01 5.441483e-01 3.129782e+00 83 85 97
4.893999e-01 5.980999e-01 3.122322e+00 145 148 157
4.822373e-01 6.059688e-01 3.124075e+00 83 81 94
4.748276e-01 6.137526e-01 3.126480e+00 116 118 130
4.932718e-01 5.903418e-01 3.127428e+00 159 157 168
4.932676e-01 5.914227e-01 3.126470e+00 111 111 119
4.787942e-01 6.128307e-01 3.123261e+00 132 131 139
4.896986e-01 5.971175e-01 3.126134e+00 80 82 94
4.844698e-01 6.038328e-01 3.126050e+00 92 90 103
4.799640e-01 6.126826e-01 3.122965e+00 56 55 63
4.854082e-01 6.053783e-01 3.124747e+00 133 136 145
4.743205e-01 6.162018e-01 3.128048e+00 70 73 88
4.879169e-01 6.056740e-01 3.123080e+00 124 121 132
4.970768e-01 5.935711e-01 3.124381e+00 66 66 76
4.729674e-01 6.188247e-01 3.128611e+00 154 166 188
4.844073e-01 6.112538e-01 3.122803e+00 79 79 91
4.898273e-01 6.034021e-01 3.124300e+00 43 42 48
5.116373e-01 5.719270e-01 3.129665e+00 140 144 155
4.891355e-01 6.064165e-01 3.123999e+00 78 78 87
5.131503e-01 5.737627e-01 3.126985e+00 220 232 246
4.922433e-01 6.010264e-01 3.126342e+00 99 99 109
4.922433e-01 6.010264e-01 3.126342e+00 99 99 109
4.766419e-01 6.227546e-01 3.123952e+00 202 222 247
5.332761e-01 5.504237e-01 3.127448e+00 154 154 164
5.153847e-01 5.666753e-01 3.133277e+00 108 106 117
5.262183e-01 5.593804e-01 3.127636e+00 133 133 141
4.815734e-01 6.215566e-01 3.121680e+00 151 150 161
5.403443e-01 5.411789e-01 3.128524e+00 213 230 252
5.271736e-01 5.615954e-01 3.125199e+00 137 136 142
5.333021e-01 5.523695e-01 3.126741e+00 59 58 66
5.341336e-01 5.523941e-01 3.126176e+00 135 133 144
5.346257e-01 5.430786e-01 3.134602e+00 124 126 138
4.919377e-01 6.077145e-01 3.125252e+00 55 57 66
4.919377e-01 6.077145e-01 3.125252e+00 55 57 66
4.932074e-01 6.067893e-01 3.125031e+00 60 62 74
5.337278e-01 5.461808e-01 3.134225e+00 100 106 120
5.295936e-01 5.589740e-01 3.127465e+00 101 101 109
5.193650e-01 5.701875e-01 3.129795e+00 83 81 92
5.422022e-01 5.435027e-01 3.128708e+00 70 77 96
5.263362e-01 5.673274e-01 3.125375e+00 154 149 155
5.293118e-01 5.626544e-01 3.126897e+00 127 129 141
5.181277e-01 5.719437e-01 3.131276e+00 93 95 107
5.205472e-01 5.697472e-01 3.131278e+00 72 71 85
5.299458e-01 5.646691e-01 3.125570e+00 54 51 62
5.427994e-01 5.456525e-01 3.128273e+00 74 73 84
5.366431e-01 5.543978e-01 3.127598e+00 131 133 145
5.282733e-01 5.673718e-01 3.125521e+00 146 143 150
5.197910e-01 5.785643e-01 3.124945e+00 108 127 158
5.197910e-01 5.785643e-01 3.124945e+00 108 127 158
5.284728e-01 5.668297e-01 3.126308e+00 145 144 152
5.374669e-01 5.558078e-01 3.126750e+00 121 122 134
5.045864e-01 6.004682e-01 3.123650e+00 136 147 169
5.033575e-01 6.004129e-01 3.125310e+00 130 132 148
5.363055e-01 5.600004e-01 3.124873e+00 71 68 74
5.358773e-01 5.587030e-01 3.126940e+00 120 114 121
5.369125e-01 5.576878e-01 3.126790e+00 38 35 46
5.226922e-01 5.728528e-01 3.129346e+00 100 104 115
5.229849e-01 5.754319e-01 3.127045e+00 80 81 101
5.373603e-01 5.587332e-01 3.126185e+00 137 134 144
4.902648e-01 6.239476e-01 3.120236e+00 130 136 162
4.885973e-01 6.278330e-01 3.119102e+00 62 65 80
5.030525e-01 6.074525e-01 3.123358e+00 129 136 154
5.380402e-01 5.517902e-01 3.134254e+00 136 140 152
5.079130e-01 6.047780e-01 3.121566e+00 134 149 172
5.387275e-01 5.614981e-01 3.125909e+00 139 140 146
5.036021e-01 6.093411e-01 3.122389e+00 72 81 110
5.043263e-01 6.083297e-01 3.122741e+00 85 93 116
5.503639e-01 5.481909e-01 3.125140e+00 200 228 255
5.010676e-01 6.132522e-01 3.122250e+00 216 236 255
5.324487e-01 5.673821e-01 3.128915e+00 137 137 147
5.356286e-01 5.699867e-01 3.124902e+00 160 158 169
5.427792e-01 5.616120e-01 3.125958e+00 92 89 100
5.507596e-01 5.533811e-01 3.125598e+00 137 145 165
5.469876e-01 5.578501e-01 3.127448e+00 163 167 174
5.521810e-01 5.630410e-01 3.122140e+00 53 57 69
4.010219e-01 5.156217e-01 3.124468e+00 95 86 83
3.979595e-01 5.232159e-01 3.124875e+00 154 152 163
4.458062e-01 4.662021e-01 3.130482e+00 129 128 134
3.822232e-01 5.625688e-01 3.132200e+00 161 194 225
4.170511e-01 5.207215e-01 3.123903e+00 84 73 77
3.892407e-01 5.564291e-01 3.137730e+00 177 175 186
4.147346e-01 5.314878e-01 3.125735e+00 141 138 145
4.139070e-01 5.329500e-01 3.124330e+00 169 168 173
4.213508e-01 5.235931e-01 3.124182e+00 86 83 90
4.339216e-01 5.080040e-01 3.125372e+00 121 115 119
4.235373e-01 5.225025e-01 3.124240e+00 98 97 103
4.462171e-01 4.951361e-01 3.127081e+00 168 165 172
4.549358e-01 4.848372e-01 3.131029e+00 164 163 169
4.381746e-01 5.072799e-01 3.125383e+00 159 156 163
4.471228e-01 4.915314e-01 3.153570e+00 102 102 113
4.217894e-01 5.309775e-01 3.123813e+00 115 109 109
4.280110e-01 5.249376e-01 3.124193e+00 133 124 127
4.090499e-01 5.498567e-01 3.124391e+00 96 93 99
4.409813e-01 5.094356e-01 3.149287e+00 118 112 116
4.078219e-01 5.580073e-01 3.124864e+00 175 177 190
4.654345e-01 4.835663e-01 3.130182e+00 143 142 151
4.346420e-01 5.254020e-01 3.124466e+00 138 127 135
4.421614e-01 5.172045e-01 3.125204e+00 92 83 88
4.421614e-01 5.172045e-01 3.125204e+00 92 83 88
4.209517e-01 5.460651e-01 3.131691e+00 130 129 137
4.597647e-01 4.994696e-01 3.128013e+00 132 132 144
4.662566e-01 4.895050e-01 3.134791e+00 96 96 108
4.481496e-01 5.179465e-01 3.125679e+00 147 142 149
4.497726e-01 5.164555e-01 3.125920e+00 84 83 89
4.547768e-01 5.099798e-01 3.127496e+00 93 88 92
4.462094e-01 5.142151e-01 3.149296e+00 81 78 85
4.469607e-01 5.232587e-01 3.126846e+00 120 120 130
4.363166e-01 5.378518e-01 3.125604e+00 161 161 169
4.404358e-01 5.351571e-01 3.125137e+00 165 162 173
4.602242e-01 5.174862e-01 3.126954e+00 149 144 150
4.445336e-01 5.497539e-01 3.126090e+00 110 105 111
4.333183e-01 5.909380e-01 3.132200e+00 104 103 111
4.916683e-01 5.087310e-01 3.146140e+00 182 185 194
4.886133e-01 5.178117e-01 3.140290e+00 51 55 64
4.329124e-01 5.933301e-01 3.131574e+00 136 148 162
4.420225e-01 5.839750e-01 3.132505e+00 160 159 164
4.389018e-01 5.907404e-01 3.130115e+00 103 104 109
4.393425e-01 5.881090e-01 3.134600e+00 183 184 189
4.391800e-01 5.879703e-01 3.135522e+00 130 131 136
4.482610e-01 5.778330e-01 3.133767e+00 114 112 124
4.824615e-01 5.335237e-01 3.137881e+00 39 34 41
4.474564e-01 5.837262e-01 3.129068e+00 113 112 118
4.430862e-01 5.876192e-01 3.135246e+00 74 73 79
4.545696e-01 5.780437e-01 3.130787e+00 138 137 145
4.720878e-01 5.555830e-01 3.132968e+00 177 181 192
4.399339e-01 5.986044e-01 3.130666e+00 160 163 178
4.391767e-01 6.003157e-01 3.129801e+00 219 236 244
4.915878e-01 5.299000e-01 3.137071e+00 143 144 149
4.632097e-01 5.651739e-01 3.137457e+00 180 180 182
4.840804e-01 5.371874e-01 3.140706e+00 149 147 152
4.761217e-01 5.534565e-01 3.132866e+00 140 140 150
4.840213e-01 5.420924e-01 3.135375e+00 117 114 121
4.902326e-01 5.303369e-01 3.140992e+00 179 179 187
4.768553e-01 5.475541e-01 3.140270e+00 61 62 74
4.975194e-01 5.257826e-01 3.135943e+00 138 136 141
4.492545e-01 5.915259e-01 3.130776e+00 140 143 150
4.491295e-01 5.917865e-01 3.130920e+00 93 93 103
4.760706e-01 5.545395e-01 3.135698e+00 145 142 149
4.496514e-01 5.903568e-01 3.132258e+00 76 79 86
4.924232e-01 5.305487e-01 3.141497e+00 140 135 142
5.009403e-01 5.237065e-01 3.137787e+00 109 108 112
4.914640e-01 5.387087e-01 3.134552e+00 88 85 93
4.858881e-01 5.449568e-01 3.135954e+00 84 82 87
4.605155e-01 5.756895e-01 3.138406e+00 122 125 132
4.852904e-01 5.434330e-01 3.141237e+00 143 140 147
4.964437e-01 5.339188e-01 3.136279e+00 148 146 151
4.865542e-01 5.475550e-01 3.135825e+00 142 140 145
4.639463e-01 5.745905e-01 3.138613e+00 96 96 106
5.070423e-01 5.200249e-01 3.140004e+00 157 157 168
4.647852e-01 5.766750e-01 3.135544e+00 149 152 161
4.669116e-01 5.723524e-01 3.139665e+00 138 140 153
5.131863e-01 5.178615e-01 3.137314e+00 129 127 141
4.952497e-01 5.389698e-01 3.140704e+00 126 121 128
4.904301e-01 5.520022e-01 3.133833e+00 161 163 176
4.904590e-01 5.541296e-01 3.131925e+00 156 160 172
5.176594e-01 5.208219e-01 3.136258e+00 111 123 144
4.559009e-01 6.061158e-01 3.128592e+00 126 132 146
5.071715e-01 5.301511e-01 3.143259e+00 151 155 168
5.189641e-01 5.211453e-01 3.136868e+00 198 224 249
5.253174e-01 5.310075e-01 3.132056e+00 155 157 175
5.258329e-01 5.302353e-01 3.132440e+00 135 155 178
5.162897e-01 5.504858e-01 3.128546e+00 99 100 112
4.838464e-01 5.904466e-01 3.130735e+00 161 164 181
4.671218e-01 6.190502e-01 3.123515e+00 199 220 238
4.850334e-01 5.953247e-01 3.125533e+00 101 103 115
4.757259e-01 6.098204e-01 3.122913e+00 147 144 155
4.683867e-01 6.175202e-01 3.124372e+00 91 91 105
4.793725e-01 6.055638e-01 3.124081e+00 101 100 110
4.684872e-01 6.152837e-01 3.128252e+00 152 151 169
4.740413e-01 6.128663e-01 3.125592e+00 60 63 70
4.706494e-01 6.160659e-01 3.129014e+00 106 108 122
4.857532e-01 6.048129e-01 3.123605e+00 129 127 138
5.106479e-01 5.710885e-01 3.126398e+00 221 237 252
4.872159e-01 6.051653e-01 3.122972e+00 118 115 124
4.813636e-01 6.139295e-01 3.121666e+00 70 70 80
4.863030e-01 6.043298e-01 3.125207e+00 60 57 68
4.993712e-01 5.951622e-01 3.120511e+00 136 136 146
4.829226e-01 6.119946e-01 3.123989e+00 61 60 68
5.249482e-01 5.594136e-01 3.125448e+00 119 120 124
4.836512e-01 6.115477e-01 3.124657e+00 151 149 160
5.227796e-01 5.637183e-01 3.124164e+00 116 115 121
4.917195e-01 5.963220e-01 3.130121e+00 91 92 110
4.782476e-01 6.191914e-01 3.125245e+00 87 89 102
5.206784e-01 5.652284e-01 3.127149e+00 152 151 157
5.157247e-01 5.715446e-01 3.127056e+00 65 63 77
5.336589e-01 5.529464e-01 3.124700e+00 129 128 134
5.138137e-01 5.754984e-01 3.128619e+00 223 240 255
4.863526e-01 6.146077e-01 3.124225e+00 88 87 101
4.863526e-01 6.146077e-01 3.124225e+00 88 87 101
4.941525e-01 6.045800e-01 3.124780e+00 164 168 180
4.889745e-01 6.109779e-01 3.125105e+00 136 139 148
5.100532e-01 5.611956e-01 3.146997e+00 162 162 172
4.885880e-01 6.118395e-01 3.126072e+00 124 124 136
5.180418e-01 5.691192e-01 3.132022e+00 129 129 139
5.192713e-01 5.680857e-01 3.131676e+00 89 89 99
5.179064e-01 5.772926e-01 3.125436e+00 207 224 241
5.331636e-01 5.602555e-01 3.124358e+00 99 99 107
5.351806e-01 5.573222e-01 3.124907e+00 64 58 64
4.981460e-01 6.021886e-01 3.126042e+00 153 155 168
5.220296e-01 5.776652e-01 3.121879e+00 94 102 125
5.320801e-01 5.599087e-01 3.126817e+00 144 143 151
5.326402e-01 5.594502e-01 3.126903e+00 127 126 132
5.262151e-01 5.676911e-01 3.126701e+00 119 116 125
5.362252e-01 5.524622e-01 3.129708e+00 80 79 93
5.431044e-01 5.467249e-01 3.128112e+00 150 150 160
5.372428e-01 5.512852e-01 3.130515e+00 65 67 81
5.447561e-01 5.460278e-01 3.128103e+00 138 140 153
5.234726e-01 5.725524e-01 3.128402e+00 138 137 150
4.893448e-01 6.233805e-01 3.121130e+00 66 70 95
5.391782e-01 5.484044e-01 3.132639e+00 88 86 100
4.865928e-01 6.265791e-01 3.121974e+00 123 133 153
4.961281e-01 6.146378e-01 3.122609e+00 132 138 160
5.353415e-01 5.610720e-01 3.127070e+00 174 176 185
5.386081e-01 5.596581e-01 3.125109e+00 164 163 171
5.313590e-01 5.660919e-01 3.127471e+00 166 169 178
4.989147e-01 6.119805e-01 3.122754e+00 129 135 157
4.976391e-01 6.160482e-01 3.121066e+00 81 90 117
5.381112e-01 5.600536e-01 3.126288e+00 113 116 121
5.044653e-01 6.063326e-01 3.123554e+00 98 105 124
5.281154e-01 5.741305e-01 3.126816e+00 124 122 135
5.412768e-01 5.518872e-01 3.132045e+00 92 95 108
4.961439e-01 6.338753e-01 3.112463e+00 178 205 235
5.415845e-01 5.633454e-01 3.125397e+00 102 99 108
5.381392e-01 5.755391e-01 3.121986e+00 183 190 209
5.380674e-01 5.754604e-01 3.123134e+00 62 71 96
5.496422e-01 5.577060e-01 3.126430e+00 100 98 109
5.489441e-01 5.660513e-01 3.122261e+00 68 73 93
5.489441e-01 5.660513e-01 3.122261e+00 68 73 93
4.116172e-01 5.355564e-01 3.124238e+00 138 137 143
4.195919e-01 5.263419e-01 3.123834e+00 110 109 117
4.195919e-01 5.263419e-01 3.123834e+00 110 109 117
4.175009e-01 5.292252e-01 3.123975e+00 127 126 134
4.263535e-01 5.183411e-01 3.125355e+00 152 149 156
4.273456e-01 5.172090e-01 3.125447e+00 154 153 161
4.353826e-01 5.084429e-01 3.125120e+00 138 137 144
4.459842e-01 4.954548e-01 3.126865e+00 139 136 143
4.555710e-01 4.842393e-01 3.129053e+00 147 148 153
4.620332e-01 4.797035e-01 3.130214e+00 163 163 173
4.195190e-01 5.353038e-01 3.144766e+00 118 109 112
4.421902e-01 5.127469e-01 3.125643e+00 137 130 136
4.475646e-01 5.074216e-01 3.126162e+00 79 73 74
4.499024e-01 5.047415e-01 3.126655e+00 136 127 130
4.143112e-01 5.553626e-01 3.124455e+00 123 121 127
4.232311e-01 5.455646e-01 3.124270e+00 138 133 137
4.334782e-01 5.335400e-01 3.125039e+00 148 143 149
4.440974e-01 5.217188e-01 3.125470e+00 166 164 165
4.410581e-01 5.260245e-01 3.124864e+00 119 116 123
4.451323e-01 5.141417e-01 3.149385e+00 169 163 167
4.428891e-01 5.220058e-01 3.134445e+00 153 152 157
4.400471e-01 5.312419e-01 3.124820e+00 126 124 135
4.655225e-01 5.023473e-01 3.129809e+00 150 148 161
4.335479e-01 5.473563e-01 3.124523e+00 144 141 150
4.808830e-01 5.307443e-01 3.138242e+00 109 111 124
4.386961e-01 5.930261e-01 3.129656e+00 150 149 157
4.522660e-01 5.736057e-01 3.136820e+00 139 137 148
4.386785e-01 5.930382e-01 3.134803e+00 155 153 164
4.413067e-01 5.982376e-01 3.130586e+00 79 84 97
4.617317e-01 5.702675e-01 3.134911e+00 144 144 149
4.884957e-01 5.374525e-01 3.134482e+00 81 78 83
4.965658e-01 5.255897e-01 3.137196e+00 101 98 105
4.435487e-01 5.966199e-01 3.132981e+00 123 126 135
4.456335e-01 5.949157e-01 3.134422e+00 110 108 119
4.480740e-01 5.934327e-01 3.133721e+00 111 109 122
4.931883e-01 5.378763e-01 3.135742e+00 115 110 116
4.758821e-01 5.570275e-01 3.140597e+00 138 149 167
4.920461e-01 5.401596e-01 3.142304e+00 136 135 142
4.883478e-01 5.468540e-01 3.139997e+00 90 90 100
4.950228e-01 5.440296e-01 3.133921e+00 110 105 111
5.095967e-01 5.303322e-01 3.140833e+00 90 96 111
5.095967e-01 5.303322e-01 3.140833e+00 90 96 111
4.786010e-01 5.823600e-01 3.142108e+00 168 174 186
4.677136e-01 6.185690e-01 3.123757e+00 100 108 126
4.794298e-01 6.036466e-01 3.125236e+00 110 110 120
4.712807e-01 6.127425e-01 3.128874e+00 91 93 108
4.763472e-01 6.142733e-01 3.125054e+00 174 172 183
4.763472e-01 6.142733e-01 3.125054e+00 174 172 183
4.993551e-01 5.927161e-01 3.122723e+00 135 148 168
4.978919e-01 5.918206e-01 3.125881e+00 115 126 144
4.957451e-01 5.932248e-01 3.127574e+00 147 146 158
4.978209e-01 5.911204e-01 3.127181e+00 129 146 164
5.285682e-01 5.559527e-01 3.126724e+00 96 90 100
5.342236e-01 5.533004e-01 3.123370e+00 115 114 120
5.274456e-01 5.573115e-01 3.127930e+00 131 128 135
5.285560e-01 5.586034e-01 3.126270e+00 118 117 125
4.797362e-01 6.219770e-01 3.123662e+00 111 113 126
4.796664e-01 6.258106e-01 3.120590e+00 121 124 141
4.943990e-01 6.045385e-01 3.124946e+00 133 137 149
5.044667e-01 5.996479e-01 3.120611e+00 116 134 156
5.318861e-01 5.649433e-01 3.125782e+00 109 111 123
5.294731e-01 5.677386e-01 3.125999e+00 175 175 183
5.393900e-01 5.473970e-01 3.133696e+00 82 81 95
4.998022e-01 6.124452e-01 3.122096e+00 119 125 149
5.010096e-01 6.141856e-01 3.121633e+00 179 201 225
5.336053e-01 5.827888e-01 3.119528e+00 99 110 130
5.359045e-01 5.813651e-01 3.122556e+00 158 188 216
5.539652e-01 5.619583e-01 3.122232e+00 90 92 109
4.522090e-01 5.247155e-01 3.138623e+00 144 140 141
3.901012e-01 5.230164e-01 3.125642e+00 78 72 76
3.908650e-01 5.538391e-01 3.125955e+00 181 178 184
3.920758e-01 5.548379e-01 3.139490e+00 85 85 94
4.087067e-01 5.404359e-01 3.137100e+00 146 140 140
4.087401e-01 5.404630e-01 3.136904e+00 146 140 140
3.350546e-01 5.014593e-01 3.088410e+00 57 63 59
3.276850e-01 5.121810e-01 3.087962e+00 59 63 63
4.438208e-01 4.944626e-01 3.128606e+00 184 183 188
4.233473e-01 5.268306e-01 3.137594e+00 172 167 173
4.529836e-01 5.196560e-01 3.127396e+00 146 145 150
4.212768e-01 5.677858e-01 3.126567e+00 109 104 108
4.671724e-01 5.106283e-01 3.143264e+00 193 192 198
4.626511e-01 5.167644e-01 3.141657e+00 125 116 117
4.693973e-01 5.542051e-01 3.139370e+00 151 157 167
4.907097e-01 5.343792e-01 3.140446e+00 37 32 39
4.867523e-01 5.531867e-01 3.142168e+00 124 133 145
3.993544e-01 4.805297e-01 3.126098e+00 122 125 136
4.151194e-01 4.729649e-01 3.131154e+00 149 139 147
4.475574e-01 4.909594e-01 3.153828e+00 191 192 204
4.427500e-01 5.082249e-01 3.127017e+00 164 159 166
4.029328e-01 5.610510e-01 3.126160e+00 104 102 111
4.680365e-01 5.043149e-01 3.129934e+00 96 99 108
4.307932e-01 5.541016e-01 3.125608e+00 141 134 141
4.589619e-01 5.232241e-01 3.128752e+00 178 178 188
4.634929e-01 5.780711e-01 3.138934e+00 13 12 28
4.932368e-01 5.586166e-01 3.143137e+00 110 115 134
3.799305e-01 4.886538e-01 3.121489e+00 82 112 61
3.977654e-01 5.127305e-01 3.142009e+00 119 109 108
4.162762e-01 4.909655e-01 3.128865e+00 167 158 161
4.162762e-01 4.909655e-01 3.128865e+00 167 158 161
4.420999e-01 4.654750e-01 3.130864e+00 145 142 149
4.540573e-01 4.876462e-01 3.154191e+00 73 68 74
4.122411e-01 5.466024e-01 3.125483e+00 87 78 81
4.430565e-01 5.291917e-01 3.125568e+00 193 193 203
3.826883e-01 4.825547e-01 3.122154e+00 23 40 22
3.823868e-01 4.835269e-01 3.122075e+00 18 31 15
3.812091e-01 4.915819e-01 3.122296e+00 97 123 75
4.110235e-01 4.897754e-01 3.135303e+00 136 131 135
4.098198e-01 4.933783e-01 3.129450e+00 32 26 27
4.303482e-01 4.690323e-01 3.129755e+00 29 20 23
3.759616e-01 5.392194e-01 3.126659e+00 166 161 165
4.017519e-01 5.097485e-01 3.139594e+00 168 158 156
3.829751e-01 5.347043e-01 3.134497e+00 88 79 80
3.980221e-01 5.188098e-01 3.125506e+00 175 170 174
4.034410e-01 5.130563e-01 3.140795e+00 126 115 111
3.823309e-01 5.385121e-01 3.126244e+00 153 147 147
3.989347e-01 5.213937e-01 3.146951e+00 52 47 54
4.453109e-01 4.696879e-01 3.131054e+00 124 124 136
3.900970e-01 5.382480e-01 3.125907e+00 79 73 75
4.209329e-01 5.052056e-01 3.126299e+00 128 119 120
4.165257e-01 5.145598e-01 3.126289e+00 135 123 123
4.212119e-01 5.185531e-01 3.125585e+00 157 146 150
4.078473e-01 5.420820e-01 3.140391e+00 164 158 160
4.249148e-01 5.253372e-01 3.125116e+00 83 78 82
4.256820e-01 5.260289e-01 3.125298e+00 86 80 84
4.470562e-01 5.010912e-01 3.128338e+00 170 162 166
4.294875e-01 5.182123e-01 3.147326e+00 181 175 179
4.029587e-01 5.542928e-01 3.137416e+00 97 95 100
4.660602e-01 4.968991e-01 3.130079e+00 175 174 182
4.126856e-01 5.658463e-01 3.131384e+00 183 181 192
4.814890e-01 4.865331e-01 3.138342e+00 57 71 98
4.695726e-01 5.063316e-01 3.140363e+00 54 50 56
4.596200e-01 5.238663e-01 3.128015e+00 188 188 198
4.812074e-01 5.001845e-01 3.137842e+00 112 116 127
4.479418e-01 5.500285e-01 3.135225e+00 175 174 180
4.844241e-01 5.208642e-01 3.139428e+00 169 174 186
4.844241e-01 5.208642e-01 3.139428e+00 169 174 186
4.915793e-01 5.215098e-01 3.140550e+00 169 168 176
4.724016e-01 5.482163e-01 3.139544e+00 49 58 78
4.519403e-01 5.814681e-01 3.129618e+00 28 27 32
4.505685e-01 5.785810e-01 3.136508e+00 28 27 32
4.756174e-01 5.483876e-01 3.140069e+00 28 30 42
4.682737e-01 5.579873e-01 3.138553e+00 27 26 34
4.647949e-01 5.760986e-01 3.138732e+00 164 167 182
3.839566e-01 4.817395e-01 3.122541e+00 13 40 5
4.146750e-01 4.715284e-01 3.127748e+00 153 147 151
4.252765e-01 4.605015e-01 3.129056e+00 74 71 78
3.998030e-01 5.052345e-01 3.139924e+00 141 133 137
3.729597e-01 5.386737e-01 3.127027e+00 156 154 159
3.931947e-01 5.162879e-01 3.147088e+00 105 101 107
3.932375e-01 5.162745e-01 3.146991e+00 105 101 107
3.619731e-01 5.580584e-01 3.130030e+00 26 20 22
4.112667e-01 4.986272e-01 3.126933e+00 160 148 148
3.821956e-01 5.377449e-01 3.126233e+00 99 90 91
3.682443e-01 5.547689e-01 3.129902e+00 57 57 67
4.151104e-01 5.060455e-01 3.125510e+00 146 136 135
3.829970e-01 5.452011e-01 3.126233e+00 189 184 190
4.223307e-01 4.987150e-01 3.128470e+00 158 149 152
4.127735e-01 5.120845e-01 3.125172e+00 94 80 79
4.408401e-01 4.844659e-01 3.129336e+00 62 54 52
3.737620e-01 5.671531e-01 3.129378e+00 138 144 163
3.782391e-01 5.658987e-01 3.129278e+00 36 56 93
4.268363e-01 5.209290e-01 3.125421e+00 159 155 156
4.490319e-01 4.914577e-01 3.151721e+00 148 146 151
3.956721e-01 5.659398e-01 3.126452e+00 87 91 102
4.281814e-01 5.283175e-01 3.125462e+00 77 72 76
4.281814e-01 5.283175e-01 3.125462e+00 77 72 76
4.654568e-01 4.822852e-01 3.131655e+00 183 182 190
4.013267e-01 5.605959e-01 3.125900e+00 41 34 42
4.553676e-01 4.892622e-01 3.154048e+00 193 191 198
4.083038e-01 5.494011e-01 3.139593e+00 42 33 38
4.159470e-01 5.412160e-01 3.141415e+00 138 129 130
4.689844e-01 4.812837e-01 3.132475e+00 174 174 182
4.374732e-01 5.262993e-01 3.125843e+00 129 130 135
4.383729e-01 5.253889e-01 3.125912e+00 119 117 123
4.383729e-01 5.253889e-01 3.125912e+00 119 117 123
4.422222e-01 5.210357e-01 3.126281e+00 135 134 141
4.422222e-01 5.210357e-01 3.126281e+00 135 134 141
4.379434e-01 5.273165e-01 3.126173e+00 138 138 146
4.374153e-01 5.298176e-01 3.125826e+00 147 144 151
4.618686e-01 5.072568e-01 3.129356e+00 97 97 107
4.109916e-01 5.671239e-01 3.135359e+00 186 187 200
4.400258e-01 5.368325e-01 3.126385e+00 27 25 39
4.077878e-01 5.759317e-01 3.130291e+00 118 132 160
4.683739e-01 4.985664e-01 3.151752e+00 179 178 186
4.558603e-01 5.281487e-01 3.127553e+00 36 33 41
4.282926e-01 5.656319e-01 3.126197e+00 161 162 166
4.487065e-01 5.435466e-01 3.132252e+00 36 33 40
4.569203e-01 5.378353e-01 3.136322e+00 72 66 70
4.699837e-01 5.198127e-01 3.141454e+00 97 91 93
4.561239e-01 5.412234e-01 3.134758e+00 116 110 114
4.843865e-01 5.166303e-01 3.139374e+00 76 73 79
4.882539e-01 5.166959e-01 3.143338e+00 60 60 71
4.645154e-01 5.631642e-01 3.138585e+00 131 128 137
4.992188e-01 5.211384e-01 3.141394e+00 166 166 178
4.931530e-01 5.302327e-01 3.141302e+00 139 136 147
5.021215e-01 5.198067e-01 3.141836e+00 165 165 175
4.759309e-01 5.568257e-01 3.140211e+00 139 152 168
4.919740e-01 5.452314e-01 3.142081e+00 99 101 113
4.890945e-01 5.489368e-01 3.141767e+00 163 167 178
5.059438e-01 5.667754e-01 3.145710e+00 140 138 152
3.796901e-01 4.869659e-01 3.121481e+00 28 49 18
4.150687e-01 4.772030e-01 3.130296e+00 116 110 110
4.181829e-01 4.756998e-01 3.127811e+00 118 112 116
3.960680e-01 5.086270e-01 3.143072e+00 149 139 146
4.092264e-01 4.934119e-01 3.144743e+00 57 54 58
3.861925e-01 5.260293e-01 3.126030e+00 68 58 57
4.391576e-01 4.715612e-01 3.130753e+00 137 126 130
4.054496e-01 5.134151e-01 3.125915e+00 149 135 135
4.449875e-01 4.678326e-01 3.131295e+00 174 177 188
4.482916e-01 4.643575e-01 3.132137e+00 108 110 122
4.432280e-01 4.716534e-01 3.131144e+00 76 71 71
3.975252e-01 5.281540e-01 3.139992e+00 132 124 136
4.078455e-01 5.191740e-01 3.124869e+00 91 87 86
4.271014e-01 5.000135e-01 3.127137e+00 189 187 192
3.742247e-01 5.639710e-01 3.129376e+00 94 103 120
4.433538e-01 4.811782e-01 3.130273e+00 124 115 116
4.136225e-01 5.175482e-01 3.125583e+00 85 76 77
4.163106e-01 5.139483e-01 3.142230e+00 149 137 137
4.214223e-01 5.092618e-01 3.145943e+00 79 70 75
4.435343e-01 4.862977e-01 3.129695e+00 138 129 130
4.401391e-01 4.911988e-01 3.141230e+00 196 191 197
3.894298e-01 5.552037e-01 3.138872e+00 193 190 197
4.089128e-01 5.347161e-01 3.124605e+00 199 194 201
4.483200e-01 4.923261e-01 3.128437e+00 87 84 90
3.927364e-01 5.620008e-01 3.126273e+00 108 106 120
4.621261e-01 4.787273e-01 3.131773e+00 181 181 189
3.933398e-01 5.624270e-01 3.126264e+00 102 98 112
4.065049e-01 5.495250e-01 3.125120e+00 90 85 91
4.366787e-01 5.141728e-01 3.126538e+00 176 169 177
4.333490e-01 5.145407e-01 3.146367e+00 76 69 77
4.620483e-01 4.856963e-01 3.130614e+00 175 172 179
4.584860e-01 4.883928e-01 3.155062e+00 71 66 70
4.415971e-01 5.174210e-01 3.126407e+00 134 123 129
4.559942e-01 5.009463e-01 3.128716e+00 104 95 96
4.016949e-01 5.686248e-01 3.128763e+00 172 175 185
4.442873e-01 5.192025e-01 3.127259e+00 129 124 130
4.503313e-01 5.149758e-01 3.127167e+00 169 162 169
4.162453e-01 5.571460e-01 3.125401e+00 66 64 80
4.449139e-01 5.229656e-01 3.136855e+00 175 177 189
4.465334e-01 5.245840e-01 3.126849e+00 182 182 192
4.366287e-01 5.381211e-01 3.127025e+00 35 33 46
4.222965e-01 5.554898e-01 3.125940e+00 187 185 188
4.711760e-01 4.962727e-01 3.131146e+00 160 155 162
4.167415e-01 5.635394e-01 3.126224e+00 158 157 163
4.477011e-01 5.273009e-01 3.126945e+00 84 87 96
4.637848e-01 5.082159e-01 3.129501e+00 146 141 148
4.247108e-01 5.560861e-01 3.125705e+00 62 62 69
4.270661e-01 5.560934e-01 3.128946e+00 39 34 40
4.538785e-01 5.262331e-01 3.127553e+00 28 26 39
4.222812e-01 5.644083e-01 3.129142e+00 60 54 58
4.677291e-01 5.136725e-01 3.129314e+00 77 68 69
4.587423e-01 5.250519e-01 3.127564e+00 154 151 160
4.412082e-01 5.485910e-01 3.126172e+00 106 104 109
4.684997e-01 5.149851e-01 3.129405e+00 76 66 67
4.519398e-01 5.374902e-01 3.127088e+00 18 16 29
4.473763e-01 5.444195e-01 3.126764e+00 26 26 38
4.355901e-01 5.602047e-01 3.133002e+00 167 164 173
4.257453e-01 5.761042e-01 3.129538e+00 164 165 170
4.460510e-01 5.491450e-01 3.135762e+00 182 180 185
4.759094e-01 5.120424e-01 3.144722e+00 169 164 170
4.787656e-01 5.067178e-01 3.149472e+00 186 192 208
4.308727e-01 5.774080e-01 3.129974e+00 64 61 67
4.544722e-01 5.462191e-01 3.135912e+00 172 171 176
4.563191e-01 5.475213e-01 3.135930e+00 53 50 57
4.607126e-01 5.421063e-01 3.137498e+00 44 43 49
4.650721e-01 5.369103e-01 3.138900e+00 79 74 78
4.846868e-01 5.193289e-01 3.139554e+00 202 211 220
4.819750e-01 5.301917e-01 3.139964e+00 39 36 45
4.873332e-01 5.309456e-01 3.138250e+00 180 179 187
4.919988e-01 5.257378e-01 3.141029e+00 18 15 26
4.579180e-01 5.705616e-01 3.137424e+00 195 197 209
4.763217e-01 5.500337e-01 3.140121e+00 67 66 76
4.779877e-01 5.481516e-01 3.140248e+00 151 151 163
4.717515e-01 5.610053e-01 3.134849e+00 80 79 84
4.982758e-01 5.338771e-01 3.142876e+00 126 125 133
4.994776e-01 5.333073e-01 3.142329e+00 140 139 147
5.054923e-01 5.304423e-01 3.142989e+00 85 88 106
5.211558e-01 5.545808e-01 3.147257e+00 161 159 172
3.246598e-01 5.115326e-01 3.085503e+00 107 109 122
3.210988e-01 5.206437e-01 3.088041e+00 44 59 56
3.274321e-01 5.148225e-01 3.088516e+00 105 115 109
3.415883e-01 4.981624e-01 3.089045e+00 93 99 85
3.602519e-01 4.904882e-01 3.094762e+00 34 61 16
3.833623e-01 4.829150e-01 3.122415e+00 91 114 77
3.949530e-01 4.839076e-01 3.125710e+00 37 36 52
3.982524e-01 4.805572e-01 3.125537e+00 51 53 70
4.129347e-01 4.766728e-01 3.127644e+00 145 140 144
4.131949e-01 4.772081e-01 3.127409e+00 88 83 87
4.283048e-01 4.624155e-01 3.129464e+00 75 70 74
3.740322e-01 5.304660e-01 3.137129e+00 160 154 158
4.327116e-01 4.588989e-01 3.132815e+00 172 172 184
3.848731e-01 5.212038e-01 3.125958e+00 52 43 44
4.193715e-01 4.830746e-01 3.130335e+00 101 95 99
4.193715e-01 4.830746e-01 3.130335e+00 101 95 99
4.039424e-01 5.046241e-01 3.123577e+00 160 154 156
4.123797e-01 4.949487e-01 3.126965e+00 148 139 140
3.909830e-01 5.249849e-01 3.124806e+00 126 121 118
3.679272e-01 5.536387e-01 3.129803e+00 25 27 42
4.010011e-01 5.141186e-01 3.131047e+00 109 97 97
3.913932e-01 5.250258e-01 3.124327e+00 57 51 53
4.000884e-01 5.168630e-01 3.125430e+00 142 130 130
3.892132e-01 5.308486e-01 3.123999e+00 104 95 96
3.818641e-01 5.407676e-01 3.126269e+00 78 72 73
3.939701e-01 5.280624e-01 3.125129e+00 150 141 144
3.708516e-01 5.561790e-01 3.129867e+00 40 43 64
3.869771e-01 5.369873e-01 3.125961e+00 77 68 69
3.821797e-01 5.442698e-01 3.125946e+00 170 164 164
3.966297e-01 5.272052e-01 3.125206e+00 191 184 192
3.833257e-01 5.442318e-01 3.126238e+00 170 162 160
3.739575e-01 5.565280e-01 3.129755e+00 55 62 78
4.180325e-01 5.045483e-01 3.126137e+00 123 113 114
4.467477e-01 4.705110e-01 3.131958e+00 186 184 195
4.113001e-01 5.157757e-01 3.141915e+00 81 72 73
4.207452e-01 5.058904e-01 3.126102e+00 68 59 61
3.925421e-01 5.393134e-01 3.137595e+00 135 126 129
4.423719e-01 4.814649e-01 3.130343e+00 72 64 61
4.197751e-01 5.102313e-01 3.126372e+00 122 116 116
4.222029e-01 5.076461e-01 3.126359e+00 133 128 125
4.222028e-01 5.076361e-01 3.126277e+00 133 128 125
3.796537e-01 5.623174e-01 3.129928e+00 141 144 159
3.795293e-01 5.629856e-01 3.129720e+00 19 31 47
4.354179e-01 5.054066e-01 3.127276e+00 94 87 94
4.280672e-01 5.159099e-01 3.126008e+00 82 80 83
4.273515e-01 5.167776e-01 3.125366e+00 91 86 92
4.342845e-01 5.087391e-01 3.126494e+00 78 74 83
4.070887e-01 5.423217e-01 3.124946e+00 181 178 187
4.078476e-01 5.385752e-01 3.140964e+00 94 93 98
4.315050e-01 5.131664e-01 3.126473e+00 150 149 157
4.515042e-01 4.886452e-01 3.129734e+00 69 67 72
4.609992e-01 4.769548e-01 3.132062e+00 155 152 161
4.545697e-01 4.870308e-01 3.130042e+00 196 196 206
4.461286e-01 4.976558e-01 3.128381e+00 178 175 185
4.280337e-01 5.200937e-01 3.125882e+00 159 152 159
4.506329e-01 4.878057e-01 3.154470e+00 58 55 63
4.337904e-01 5.138480e-01 3.125469e+00 53 47 51
4.337904e-01 5.138480e-01 3.125469e+00 53 47 51
4.551616e-01 4.877718e-01 3.130218e+00 52 51 57
4.311567e-01 5.141765e-01 3.147261e+00 45 36 41
4.131567e-01 5.403790e-01 3.140231e+00 146 140 144
4.004064e-01 5.568026e-01 3.137058e+00 71 66 73
4.312393e-01 5.185455e-01 3.146069e+00 78 72 77
4.433902e-01 5.039223e-01 3.149327e+00 149 144 150
4.541089e-01 4.968188e-01 3.128566e+00 164 160 164
4.181077e-01 5.421766e-01 3.124884e+00 158 148 155
4.671722e-01 4.826604e-01 3.131829e+00 91 85 89
4.244850e-01 5.372125e-01 3.125100e+00 75 66 71
4.299217e-01 5.310806e-01 3.125159e+00 96 90 92
4.299217e-01 5.310806e-01 3.125159e+00 96 90 92
4.299217e-01 5.310806e-01 3.125159e+00 96 90 92
4.332143e-01 5.273808e-01 3.125549e+00 88 82 86
4.056981e-01 5.604976e-01 3.125722e+00 175 177 190
4.649511e-01 4.885851e-01 3.130888e+00 36 31 28
4.711978e-01 4.822998e-01 3.132337e+00 82 81 89
4.711978e-01 4.822998e-01 3.132337e+00 82 81 89
4.357912e-01 5.279357e-01 3.125838e+00 149 143 153
4.087894e-01 5.603649e-01 3.125750e+00 168 165 172
4.158545e-01 5.532719e-01 3.125295e+00 58 55 61
4.608483e-01 4.985731e-01 3.129460e+00 174 176 188
4.360389e-01 5.297384e-01 3.126036e+00 148 145 152
4.234604e-01 5.406048e-01 3.142877e+00 166 161 168
4.386076e-01 5.286981e-01 3.125903e+00 138 135 143
4.609466e-01 5.012063e-01 3.129517e+00 183 178 182
4.664480e-01 4.962622e-01 3.130270e+00 70 69 74
4.558243e-01 5.101185e-01 3.128076e+00 176 174 177
4.674171e-01 4.981515e-01 3.130672e+00 66 67 87
4.628285e-01 5.052068e-01 3.129186e+00 176 173 180
4.628285e-01 5.052068e-01 3.129186e+00 176 173 180
4.636163e-01 5.043414e-01 3.129499e+00 168 169 174
4.120543e-01 5.652704e-01 3.130450e+00 178 178 185
4.648350e-01 5.053043e-01 3.129394e+00 174 174 182
4.484603e-01 5.266740e-01 3.126886e+00 32 34 46
4.499645e-01 5.245041e-01 3.136835e+00 83 80 91
4.466652e-01 5.333204e-01 3.126710e+00 58 57 71
4.754788e-01 4.987355e-01 3.131276e+00 148 147 153
4.374206e-01 5.466998e-01 3.126093e+00 101 97 103
4.759997e-01 4.991152e-01 3.131053e+00 135 134 140
4.225431e-01 5.644743e-01 3.126293e+00 138 133 137
4.733791e-01 5.035956e-01 3.130782e+00 112 112 120
4.696089e-01 5.083753e-01 3.129955e+00 86 80 84
4.785798e-01 4.977481e-01 3.131525e+00 123 129 141
4.675863e-01 5.117049e-01 3.129444e+00 88 82 86
4.662445e-01 5.134806e-01 3.129346e+00 44 42 47
4.758354e-01 5.020730e-01 3.131109e+00 136 131 135
4.216794e-01 5.668688e-01 3.129867e+00 78 76 81
4.341664e-01 5.545311e-01 3.126037e+00 76 75 81
4.680576e-01 5.140258e-01 3.129285e+00 155 146 147
4.517081e-01 5.342893e-01 3.127123e+00 194 193 207
4.664751e-01 5.167913e-01 3.128919e+00 72 62 63
4.265783e-01 5.668989e-01 3.126335e+00 88 91 96
4.454528e-01 5.465769e-01 3.126429e+00 118 109 110
4.421246e-01 5.508764e-01 3.126247e+00 113 112 117
4.501752e-01 5.418907e-01 3.135613e+00 28 21 29
4.510287e-01 5.412020e-01 3.136259e+00 36 28 41
4.857546e-01 4.997108e-01 3.139027e+00 83 82 88
4.304553e-01 5.699419e-01 3.130294e+00 95 90 98
4.555469e-01 5.453942e-01 3.136981e+00 80 79 85
4.568264e-01 5.450447e-01 3.136555e+00 138 136 141
4.847960e-01 5.169101e-01 3.139409e+00 152 149 158
4.943725e-01 5.059602e-01 3.140383e+00 146 144 149
4.901344e-01 5.142800e-01 3.139935e+00 143 143 153
4.807438e-01 5.326250e-01 3.140123e+00 26 25 33
4.559712e-01 5.726709e-01 3.131419e+00 155 154 160
4.486052e-01 5.785605e-01 3.136314e+00 177 179 187
4.738497e-01 5.470079e-01 3.139745e+00 163 168 187
4.765397e-01 5.442219e-01 3.140165e+00 73 73 81
4.737886e-01 5.482193e-01 3.139712e+00 37 42 60
4.661437e-01 5.591961e-01 3.138771e+00 85 83 96
4.661437e-01 5.591961e-01 3.138771e+00 85 83 96
4.520533e-01 5.854827e-01 3.128462e+00 74 71 80
4.739254e-01 5.560408e-01 3.135994e+00 51 51 59
4.777464e-01 5.484186e-01 3.140312e+00 142 140 151
4.776923e-01 5.517314e-01 3.136580e+00 53 51 62
4.762128e-01 5.507930e-01 3.140128e+00 53 51 62
4.762518e-01 5.521013e-01 3.140139e+00 156 153 160
4.974065e-01 5.265454e-01 3.141593e+00 155 152 159
4.736564e-01 5.559551e-01 3.139572e+00 60 59 64
5.033554e-01 5.204620e-01 3.141929e+00 72 72 81
4.984376e-01 5.277820e-01 3.141838e+00 67 64 70
4.874363e-01 5.534878e-01 3.141959e+00 92 99 113
4.889064e-01 5.556894e-01 3.142355e+00 134 149 168
4.927358e-01 5.530051e-01 3.142570e+00 173 176 191
4.911610e-01 5.575171e-01 3.142882e+00 110 123 143
5.004357e-01 5.658608e-01 3.144871e+00 225 241 254
5.016976e-01 5.656046e-01 3.144967e+00 94 91 110
5.058867e-01 5.701437e-01 3.146035e+00 214 232 255
3.237462e-01 5.108561e-01 3.085453e+00 103 101 114
3.817149e-01 4.832670e-01 3.121887e+00 63 74 70
3.801274e-01 4.927226e-01 3.116932e+00 86 111 80
3.942269e-01 4.836584e-01 3.125742e+00 117 115 136
3.947764e-01 4.835402e-01 3.125513e+00 121 122 140
4.011894e-01 4.774446e-01 3.126447e+00 28 30 43
3.985457e-01 4.805156e-01 3.126045e+00 119 120 138
3.988579e-01 4.807391e-01 3.125747e+00 123 125 139
3.802815e-01 5.035983e-01 3.125528e+00 69 75 87
3.803349e-01 5.037489e-01 3.126678e+00 69 75 87
4.151696e-01 4.632535e-01 3.127767e+00 167 162 169
4.155898e-01 4.635999e-01 3.127838e+00 146 141 147
4.090768e-01 4.722168e-01 3.130134e+00 136 135 141
4.162801e-01 4.634917e-01 3.127878e+00 151 149 154
3.783730e-01 5.109143e-01 3.126559e+00 132 131 139
3.781829e-01 5.113368e-01 3.126524e+00 124 121 128
4.066387e-01 4.840260e-01 3.157777e+00 70 56 70
3.692354e-01 5.291827e-01 3.127292e+00 132 126 133
3.914815e-01 5.045831e-01 3.126316e+00 131 125 125
3.729120e-01 5.289467e-01 3.126993e+00 69 65 67
4.285240e-01 4.621726e-01 3.129359e+00 128 123 129
3.793493e-01 5.274628e-01 3.126680e+00 46 40 44
3.845755e-01 5.221855e-01 3.126019e+00 136 125 129
3.961078e-01 5.097626e-01 3.125983e+00 102 95 102
4.012287e-01 5.058467e-01 3.127285e+00 116 107 108
3.738548e-01 5.403297e-01 3.141291e+00 187 185 198
3.946038e-01 5.159643e-01 3.124387e+00 98 91 98
4.193781e-01 4.869358e-01 3.129164e+00 171 165 168
4.193781e-01 4.869358e-01 3.129164e+00 171 165 168
3.809521e-01 5.337344e-01 3.126394e+00 104 94 95
3.971052e-01 5.146543e-01 3.125446e+00 119 110 111
4.134302e-01 4.958052e-01 3.128457e+00 73 64 67
4.157435e-01 4.932678e-01 3.127548e+00 126 120 124
4.118684e-01 4.980821e-01 3.126751e+00 154 144 143
4.087329e-01 5.031895e-01 3.127255e+00 96 85 89
3.968640e-01 5.186964e-01 3.125624e+00 127 124 133
4.192303e-01 4.949967e-01 3.127955e+00 66 55 59
4.321019e-01 4.805853e-01 3.130042e+00 126 115 113
4.163416e-01 4.996241e-01 3.127404e+00 138 129 130
4.438446e-01 4.664896e-01 3.131889e+00 168 163 170
3.886740e-01 5.356114e-01 3.125838e+00 129 120 121
4.112817e-01 5.094136e-01 3.126277e+00 87 76 74
4.191590e-01 5.009314e-01 3.127738e+00 83 73 74
3.893989e-01 5.370773e-01 3.126093e+00 146 136 137
3.896782e-01 5.370520e-01 3.125732e+00 72 62 63
3.925490e-01 5.337483e-01 3.124092e+00 133 127 124
4.118179e-01 5.120202e-01 3.125631e+00 80 66 66
4.060198e-01 5.198428e-01 3.145626e+00 106 97 98
4.403359e-01 4.797056e-01 3.130481e+00 117 108 111
4.224737e-01 5.021270e-01 3.126842e+00 88 82 84
4.437444e-01 4.763337e-01 3.130052e+00 81 73 71
3.913746e-01 5.397167e-01 3.124129e+00 141 132 135
4.067733e-01 5.206072e-01 3.145890e+00 195 191 192
4.072974e-01 5.207661e-01 3.146225e+00 196 190 194
3.921493e-01 5.415706e-01 3.125681e+00 92 83 86
4.182025e-01 5.116814e-01 3.126268e+00 142 132 130
3.770715e-01 5.632149e-01 3.129204e+00 183 197 223
4.131687e-01 5.215016e-01 3.125262e+00 89 80 83
4.260639e-01 5.087381e-01 3.126798e+00 179 178 183
3.776263e-01 5.683107e-01 3.129247e+00 95 102 130
4.005433e-01 5.424091e-01 3.141025e+00 198 196 201
4.248402e-01 5.170959e-01 3.125216e+00 185 177 181
4.027221e-01 5.447752e-01 3.124968e+00 89 88 93
4.126955e-01 5.331860e-01 3.124846e+00 165 164 170
4.050899e-01 5.431379e-01 3.124876e+00 151 148 159
4.361616e-01 5.057630e-01 3.126522e+00 161 155 165
4.476151e-01 4.917182e-01 3.129031e+00 159 153 155
3.915005e-01 5.599244e-01 3.126027e+00 184 182 193
3.985109e-01 5.519276e-01 3.125570e+00 95 92 103
3.920344e-01 5.597775e-01 3.126089e+00 186 186 194
4.177907e-01 5.292597e-01 3.125171e+00 66 63 74
4.106769e-01 5.385467e-01 3.125042e+00 92 87 93
4.424258e-01 5.004048e-01 3.127798e+00 52 52 60
4.446307e-01 4.939212e-01 3.152723e+00 67 68 81
4.434683e-01 5.007668e-01 3.127934e+00 164 161 170
4.495916e-01 4.936583e-01 3.128786e+00 186 185 196
4.464979e-01 4.978598e-01 3.128180e+00 89 84 91
4.545972e-01 4.884168e-01 3.129748e+00 102 101 106
4.323472e-01 5.178223e-01 3.125794e+00 45 36 41
4.103545e-01 5.450143e-01 3.125115e+00 84 78 82
3.958866e-01 5.624521e-01 3.126151e+00 107 106 112
4.349556e-01 5.162712e-01 3.126258e+00 109 103 109
4.332977e-01 5.183163e-01 3.126640e+00 169 161 164
4.283725e-01 5.253407e-01 3.125019e+00 155 150 157
4.137732e-01 5.427178e-01 3.125335e+00 46 40 44
4.138335e-01 5.432224e-01 3.124606e+00 146 140 144
4.082451e-01 5.502044e-01 3.125381e+00 152 145 153
4.516927e-01 4.983559e-01 3.128220e+00 184 182 187
4.495012e-01 4.954734e-01 3.152860e+00 107 104 112
4.148693e-01 5.437213e-01 3.124819e+00 75 69 71
4.333874e-01 5.229562e-01 3.125728e+00 134 128 128
4.375036e-01 5.180392e-01 3.126086e+00 92 86 90
3.983490e-01 5.680492e-01 3.126270e+00 124 128 140
4.572782e-01 4.975117e-01 3.129009e+00 146 140 144
4.059805e-01 5.601242e-01 3.125800e+00 163 167 179
4.409697e-01 5.186057e-01 3.126409e+00 73 68 74
4.565129e-01 5.005191e-01 3.129198e+00 89 83 86
4.195703e-01 5.457568e-01 3.125162e+00 64 62 75
4.641863e-01 4.916190e-01 3.130596e+00 79 70 74
4.533555e-01 5.061528e-01 3.127891e+00 123 122 136
4.103515e-01 5.595812e-01 3.125638e+00 134 131 137
4.017420e-01 5.697700e-01 3.126332e+00 90 94 106
4.137321e-01 5.559625e-01 3.125413e+00 149 147 158
4.137321e-01 5.559625e-01 3.125413e+00 149 147 158
4.071908e-01 5.639857e-01 3.125965e+00 76 76 86
4.149194e-01 5.550714e-01 3.125491e+00 68 65 76
4.637120e-01 4.958046e-01 3.130387e+00 80 80 91
4.152546e-01 5.558129e-01 3.125481e+00 157 153 168
4.245226e-01 5.452929e-01 3.125161e+00 67 65 73
4.597841e-01 5.028099e-01 3.129017e+00 89 84 90
4.353599e-01 5.332070e-01 3.125658e+00 172 169 176
4.593258e-01 5.037470e-01 3.128852e+00 101 99 104
4.665589e-01 4.954182e-01 3.130373e+00 109 106 113
4.454329e-01 5.224963e-01 3.126835e+00 134 131 138
4.699626e-01 4.922793e-01 3.131021e+00 66 65 73
4.416891e-01 5.275752e-01 3.126711e+00 98 96 107
4.686528e-01 4.950687e-01 3.130454e+00 152 149 156
4.408512e-01 5.300443e-01 3.126247e+00 74 74 84
4.666303e-01 4.990952e-01 3.130433e+00 54 61 79
4.629225e-01 5.048217e-01 3.129143e+00 111 108 115
4.194826e-01 5.588313e-01 3.125623e+00 192 195 206
4.581670e-01 5.136314e-01 3.128530e+00 137 132 136
4.228852e-01 5.568929e-01 3.125905e+00 165 160 164
4.223971e-01 5.577773e-01 3.125783e+00 168 164 166
4.629993e-01 5.092068e-01 3.129271e+00 78 80 93
4.285353e-01 5.517594e-01 3.125621e+00 138 136 148
4.292069e-01 5.512798e-01 3.125625e+00 84 82 87
4.679716e-01 4.959088e-01 3.153127e+00 100 104 116
4.448951e-01 5.349287e-01 3.126322e+00 81 81 89
4.659611e-01 5.090157e-01 3.129358e+00 141 139 142
4.682572e-01 5.070077e-01 3.129879e+00 81 81 83
4.366361e-01 5.467482e-01 3.126036e+00 178 174 180
4.366229e-01 5.472166e-01 3.125791e+00 117 114 120
4.478748e-01 5.335067e-01 3.126752e+00 159 161 173
4.675734e-01 5.090372e-01 3.129675e+00 90 89 97
4.379433e-01 5.460402e-01 3.126011e+00 112 107 113
4.631526e-01 5.172794e-01 3.128469e+00 166 160 162
4.312133e-01 5.573338e-01 3.126129e+00 85 75 76
4.306859e-01 5.581671e-01 3.125989e+00 73 63 64
4.419775e-01 5.453016e-01 3.126413e+00 173 168 173
4.611160e-01 5.220839e-01 3.127881e+00 114 114 124
4.690301e-01 5.120674e-01 3.129501e+00 65 63 68
4.281876e-01 5.594325e-01 3.132225e+00 194 193 201
4.278002e-01 5.625542e-01 3.126210e+00 194 194 202
4.497008e-01 5.388495e-01 3.126736e+00 57 56 64
4.693750e-01 5.165136e-01 3.129310e+00 187 184 191
4.327512e-01 5.668637e-01 3.131392e+00 68 64 65
4.762957e-01 5.136681e-01 3.144635e+00 79 76 83
4.811302e-01 5.122570e-01 3.138760e+00 167 164 171
4.594690e-01 5.403378e-01 3.138002e+00 92 91 96
4.834315e-01 5.123999e-01 3.139206e+00 166 162 163
4.460288e-01 5.606550e-01 3.137933e+00 146 141 148
4.817867e-01 5.219264e-01 3.139272e+00 145 152 162
4.914334e-01 5.135088e-01 3.139809e+00 162 161 173
4.926251e-01 5.126986e-01 3.140167e+00 192 192 204
4.426655e-01 5.792136e-01 3.128056e+00 181 178 191
4.685715e-01 5.406864e-01 3.142976e+00 88 104 120
4.540655e-01 5.737876e-01 3.131351e+00 35 33 41
4.478538e-01 5.788541e-01 3.136002e+00 137 139 144
4.758133e-01 5.447869e-01 3.139841e+00 93 93 103
4.758436e-01 5.451662e-01 3.139839e+00 170 168 179
4.787328e-01 5.423830e-01 3.140031e+00 71 69 82
4.500407e-01 5.840433e-01 3.129317e+00 158 157 163
4.977237e-01 5.203218e-01 3.141433e+00 94 94 105
4.857362e-01 5.354998e-01 3.140642e+00 33 32 38
4.600720e-01 5.678377e-01 3.137806e+00 193 194 199
4.919970e-01 5.285382e-01 3.141095e+00 98 97 103
4.802430e-01 5.433732e-01 3.140208e+00 173 174 180
4.821052e-01 5.412430e-01 3.140375e+00 114 113 121
4.952449e-01 5.261990e-01 3.141312e+00 96 93 100
4.720562e-01 5.566155e-01 3.139678e+00 166 165 171
4.743939e-01 5.540192e-01 3.139908e+00 166 165 171
4.917635e-01 5.352331e-01 3.141241e+00 173 168 174
5.026807e-01 5.224564e-01 3.141986e+00 191 191 201
4.837490e-01 5.461217e-01 3.140809e+00 175 174 180
4.626747e-01 5.813444e-01 3.127218e+00 38 42 53
4.613520e-01 5.755467e-01 3.138267e+00 127 127 139
5.055949e-01 5.235766e-01 3.142461e+00 179 182 191
4.932598e-01 5.405807e-01 3.140269e+00 25 23 29
5.028518e-01 5.301726e-01 3.142629e+00 67 66 72
4.665684e-01 5.755637e-01 3.139080e+00 157 160 172
4.976146e-01 5.568422e-01 3.143587e+00 97 100 115
4.966690e-01 5.621814e-01 3.144015e+00 211 225 249
5.056476e-01 5.687807e-01 3.145831e+00 89 94 117
5.077724e-01 5.699254e-01 3.146256e+00 114 133 166
3.926391e-01 4.783356e-01 3.123809e+00 95 121 74
3.432636e-01 5.382160e-01 3.117695e+00 17 24 43
3.852760e-01 4.888654e-01 3.123719e+00 69 81 67
4.013806e-01 4.783861e-01 3.130148e+00 155 157 172
3.989419e-01 4.812152e-01 3.126008e+00 61 65 76
4.063339e-01 4.783234e-01 3.126890e+00 125 110 121
4.064052e-01 4.791994e-01 3.131871e+00 125 110 121
3.556805e-01 5.435550e-01 3.124319e+00 163 176 195
3.518035e-01 5.502825e-01 3.130062e+00 202 189 198
3.672739e-01 5.323008e-01 3.127307e+00 160 157 166
3.724124e-01 5.307295e-01 3.127188e+00 134 128 132
4.083918e-01 4.923043e-01 3.130049e+00 59 54 58
4.183701e-01 4.805030e-01 3.130263e+00 158 149 152
3.773254e-01 5.309869e-01 3.126541e+00 133 123 124
4.338571e-01 4.632776e-01 3.132411e+00 128 126 131
3.974331e-01 5.081403e-01 3.125899e+00 117 112 116
4.061928e-01 4.991384e-01 3.127818e+00 171 162 167
4.150960e-01 4.908634e-01 3.153785e+00 107 105 113
3.936716e-01 5.150410e-01 3.124503e+00 70 65 71
4.218362e-01 4.838629e-01 3.128419e+00 107 99 98
4.168978e-01 4.903209e-01 3.127877e+00 76 71 77
4.378429e-01 4.649596e-01 3.130681e+00 147 142 147
4.018030e-01 5.108237e-01 3.125815e+00 137 127 125
3.945474e-01 5.204787e-01 3.124532e+00 96 95 101
4.086569e-01 5.038396e-01 3.125945e+00 93 82 86
4.149324e-01 4.973887e-01 3.127898e+00 90 79 79
4.028212e-01 5.136147e-01 3.125577e+00 108 97 95
4.018557e-01 5.148419e-01 3.125401e+00 106 91 91
4.350813e-01 4.749926e-01 3.131079e+00 95 87 84
4.013479e-01 5.175253e-01 3.124769e+00 179 170 173
4.016349e-01 5.173651e-01 3.124348e+00 111 102 107
4.013865e-01 5.177975e-01 3.124371e+00 127 116 120
3.765034e-01 5.489788e-01 3.126792e+00 175 177 189
3.765034e-01 5.489788e-01 3.126792e+00 175 177 189
4.021476e-01 5.178663e-01 3.124699e+00 169 162 166
4.221904e-01 4.943544e-01 3.153635e+00 133 131 142
4.395704e-01 4.733514e-01 3.158662e+00 168 165 173
4.250587e-01 4.918005e-01 3.128243e+00 94 94 104
4.458071e-01 4.668642e-01 3.132517e+00 160 163 172
4.258470e-01 4.913652e-01 3.128178e+00 116 118 128
4.239032e-01 4.991538e-01 3.127409e+00 173 169 173
4.440360e-01 4.768715e-01 3.130909e+00 137 129 127
4.109411e-01 5.180036e-01 3.125354e+00 152 144 142
4.078777e-01 5.217039e-01 3.124587e+00 116 110 112
3.912395e-01 5.419027e-01 3.125650e+00 116 107 110
4.194269e-01 5.071736e-01 3.145873e+00 61 53 56
3.937269e-01 5.404196e-01 3.125393e+00 71 65 64
3.765736e-01 5.628868e-01 3.129214e+00 158 175 201
4.182975e-01 5.148758e-01 3.125531e+00 127 116 117
4.452588e-01 4.848514e-01 3.129842e+00 74 68 68
4.145526e-01 5.219481e-01 3.146059e+00 156 150 154
3.790412e-01 5.681964e-01 3.129293e+00 39 44 73
4.213957e-01 5.190244e-01 3.147125e+00 109 107 112
3.890242e-01 5.617673e-01 3.126235e+00 179 183 194
3.945949e-01 5.558059e-01 3.125888e+00 126 126 137
3.937007e-01 5.568853e-01 3.126028e+00 158 155 166
4.518893e-01 4.819347e-01 3.157458e+00 170 169 175
3.993246e-01 5.509062e-01 3.125389e+00 156 154 167
4.036072e-01 5.463340e-01 3.124419e+00 82 80 85
3.944610e-01 5.572078e-01 3.125901e+00 144 141 150
4.368457e-01 5.063648e-01 3.126945e+00 96 96 104
4.018396e-01 5.486524e-01 3.125292e+00 165 164 171
4.048308e-01 5.451628e-01 3.125093e+00 171 168 175
3.927663e-01 5.595121e-01 3.126130e+00 172 175 184
4.133742e-01 5.322143e-01 3.144552e+00 64 61 68
4.294079e-01 5.167238e-01 3.125942e+00 186 184 189
4.211855e-01 5.268046e-01 3.125127e+00 48 46 49
4.447134e-01 4.988074e-01 3.128093e+00 190 187 198
4.032835e-01 5.491496e-01 3.125292e+00 171 166 172
4.374048e-01 5.081751e-01 3.126817e+00 151 148 154
4.560303e-01 4.869049e-01 3.130289e+00 168 165 174
4.029420e-01 5.531559e-01 3.125428e+00 113 111 116
4.310482e-01 5.197193e-01 3.125387e+00 146 141 145
4.329470e-01 5.180009e-01 3.125944e+00 165 156 159
4.268730e-01 5.260859e-01 3.125687e+00 128 121 128
4.281661e-01 5.256919e-01 3.125391e+00 95 90 97
4.300784e-01 5.237607e-01 3.125457e+00 91 86 92
4.333945e-01 5.198707e-01 3.125912e+00 107 102 108
4.568478e-01 4.912483e-01 3.129969e+00 170 165 169
4.324926e-01 5.213212e-01 3.125990e+00 74 69 73
4.520253e-01 4.977809e-01 3.128989e+00 144 138 142
4.578232e-01 4.916057e-01 3.129854e+00 83 78 82
4.407728e-01 5.128791e-01 3.126520e+00 83 78 85
4.080368e-01 5.530700e-01 3.125306e+00 127 120 127
4.214706e-01 5.378179e-01 3.124792e+00 76 70 74
4.036977e-01 5.592613e-01 3.125840e+00 135 133 138
4.444571e-01 5.119406e-01 3.126797e+00 111 102 104
4.444571e-01 5.119406e-01 3.126797e+00 111 102 104
4.253249e-01 5.359468e-01 3.125066e+00 75 66 67
4.460530e-01 5.109566e-01 3.127081e+00 117 108 111
4.055685e-01 5.609056e-01 3.125854e+00 119 121 133
4.601882e-01 4.873748e-01 3.156256e+00 186 184 187
4.080585e-01 5.593843e-01 3.125806e+00 183 181 192
4.177887e-01 5.485028e-01 3.125089e+00 122 121 135
4.705757e-01 4.844521e-01 3.132151e+00 124 115 117
4.011531e-01 5.689980e-01 3.126218e+00 131 132 142
4.072960e-01 5.622121e-01 3.125778e+00 175 174 182
