ply
format ascii 1.0
element face 0
property list uchar int vertex_indices
element vertex 924
property float x
property float y
property float z
property uchar diffuse_red
property uchar diffuse_green
property uchar diffuse_blue
end_header
-8.579370e+00 3.893327e-01 1.666259e+01 188 180 178
-8.243904e+00 9.011746e-01 1.876105e+01 80 74 76
-4.099116e+00 4.095789e+00 1.772743e+01 147 141 134
-4.248499e+00 3.856802e+00 1.801360e+01 144 135 134
-4.248499e+00 3.856802e+00 1.801360e+01 144 135 134
-3.716500e+00 4.074909e+00 1.811980e+01 177 169 159
-3.867453e+00 3.892710e+00 1.830292e+01 118 110 106
-4.235720e+00 3.569357e+00 1.852287e+01 123 114 111
-4.235720e+00 3.569357e+00 1.852287e+01 123 114 111
-8.089854e+00 9.452081e+00 1.318777e+01 196 192 183
-8.340297e+00 1.428295e+00 1.943339e+01 112 110 116
-8.342643e+00 2.493600e+00 1.875415e+01 188 181 171
-5.145150e+00 3.096499e+00 1.946778e+01 165 166 171
-5.301305e+00 3.432604e+00 1.922833e+01 118 112 111
-5.208354e+00 3.305426e+00 1.942496e+01 105 104 113
-6.936309e+00 1.539714e+01 1.131871e+01 103 99 102
-5.296056e+00 3.477337e+00 1.942358e+01 80 84 104
-5.374474e+00 3.233376e+00 1.965840e+01 95 95 105
-5.378098e+00 3.447186e+00 1.954318e+01 77 79 91
-5.407452e+00 3.229165e+00 1.970933e+01 90 90 103
-5.407452e+00 3.229165e+00 1.970933e+01 90 90 103
-8.671619e+00 -2.380834e-01 1.667685e+01 136 133 130
-5.949347e+00 2.499515e+00 1.073567e+01 203 204 205
-8.104325e+00 1.952869e+00 1.578284e+01 141 140 140
-8.520068e+00 9.966342e+00 -6.894154e-01 149 149 150
-4.305596e+00 3.851219e+00 1.803383e+01 200 196 193
-3.663087e+00 4.009279e+00 1.826309e+01 118 112 110
-8.915523e+00 3.566159e+00 1.693832e+01 110 97 86
-4.510883e+00 3.252589e+00 1.891046e+01 199 190 178
-4.719590e+00 3.743172e+00 1.846189e+01 133 127 127
-8.254391e+00 1.068310e+00 1.974818e+01 126 121 127
-5.008804e+00 2.905870e+00 1.946091e+01 130 126 120
-8.757175e+00 2.457177e+00 1.893000e+01 163 153 143
-8.843761e+00 1.413310e+01 1.122800e+01 105 102 106
-5.346365e+00 3.436977e+00 1.925611e+01 178 169 164
-5.217263e+00 3.363903e+00 1.940997e+01 175 170 172
-5.296266e+00 4.243814e+00 1.879322e+01 151 145 138
-5.174656e+00 2.843523e+00 1.994389e+01 79 76 91
-3.352100e+00 -1.103308e+00 1.073519e+01 82 79 76
-8.692674e+00 -3.460549e-01 1.685816e+01 111 106 97
-8.710690e+00 -8.923133e-02 1.727979e+01 172 172 170
-8.679498e+00 2.522055e-02 1.719533e+01 174 169 165
-8.692718e+00 6.477281e-02 1.716276e+01 147 144 141
-8.007775e+00 1.361471e+00 1.731278e+01 57 53 53
-8.108838e+00 1.070010e+00 1.812227e+01 84 86 100
-4.887949e+00 3.365836e+00 1.894312e+01 144 146 145
-8.281026e+00 1.122271e+00 1.964411e+01 182 178 176
-8.279954e+00 1.102569e+00 1.966907e+01 115 117 124
-8.739834e+00 2.402700e+00 1.900491e+01 124 115 108
-5.403249e+00 3.522366e+00 1.949659e+01 107 105 110
-4.193415e+00 1.124497e+01 8.108600e+00 156 147 136
-6.081876e+00 3.634938e+00 1.237410e+01 191 180 163
-6.566993e+00 3.667084e+00 8.983221e+00 209 199 193
-7.136423e+00 9.657075e-01 1.988021e+01 30 21 22
-1.511327e+00 7.153745e+00 1.360189e+01 187 176 165
-1.863718e+00 3.428714e+00 1.254092e+01 188 177 169
-5.350697e+00 4.563577e+00 1.528221e+01 192 184 173
1.649621e+00 -4.285310e-01 2.309156e+00 203 193 192
-2.425794e-02 -3.519135e+00 2.609712e+00 175 172 178
-1.083673e+01 -1.955996e+00 4.334434e+00 179 178 183
-1.022852e+01 -1.914132e+00 4.229303e+00 122 124 131
-1.101325e+01 -1.725555e+00 4.245235e+00 73 63 65
-1.096346e+01 -1.720400e+00 4.365799e+00 73 63 65
-1.026090e+01 -1.585041e+00 4.276299e+00 171 171 170
-1.026090e+01 -1.585041e+00 4.276299e+00 171 171 170
-1.115087e+01 -1.126125e+00 4.401033e+00 97 88 84
-1.059731e+01 -1.004878e+00 4.376586e+00 110 96 89
-1.067102e+01 -7.277172e-01 4.388116e+00 183 182 179
-1.093818e+01 -6.754058e-01 4.410498e+00 102 92 91
2.401658e+00 -1.826791e-01 2.049161e+00 128 102 86
1.823275e+00 7.417745e-02 2.236925e+00 130 109 84
-9.049454e-01 -4.155173e+00 2.726652e+00 36 34 40
-1.131409e+01 -1.354175e+00 4.378274e+00 96 86 81
-1.107371e+01 -1.348589e+00 4.234092e+00 171 171 177
-1.102124e+01 -1.349221e+00 4.359758e+00 171 171 177
-1.147950e+01 -1.499484e-01 4.319008e+00 208 220 234
2.722289e-01 -2.176027e+00 2.592061e+00 198 192 194
3.412547e-01 -6.411546e-01 2.690771e+00 191 179 172
2.338075e+00 -4.250811e-01 2.051149e+00 127 114 110
2.338075e+00 -4.250811e-01 2.051149e+00 127 114 110
2.225862e+00 2.060483e-01 2.113075e+00 85 68 56
-1.056916e+01 -3.101479e+00 4.110050e+00 137 135 146
-9.126074e+00 -3.141911e+00 4.146770e+00 86 75 75
-9.296427e+00 -3.038668e+00 4.098646e+00 156 155 160
-7.181316e-01 -3.928980e+00 2.728510e+00 181 179 180
-1.614386e+00 -3.017486e+00 3.074391e+00 193 189 185
-1.528657e+00 -2.650814e+00 3.084320e+00 204 200 199
-1.194396e+01 3.490098e-01 4.296287e+00 220 228 241
7.969242e-01 -8.709510e-01 2.537379e+00 149 134 130
7.969242e-01 -8.709510e-01 2.537379e+00 149 134 130
1.057425e+00 -2.829591e-01 2.489508e+00 159 140 126
2.556681e+00 1.080303e-02 2.004533e+00 163 151 148
1.992244e+00 2.690401e-01 2.196330e+00 165 145 134
1.992244e+00 2.690401e-01 2.196330e+00 165 145 134
-1.071074e+01 -2.327196e+00 4.192597e+00 94 86 90
-1.031811e+01 -2.159345e+00 4.205593e+00 98 92 96
-1.031811e+01 -2.159345e+00 4.205593e+00 98 92 96
-1.080503e+01 -1.743432e+00 4.217388e+00 167 166 162
-1.167360e+01 -4.402904e-01 4.280819e+00 195 207 210
-1.086105e+00 -2.826517e+00 2.951118e+00 201 200 198
-1.097728e+01 -2.833513e-01 4.311492e+00 191 191 187
-1.114609e+01 1.383723e-01 4.330869e+00 205 215 217
-4.167928e-01 -2.257477e+00 2.819481e+00 174 163 160
2.079821e-01 -1.897526e+00 2.671217e+00 175 171 168
2.794421e-01 -1.521995e+00 2.675816e+00 116 97 92
2.794421e-01 -1.521995e+00 2.675816e+00 116 97 92
2.794421e-01 -1.521995e+00 2.675816e+00 116 97 92
1.262241e-01 -1.482791e+00 2.720704e+00 182 173 173
-1.597523e-01 -1.140486e+00 2.831453e+00 196 187 180
2.374950e+00 -6.983820e-01 2.051140e+00 183 171 163
-1.032725e+01 -3.111202e+00 4.117528e+00 74 63 63
-1.032725e+01 -3.111202e+00 4.117528e+00 74 63 63
-1.074459e+01 -3.026703e+00 4.122970e+00 72 63 60
-1.074459e+01 -3.026703e+00 4.122970e+00 72 63 60
-9.332566e+00 -3.258847e+00 4.085814e+00 171 180 187
-9.468711e+00 -2.911209e+00 4.120370e+00 167 165 168
-1.184659e+00 -4.429010e+00 2.799260e+00 77 78 90
-9.897395e+00 -2.211208e+00 4.201347e+00 91 86 94
-9.897395e+00 -2.211208e+00 4.201347e+00 91 86 94
-9.807476e-01 -4.315330e+00 2.735017e+00 40 34 46
-1.073806e+01 -1.945945e+00 4.238188e+00 171 172 168
-1.059330e+01 -1.888210e+00 4.224518e+00 117 106 110
-1.046081e+01 -1.469353e+00 4.256332e+00 101 88 95
-5.853564e-01 -3.679389e+00 2.714156e+00 166 168 165
-5.853564e-01 -3.679389e+00 2.714156e+00 166 168 165
-9.937425e-01 -3.275623e+00 2.874462e+00 102 87 82
-7.614831e-01 -3.300750e+00 2.809504e+00 178 169 160
-1.696952e+00 -2.773303e+00 3.114596e+00 193 187 185
4.307086e-01 -2.817876e+00 2.517400e+00 195 190 182
-1.134340e+01 -1.013005e-01 4.341560e+00 209 219 220
1.896423e-01 -2.705593e+00 2.605335e+00 196 195 195
-7.096717e-01 -2.453571e+00 2.891326e+00 205 200 197
-1.017448e+00 -2.312102e+00 2.987228e+00 152 135 128
-1.017448e+00 -2.312102e+00 2.987228e+00 152 135 128
-8.833147e-01 -2.149229e+00 2.962142e+00 216 212 211
-1.166659e+01 7.652905e-01 4.320788e+00 163 176 192
5.253472e-01 -9.876569e-01 2.629711e+00 202 194 186
9.512338e-01 -9.708890e-01 2.509671e+00 202 197 193
2.292515e+00 -1.071061e+00 2.064710e+00 40 22 19
2.166136e+00 -8.102620e-01 2.119716e+00 181 171 165
2.530962e+00 -7.590114e-01 2.024104e+00 167 166 173
2.684242e+00 -5.275606e-01 1.979797e+00 197 189 171
1.943017e+00 -2.258706e-01 2.211569e+00 187 175 171
2.868792e+00 -1.137162e-01 1.926428e+00 132 128 142
2.332941e+00 3.698131e-01 2.109126e+00 186 173 164
2.939092e+00 5.371475e-01 1.896079e+00 189 174 168
-1.049112e+01 -3.185255e+00 4.113434e+00 64 61 58
-9.186048e+00 -3.339664e+00 4.066591e+00 185 192 192
-9.445236e+00 -3.139183e+00 4.094889e+00 123 117 128
-9.692076e+00 -2.922980e+00 4.123659e+00 100 96 105
-9.692076e+00 -2.922980e+00 4.123659e+00 100 96 105
-9.784604e+00 -2.903141e+00 4.117821e+00 178 178 182
-7.430483e-01 -4.161814e+00 2.701134e+00 174 179 182
-8.336396e-01 -3.892130e+00 2.746546e+00 39 38 42
-1.036879e+01 -1.529424e+00 4.267749e+00 168 167 164
-1.087728e+01 -1.394362e+00 4.268849e+00 89 78 85
-1.087728e+01 -1.394362e+00 4.268849e+00 89 78 85
-9.453489e-01 -3.477885e+00 2.861540e+00 174 175 170
-1.164951e+01 -5.437461e-01 4.263380e+00 137 128 127
-1.135437e+00 -2.707025e+00 2.971777e+00 147 124 115
1.521391e-01 -2.859511e+00 2.596099e+00 146 129 126
1.521391e-01 -2.859511e+00 2.596099e+00 146 129 126
-1.158204e+00 -2.261444e+00 3.027555e+00 201 200 204
-1.158204e+00 -2.261444e+00 3.027555e+00 201 200 204
2.728967e-01 -2.399238e+00 2.605618e+00 207 203 204
-7.753320e-01 -2.155016e+00 2.919909e+00 213 210 207
1.840890e-02 -1.938235e+00 2.726234e+00 192 184 173
-2.595774e-01 -1.689671e+00 2.827096e+00 194 184 176
5.283620e-01 -1.161993e+00 2.628272e+00 185 175 161
7.040094e-02 -1.060491e+00 2.769005e+00 181 173 170
2.088547e+00 -1.124840e+00 2.145152e+00 96 77 77
4.033872e-01 -7.526082e-01 2.671426e+00 201 188 179
2.439731e+00 -9.941546e-01 2.040059e+00 178 171 159
2.442746e+00 -9.031620e-01 2.028457e+00 175 167 160
1.473160e+00 -6.683404e-01 2.330083e+00 148 142 150
2.196443e+00 -7.032530e-01 2.114431e+00 119 91 89
2.325344e+00 -9.417754e-02 2.082982e+00 71 52 45
2.736633e+00 -1.059792e-01 1.961395e+00 186 184 185
2.239946e+00 -8.424424e-03 2.125179e+00 185 173 163
2.588033e+00 2.165619e-01 2.003135e+00 181 169 154
2.088955e+00 3.239895e-01 2.168279e+00 187 177 168
2.647647e+00 5.232874e-01 1.964097e+00 139 116 114
2.647647e+00 5.232874e-01 1.964097e+00 139 116 114
-9.195355e+00 -3.591882e+00 4.024342e+00 187 194 204
-1.003246e+01 -3.246192e+00 4.097206e+00 32 30 37
-9.449135e+00 -3.210106e+00 4.099812e+00 145 153 164
-1.043682e+01 -2.369715e+00 4.197538e+00 148 138 129
-1.070862e+01 -2.149388e+00 4.201246e+00 151 160 165
-1.012010e+00 -4.388094e+00 2.743246e+00 51 52 71
-1.115483e+01 -1.911786e+00 4.206303e+00 68 63 69
-1.118815e+01 -1.855879e+00 4.219021e+00 173 182 175
-6.914669e-01 -4.242105e+00 2.679514e+00 91 79 82
-6.914669e-01 -4.242105e+00 2.679514e+00 91 79 82
-8.198106e-01 -4.199136e+00 2.717366e+00 54 54 66
-1.030559e+01 -1.938899e+00 4.221765e+00 99 85 81
-1.139910e+01 -1.687733e+00 4.232005e+00 169 171 175
-4.749630e-01 -4.251756e+00 2.621701e+00 84 74 83
-1.052989e+01 -1.602965e+00 4.253900e+00 106 94 98
-7.987415e-01 -3.675716e+00 2.782658e+00 177 172 168
-3.413738e-01 -3.779350e+00 2.643624e+00 147 142 139
-1.134701e+01 -1.158932e+00 4.257528e+00 156 159 147
-2.739062e-01 -3.729188e+00 2.637121e+00 67 54 65
-6.754540e-01 -3.623748e+00 2.736571e+00 43 36 44
-4.448786e-01 -3.676174e+00 2.673660e+00 34 35 39
-4.777230e-01 -3.508488e+00 2.700095e+00 189 190 195
-1.122402e+01 -1.020632e+00 4.274015e+00 166 163 154
-5.841214e-01 -3.475642e+00 2.728137e+00 177 175 178
-1.569494e+00 -3.175637e+00 3.039961e+00 199 199 197
-3.830105e-01 -3.469363e+00 2.686169e+00 110 97 106
-1.754548e+00 -3.086886e+00 3.096850e+00 89 65 62
-1.819472e+00 -3.052612e+00 3.101591e+00 188 183 180
-9.450104e-01 -3.162599e+00 2.867492e+00 198 194 187
-1.090580e+01 -7.574944e-01 4.297133e+00 172 166 157
-1.067794e+00 -2.945761e+00 2.927034e+00 170 159 154
-1.123840e+01 -4.935969e-01 4.289295e+00 196 198 204
-1.096946e+01 -5.189205e-01 4.309370e+00 183 185 180
-1.079936e+01 -5.103063e-01 4.299915e+00 107 96 101
-7.329971e-02 -2.310885e+00 2.714372e+00 198 190 187
-1.122838e-01 -2.252583e+00 2.724855e+00 146 132 124
2.316782e-01 -2.320361e+00 2.632554e+00 160 148 144
4.748850e-01 -2.258072e+00 2.565589e+00 149 143 149
-2.232528e-01 -1.888326e+00 2.788194e+00 150 132 124
-2.232528e-01 -1.888326e+00 2.788194e+00 150 132 124
-8.961331e-02 -1.832191e+00 2.761062e+00 185 178 168
2.690545e-01 -1.889851e+00 2.665148e+00 178 164 157
9.305317e-02 -1.557291e+00 2.695968e+00 193 186 178
9.445995e-02 -1.543079e+00 2.754688e+00 193 186 178
3.298088e-01 -1.299985e+00 2.667357e+00 187 184 181
1.778846e-01 -1.246923e+00 2.722925e+00 180 176 172
1.102046e-01 -1.228270e+00 2.744063e+00 143 125 121
1.309985e+00 -1.213534e+00 2.384704e+00 191 178 167
1.309985e+00 -1.213534e+00 2.384704e+00 191 178 167
4.226107e-01 -9.913902e-01 2.654994e+00 192 182 172
1.769098e+00 -1.201187e+00 2.249708e+00 187 176 166
3.909843e-01 -8.857585e-01 2.686545e+00 187 183 172
1.659999e+00 -7.653918e-01 2.293144e+00 185 174 175
2.725415e+00 -6.184410e-01 1.946015e+00 187 176 159
2.013804e+00 -3.860780e-01 2.178774e+00 196 178 162
2.150902e+00 -3.435363e-01 2.141214e+00 116 93 80
2.243850e+00 -2.246637e-01 2.107483e+00 93 66 70
2.619191e+00 -2.740381e-01 1.987028e+00 182 168 149
2.005822e+00 1.099459e-01 2.187207e+00 180 166 152
1.777997e+00 1.835576e-01 2.288843e+00 69 47 37
2.370215e+00 1.270277e-01 2.070267e+00 130 103 80
3.025542e+00 2.705016e-01 1.856854e+00 158 152 158
3.005346e+00 3.378432e-01 1.861267e+00 74 51 63
3.005346e+00 3.378432e-01 1.861267e+00 74 51 63
-8.845403e+00 -3.705974e+00 3.995023e+00 135 137 135
-1.067425e+01 -2.972908e+00 4.126850e+00 146 146 143
-1.067425e+01 -2.972908e+00 4.126850e+00 146 146 143
-9.721257e+00 -3.132093e+00 4.112558e+00 106 98 112
-9.721257e+00 -3.132093e+00 4.112558e+00 106 98 112
-9.721257e+00 -3.132093e+00 4.112558e+00 106 98 112
-1.092139e+00 -5.107942e+00 2.684298e+00 50 52 64
-9.947525e+00 -2.915641e+00 4.134563e+00 174 177 184
-1.069522e+00 -4.750646e+00 2.719298e+00 81 71 75
-1.016530e+01 -2.513690e+00 4.170426e+00 91 79 85
-1.053213e+01 -1.816116e+00 4.226837e+00 104 93 110
-1.071829e+01 -1.741951e+00 4.231266e+00 97 93 99
-1.105375e+01 -1.617280e+00 4.239514e+00 159 158 152
-1.068101e+01 -1.649031e+00 4.247433e+00 76 66 68
-1.130208e+01 -1.497386e+00 4.252213e+00 164 164 158
-1.139972e+01 -1.480852e+00 4.237858e+00 162 168 167
-1.135946e+01 -1.364896e+00 4.244756e+00 79 67 69
-8.126027e-01 -3.808537e+00 2.759908e+00 139 135 131
-1.144797e+01 -1.343407e+00 4.228967e+00 72 64 68
-1.133677e+01 -1.250997e+00 4.258484e+00 169 170 156
-2.944483e-01 -3.817994e+00 2.631692e+00 44 39 38
-1.140365e+01 -1.184031e+00 4.257458e+00 124 123 129
-8.405385e-01 -3.608391e+00 2.793176e+00 125 116 115
-1.036235e+01 -1.229448e+00 4.272793e+00 95 88 95
-1.089560e+01 -1.116177e+00 4.278864e+00 186 185 175
-1.287265e+00 -3.224306e+00 2.949098e+00 192 191 187
-1.086091e+01 -9.992087e-01 4.271763e+00 177 175 164
-3.375894e-01 -3.429343e+00 2.678898e+00 203 210 206
-1.019598e+00 -3.171754e+00 2.887919e+00 197 192 189
-1.019598e+00 -3.171754e+00 2.887919e+00 197 192 189
-1.095599e+01 -8.577410e-01 4.291815e+00 173 169 157
-1.109993e+01 -7.994466e-01 4.285278e+00 170 173 166
-1.109292e+01 -7.423178e-01 4.294703e+00 82 70 71
-1.146269e+01 -6.490859e-01 4.282869e+00 90 78 96
-1.114763e+00 -2.957832e+00 2.949273e+00 193 192 188
8.166336e-02 -3.247985e+00 2.583374e+00 201 197 198
-1.240039e+00 -2.909531e+00 2.982944e+00 205 195 186
-1.171474e+00 -2.805365e+00 2.972191e+00 198 193 190
-9.540363e-02 -3.000521e+00 2.649067e+00 190 187 184
-1.086719e+01 -5.098737e-01 4.310560e+00 173 171 157
-1.086719e+01 -5.098737e-01 4.310560e+00 173 171 157
-4.955924e-01 -2.841193e+00 2.782933e+00 144 127 126
-1.302796e+00 -2.647910e+00 3.018748e+00 215 210 204
-7.265392e-01 -2.774452e+00 2.855919e+00 196 191 183
-1.092687e+01 -3.731342e-01 4.324007e+00 116 105 91
-1.087062e+01 -3.815139e-01 4.317251e+00 98 83 83
-1.062507e-01 -2.822666e+00 2.676707e+00 86 66 66
-3.431428e-01 -2.744585e+00 2.754067e+00 119 96 86
-3.431428e-01 -2.744585e+00 2.754067e+00 119 96 86
-1.106836e+01 -2.404950e-01 4.335031e+00 115 98 108
-1.106836e+01 -2.404950e-01 4.335031e+00 115 98 108
-1.039569e+00 -2.506049e+00 2.966949e+00 132 124 121
-4.690432e-01 -2.624178e+00 2.791458e+00 162 152 150
-6.435165e-01 -2.552193e+00 2.862289e+00 132 122 122
6.115350e-01 -2.623645e+00 2.491381e+00 197 195 187
4.819980e-01 -2.438741e+00 2.536258e+00 192 185 181
9.365553e-02 -2.323438e+00 2.661895e+00 187 180 180
9.365553e-02 -2.323438e+00 2.661895e+00 187 180 180
-2.057864e-01 -1.806608e+00 2.797320e+00 207 199 190
1.784143e-03 -1.633193e+00 2.754177e+00 197 191 179
6.122054e-01 -1.641755e+00 2.557917e+00 200 190 181
3.407819e-01 -1.566243e+00 2.642059e+00 176 166 157
-7.914961e-02 -1.388613e+00 2.804622e+00 128 112 111
1.792331e+00 -1.497897e+00 2.214108e+00 190 182 167
1.862399e+00 -1.220991e+00 2.195833e+00 131 107 97
1.862399e+00 -1.220991e+00 2.195833e+00 131 107 97
7.606032e-01 -9.847362e-01 2.566761e+00 198 189 182
1.150512e+00 -1.008639e+00 2.430857e+00 196 184 171
2.191457e+00 -9.821533e-01 2.097024e+00 183 165 154
2.372224e+00 -9.190944e-01 2.062429e+00 120 100 86
2.556626e+00 -9.250729e-01 2.012395e+00 165 150 148
1.706238e+00 -6.983662e-01 2.265344e+00 141 126 130
1.090266e+00 -3.846712e-01 2.455343e+00 193 181 167
2.251692e+00 -5.570063e-01 2.101757e+00 88 68 60
9.966480e-01 -3.127639e-01 2.503357e+00 113 87 88
2.791107e+00 -6.233325e-01 1.925165e+00 70 46 49
2.106318e+00 -1.028754e-01 2.171235e+00 201 193 187
2.106318e+00 -1.028754e-01 2.171235e+00 201 193 187
2.077374e+00 -4.516041e-02 2.156349e+00 197 190 171
2.468927e+00 -8.623269e-02 2.038991e+00 97 83 79
3.088900e+00 -1.717622e-01 1.829531e+00 191 185 169
2.287130e+00 7.068417e-02 2.097323e+00 95 70 72
2.573749e+00 1.286867e-01 2.007833e+00 76 49 68
2.573749e+00 1.286867e-01 2.007833e+00 76 49 68
1.847308e+00 2.636244e-01 2.237685e+00 105 85 78
2.414846e+00 1.769871e-01 2.028907e+00 191 187 163
3.235688e+00 4.239378e-01 1.796825e+00 75 60 46
2.828582e+00 5.888884e-01 1.912552e+00 141 123 120
-8.636021e+00 -3.787367e+00 3.996731e+00 11 21 25
-9.243493e+00 -3.526045e+00 4.043917e+00 167 169 171
-9.369284e+00 -3.435167e+00 4.061568e+00 167 166 165
-9.241520e+00 -3.412020e+00 4.057164e+00 57 49 75
-1.084324e+01 -3.056058e+00 4.119135e+00 152 143 137
-1.054417e+01 -2.982229e+00 4.120714e+00 145 136 152
-1.064497e+01 -2.871234e+00 4.141809e+00 20 18 34
-1.005239e+01 -2.868680e+00 4.140393e+00 102 94 111
-9.480234e+00 -2.792853e+00 4.134465e+00 152 147 143
-9.661674e+00 -2.568190e+00 4.154601e+00 69 57 66
-9.661674e+00 -2.568190e+00 4.154601e+00 69 57 66
-1.120920e+01 -2.000933e+00 4.208178e+00 49 46 53
-9.954967e+00 -2.201030e+00 4.185372e+00 146 145 133
-1.103878e+00 -4.313622e+00 2.770954e+00 79 76 93
-1.042176e+01 -1.946219e+00 4.225810e+00 173 173 166
-1.056745e+01 -1.905541e+00 4.208183e+00 101 88 106
-1.146382e+01 -1.502888e+00 4.235499e+00 100 93 109
-1.009769e+01 -1.768231e+00 4.239027e+00 159 160 162
-1.060280e+01 -1.658284e+00 4.235924e+00 163 162 155
-1.048737e+01 -1.640396e+00 4.238099e+00 173 167 169
-1.102267e+01 -1.469342e+00 4.250970e+00 200 207 199
-3.080180e-01 -3.935203e+00 2.612512e+00 154 138 131
-8.967680e-01 -3.613771e+00 2.803266e+00 160 151 143
-9.408222e-01 -3.572429e+00 2.818244e+00 43 30 37
-1.126221e+01 -1.084648e+00 4.270070e+00 158 148 140
-1.126221e+01 -1.084648e+00 4.270070e+00 158 148 140
-1.043427e+01 -1.217988e+00 4.272838e+00 80 75 85
-1.127721e+01 -1.044424e+00 4.261554e+00 54 45 54
-1.040115e+01 -1.191035e+00 4.272851e+00 170 169 164
-1.048193e+01 -1.145821e+00 4.281511e+00 174 175 165
-1.111910e+01 -9.854079e-01 4.277546e+00 156 147 146
-1.459254e+00 -3.128368e+00 3.008832e+00 153 144 145
-1.099211e+01 -9.131713e-01 4.286324e+00 171 163 156
-1.093767e+01 -9.111407e-01 4.289577e+00 113 104 104
-1.118622e+01 -8.426219e-01 4.278140e+00 194 194 199
-1.118622e+01 -8.426219e-01 4.278140e+00 194 194 199
-1.119307e+01 -7.160002e-01 4.292514e+00 193 195 182
-1.105990e+01 -7.182662e-01 4.286349e+00 156 152 140
-1.639956e+00 -2.808824e+00 3.088234e+00 172 160 162
4.366371e-01 -3.017794e+00 2.502828e+00 201 189 190
-1.191351e+00 -2.532676e+00 3.005210e+00 134 127 130
-1.191351e+00 -2.532676e+00 3.005210e+00 134 127 130
6.438351e-02 -2.816127e+00 2.628757e+00 138 124 116
-1.083189e+01 -2.239006e-01 4.319796e+00 104 95 91
6.180097e-01 -2.812222e+00 2.463240e+00 203 198 195
-1.128317e+01 4.360730e-01 4.333053e+00 119 118 150
1.290090e-01 -1.992672e+00 2.671125e+00 155 141 142
-9.197591e-02 -1.893050e+00 2.755574e+00 114 89 84
1.021399e-01 -1.878070e+00 2.695194e+00 37 24 19
-6.867658e-01 -1.687189e+00 2.949042e+00 203 192 190
1.990238e-02 -1.682393e+00 2.746701e+00 26 12 8
1.150648e+00 -1.552835e+00 2.404823e+00 143 123 121
1.536766e+00 -1.617200e+00 2.263193e+00 192 182 167
7.794152e-01 -1.413748e+00 2.525910e+00 204 195 191
1.430737e-01 -1.208031e+00 2.727465e+00 130 114 107
4.636735e-01 -1.200358e+00 2.623484e+00 91 77 77
1.852987e+00 -1.445503e+00 2.195070e+00 194 180 174
9.631959e-01 -1.257490e+00 2.476692e+00 201 191 189
4.660550e-01 -1.154987e+00 2.648843e+00 104 90 83
1.906816e+00 -1.249890e+00 2.178365e+00 181 168 158
2.163353e-01 -8.486988e-01 2.733973e+00 162 149 147
2.002801e+00 -1.203979e+00 2.158032e+00 108 87 84
5.603291e-01 -8.135251e-01 2.625568e+00 143 124 128
1.771332e+00 -8.780382e-01 2.255653e+00 132 119 120
2.335433e+00 -7.836291e-01 2.061984e+00 118 102 101
2.872314e+00 -7.312186e-01 1.895191e+00 57 39 34
2.294635e+00 -5.506028e-01 2.092462e+00 207 199 180
2.582416e+00 -4.773691e-01 1.989924e+00 48 34 30
2.691505e+00 -4.360803e-01 1.961948e+00 86 68 64
2.691505e+00 -4.360803e-01 1.961948e+00 86 68 64
2.530959e+00 -3.444856e-01 1.997159e+00 93 72 71
2.568144e+00 -1.824385e-01 2.007579e+00 190 185 164
2.230475e+00 -9.303951e-02 2.114519e+00 123 99 95
2.542077e+00 -1.299014e-01 2.015176e+00 187 185 166
3.047256e+00 -1.036689e-01 1.846026e+00 192 179 162
2.340583e+00 7.452988e-02 2.079437e+00 173 161 147
2.729026e+00 3.529943e-02 1.965667e+00 113 100 104
2.080353e+00 1.541838e-01 2.158046e+00 89 66 69
1.986782e+00 3.390752e-01 2.192973e+00 185 164 150
3.249435e+00 4.808317e-01 1.790340e+00 177 173 162
-9.174961e+00 -3.718902e+00 4.011455e+00 78 77 82
-9.174961e+00 -3.718902e+00 4.011455e+00 78 77 82
-9.268481e+00 -3.546445e+00 4.067509e+00 36 28 43
-1.069870e+01 -3.242796e+00 4.096784e+00 42 37 34
-1.080168e+01 -3.221241e+00 4.101143e+00 61 55 57
-1.007607e+01 -3.238296e+00 4.098196e+00 168 173 158
-1.004075e+01 -3.222850e+00 4.109081e+00 23 25 24
-9.459661e+00 -3.198381e+00 4.083281e+00 158 166 184
-1.069942e+01 -2.905479e+00 4.142302e+00 151 155 158
-1.002257e+01 -3.014891e+00 4.131872e+00 97 95 105
-1.002257e+01 -3.014891e+00 4.131872e+00 97 95 105
-9.253107e+00 -3.057270e+00 4.099752e+00 172 174 174
-1.040690e+00 -4.900652e+00 2.689797e+00 169 173 178
-1.040924e+01 -2.454489e+00 4.173826e+00 79 74 77
-1.054265e+01 -2.402813e+00 4.181818e+00 60 50 51
-1.096562e+01 -2.298194e+00 4.192292e+00 165 172 167
-9.845072e+00 -2.423474e+00 4.179224e+00 178 181 188
-1.117623e+01 -2.113734e+00 4.197527e+00 143 145 156
-1.121816e+01 -1.969142e+00 4.200418e+00 137 138 126
-1.095037e+01 -1.859426e+00 4.236357e+00 161 154 165
-1.065743e+01 -1.864490e+00 4.223198e+00 145 134 124
-1.122484e+01 -1.744712e+00 4.230005e+00 151 146 140
-1.099154e+01 -1.741667e+00 4.228538e+00 139 130 131
-1.006139e+01 -1.902588e+00 4.241503e+00 182 177 183
-8.003387e-01 -4.068376e+00 2.737282e+00 22 23 27
-1.024571e+01 -1.789966e+00 4.240425e+00 183 183 173
-1.020246e+01 -1.792426e+00 4.239827e+00 56 44 54
-1.020246e+01 -1.792426e+00 4.239827e+00 56 44 54
-1.041884e+01 -1.708465e+00 4.262201e+00 167 163 164
-1.096951e+01 -1.588304e+00 4.244272e+00 166 165 167
-1.096951e+01 -1.588304e+00 4.244272e+00 166 165 167
-1.061451e+01 -1.619911e+00 4.251838e+00 71 66 69
-1.105567e+01 -1.504448e+00 4.250660e+00 27 26 21
-1.057377e+01 -1.582684e+00 4.252261e+00 166 172 161
-1.968330e+00 -3.518794e+00 3.092721e+00 150 133 130
-1.139388e+01 -1.254087e+00 4.255720e+00 49 38 44
-3.606613e-01 -3.800494e+00 2.657336e+00 156 151 145
-1.091774e+01 -1.317737e+00 4.256409e+00 172 158 151
-1.092856e+01 -1.294470e+00 4.282233e+00 93 80 80
-1.092856e+01 -1.294470e+00 4.282233e+00 93 80 80
-6.451425e-01 -3.668946e+00 2.732240e+00 196 193 186
-1.127126e+01 -1.171789e+00 4.267165e+00 55 50 44
-1.159704e+01 -1.096531e+00 4.257421e+00 186 192 210
-1.122103e+01 -1.094147e+00 4.267816e+00 56 48 46
-1.035217e+01 -1.272053e+00 4.259609e+00 169 167 164
-1.083932e+01 -1.130038e+00 4.286580e+00 47 43 42
-1.114414e+01 -1.043591e+00 4.272901e+00 179 172 173
-1.102223e+01 -1.049803e+00 4.268204e+00 99 90 99
-1.102223e+01 -1.049803e+00 4.268204e+00 99 90 99
-1.118167e+01 -1.010846e+00 4.280084e+00 150 149 140
-1.118167e+01 -1.010846e+00 4.280084e+00 150 149 140
-1.938077e+00 -3.056129e+00 3.141045e+00 139 125 122
-1.107299e+01 -9.330017e-01 4.289409e+00 147 141 149
-1.073786e+01 -9.934665e-01 4.285054e+00 163 157 143
-7.543003e-01 -3.264927e+00 2.810724e+00 108 93 93
-9.746922e-01 -3.193848e+00 2.887691e+00 125 122 117
-1.104580e+01 -8.340626e-01 4.290704e+00 152 151 152
-1.232822e+00 -3.021765e+00 2.958699e+00 202 205 210
-1.103978e+01 -6.630156e-01 4.294048e+00 189 182 177
-1.599630e+00 -2.795890e+00 3.102357e+00 59 47 53
-1.483063e+00 -2.775090e+00 3.074226e+00 71 58 70
-1.217608e+00 -2.832670e+00 2.975558e+00 136 126 123
-1.099811e+01 -5.810186e-01 4.305483e+00 60 54 52
-1.090856e+01 -5.961818e-01 4.310951e+00 159 148 140
-1.102429e+01 -5.662609e-01 4.301818e+00 194 192 180
1.334478e-01 -3.118682e+00 2.597359e+00 104 93 87
1.334478e-01 -3.118682e+00 2.597359e+00 104 93 87
-1.272362e+00 -2.753051e+00 3.000604e+00 102 90 92
-2.691626e-01 -2.979569e+00 2.704359e+00 127 115 118
-1.093489e+01 -4.906958e-01 4.303551e+00 76 70 75
-6.484293e-01 -2.774003e+00 2.827856e+00 182 173 167
-1.054990e+00 -2.627106e+00 2.961472e+00 198 187 183
-1.154631e+01 -2.362043e-01 4.302455e+00 140 141 162
4.473364e-01 -2.944436e+00 2.512036e+00 180 179 183
4.893739e-01 -2.921150e+00 2.508479e+00 194 195 191
-9.762600e-01 -2.335091e+00 2.969027e+00 199 196 184
-9.310789e-01 -2.208140e+00 2.978027e+00 133 133 135
-1.061649e-02 -2.333441e+00 2.697920e+00 210 200 190
6.124467e-01 -2.445410e+00 2.507999e+00 111 112 120
9.216522e-01 -2.327491e+00 2.420642e+00 182 167 164
9.877989e-01 -2.332417e+00 2.405808e+00 177 165 153
7.629176e-01 -2.281442e+00 2.466812e+00 131 122 125
1.204976e-03 -2.076372e+00 2.700165e+00 207 200 208
1.766969e-01 -2.091698e+00 2.667357e+00 147 139 146
-5.007270e-02 -1.978469e+00 2.736402e+00 65 53 52
1.950620e-01 -2.029275e+00 2.657846e+00 197 191 186
3.062605e-01 -2.012731e+00 2.628283e+00 60 45 55
-6.106512e-01 -1.561391e+00 2.931379e+00 163 152 157
-6.106512e-01 -1.561391e+00 2.931379e+00 163 152 157
-2.786253e-01 -1.601827e+00 2.832926e+00 190 185 186
9.922243e-01 -1.689726e+00 2.439908e+00 157 136 133
2.916484e-01 -1.503392e+00 2.659086e+00 151 134 122
1.186350e+00 -1.627034e+00 2.389773e+00 96 71 64
-2.635232e-01 -1.161317e+00 2.864885e+00 71 53 51
4.228006e-01 -1.255188e+00 2.652918e+00 194 186 185
1.121494e-01 -1.158939e+00 2.750003e+00 181 163 146
4.888781e-01 -1.219982e+00 2.629600e+00 190 178 178
3.400540e-01 -1.179048e+00 2.672087e+00 190 177 166
1.639898e+00 -1.385281e+00 2.265214e+00 124 99 92
8.014773e-01 -1.207285e+00 2.536136e+00 92 79 74
1.354896e+00 -1.268031e+00 2.358472e+00 111 86 89
1.354896e+00 -1.268031e+00 2.358472e+00 111 86 89
1.279131e+00 -1.241232e+00 2.385215e+00 200 189 182
4.749042e-01 -8.661101e-01 2.658294e+00 208 201 187
2.418538e-01 -8.177202e-01 2.698308e+00 196 189 195
7.249547e-01 -8.257397e-01 2.576492e+00 218 207 202
2.462383e+00 -8.683253e-01 2.019689e+00 182 164 175
2.705438e+00 -6.826130e-01 1.954031e+00 82 68 56
2.868621e+00 -6.968169e-01 1.902464e+00 213 200 177
2.817302e+00 -5.955039e-01 1.926741e+00 190 178 156
2.501779e+00 -5.224905e-01 2.022769e+00 77 60 51
2.783313e+00 -5.181076e-01 1.927778e+00 114 91 87
1.933191e+00 4.602121e-02 2.216594e+00 162 148 142
2.688694e+00 -4.122417e-02 1.977554e+00 104 83 83
2.220558e+00 2.655631e-01 2.112281e+00 64 46 45
2.104220e+00 3.904207e-01 2.155200e+00 108 83 84
-1.043355e+01 -3.393508e+00 4.085689e+00 19 14 20
-9.292277e+00 -3.620783e+00 4.034414e+00 138 124 154
-9.292277e+00 -3.620783e+00 4.034414e+00 138 124 154
-1.022243e+01 -3.415887e+00 4.088181e+00 126 113 119
-1.025623e+01 -3.405902e+00 4.090814e+00 135 127 127
-1.044217e+01 -3.368124e+00 4.093077e+00 141 131 134
-9.324254e+00 -3.542388e+00 4.046794e+00 170 158 161
-1.004159e+01 -3.219808e+00 4.108483e+00 26 26 25
-1.085523e+01 -3.022876e+00 4.125425e+00 60 61 56
-9.349639e+00 -3.295451e+00 4.071865e+00 99 98 110
-9.385451e+00 -3.272843e+00 4.083737e+00 204 203 218
-9.140749e+00 -3.301832e+00 4.068167e+00 64 64 80
-1.107488e+00 -5.286425e+00 2.679812e+00 33 41 44
-1.082192e+00 -5.295377e+00 2.639677e+00 164 167 165
-9.109494e+00 -3.284425e+00 4.069175e+00 195 195 210
-9.294457e+00 -3.229928e+00 4.073027e+00 162 161 162
-1.030019e+01 -3.021846e+00 4.119577e+00 70 62 67
-1.076315e+01 -2.914551e+00 4.132073e+00 44 46 57
-1.055753e+01 -2.883015e+00 4.127045e+00 68 69 85
-9.181887e+00 -3.155953e+00 4.088676e+00 187 175 175
-1.060552e+01 -2.849918e+00 4.147286e+00 178 176 179
-1.063081e+01 -2.804502e+00 4.106003e+00 115 113 115
-1.063081e+01 -2.804502e+00 4.106003e+00 115 113 115
-9.826558e+00 -2.867912e+00 4.156242e+00 169 169 176
-9.848886e+00 -2.822753e+00 4.140353e+00 63 60 63
-9.611103e+00 -2.864862e+00 4.143521e+00 87 82 95
-1.091944e+01 -2.585391e+00 4.165491e+00 116 113 108
-1.092358e+01 -2.378307e+00 4.161633e+00 105 103 116
-1.096592e+01 -2.333846e+00 4.191867e+00 159 163 167
-1.037539e+01 -2.453037e+00 4.175320e+00 146 142 139
-1.029713e+01 -2.441884e+00 4.170091e+00 154 145 158
-9.899279e+00 -2.397859e+00 4.200907e+00 153 156 159
-1.046021e+01 -2.288956e+00 4.193290e+00 175 174 164
-9.724922e+00 -2.431978e+00 4.179790e+00 177 173 173
-1.124122e+01 -2.105004e+00 4.200660e+00 65 67 70
-1.042205e+01 -2.125162e+00 4.192346e+00 91 84 82
-1.157885e+00 -4.301245e+00 2.795459e+00 199 200 203
-9.247338e-01 -4.340095e+00 2.717545e+00 190 200 209
-1.038791e+01 -2.068341e+00 4.199138e+00 102 94 97
-1.030710e+01 -2.072789e+00 4.224807e+00 141 137 136
-1.075262e+01 -1.982844e+00 4.215844e+00 188 189 177
-8.971855e-01 -4.304453e+00 2.713331e+00 175 184 193
-1.121496e+01 -1.864604e+00 4.210890e+00 196 198 200
-1.119744e+01 -1.742036e+00 4.222827e+00 63 53 67
-1.026821e+01 -1.905561e+00 4.228286e+00 153 148 152
-1.065562e+01 -1.823747e+00 4.230870e+00 167 160 158
-1.133535e+01 -1.648278e+00 4.231415e+00 112 112 120
-7.733565e-01 -4.088879e+00 2.708533e+00 186 188 183
-1.140817e+01 -1.598281e+00 4.231947e+00 159 156 171
-1.099048e+01 -1.676503e+00 4.238543e+00 124 108 105
-7.418716e-01 -4.076159e+00 2.710781e+00 106 100 102
-1.027322e+01 -1.808403e+00 4.240868e+00 59 52 47
-1.144504e+01 -1.518834e+00 4.233602e+00 105 97 108
-1.147333e+01 -1.472185e+00 4.247156e+00 176 181 185
-1.130032e+01 -1.402845e+00 4.255562e+00 74 65 66
-8.081374e-01 -3.839101e+00 2.761571e+00 164 162 157
-7.524605e-01 -3.825626e+00 2.740482e+00 66 64 71
-1.140899e+01 -1.308664e+00 4.241631e+00 69 66 68
-1.143574e+01 -1.300413e+00 4.247444e+00 192 194 191
-1.051580e+01 -1.483856e+00 4.263470e+00 90 79 75
-1.143166e+01 -1.250388e+00 4.247086e+00 195 197 184
-5.961666e-01 -3.740389e+00 2.715845e+00 171 166 157
-3.604243e-01 -3.764261e+00 2.653466e+00 168 167 164
-1.087289e+01 -1.290294e+00 4.272870e+00 175 171 167
-1.087289e+01 -1.290294e+00 4.272870e+00 175 171 167
-4.887469e-01 -3.703414e+00 2.694347e+00 165 150 155
-1.131152e+01 -1.135392e+00 4.287977e+00 162 164 152
-1.001568e+00 -3.506776e+00 2.849149e+00 43 44 40
-1.129663e+01 -1.120623e+00 4.266772e+00 96 89 82
-1.050267e+01 -1.245466e+00 4.290146e+00 71 63 59
-1.050267e+01 -1.245466e+00 4.290146e+00 71 63 59
-1.110207e+01 -1.102425e+00 4.285466e+00 90 80 80
-1.333675e+00 -3.305460e+00 2.956690e+00 93 74 74
-5.320818e-01 -3.502179e+00 2.726138e+00 103 92 102
-1.100150e+01 -1.021475e+00 4.286691e+00 105 92 99
-9.667322e-01 -3.328739e+00 2.835263e+00 133 124 121
-1.121747e+01 -9.426774e-01 4.274158e+00 216 218 207
-1.610448e+00 -3.134328e+00 3.046169e+00 132 126 120
-1.872123e+00 -3.054884e+00 3.121000e+00 131 125 125
-1.110245e+01 -9.088971e-01 4.287387e+00 54 44 54
-7.586956e-01 -3.289898e+00 2.821129e+00 191 178 172
-1.115196e+01 -8.825040e-01 4.282194e+00 103 97 98
-1.875990e+00 -2.972007e+00 3.130356e+00 98 88 87
-9.531302e-01 -3.183006e+00 2.888664e+00 200 202 196
-1.103038e+01 -8.658826e-01 4.290026e+00 86 75 85
-1.121930e+01 -8.292440e-01 4.276429e+00 117 117 121
-2.937665e-01 -3.348070e+00 2.675839e+00 138 127 121
-1.117082e+01 -8.109496e-01 4.287678e+00 71 66 77
-2.456964e-01 -3.309323e+00 2.669258e+00 200 190 181
-1.117756e+01 -7.868792e-01 4.287065e+00 187 188 192
-1.007001e+00 -3.110307e+00 2.890132e+00 191 174 164
-3.784229e-01 -3.261236e+00 2.704276e+00 207 194 186
-1.465904e+00 -2.988612e+00 3.025499e+00 189 171 160
-1.078387e+01 -8.502451e-01 4.291702e+00 190 188 191
-1.347686e+00 -2.996503e+00 2.987635e+00 118 106 102
-2.917172e-01 -3.257308e+00 2.683232e+00 118 102 95
-3.898696e-01 -3.234355e+00 2.712787e+00 154 141 130
-8.984420e-01 -3.091057e+00 2.874145e+00 120 107 106
-1.349207e+00 -2.967606e+00 2.990483e+00 180 169 161
-1.058779e+01 -8.361122e-01 4.299925e+00 173 164 162
-7.800307e-01 -3.073493e+00 2.833684e+00 150 137 132
-1.651099e+00 -2.844596e+00 3.093657e+00 108 90 84
1.264344e-01 -3.270881e+00 2.567825e+00 133 128 134
-1.373227e+00 -2.867414e+00 3.013630e+00 188 175 170
-1.063634e+01 -7.405084e-01 4.318859e+00 140 138 139
-1.493093e+00 -2.797020e+00 3.076990e+00 189 175 188
-1.349340e+00 -2.829747e+00 3.014097e+00 214 202 193
-1.393207e+00 -2.797364e+00 3.029355e+00 184 177 167
-1.051800e+00 -2.714808e+00 2.947424e+00 125 112 101
-8.054462e-01 -2.728916e+00 2.866868e+00 144 133 131
-1.136591e+00 -2.613187e+00 2.983484e+00 147 138 129
-1.219507e+00 -2.545596e+00 2.997613e+00 187 182 184
1.645550e-01 -2.871425e+00 2.598284e+00 184 165 162
2.082433e-01 -2.849089e+00 2.581694e+00 202 194 180
-7.457956e-02 -2.751151e+00 2.673266e+00 144 135 130
-1.098364e+00 -2.502018e+00 2.983979e+00 139 129 128
-1.098364e+00 -2.502018e+00 2.983979e+00 139 129 128
-1.081350e+01 -2.803907e-01 4.320119e+00 112 104 103
1.069545e-01 -2.711976e+00 2.615319e+00 116 106 105
6.569669e-02 -2.675777e+00 2.644251e+00 131 125 129
-6.369685e-02 -2.641151e+00 2.670972e+00 129 121 118
-3.823139e-01 -2.530411e+00 2.777860e+00 153 153 155
-4.509748e-01 -2.494109e+00 2.805868e+00 209 202 199
-1.055583e+00 -2.279572e+00 3.000026e+00 192 179 170
-1.092820e+00 -2.271542e+00 2.994613e+00 154 148 150
-1.719023e-01 -2.421251e+00 2.729723e+00 141 134 135
-3.918984e-01 -2.228376e+00 2.819646e+00 102 90 92
3.721476e-03 -2.307551e+00 2.694711e+00 144 135 136
-5.135381e-03 -2.284289e+00 2.693283e+00 188 187 192
3.044772e-01 -2.312107e+00 2.607869e+00 125 117 114
8.111181e-01 -2.406241e+00 2.445403e+00 139 129 129
-3.337202e-02 -2.082671e+00 2.723901e+00 102 95 101
-3.337202e-02 -2.082671e+00 2.723901e+00 102 95 101
7.202262e-02 -2.088484e+00 2.684027e+00 113 100 113
1.024772e-01 -2.087504e+00 2.683123e+00 191 183 192
-6.763890e-02 -2.033492e+00 2.738381e+00 198 188 197
9.903197e-01 -2.213012e+00 2.413970e+00 213 215 210
-2.898537e-02 -1.905486e+00 2.746844e+00 57 45 33
-6.372338e-01 -1.688840e+00 2.931282e+00 110 95 90
-3.389145e-01 -1.738760e+00 2.827422e+00 203 182 177
3.712057e-01 -1.889798e+00 2.621574e+00 215 211 200
-8.753816e-02 -1.774355e+00 2.772025e+00 194 184 183
8.844011e-01 -1.979673e+00 2.463758e+00 137 125 127
2.400968e-01 -1.829516e+00 2.653024e+00 95 82 86
2.400968e-01 -1.829516e+00 2.653024e+00 95 82 86
2.136653e-01 -1.823552e+00 2.657547e+00 197 181 182
1.236876e+00 -2.010064e+00 2.345901e+00 205 189 182
7.968977e-01 -1.885161e+00 2.484605e+00 145 127 120
-2.329578e-01 -1.509379e+00 2.825776e+00 71 58 61
-4.757891e-01 -1.434335e+00 2.899223e+00 122 103 100
5.744988e-01 -1.599298e+00 2.580410e+00 95 74 69
2.613592e-01 -1.511750e+00 2.679190e+00 77 58 54
8.379012e-01 -1.627437e+00 2.494735e+00 112 92 83
2.379706e-01 -1.496934e+00 2.683246e+00 189 171 169
3.334987e-01 -1.500690e+00 2.653726e+00 98 84 74
2.520426e-01 -1.463261e+00 2.688280e+00 68 53 54
2.420491e-02 -1.388112e+00 2.759593e+00 97 80 73
7.240698e-01 -1.511741e+00 2.545365e+00 140 120 113
-3.160829e-02 -1.342583e+00 2.782108e+00 134 118 102
-1.471633e-03 -1.333936e+00 2.777221e+00 189 177 163
-1.471633e-03 -1.333936e+00 2.777221e+00 189 177 163
1.329527e+00 -1.614452e+00 2.346061e+00 88 66 58
1.329527e+00 -1.614452e+00 2.346061e+00 88 66 58
-9.319893e-02 -1.285023e+00 2.809857e+00 110 94 96
3.683108e-01 -1.363911e+00 2.656427e+00 116 97 92
1.531148e+00 -1.577076e+00 2.289747e+00 109 88 80
3.749445e-01 -1.264974e+00 2.667165e+00 187 176 179
3.917060e-01 -1.239984e+00 2.660435e+00 68 52 55
1.291014e+00 -1.389140e+00 2.368345e+00 134 115 108
9.416477e-01 -1.228599e+00 2.490148e+00 112 98 89
8.738817e-02 -9.981952e-01 2.773075e+00 91 74 69
6.756360e-02 -9.855480e-01 2.774184e+00 204 186 171
2.007508e+00 -1.355521e+00 2.144176e+00 170 152 152
3.347479e-01 -9.178784e-01 2.697091e+00 47 33 36
3.639537e-01 -9.108882e-01 2.687661e+00 196 194 184
2.067494e+00 -1.208520e+00 2.148679e+00 90 76 72
2.179778e+00 -1.208904e+00 2.117041e+00 100 86 76
2.196635e+00 -1.185443e+00 2.101067e+00 168 153 146
1.063267e+00 -9.095186e-01 2.466542e+00 76 60 65
5.263952e-01 -8.018143e-01 2.642171e+00 191 173 169
5.263952e-01 -8.018143e-01 2.642171e+00 191 173 169
6.941341e-01 -8.045695e-01 2.590342e+00 107 95 100
1.786802e+00 -9.910214e-01 2.232551e+00 188 173 173
1.271307e+00 -8.833036e-01 2.395246e+00 161 143 134
5.446413e-01 -7.373750e-01 2.645532e+00 130 116 108
2.390817e+00 -9.339337e-01 2.037063e+00 115 99 83
1.439202e+00 -6.807575e-01 2.355383e+00 130 117 134
1.512505e+00 -6.821254e-01 2.340245e+00 137 137 142
2.574378e+00 -8.694403e-01 1.986374e+00 87 66 62
1.057712e+00 -4.296390e-01 2.463407e+00 193 182 164
2.716994e+00 -7.336055e-01 1.948373e+00 88 70 68
1.036707e+00 -3.717794e-01 2.503558e+00 80 62 52
1.025887e+00 -3.516391e-01 2.498958e+00 180 161 151
1.065909e+00 -3.407479e-01 2.488430e+00 102 84 72
1.112171e+00 -2.492881e-01 2.491664e+00 113 96 86
1.922336e+00 -3.773411e-01 2.217315e+00 111 92 86
1.922336e+00 -3.773411e-01 2.217315e+00 111 92 86
2.859593e+00 -4.774661e-01 1.910383e+00 91 71 67
2.902503e+00 -4.424977e-01 1.894600e+00 101 79 74
2.696319e+00 -3.979820e-01 1.952414e+00 141 131 116
2.885201e+00 -4.214898e-01 1.908377e+00 184 175 167
2.641195e+00 -3.694861e-01 1.974374e+00 118 103 96
1.848452e+00 -5.188127e-02 2.247599e+00 96 67 64
2.580040e+00 -1.469670e-01 1.999402e+00 116 99 100
2.106609e+00 6.305157e-02 2.162654e+00 127 107 101
2.058474e+00 7.431225e-02 2.180279e+00 152 132 134
2.511319e+00 1.786381e-02 2.017993e+00 208 199 191
1.953227e+00 1.688059e-01 2.205828e+00 174 167 136
3.095445e+00 2.358098e-01 1.846772e+00 161 147 149
2.606410e+00 3.985004e-01 1.991087e+00 201 182 180
2.628278e+00 4.014442e-01 2.004931e+00 99 80 75
2.614839e+00 5.729516e-01 1.991969e+00 134 119 121
-9.352205e+00 -3.358868e+00 4.069247e+00 47 41 55
-9.075518e+00 -3.373299e+00 4.060502e+00 83 77 81
-1.082740e+01 -2.997259e+00 4.117038e+00 77 74 68
-1.015815e+01 -3.107573e+00 4.117020e+00 137 137 147
-1.022448e+01 -3.097587e+00 4.111576e+00 130 131 136
-1.075148e+01 -2.952849e+00 4.127258e+00 69 64 64
-9.160604e+00 -3.277731e+00 4.069323e+00 70 64 75
-9.277692e+00 -3.247711e+00 4.061573e+00 79 85 91
-1.075178e+01 -2.932868e+00 4.137220e+00 158 157 162
-1.032862e+01 -3.012369e+00 4.118001e+00 163 162 163
-9.103085e+00 -3.262400e+00 4.064537e+00 87 79 99
-9.862262e+00 -3.067291e+00 4.115914e+00 168 166 170
-1.054185e+01 -2.928797e+00 4.130332e+00 74 70 92
-9.884135e+00 -3.057019e+00 4.103938e+00 130 125 131
-1.062247e+01 -2.829983e+00 4.143186e+00 100 103 106
-9.239934e+00 -3.092276e+00 4.103777e+00 106 100 104
-9.829910e+00 -2.892160e+00 4.132773e+00 122 125 134
-1.010748e+01 -2.814585e+00 4.148489e+00 174 168 168
-9.597015e+00 -2.828354e+00 4.126126e+00 195 184 190
-9.482666e+00 -2.758360e+00 4.142160e+00 113 114 133
-1.090860e+01 -2.346934e+00 4.176363e+00 117 111 125
-1.056109e+01 -2.391882e+00 4.199104e+00 152 151 140
-1.042576e+00 -4.672389e+00 2.707354e+00 165 169 176
-1.010912e+01 -2.456421e+00 4.175813e+00 127 125 137
-1.090843e+01 -2.280565e+00 4.191171e+00 169 164 173
-1.089772e+01 -2.281639e+00 4.165043e+00 104 100 111
-1.089772e+01 -2.281639e+00 4.165043e+00 104 100 111
-1.117102e+01 -2.061361e+00 4.212338e+00 148 149 161
-1.175375e+00 -4.271551e+00 2.800990e+00 62 63 68
-1.124532e+01 -1.884630e+00 4.218697e+00 118 110 116
-1.035954e+00 -4.222980e+00 2.765449e+00 178 167 187
-1.053766e+00 -4.210132e+00 2.769726e+00 55 47 65
-1.117901e+01 -1.717826e+00 4.226598e+00 164 160 174
-1.072307e+01 -1.773050e+00 4.233420e+00 153 152 152
-1.054717e+01 -1.563897e+00 4.250624e+00 103 101 96
-1.144661e+01 -1.282893e+00 4.250725e+00 86 85 84
-1.144661e+01 -1.282893e+00 4.250725e+00 86 85 84
-7.922827e-01 -3.741102e+00 2.763355e+00 48 38 39
-1.138933e+01 -1.279077e+00 4.257977e+00 181 171 172
-1.138933e+01 -1.279077e+00 4.257977e+00 181 171 172
-1.087649e+01 -1.318499e+00 4.269754e+00 112 108 95
-1.043039e+01 -1.367989e+00 4.268083e+00 91 85 82
-1.043039e+01 -1.367989e+00 4.268083e+00 91 85 82
-1.009806e+00 -3.546447e+00 2.842623e+00 34 30 29
-9.903344e-01 -3.529309e+00 2.839605e+00 188 184 183
-6.332835e-01 -3.619990e+00 2.727467e+00 162 164 162
-1.126920e+01 -1.134854e+00 4.273194e+00 157 148 134
-1.119205e+01 -1.074512e+00 4.264617e+00 128 123 120
-1.527992e+00 -3.256924e+00 3.017277e+00 193 185 179
-1.394700e+00 -3.264840e+00 2.971640e+00 191 185 179
-5.036885e-01 -3.461046e+00 2.736886e+00 194 190 189
-1.324348e+00 -3.246587e+00 2.978228e+00 144 134 129
-1.105919e+01 -1.014680e+00 4.262019e+00 102 91 89
-1.066455e+01 -1.080155e+00 4.263670e+00 97 82 78
-1.126968e+01 -9.447868e-01 4.275080e+00 176 173 166
-6.196251e-01 -3.383725e+00 2.762991e+00 186 179 181
-1.108478e+01 -9.649404e-01 4.277990e+00 84 75 84
-1.122505e+01 -9.187720e-01 4.275135e+00 118 118 116
-6.442107e-01 -3.330275e+00 2.773735e+00 128 122 116
-7.934925e-01 -3.271870e+00 2.823487e+00 189 180 174
-1.119968e+01 -8.712077e-01 4.281985e+00 66 60 66
-1.079263e+01 -9.415324e-01 4.279536e+00 171 169 154
-1.096906e+01 -5.850781e-01 4.289243e+00 112 103 111
-7.694419e-01 -2.764814e+00 2.859716e+00 111 100 91
-1.511609e+00 -2.556787e+00 3.093125e+00 168 157 156
-1.077951e+00 -2.610901e+00 2.966722e+00 155 145 136
2.764529e-01 -2.919109e+00 2.561981e+00 185 177 168
2.482638e-01 -2.903191e+00 2.569459e+00 193 186 174
4.878627e-01 -2.898857e+00 2.498359e+00 187 187 187
-1.115680e+00 -2.484959e+00 2.987360e+00 193 185 182
2.902233e-01 -2.659698e+00 2.593591e+00 141 137 142
-5.851047e-01 -2.334495e+00 2.858388e+00 198 185 181
5.559005e-01 -2.432349e+00 2.523093e+00 125 116 124
-2.598019e-01 -2.079353e+00 2.786875e+00 160 155 152
-3.616017e-02 -2.109141e+00 2.718673e+00 199 194 191
7.178280e-02 -2.111304e+00 2.687924e+00 209 202 210
1.424765e-01 -2.085048e+00 2.677843e+00 200 195 200
2.926523e-01 -2.033906e+00 2.634993e+00 177 168 176
1.072947e+00 -2.054405e+00 2.386419e+00 204 194 192
-5.815749e-01 -1.649765e+00 2.922378e+00 199 182 181
1.225671e+00 -1.981313e+00 2.352344e+00 135 120 114
-2.208434e-01 -1.641946e+00 2.820276e+00 133 126 128
-4.316314e-02 -1.619240e+00 2.745663e+00 190 187 173
3.862988e-02 -1.556625e+00 2.741039e+00 133 118 120
-2.119324e-01 -1.501149e+00 2.824587e+00 173 162 160
-4.579915e-01 -1.447645e+00 2.895767e+00 203 193 188
-4.788167e-01 -1.399477e+00 2.901406e+00 147 134 125
6.624361e-01 -1.608513e+00 2.548378e+00 131 112 101
9.441457e-01 -1.661807e+00 2.443472e+00 165 148 141
5.762757e-01 -1.575645e+00 2.583946e+00 200 191 182
9.562380e-01 -1.622644e+00 2.456122e+00 137 124 115
-3.491241e-02 -1.395466e+00 2.793415e+00 203 192 189
-1.502853e-01 -1.313927e+00 2.827649e+00 158 148 138
1.434895e+00 -1.593826e+00 2.318030e+00 93 71 63
3.440741e-01 -1.346229e+00 2.662781e+00 191 176 173
1.427745e+00 -1.573387e+00 2.317939e+00 189 176 167
4.719928e-01 -1.123689e+00 2.634372e+00 192 180 172
7.949623e-01 -1.180960e+00 2.543817e+00 180 171 161
1.184484e+00 -1.251849e+00 2.411734e+00 129 114 114
5.333659e-02 -9.689344e-01 2.779567e+00 137 120 102
5.333659e-02 -9.689344e-01 2.779567e+00 137 120 102
1.985628e+00 -1.311593e+00 2.163260e+00 168 152 151
2.282878e-01 -9.475705e-01 2.732261e+00 197 178 163
1.663031e+00 -1.240257e+00 2.266946e+00 129 110 99
1.961644e+00 -1.238044e+00 2.177960e+00 132 110 108
1.961644e+00 -1.238044e+00 2.177960e+00 132 110 108
1.820995e+00 -1.168231e+00 2.223583e+00 141 121 118
1.006947e+00 -9.201777e-01 2.490814e+00 123 111 126
1.788184e+00 -1.052351e+00 2.236407e+00 139 128 134
5.981916e-01 -7.593043e-01 2.621952e+00 155 146 141
5.981916e-01 -7.593043e-01 2.621952e+00 155 146 141
7.955989e-01 -7.572793e-01 2.590158e+00 153 141 132
5.403519e-01 -5.609004e-01 2.614582e+00 154 143 125
2.393078e+00 -4.579594e-01 2.055079e+00 127 114 102
2.180669e+00 -7.420466e-02 2.133367e+00 172 157 152
2.568803e+00 1.500134e-02 1.992081e+00 163 151 149
2.975407e+00 6.744577e-01 1.872105e+00 183 165 162
-2.643069e+00 7.906466e+00 1.050104e+00 174 170 167
-8.964546e+00 1.122869e+01 1.392693e+01 68 74 70
-9.285634e+00 1.248275e+01 1.704743e+01 124 127 125
-9.285634e+00 1.248275e+01 1.704743e+01 124 127 125
-8.583411e+00 1.084548e+01 1.221479e+01 136 141 144
-7.613405e+00 9.792726e+00 1.704871e+01 252 252 251
-7.613405e+00 9.792726e+00 1.704871e+01 252 252 251
-8.362699e+00 5.620464e+00 1.607201e+01 150 155 158
-1.105056e+01 1.481838e+01 1.612224e+01 92 96 97
-8.566924e+00 1.261348e+01 1.739691e+01 125 126 119
-9.275594e+00 4.162540e+00 1.968279e+01 127 128 130
-9.235455e+00 3.864754e+00 1.991112e+01 69 71 68
-8.985040e+00 4.557990e+00 1.680368e+01 76 76 71
-9.250400e+00 3.138357e+00 1.826079e+01 71 69 64
-8.876553e+00 1.090169e+01 1.410498e+01 66 69 66
-8.876553e+00 1.090169e+01 1.410498e+01 66 69 66
-9.152549e+00 4.515985e+00 1.795387e+01 67 65 65
-3.838019e+00 3.525871e+00 1.378466e+01 71 76 79
-9.388071e+00 1.179803e+01 1.340737e+01 122 125 126
-9.385487e+00 1.180678e+01 1.340209e+01 122 125 126
-1.129722e+01 1.534250e+01 1.598807e+01 89 94 94
-8.244717e+00 5.221386e+00 1.638528e+01 142 94 72
-8.382742e+00 9.348431e+00 1.563912e+01 109 109 114
-1.060406e+01 9.251730e+00 1.735870e+01 60 58 59
-9.325854e+00 8.596253e+00 1.585988e+01 58 56 56
-9.368234e+00 9.762078e+00 1.777769e+01 88 88 84
-9.389625e+00 9.897464e+00 1.853995e+01 70 66 69
-7.545814e+00 9.325432e+00 1.512709e+01 124 126 129
-7.545814e+00 9.325432e+00 1.512709e+01 124 126 129
-1.092572e+01 8.641448e+00 1.527874e+01 90 90 92
-9.300832e+00 8.595456e+00 1.587555e+01 65 64 62
-2.519676e+00 7.780041e+00 1.150188e+01 29 32 41
-4.879622e+00 6.593207e+00 1.367339e+01 125 124 129
-6.980291e+00 1.083983e+01 1.565053e+01 205 226 245
-7.606150e+00 1.028905e+01 1.572902e+01 205 222 241
-1.044523e+01 9.370028e+00 1.730730e+01 33 29 28
-9.013664e+00 1.009899e+01 1.782688e+01 115 116 120
-8.953510e+00 9.429983e+00 1.850824e+01 114 114 114
-5.236670e+00 6.813273e+00 1.269261e+01 132 136 137
-6.626104e+00 6.962838e+00 1.236101e+01 27 25 36
-9.858482e+00 7.331379e+00 1.133082e+01 90 89 90
-8.664304e+00 8.532392e+00 1.513088e+01 90 88 90
-8.398359e+00 9.570056e+00 1.561358e+01 113 117 120
-9.757060e+00 9.867967e+00 1.853045e+01 135 134 139
-2.726282e+00 8.578102e+00 5.592147e+00 103 103 99
-5.029653e+00 7.641494e+00 6.332502e+00 33 25 21
-3.842431e+00 7.964369e+00 6.412354e+00 29 19 17
-4.072700e+00 7.371801e+00 1.120328e+01 69 69 71
-5.045895e+00 7.114872e+00 1.129268e+01 21 20 25
-6.076134e+00 6.754731e+00 1.356688e+01 129 128 132
-8.559832e+00 7.553301e+00 1.194808e+01 121 122 127
-8.090612e+00 1.082660e+01 1.730017e+01 202 221 237
-7.504023e+00 1.130737e+01 1.732929e+01 203 223 243
-8.630023e+00 1.038570e+01 1.921357e+01 110 119 126
-4.964380e+00 6.659953e+00 1.289397e+01 125 128 133
-4.180358e+00 6.369584e+00 1.406014e+01 127 129 128
1.910694e+00 1.184364e+01 9.652818e+00 123 123 123
-5.871755e+00 6.710513e+00 1.355265e+01 15 14 21
-5.871755e+00 6.710513e+00 1.355265e+01 15 14 21
-6.322819e+00 6.861411e+00 1.375879e+01 128 132 135
-4.651615e+00 5.443525e+00 1.603897e+01 124 124 129
-8.025333e+00 8.357461e+00 1.494815e+01 108 109 111
-8.022086e+00 8.396987e+00 1.494928e+01 108 109 111
-8.437167e+00 8.687461e+00 1.528966e+01 52 47 46
