ply
format ascii 1.0
element face 0
property list uchar int vertex_indices
element vertex 942
property float x
property float y
property float z
property uchar diffuse_red
property uchar diffuse_green
property uchar diffuse_blue
end_header
-1.636308e+00 1.902000e+00 3.982727e+00 157 160 167
3.529183e+00 -2.829386e+00 8.750010e-01 44 39 45
1.762289e-01 -8.510630e-01 4.348783e+00 174 173 179
1.248524e+00 -2.467219e-01 3.690539e+00 43 33 34
-1.323448e+00 1.099480e-01 3.638570e+00 185 182 189
-5.899744e-01 5.996145e-01 3.835219e+00 178 176 187
-1.372154e+00 1.074773e+00 4.386724e+00 74 70 77
-1.660533e+00 1.901097e+00 3.979957e+00 47 49 61
-6.425368e-01 -1.890921e+00 2.384007e+00 131 125 129
3.916882e+00 -3.159610e+00 3.582486e-01 67 61 68
3.962477e+00 -2.933094e+00 4.783764e-01 77 74 83
-1.234686e+00 -4.119746e-01 3.782779e+00 73 68 75
-2.140096e-01 -2.918960e-01 3.928434e+00 161 155 157
7.522788e-01 1.001414e-01 4.191416e+00 174 175 180
-3.761019e-01 5.608099e-01 3.661194e+00 178 177 183
-5.562485e-01 9.914332e-01 3.585940e+00 98 99 104
1.375167e+00 1.168549e+00 3.635696e+00 200 226 251
4.791289e-01 1.170337e+00 3.621151e+00 155 150 156
-1.866069e+00 1.817062e+00 4.056617e+00 220 238 254
5.161379e-01 1.945896e+00 3.387668e+00 53 54 59
4.331096e+00 -3.118056e+00 1.659295e-01 95 96 101
4.163323e+00 -2.840287e+00 2.512527e-01 151 150 156
-9.062126e-01 -1.354336e-01 3.777575e+00 125 125 135
-8.785861e-02 1.327014e-01 3.802081e+00 58 59 64
-1.232096e+00 3.900642e-01 3.625470e+00 192 192 200
7.638103e-01 5.592699e-01 3.802926e+00 171 167 168
-5.336408e-01 9.646154e-01 3.568696e+00 33 32 38
-4.270819e-01 1.060593e+00 3.547362e+00 84 82 87
-1.670148e+00 1.878704e+00 4.055670e+00 54 57 66
-1.443625e+00 1.938638e+00 4.207268e+00 151 152 157
1.991634e-01 2.080905e+00 3.339473e+00 76 76 86
4.264488e-01 2.189949e+00 3.269924e+00 178 177 185
-1.298258e+00 -9.497600e-01 4.189284e+00 145 135 136
-1.040729e+00 -5.022016e-01 3.808514e+00 192 187 194
-7.637702e-01 -3.985122e-01 3.854315e+00 97 94 102
-6.854553e-01 -4.055865e-01 3.837789e+00 173 170 179
-1.277141e-01 -3.353648e-01 3.950376e+00 66 57 60
9.648189e-01 3.744181e-01 3.860863e+00 89 86 93
1.023482e-01 4.306777e-01 3.776635e+00 88 85 92
-1.119347e+00 4.422498e-01 3.635458e+00 92 87 97
-1.593694e+00 8.644781e-01 3.429895e+00 138 155 171
-1.572144e+00 1.092867e+00 4.252157e+00 106 106 114
-1.411879e+00 1.140600e+00 4.303842e+00 113 112 118
-1.430835e+00 1.188356e+00 4.262604e+00 162 160 165
-1.610793e+00 9.966088e-01 3.373259e+00 227 244 252
-1.949945e-01 1.047718e+00 3.623561e+00 74 73 79
7.317833e-01 1.183725e+00 3.656538e+00 79 74 80
-1.699355e+00 1.511786e+00 4.326561e+00 168 172 184
-1.488019e+00 1.630816e+00 4.354579e+00 112 116 128
-5.356711e-01 1.760184e+00 4.514389e+00 87 95 108
-1.179162e+00 2.134636e+00 3.970372e+00 141 145 156
1.573432e+00 2.159139e+00 2.462444e+00 96 96 106
-1.428303e+00 3.273854e-01 3.579138e+00 188 194 206
-7.966667e-02 5.493593e-01 3.719873e+00 158 157 163
6.559319e-01 5.673204e-01 3.782312e+00 148 142 146
-3.074480e-01 5.909618e-01 3.712619e+00 156 151 157
-3.082983e-01 5.908650e-01 3.685389e+00 118 113 119
-1.611992e+00 1.148790e+00 4.224589e+00 165 163 168
-8.729175e-01 1.106236e+00 3.476821e+00 142 142 152
-1.434818e+00 1.950566e+00 4.196658e+00 158 158 166
-6.178625e-01 -4.541078e-01 3.979480e+00 178 172 176
1.238545e+00 -1.557414e-01 3.917128e+00 48 38 46
-1.128896e+00 4.975643e-01 3.616497e+00 188 188 196
-1.505407e+00 1.344070e+00 3.247083e+00 218 237 254
2.696782e+00 -2.329649e+00 1.706824e+00 29 20 23
-6.560647e-01 1.156166e-01 3.754958e+00 59 59 69
-1.121157e+00 3.219302e-01 3.928644e+00 156 155 163
-3.797663e-01 1.008439e+00 3.611903e+00 27 26 34
5.379829e-01 2.210336e+00 3.267977e+00 168 170 185
3.660904e+00 -3.164320e+00 7.001705e-01 52 49 56
-2.906722e-01 1.015664e+00 3.584071e+00 167 166 172
-2.140251e-01 1.053543e+00 3.588629e+00 174 175 180
-4.871888e-01 1.077918e-01 3.789395e+00 28 26 39
-1.137388e+00 5.498054e-01 3.574691e+00 69 70 75
-9.352391e-01 9.143282e-01 3.541674e+00 103 104 109
3.851345e-01 1.886278e+00 3.360535e+00 19 18 25
-5.749550e-01 -2.064895e+00 2.264020e+00 160 154 158
3.937555e+00 -2.581310e+00 6.211602e-01 99 96 107
3.056302e-01 -7.009133e-01 4.366025e+00 152 141 145
-9.865726e-01 -4.971203e-01 3.834663e+00 191 189 194
-1.320744e+00 1.863270e-01 3.625846e+00 179 178 184
-1.335928e+00 2.687691e-01 3.645861e+00 97 96 104
-1.199646e+00 3.824921e-01 3.601725e+00 86 84 89
-1.184026e+00 4.026860e-01 3.598115e+00 177 176 182
-9.905884e-02 6.182108e-01 3.712573e+00 148 146 151
-1.481315e+00 8.725321e-01 3.411809e+00 121 121 129
-9.322800e-01 9.629450e-01 3.489406e+00 78 77 83
-1.150118e+00 1.072933e+00 3.496020e+00 175 177 189
-1.147734e+00 1.077756e+00 3.447904e+00 168 170 185
2.621276e-01 1.514336e+00 3.576493e+00 114 117 122
-1.421592e+00 1.888900e+00 4.119400e+00 47 45 56
-1.255965e+00 1.847878e+00 3.127618e+00 151 151 163
-1.240220e+00 1.874508e+00 3.143634e+00 157 158 176
-1.076907e+00 -2.908941e-01 3.783239e+00 176 172 179
-1.345866e+00 4.037533e-01 3.643137e+00 149 149 155
-1.358239e+00 4.269414e-01 3.555419e+00 71 71 78
-2.864119e-01 5.633189e-01 3.698800e+00 184 183 189
-2.157981e-01 -4.548932e-01 4.038100e+00 72 61 65
-8.402075e-01 4.774614e-01 3.610153e+00 91 90 95
-1.221436e+00 1.668878e+00 3.272280e+00 24 22 33
-1.052661e+00 1.728124e+00 3.280267e+00 86 86 98
-2.646056e-01 -6.414545e-01 4.080639e+00 58 53 49
-7.818134e-01 -6.143812e-01 4.046951e+00 131 136 139
4.464220e-01 8.561066e-01 3.714704e+00 134 135 142
2.619794e-01 -3.516452e-01 4.130346e+00 61 60 56
1.915187e-01 -7.200707e-01 4.237392e+00 136 143 152
5.549586e-01 -1.387669e-01 4.170545e+00 137 138 141
-6.978638e-01 -2.008633e-01 3.903664e+00 131 127 119
5.341296e-01 -1.115873e-01 4.157667e+00 37 39 38
5.506928e-01 -9.900838e-01 4.326043e+00 86 88 82
2.211263e-01 -9.256952e-01 4.313952e+00 72 70 71
-7.606398e-01 -3.132198e-01 3.974330e+00 125 125 125
-5.813801e-01 -2.228802e-01 3.933726e+00 38 34 35
-4.683432e-01 5.213559e-01 3.582605e+00 144 148 152
-9.225509e-01 9.304453e-01 3.364294e+00 43 41 47
-9.255956e-01 9.168120e-01 3.406569e+00 43 41 47
-9.340684e-01 1.973784e+00 3.016751e+00 121 126 129
-6.907397e-01 -9.421235e-01 4.147565e+00 72 68 65
-7.825302e-01 -8.207031e-01 4.111682e+00 44 37 45
-1.371068e+00 -2.382172e-01 3.859774e+00 40 39 37
-5.708438e-01 4.897859e-01 3.605697e+00 58 56 61
3.748553e-02 5.628540e-01 3.645477e+00 146 148 151
3.758190e-01 1.558465e+00 4.068654e+00 15 21 28
8.418468e-01 2.087368e+00 3.212917e+00 20 21 27
-1.405083e+00 -2.260156e-01 3.992397e+00 35 35 34
-1.481370e+00 -1.062273e-01 3.796276e+00 54 52 57
4.604594e-01 2.253207e-04 3.820454e+00 132 132 124
-6.527318e-02 9.082800e-02 3.668759e+00 26 24 30
-1.342331e+00 1.578950e-01 3.665125e+00 130 136 136
-3.975567e-02 1.809930e-01 3.649382e+00 137 135 138
-2.059247e-01 2.951699e-01 3.865629e+00 140 140 141
-1.706309e-01 4.549323e-01 3.536566e+00 103 101 94
-1.085436e+00 9.426509e-01 3.375834e+00 129 133 136
6.270558e-01 1.698258e+00 3.371007e+00 119 123 126
-9.692326e-01 2.098521e+00 3.001612e+00 60 62 74
-6.575756e-01 2.324764e+00 2.920579e+00 81 82 96
2.175641e-01 -9.566048e-01 4.308828e+00 66 69 72
-6.302661e-01 -7.113366e-01 4.062322e+00 82 81 76
-2.825049e-01 -4.087053e-01 4.039880e+00 102 101 99
-1.178318e+00 1.702235e-01 3.603141e+00 61 58 57
5.530996e-01 3.442366e-01 3.859018e+00 146 146 153
-1.235592e+00 3.456227e-01 3.575503e+00 125 129 126
4.245802e-01 1.133609e+00 3.599778e+00 124 125 124
8.266727e-01 1.416439e+00 3.177976e+00 28 26 34
-6.831865e-01 2.306737e+00 2.949918e+00 211 239 249
-2.012649e-01 -9.937676e-01 4.180056e+00 71 72 66
-8.883350e-01 -1.474843e-01 3.831517e+00 132 140 145
-1.971773e-01 2.216064e-01 3.604866e+00 19 13 13
-1.268553e+00 3.284756e-01 3.588825e+00 73 72 78
-8.746266e-01 5.054652e-01 3.516605e+00 147 150 150
-3.177605e-01 6.211930e-01 3.582502e+00 104 103 101
-1.100762e+00 9.475015e-01 3.334079e+00 124 124 128
-1.316027e+00 1.389143e+00 1.368801e+00 130 131 133
-1.252931e+00 1.469093e+00 1.328289e+00 18 17 23
-4.498121e-01 1.011104e+00 3.425153e+00 37 34 43
-9.026764e-01 1.016534e+00 3.354329e+00 52 52 52
-8.529999e-01 1.032608e+00 3.360913e+00 117 118 120
-3.227730e-01 1.041386e+00 3.442228e+00 123 122 127
-7.530740e-01 1.076558e+00 3.430603e+00 75 75 77
2.764930e-01 8.742150e-01 4.447652e+00 60 59 66
5.089329e-01 1.117109e+00 3.601209e+00 100 97 103
9.624742e-01 1.295106e+00 3.074833e+00 118 118 118
-8.202945e-01 2.020832e+00 2.967283e+00 64 73 76
-1.242132e+00 3.739713e+00 2.794491e-01 81 94 111
9.103704e-01 2.978014e+00 2.320222e+00 75 70 101
4.015598e-01 -2.043646e-01 4.093895e+00 111 112 106
-1.038520e+00 -4.071015e-01 3.777151e+00 30 38 30
3.140969e-01 4.288795e-01 3.677699e+00 160 161 163
-1.644958e+00 3.729472e-01 3.349261e+00 255 255 255
-3.602475e-01 8.413983e-01 3.281024e+00 156 157 170
-3.602475e-01 8.413983e-01 3.281024e+00 156 157 170
-1.548342e+00 1.631675e+00 3.088535e+00 255 255 255
-1.106494e+00 -1.060238e+00 4.197219e+00 11 11 13
1.241124e-01 1.173280e+00 3.581544e+00 91 91 89
-1.452014e+00 1.781014e+00 3.029865e+00 88 88 90
-1.446729e+00 1.962377e+00 2.899638e+00 255 255 255
-1.493756e+00 5.432605e-01 3.476200e+00 96 95 93
-7.080238e-01 6.244469e-01 3.633293e+00 91 90 85
-1.661389e+00 -2.593214e-01 3.465201e+00 139 144 148
-1.973470e+00 -2.157396e-01 6.984574e+00 68 71 76
1.830894e-01 -2.852053e-01 4.094579e+00 130 129 127
-6.764650e-01 -2.479099e-01 3.964531e+00 139 139 141
-7.525041e-01 -2.424391e-01 3.928646e+00 132 133 136
4.881537e-01 1.700224e+00 3.267765e+00 53 57 66
7.519011e-01 2.183386e+00 3.285416e+00 105 99 99
-1.541225e+00 -2.477395e-01 3.740766e+00 39 37 38
-1.668647e-01 3.359747e-01 3.616344e+00 133 133 131
-2.010077e+00 -2.002650e-01 6.947732e+00 18 29 15
-8.617325e-01 -1.140530e+00 4.028393e+00 99 103 102
-1.215334e+00 -1.068437e+00 3.863985e+00 44 45 47
-1.450206e+00 -3.349562e-01 3.754692e+00 41 40 43
8.088875e-01 -1.378762e-01 4.165159e+00 48 47 45
-2.327510e-01 3.634935e-01 3.590574e+00 59 64 79
7.666380e-01 7.650135e-01 3.730655e+00 137 142 145
9.028999e-01 1.643735e+00 3.310523e+00 33 35 49
1.237044e+00 1.700677e+00 3.463850e+00 248 255 254
-1.178484e+00 2.176850e+00 2.916684e+00 120 118 125
-2.030123e+00 -2.174699e-01 6.957038e+00 14 15 19
-2.002250e+00 -2.022722e-01 6.956375e+00 14 19 13
-2.040646e+00 -2.016647e-01 6.945678e+00 9 14 9
-2.000718e+00 -2.000433e-01 6.949507e+00 15 21 21
-2.003242e+00 -2.054598e-01 6.917895e+00 20 29 11
-9.457883e-01 -1.191512e+00 3.926338e+00 108 109 110
-1.039644e+00 -1.080598e+00 4.176556e+00 106 106 106
-8.733598e-01 -1.150218e+00 3.979027e+00 100 104 105
-1.377859e+00 -8.383468e-01 3.900351e+00 68 69 63
-8.176830e-01 -3.257323e-01 3.888206e+00 124 124 115
5.682627e-01 -1.268307e-01 4.105813e+00 51 48 43
1.946773e-01 -1.453217e-01 4.078956e+00 53 49 48
-1.416951e+00 -2.409851e-01 3.744253e+00 34 34 32
6.286965e-01 -3.095526e-04 4.033038e+00 67 70 78
-1.091255e+00 3.824083e-01 3.488640e+00 135 135 128
-1.701194e-01 5.764283e-01 3.643182e+00 154 153 151
-9.679678e-02 5.962474e-01 3.664018e+00 154 154 154
-2.104498e-01 5.797542e-01 3.610867e+00 145 145 143
1.269816e-01 1.218234e+00 3.608997e+00 93 91 93
-1.988112e+00 2.951980e-01 6.836738e+00 253 253 253
-9.128923e-01 1.134893e+00 3.377649e+00 143 144 134
-1.450022e+00 1.056536e+00 3.362687e+00 121 122 124
-1.450519e+00 1.056783e+00 3.364167e+00 121 122 124
8.644657e-02 2.081645e+00 3.280777e+00 255 255 255
-1.015084e+00 1.902837e+00 3.102473e+00 81 79 81
1.470074e-01 2.255938e+00 3.231863e+00 255 255 255
-1.318306e+00 2.210717e+00 2.881978e+00 129 126 132
-2.102801e+00 -2.178643e-01 6.958282e+00 77 79 91
-2.013685e+00 -1.973636e-01 7.013069e+00 25 77 68
-2.028405e+00 -2.059074e-01 6.954428e+00 53 81 44
-1.887138e+00 -2.125349e-01 6.978856e+00 49 72 43
-2.049610e+00 -2.011076e-01 6.946029e+00 5 19 7
-2.027192e+00 -1.996129e-01 6.948503e+00 67 93 60
-2.054641e+00 -1.976353e-01 6.943454e+00 71 89 40
-2.050147e+00 -1.999720e-01 6.937005e+00 58 69 52
-1.991577e+00 -2.005005e-01 6.948679e+00 24 36 26
-1.256747e+00 -1.288592e+00 3.569620e+00 105 114 114
-1.295672e+00 -8.950567e-01 3.849537e+00 107 108 102
-1.326288e+00 -7.917104e-01 3.873116e+00 109 110 105
-1.025381e+00 -6.604323e-01 3.922199e+00 69 66 60
-1.545877e+00 -4.191682e-01 3.795630e+00 140 144 147
5.267262e-01 -2.134280e-01 4.117563e+00 68 69 64
5.353353e-01 -1.797389e-01 4.119612e+00 132 133 128
4.168653e-01 -1.849679e-01 4.123506e+00 134 131 126
8.918790e-02 -2.087289e-01 4.002296e+00 124 123 128
5.165989e-02 -2.080923e-01 4.010448e+00 129 124 125
5.165989e-02 -2.080923e-01 4.010448e+00 129 124 125
1.099889e-01 1.026363e+00 3.546910e+00 92 92 92
-1.318212e+00 8.836420e-01 3.334345e+00 105 106 105
-6.995334e-01 1.110647e+00 3.495210e+00 132 128 124
-7.424549e-01 1.170941e+00 3.459904e+00 88 87 92
-7.912428e-01 1.838720e+00 3.062131e+00 137 136 134
7.808107e-01 2.357511e+00 3.289919e+00 82 80 79
-1.168337e+00 2.049346e+00 3.035990e+00 69 67 73
-1.178701e+00 2.127555e+00 2.992647e+00 254 254 252
-1.998286e+00 -1.793245e-01 7.091747e+00 232 231 229
-2.062921e+00 -2.167920e-01 6.949819e+00 121 149 152
-1.878589e+00 -2.140319e-01 6.974259e+00 46 75 45
-2.038313e+00 -2.012390e-01 6.942764e+00 41 67 35
-1.799141e+00 -2.018227e-01 6.986812e+00 27 35 23
-1.063444e+00 -1.080329e+00 3.887439e+00 97 101 102
-1.063001e+00 -1.080485e+00 3.885728e+00 97 101 102
2.075314e-01 -9.652609e-01 4.322230e+00 74 76 79
-1.221668e+00 -1.020322e+00 3.846469e+00 52 54 49
8.845850e-01 -8.270064e-01 4.389310e+00 70 67 60
8.845850e-01 -8.270064e-01 4.389310e+00 70 67 60
-1.298884e+00 -7.566240e-01 3.866780e+00 115 115 113
-3.778815e-01 -6.716956e-01 3.960058e+00 58 54 51
-9.927825e-01 -4.071373e-01 3.873154e+00 139 138 144
-1.518948e+00 -3.079460e-01 3.776723e+00 96 97 102
-1.228933e+00 -2.371672e-01 3.786905e+00 33 31 30
-1.396674e+00 -2.465852e-01 3.750195e+00 35 35 35
8.156553e-01 3.202737e-01 3.810145e+00 84 77 67
-1.013229e+00 4.033041e-01 3.537392e+00 78 74 66
-1.173523e+00 4.011161e-01 3.522980e+00 141 141 133
-3.913265e-01 5.487080e-01 3.616640e+00 100 99 104
-2.440165e-01 6.278906e-01 3.628140e+00 86 87 86
-5.560253e-01 6.030415e-01 3.578067e+00 77 77 74
-5.525334e-01 6.047177e-01 3.567943e+00 77 77 74
-1.589129e+00 5.529336e-01 3.320428e+00 153 153 160
3.628546e-02 1.104632e+00 3.520956e+00 69 68 72
-1.547657e+00 1.036379e+00 3.232985e+00 111 109 121
1.229816e+00 1.565519e+00 3.489521e+00 124 125 146
-1.211727e+00 1.183574e+00 3.175334e+00 129 135 136
-9.974161e-01 1.650140e+00 3.136263e+00 107 108 112
9.339965e-01 2.200471e+00 3.282259e+00 88 89 94
6.046883e-01 2.223689e+00 3.391442e+00 84 84 84
-1.175109e+00 1.969042e+00 3.032218e+00 103 103 101
-1.175109e+00 1.969042e+00 3.032218e+00 103 103 101
1.010316e+00 2.505145e+00 3.298588e+00 114 107 141
-2.056719e+00 -1.283393e-01 7.216866e+00 142 141 139
-2.055356e+00 -2.120120e-01 6.948552e+00 50 64 40
-2.055356e+00 -2.120120e-01 6.948552e+00 50 64 40
-1.799766e+00 -2.216881e-01 7.008188e+00 134 135 139
-2.079900e+00 -2.036733e-01 6.937262e+00 2 12 3
-2.051581e+00 -2.036904e-01 6.945095e+00 62 75 61
-2.084416e+00 -2.023220e-01 6.936102e+00 0 9 6
-2.076164e+00 -1.998813e-01 6.931605e+00 22 32 27
-2.066642e+00 -1.981405e-01 6.936968e+00 72 94 57
-1.852767e+00 -2.100988e-01 6.922337e+00 73 90 5
-1.569605e+00 -8.975102e-01 3.911420e+00 129 131 136
2.481116e-01 -8.747084e-01 4.229888e+00 136 137 139
9.040765e-01 -8.360052e-01 4.451914e+00 79 79 81
5.242900e-01 -7.745768e-01 4.146000e+00 76 72 69
-9.641117e-01 -7.425205e-01 3.926860e+00 60 56 55
-3.274170e-01 -6.285471e-01 3.955441e+00 51 45 49
7.818449e-01 -5.605871e-01 4.292992e+00 159 158 159
-1.990858e-01 -4.493452e-01 4.033125e+00 151 150 148
-9.731895e-01 -4.329588e-01 3.893510e+00 82 83 78
2.304659e-01 -3.264129e-01 4.091499e+00 63 62 68
3.101881e-01 -3.061427e-01 4.130823e+00 70 68 69
-6.189227e-01 -1.757671e-01 3.893634e+00 122 117 113
6.013708e-01 -5.138814e-02 4.058748e+00 149 159 161
6.761819e-01 5.499688e-03 4.048036e+00 148 148 148
-1.426015e+00 -9.939574e-02 3.705970e+00 149 152 157
1.369259e+00 1.911883e-01 3.993637e+00 250 254 255
-3.689803e-01 9.530711e-02 3.648629e+00 35 36 39
5.994079e-01 2.057358e-01 3.786706e+00 73 72 68
6.111909e-01 2.201636e-01 3.845908e+00 88 89 84
-3.470868e-01 1.447678e-01 3.646425e+00 39 42 48
-2.627715e-01 1.953289e-01 3.644321e+00 151 151 152
8.434532e-01 3.343700e-01 3.835733e+00 81 77 68
6.887381e-01 3.601802e-01 3.794387e+00 89 92 94
-9.497474e-01 2.063742e-01 3.553754e+00 133 126 119
7.246553e-01 3.875409e-01 3.807761e+00 97 98 100
-1.160559e+00 2.085678e-01 3.522598e+00 83 80 73
-2.176942e-01 4.421733e-01 3.571496e+00 49 47 57
-1.107794e-01 4.726328e-01 3.579775e+00 93 88 82
-1.720934e-01 4.715141e-01 3.640905e+00 86 81 77
-2.349686e-01 4.724787e-01 3.622669e+00 89 85 81
-1.176370e+00 3.742893e-01 3.513160e+00 93 89 86
-1.059731e+00 4.340988e-01 3.521308e+00 130 125 119
-4.527175e-01 5.105440e-01 3.595199e+00 91 91 91
-1.519613e-01 5.886220e-01 3.639161e+00 89 90 85
-1.256875e-02 6.455373e-01 3.669740e+00 81 80 78
-5.240721e-01 6.054921e-01 3.572055e+00 74 72 72
-3.805204e-01 6.255363e-01 3.598499e+00 135 134 130
-7.896425e-01 5.800515e-01 3.558165e+00 67 68 63
2.364818e-01 7.203158e-01 3.794983e+00 89 88 86
-9.701565e-01 5.819168e-01 3.514004e+00 69 67 71
7.075667e-01 8.945943e-01 3.658019e+00 44 43 47
6.670231e-01 1.098777e+00 3.613825e+00 136 137 133
-1.898227e+00 3.004686e-01 6.646841e+00 115 112 129
-1.166108e-02 1.034644e+00 3.557129e+00 69 68 76
-4.505298e-02 1.095726e+00 3.519235e+00 75 73 78
-3.346542e-01 1.056038e+00 3.478082e+00 101 99 102
7.061562e-01 1.296903e+00 3.649959e+00 140 141 134
7.032636e-01 1.295849e+00 3.653211e+00 140 141 134
-1.360011e+00 9.992472e-01 3.369347e+00 142 143 138
-1.555414e+00 1.036572e+00 3.229640e+00 108 104 119
-1.006075e+00 1.254754e+00 3.232371e+00 97 101 104
-1.260216e+00 1.319634e+00 3.159939e+00 94 99 105
-7.679795e-01 1.477041e+00 3.228800e+00 104 105 104
6.352793e-01 2.173150e+00 3.288471e+00 101 102 104
1.036016e+00 2.501002e+00 3.247338e+00 243 251 250
-2.062714e+00 -1.229207e-01 7.233137e+00 222 220 225
-2.060687e+00 -1.235860e-01 7.229778e+00 129 126 126
-1.940372e+00 -1.481886e-01 7.195061e+00 220 218 220
-1.828817e+00 -2.171833e-01 7.029777e+00 124 123 138
-2.014525e+00 -2.108825e-01 6.978466e+00 128 132 133
-1.894293e+00 -2.154065e-01 7.004244e+00 62 63 65
-1.782613e+00 -2.195236e-01 7.018507e+00 73 74 76
-2.221281e+00 -2.057028e-01 6.890170e+00 53 67 44
-2.096540e+00 -2.032845e-01 6.928055e+00 46 57 41
-2.086479e+00 -2.022041e-01 6.930539e+00 9 14 0
-2.053981e+00 -2.006210e-01 6.943026e+00 82 96 68
-2.088906e+00 -1.983835e-01 6.935610e+00 68 93 35
-2.065080e+00 -2.011554e-01 6.937501e+00 2 15 0
-2.090839e+00 -1.976050e-01 6.932688e+00 22 36 16
-2.005736e+00 -2.000166e-01 6.946835e+00 14 20 16
-1.876943e+00 -2.041828e-01 6.966269e+00 103 125 91
-1.792176e+00 -2.082512e-01 6.978673e+00 142 154 121
-1.767544e+00 -2.069839e-01 6.976154e+00 58 71 46
-1.244764e+00 -1.175913e+00 3.643781e+00 33 34 38
-1.018801e+00 -1.076127e+00 3.887998e+00 105 107 106
5.282185e-01 -9.558672e-01 4.219578e+00 56 56 54
1.911730e-01 -8.663286e-01 4.310761e+00 130 131 133
9.851587e-01 -8.039452e-01 4.480077e+00 91 92 94
-1.196982e+00 -8.195898e-01 3.830227e+00 55 55 48
4.559639e-03 -7.328766e-01 4.114287e+00 52 51 47
-2.005362e-01 -6.565075e-01 3.958675e+00 116 116 111
-3.747182e-02 -5.604447e-01 4.090173e+00 94 90 92
-4.328530e-01 -5.589522e-01 4.024591e+00 75 74 69
7.703083e-01 -3.071222e-01 4.226699e+00 144 143 149
2.362120e-01 -1.508154e-01 4.065547e+00 107 104 99
5.988605e-01 2.623845e-01 3.807844e+00 124 123 119
-1.985821e-02 2.492450e-01 3.636580e+00 168 172 175
-1.323293e-01 2.773877e-01 3.652761e+00 169 173 174
-2.495626e-01 2.997370e-01 3.619845e+00 57 57 64
-9.975522e-01 2.322827e-01 3.574454e+00 155 156 150
3.786197e-01 3.919864e-01 3.782273e+00 97 96 92
-5.547171e-01 4.185482e-01 3.620156e+00 78 78 78
-1.961775e-01 4.675154e-01 3.559678e+00 130 127 118
-8.869851e-01 3.943822e-01 3.580662e+00 72 72 72
-1.187994e+00 3.804737e-01 3.513941e+00 83 82 76
-3.299621e-01 4.979515e-01 3.592791e+00 142 139 134
4.577008e-01 6.104974e-01 3.734272e+00 91 90 88
1.293994e+00 1.372230e+00 3.602211e+00 61 59 64
-1.261131e+00 1.001727e+00 3.337841e+00 85 82 77
-1.439166e+00 2.073487e+00 2.997633e+00 138 126 162
-1.943076e+00 -1.481625e-01 7.194277e+00 164 164 163
-1.837738e+00 -2.165296e-01 7.028643e+00 117 114 137
-1.811420e+00 -2.172514e-01 7.035215e+00 214 214 221
-2.013300e+00 -2.119137e-01 6.978075e+00 55 58 64
-2.031297e+00 -2.185774e-01 6.954354e+00 72 73 77
-1.796122e+00 -2.263766e-01 7.009497e+00 54 53 58
-1.800659e+00 -2.234742e-01 7.011602e+00 45 45 47
-1.818263e+00 -2.165124e-01 7.019054e+00 73 72 77
-1.818263e+00 -2.165124e-01 7.019054e+00 73 72 77
-2.081777e+00 -2.056024e-01 6.939813e+00 54 67 47
-2.082028e+00 -2.042882e-01 6.936608e+00 54 78 48
-2.222205e+00 -2.001682e-01 6.894298e+00 6 18 6
-2.093261e+00 -2.018045e-01 6.930916e+00 14 27 10
-2.064979e+00 -1.998400e-01 6.935408e+00 10 23 5
-2.036946e+00 -1.987857e-01 6.941026e+00 31 43 34
-2.048547e+00 -1.990440e-01 6.936246e+00 116 128 89
-2.040643e+00 -2.013013e-01 6.933405e+00 65 76 60
-1.880494e+00 -1.996305e-01 6.972256e+00 54 59 34
-1.795407e+00 -2.015357e-01 6.990846e+00 74 80 66
-1.871037e+00 -1.999145e-01 6.966458e+00 171 184 100
-1.997004e+00 -2.064673e-01 6.912988e+00 85 98 15
-2.063434e+00 -2.059419e-01 6.892912e+00 127 143 85
-1.792668e+00 -1.995267e-01 6.987993e+00 178 192 103
-1.754041e+00 -2.101102e-01 6.973484e+00 87 90 53
-1.854024e+00 -2.052603e-01 6.933173e+00 170 179 111
-1.130990e+00 -1.066468e+00 3.872563e+00 43 44 46
-1.025823e+00 -9.903070e-01 3.873091e+00 67 67 67
-8.827911e-01 -9.507672e-01 3.952115e+00 78 77 75
-2.884074e-01 -8.711264e-01 4.011974e+00 56 56 54
-7.372786e-01 -8.190903e-01 4.070077e+00 137 136 141
-1.287226e+00 -8.254141e-01 3.866654e+00 92 93 88
1.318522e-02 -7.516116e-01 4.113604e+00 133 129 126
-1.288549e+00 -7.544820e-01 3.863141e+00 52 51 47
-9.646919e-01 -7.122459e-01 3.934318e+00 66 61 57
3.206292e-01 -3.647090e-01 4.116595e+00 83 82 75
-1.567435e+00 -1.091703e-01 3.548874e+00 89 90 94
-9.213842e-01 2.394124e-01 3.567934e+00 127 121 109
-7.969609e-01 2.902929e-01 3.562260e+00 91 89 90
3.749695e-01 5.499333e-01 3.731942e+00 76 75 71
3.358687e-02 6.012525e-01 3.672684e+00 87 86 84
-1.529886e+00 7.819686e-01 3.308744e+00 93 91 92
1.198252e+00 2.218419e+00 3.332185e+00 132 125 156
-2.010055e+00 -1.964466e-01 7.014668e+00 59 81 96
-1.887219e+00 -2.156929e-01 7.000269e+00 74 75 79
-2.218280e+00 -2.029729e-01 6.887332e+00 68 81 63
-2.028343e+00 -2.008629e-01 6.946363e+00 56 79 54
-1.868888e+00 -2.003066e-01 6.972816e+00 62 68 49
-1.781978e+00 -1.997552e-01 6.990399e+00 163 170 146
1.542551e-01 -9.656478e-01 4.267491e+00 130 134 135
-1.550884e+00 5.035858e-01 3.419478e+00 117 116 112
-1.459549e+00 2.502004e-01 3.604415e+00 154 159 162
-8.772412e-01 -1.085763e+00 4.028756e+00 61 59 61
-4.631935e-01 5.537686e-01 3.601665e+00 144 148 149
6.965214e-01 7.589960e-01 3.767903e+00 138 147 146
-3.236080e-01 2.522600e-01 3.622106e+00 51 53 66
-1.057022e-01 4.289730e-01 3.617766e+00 58 61 66
-1.067063e+00 3.482763e-01 3.504276e+00 140 143 136
9.642849e-01 -1.098146e+00 3.962096e+00 111 111 111
-1.242770e+00 1.017085e-02 3.578628e+00 46 52 66
-7.906780e-02 1.073742e+00 3.505946e+00 73 71 72
-1.596457e+00 9.197222e-01 3.229404e+00 254 254 254
7.860380e-02 -1.070590e+00 4.198455e+00 114 114 115
-5.185302e-02 2.879755e-01 3.637051e+00 138 140 141
-1.083041e+00 9.419583e-01 3.342762e+00 152 151 146
-1.175824e+00 9.661743e-01 3.270710e+00 35 33 36
3.816936e-01 1.237913e+00 3.614195e+00 112 112 112
-1.420193e+00 -8.932627e-01 3.972099e+00 73 73 72
-7.307225e-01 -8.045021e-01 4.122245e+00 124 132 140
-1.353876e+00 -2.449916e-01 3.749417e+00 44 43 41
5.927541e-01 1.803230e-01 3.793307e+00 127 126 122
-5.060248e-02 2.248641e-01 3.670106e+00 146 150 136
-2.914686e-01 3.301775e-01 3.595656e+00 144 146 143
-1.621638e+00 2.387739e-01 3.370227e+00 253 255 252
1.296743e+00 6.959531e-01 3.774527e+00 136 135 139
-1.162001e+00 7.046284e-01 3.352668e+00 131 131 133
-1.284287e+00 -7.405296e-01 3.859651e+00 109 108 106
-4.740187e-01 -3.538378e-01 3.945872e+00 118 118 118
-1.130742e+00 -2.794709e-01 3.807408e+00 123 123 123
-1.128914e+00 -2.813057e-01 3.797163e+00 123 123 123
-4.543165e-01 -2.400500e-01 3.952237e+00 116 118 117
2.002732e-01 2.943397e-01 3.915050e+00 92 94 93
-8.322709e-01 3.094306e-01 3.595941e+00 102 99 92
-9.678780e-01 1.108591e+00 3.366615e+00 27 25 38
-1.146762e+00 -7.266261e-01 3.842189e+00 60 59 55
-1.194179e+00 -6.710356e-01 3.865065e+00 51 50 46
-2.177578e-01 -3.967681e-01 4.013659e+00 95 91 92
1.614147e-01 -2.343961e-01 4.047728e+00 62 62 62
-4.682949e-01 1.252810e-01 3.648285e+00 134 139 142
-4.860031e-01 2.634455e-01 3.612489e+00 129 129 127
7.621028e-01 4.140811e-01 3.782045e+00 103 105 106
5.876347e-01 4.414042e-01 3.800514e+00 88 89 84
-1.176917e+00 3.247186e-01 3.661392e+00 130 131 125
-1.034987e+00 3.895365e-01 3.507299e+00 69 66 54
-9.754637e-01 4.320798e-01 3.544452e+00 151 149 140
-1.326488e-01 6.361364e-01 3.626583e+00 81 81 73
-1.298382e+00 5.338997e-01 3.462479e+00 68 67 61
-1.057138e+00 5.674489e-01 3.499551e+00 150 147 138
-6.891385e-01 6.260382e-01 3.608621e+00 73 70 64
6.212290e-01 1.124761e+00 3.597322e+00 66 66 65
-1.106696e+00 -1.086155e+00 3.902124e+00 34 34 38
-1.117905e+00 -1.076831e+00 3.896083e+00 105 107 103
-3.510709e-01 -1.005102e+00 3.922664e+00 74 75 70
6.146301e-01 -9.858185e-01 4.116878e+00 71 69 72
6.141035e-01 -9.834884e-01 4.115305e+00 71 69 72
1.482523e-01 -9.073338e-01 4.291292e+00 70 70 72
-1.219157e+00 -8.634787e-01 3.833985e+00 44 45 40
-1.258708e+00 -7.798526e-01 3.850309e+00 46 46 44
-1.521492e-01 -6.853873e-01 3.972220e+00 106 102 98
-1.057857e+00 -6.623525e-01 3.902640e+00 58 56 52
-1.893530e-01 -4.630857e-01 4.088063e+00 152 150 151
-1.419245e+00 -4.340870e-01 3.820167e+00 102 112 114
-1.362065e+00 -4.220041e-01 3.814367e+00 140 149 152
-1.535324e+00 -4.182341e-01 3.817988e+00 135 145 148
9.750733e-01 -2.676772e-01 4.289407e+00 140 141 145
-3.454656e-01 -1.847249e-01 3.984937e+00 139 135 132
6.161732e-01 8.526112e-03 4.046702e+00 73 73 73
-1.494051e+00 -1.160275e-01 3.708506e+00 64 62 63
6.164584e-01 1.290260e-01 3.846443e+00 147 149 146
9.118840e-01 2.259316e-01 3.826884e+00 73 72 70
6.712446e-01 2.474961e-01 3.825365e+00 87 86 84
-1.293999e+00 1.195735e-01 3.525411e+00 86 86 84
4.487404e-01 3.068771e-01 3.773678e+00 84 80 69
-1.147962e+00 1.637728e-01 3.527739e+00 123 119 108
-1.006478e+00 1.904958e-01 3.559056e+00 83 79 70
-1.266750e+00 1.712681e-01 3.517834e+00 79 78 73
-1.144592e+00 2.020778e-01 3.549537e+00 73 69 58
7.065081e-01 3.855184e-01 3.812269e+00 137 143 140
1.492972e-01 3.871236e-01 3.741318e+00 100 100 100
-1.154956e+00 2.836058e-01 3.542395e+00 76 79 84
-2.717135e-01 4.633899e-01 3.556702e+00 79 72 62
6.359548e-01 5.925517e-01 3.797044e+00 109 106 98
-3.014116e-01 4.896809e-01 3.619858e+00 91 87 76
5.880753e-01 5.913882e-01 3.772042e+00 110 108 95
-1.153879e+00 4.225099e-01 3.496887e+00 85 84 81
-4.532174e-01 5.102578e-01 3.598295e+00 95 93 94
-2.480085e-01 5.967502e-01 3.650916e+00 140 138 134
-2.480085e-01 5.967502e-01 3.650916e+00 140 138 134
-9.326882e-02 6.373722e-01 3.658441e+00 94 91 87
-9.339926e-01 5.684005e-01 3.523592e+00 80 79 74
-9.339801e-01 5.683187e-01 3.523612e+00 80 79 74
1.579209e-01 7.071586e-01 3.746824e+00 122 121 117
1.298696e+00 9.593093e-01 2.936207e+00 34 38 39
7.109684e-01 8.932819e-01 3.651875e+00 37 38 43
7.144170e-01 9.658762e-01 3.636143e+00 34 35 36
-8.623221e-01 9.303791e-01 3.424455e+00 148 147 143
-1.011035e+00 -1.074209e+00 3.892466e+00 69 71 69
-8.889136e-01 -1.028129e+00 3.965966e+00 73 72 70
2.303529e-01 -9.645262e-01 4.284223e+00 136 137 141
-1.169773e+00 -1.005925e+00 3.853885e+00 57 58 52
-1.202474e+00 -9.829892e-01 3.847607e+00 49 53 56
-5.566625e-01 -8.719764e-01 4.034955e+00 50 47 42
-9.438171e-01 -8.294830e-01 3.952207e+00 119 116 111
-1.251047e+00 -7.857895e-01 3.857491e+00 48 48 46
-1.075981e+00 -7.663831e-01 3.839367e+00 108 105 100
-1.192329e+00 -7.582381e-01 3.842112e+00 49 48 44
-1.192329e+00 -7.582381e-01 3.842112e+00 49 48 44
-5.391077e-01 -7.308954e-01 4.018822e+00 75 74 72
-1.154910e+00 -6.585793e-01 3.868808e+00 66 65 61
-1.397693e+00 -4.186996e-01 3.796765e+00 126 130 136
5.955222e-01 -3.088215e-01 4.192071e+00 80 81 85
7.573632e-01 -1.688353e-01 4.187114e+00 96 96 98
-1.433395e+00 -2.119281e-01 3.739923e+00 122 121 117
-1.025329e+00 2.072685e-01 3.575310e+00 151 155 152
-1.615593e+00 1.728047e-01 3.461433e+00 117 122 128
-4.083085e-01 3.732299e-01 3.565487e+00 35 28 28
-2.626043e-01 4.341514e-01 3.572020e+00 39 39 37
-2.909371e-01 6.347354e-01 3.583495e+00 136 135 132
5.422983e-01 1.087553e+00 3.630940e+00 149 148 144
-1.107796e+00 -1.164832e+00 3.897556e+00 77 78 80
-1.158090e+00 -1.063343e+00 3.890590e+00 67 69 66
-1.152708e+00 -9.865131e-01 3.852978e+00 58 58 56
-9.514820e-01 -9.582347e-01 3.872807e+00 73 73 73
-1.314669e+00 -8.861881e-01 3.860280e+00 86 87 82
-1.231064e+00 -8.072524e-01 3.848586e+00 97 97 95
-4.807574e-01 -2.312975e-01 3.914293e+00 124 122 123
-1.530358e+00 -2.473346e-01 3.751563e+00 121 120 117
-6.640901e-01 -1.600006e-01 3.911548e+00 118 115 108
-1.235840e+00 2.022572e-01 3.519060e+00 80 77 70
-1.185857e+00 6.479480e-02 3.541966e+00 60 64 76
-1.365221e+00 1.765346e+00 3.076642e+00 157 157 158
-7.653484e-01 1.922116e+00 3.121106e+00 141 137 138
-9.952565e-01 -2.774281e-01 3.829538e+00 130 129 127
-1.690492e-01 4.387961e-01 3.595982e+00 75 79 90
-1.438576e+00 3.275880e-01 3.561887e+00 74 73 73
6.139332e-01 2.003535e+00 3.157119e+00 52 50 63
-4.800363e-01 1.201053e+00 3.346055e+00 148 149 157
-7.831839e-01 1.314522e+00 3.196964e+00 125 125 125
8.002749e-01 2.038230e+00 3.173725e+00 49 47 61
5.888060e-02 -1.170840e+00 4.179089e+00 95 94 97
-1.400917e+00 -9.558270e-01 3.953180e+00 43 42 40
-7.843345e-01 1.413057e+00 3.175456e+00 136 135 133
-8.384406e-01 2.163480e+00 3.086178e+00 104 94 102
2.280129e-02 -1.104009e+00 4.084154e+00 102 101 106
4.177820e-01 -1.379354e-01 4.070207e+00 49 40 42
-2.888178e-01 -1.680713e-01 3.968507e+00 53 44 49
5.525998e-01 1.141889e+00 3.563424e+00 64 60 61
8.627279e-01 2.062490e+00 3.250633e+00 132 131 126
7.561966e-01 2.023647e+00 3.356881e+00 39 36 48
-7.451437e-01 1.961132e+00 3.116062e+00 108 101 109
-7.374918e-01 1.969669e+00 3.094751e+00 108 101 109
-1.400889e+00 -9.861335e-01 3.891874e+00 106 108 105
-5.058142e-01 -5.718020e-01 4.011659e+00 80 74 74
5.260141e-01 -2.624589e-01 4.133166e+00 75 71 72
-3.796451e-01 1.725633e-01 3.657071e+00 146 146 144
1.274334e+00 4.720372e-01 3.920623e+00 254 255 255
1.426233e-01 1.021612e+00 3.619206e+00 80 76 77
7.381898e-01 1.148666e+00 3.682578e+00 166 162 159
-1.055938e+00 9.633670e-01 3.364061e+00 144 144 141
-1.100623e+00 -8.849214e-01 3.844145e+00 69 69 69
-2.573287e-01 -5.920963e-01 3.964718e+00 107 102 88
-2.573287e-01 -5.920963e-01 3.964718e+00 107 102 88
-5.681756e-02 -5.600018e-01 4.123517e+00 94 88 88
-3.927455e-01 -5.756062e-01 4.001807e+00 53 48 45
-3.927455e-01 -5.756062e-01 4.001807e+00 53 48 45
7.784437e-01 -2.839052e-01 4.228663e+00 122 120 123
8.547765e-01 -2.737467e-01 4.213161e+00 47 46 50
8.530295e-01 -2.738989e-01 4.214850e+00 47 46 50
-3.198421e-01 -2.201890e-01 3.991411e+00 126 123 122
-4.890695e-01 2.184796e-01 3.586686e+00 58 55 63
-1.915585e-01 2.580643e-01 3.626078e+00 150 152 154
8.338116e-01 4.960320e-01 3.847856e+00 147 144 139
-1.034468e+00 2.995496e-01 3.515728e+00 68 67 65
-1.086443e+00 2.965615e-01 3.585573e+00 72 71 65
-1.142445e+00 3.318858e-01 3.518470e+00 135 132 127
-4.403523e-01 5.226608e-01 3.617090e+00 113 111 114
-1.023722e+00 9.678007e-01 3.370214e+00 155 152 143
-1.497746e+00 1.717209e+00 3.043856e+00 253 253 255
7.875863e-01 2.303713e+00 3.284769e+00 78 76 77
-1.484433e+00 1.822449e+00 3.002755e+00 252 254 252
7.837639e-01 2.280236e+00 3.458145e+00 83 82 80
-7.840836e-01 2.012092e+00 3.077351e+00 100 94 98
-8.958084e-01 2.008931e+00 3.076696e+00 158 154 151
-1.152241e+00 2.071651e+00 3.020275e+00 133 129 128
-7.299295e-01 -9.821658e-01 4.147337e+00 123 127 131
-2.737789e-01 -8.968961e-01 3.922814e+00 66 65 62
-1.156233e+00 -7.909556e-01 3.828985e+00 54 50 47
-1.156233e+00 -7.909556e-01 3.828985e+00 54 50 47
-1.130938e+00 -6.368527e-01 3.869842e+00 106 103 98
-2.195773e-01 -5.904085e-01 4.013231e+00 60 55 52
-4.431866e-01 4.879065e-02 3.654304e+00 46 45 60
-4.671831e-01 1.758524e-01 3.576434e+00 42 43 48
-2.154935e-01 2.349678e-01 3.627502e+00 128 129 122
5.415935e-01 3.135902e-01 3.784383e+00 76 67 62
-1.252060e+00 1.864087e-01 3.520126e+00 80 75 68
-1.057045e+00 2.327919e-01 3.567924e+00 92 92 94
8.381352e-01 6.521300e-01 3.798590e+00 98 92 92
-1.326244e-01 5.848329e-01 3.653600e+00 102 101 99
-1.248134e+00 8.787001e-01 3.340896e+00 44 42 48
-1.247305e+00 8.882959e-01 3.341764e+00 158 156 156
6.403498e-01 1.290383e+00 3.630600e+00 124 121 116
-1.137916e+00 1.016999e+00 3.340138e+00 97 93 84
-1.590644e+00 1.049761e+00 3.150220e+00 251 251 252
-1.397660e+00 1.094332e+00 3.336751e+00 153 152 149
-9.298377e-01 1.763592e+00 3.057511e+00 147 145 149
-1.357244e+00 -9.767656e-01 3.861984e+00 106 105 101
-8.087993e-01 -8.132309e-01 4.090234e+00 129 131 143
-1.095948e+00 -7.530553e-01 3.836514e+00 102 97 93
2.373889e-01 -3.349807e-01 4.098581e+00 142 143 145
-1.233033e+00 -3.034918e-01 3.794621e+00 118 118 118
-8.344939e-01 -2.463650e-01 3.845201e+00 67 63 60
-4.734498e-01 1.074186e-01 3.637768e+00 45 43 54
-1.112291e+00 1.819839e-01 3.547447e+00 76 71 67
-8.552422e-01 2.160256e-01 3.591667e+00 86 80 73
-8.274816e-01 3.002110e-01 3.596093e+00 148 148 140
4.300492e-01 4.941438e-01 3.768406e+00 100 97 92
-2.808288e-01 4.486771e-01 3.562118e+00 67 62 59
-3.492805e-01 6.295221e-01 3.589486e+00 144 144 146
-1.266520e+00 7.426208e-01 3.364457e+00 150 152 151
-1.103830e+00 -1.123535e+00 3.911917e+00 57 58 60
-1.032244e+00 -9.871874e-01 3.886228e+00 62 61 62
-7.498830e-01 -9.043685e-01 4.123462e+00 87 86 91
-1.223657e+00 -8.550632e-01 3.835021e+00 86 85 81
-4.996071e-01 -6.222616e-01 4.013046e+00 118 114 111
-2.909924e-01 -5.282748e-01 4.005008e+00 63 57 54
-2.904031e-01 -2.533988e-01 3.959638e+00 82 81 77
-6.766200e-01 -5.714080e-02 3.829098e+00 77 75 76
-1.481956e+00 2.117333e-01 3.614075e+00 151 155 158
7.409060e-01 2.569387e+00 3.144109e+00 204 230 255
-1.211166e+00 -2.208897e-02 3.738736e+00 64 63 77
3.534911e-01 2.165955e+00 3.246588e+00 132 135 144
2.327802e+00 -1.057132e+00 4.192230e+00 112 116 127
-1.505422e+00 -1.266391e-02 3.710047e+00 175 174 188
-1.286869e+00 2.199626e+00 2.879447e+00 137 140 155
-1.286869e+00 2.199626e+00 2.879447e+00 137 140 155
-1.417726e+00 1.078826e+00 8.280699e+00 39 40 70
-1.545048e+00 -2.409744e-01 3.767998e+00 44 39 45
-5.472869e-01 1.342063e-01 3.732517e+00 162 160 165
-1.412672e+00 4.594902e-01 3.386109e+00 181 180 194
8.802436e-01 9.042916e-01 3.668691e+00 151 151 159
-1.316774e+00 1.812620e+00 3.027902e+00 82 80 94
-1.604374e+00 -1.057951e+00 4.024817e+00 174 172 183
-1.329653e+00 -3.155077e-01 3.759038e+00 150 147 156
-7.502387e-01 1.082594e+00 3.331815e+00 59 56 67
-9.320425e-01 1.394673e+00 3.249965e+00 14 12 23
-7.004181e-01 1.920039e+00 3.048084e+00 65 64 78
2.382932e+00 -6.207539e-01 4.087967e+00 83 95 117
-1.648894e+00 -3.953209e-01 3.966617e+00 92 91 99
5.981622e-01 -3.769944e-01 4.136659e+00 98 96 101
-1.504258e+00 2.168061e-01 3.570171e+00 186 190 202
-1.583577e+00 4.943080e-01 3.392356e+00 118 127 145
-2.528010e-01 6.328776e-01 3.641103e+00 83 82 88
-1.368965e+00 5.727937e-01 3.339904e+00 163 165 177
-1.431119e+00 7.940758e-01 3.237681e+00 166 164 175
-1.235888e+00 1.180503e+00 3.260335e+00 134 136 149
4.219335e-01 1.565297e+00 3.431668e+00 17 15 28
4.877460e-01 1.712817e+00 3.430213e+00 19 21 34
3.869474e-01 1.948186e+00 3.362652e+00 30 29 38
1.865999e-01 1.992612e+00 3.253672e+00 60 59 73
-6.068316e-01 2.213278e+00 3.121472e+00 196 219 250
2.986476e-01 2.362510e+00 3.138706e+00 130 133 152
-1.553280e+00 -8.900008e-01 3.963232e+00 167 161 171
-1.545540e+00 -4.062171e-01 3.730036e+00 105 99 109
-1.008464e+00 -3.626630e-01 3.864643e+00 149 138 143
-1.993571e-01 -2.203264e-01 4.011216e+00 157 150 157
-1.993571e-01 -2.203264e-01 4.011216e+00 157 150 157
-1.632326e+00 -2.153009e-01 3.916759e+00 64 61 67
2.294187e-02 6.707976e-02 3.771030e+00 74 72 85
-4.906868e-01 1.672519e-01 3.716941e+00 65 62 73
-1.473135e+00 1.387835e-01 3.589695e+00 134 133 147
-1.494405e+00 1.365427e-01 3.538564e+00 189 188 202
-9.860407e-02 2.705612e-01 3.709063e+00 61 59 70
-1.184669e+00 7.291369e-01 3.383646e+00 147 144 153
-1.184674e+00 7.291794e-01 3.382987e+00 147 144 153
-8.330150e-01 1.285450e+00 3.286926e+00 18 17 35
4.773201e-01 1.769815e+00 3.439316e+00 28 27 43
1.041903e+00 2.477041e+00 3.333247e+00 205 224 254
-7.897096e-01 -8.413193e-01 4.162987e+00 163 158 165
2.589989e+00 -7.416894e-01 4.242794e+00 130 138 159
-1.482153e+00 -4.283840e-01 3.786051e+00 151 149 160
-1.477717e+00 -4.259109e-01 3.783705e+00 151 149 160
-1.054762e+00 -4.112369e-01 3.862741e+00 164 157 168
1.092856e+00 4.919319e-01 3.912854e+00 185 185 193
-7.699296e-01 4.696271e-01 3.529513e+00 154 149 157
6.328793e-01 1.155534e+00 3.609416e+00 23 20 26
7.658238e-01 1.753552e+00 3.474962e+00 9 8 26
-1.116651e+00 1.613495e+00 3.224790e+00 19 21 34
4.661559e-01 1.943466e+00 3.346711e+00 77 80 99
-1.354737e+00 7.920231e-01 8.249796e+00 99 102 111
1.834019e-01 -8.700000e-01 4.297422e+00 173 168 175
-1.334486e+00 -7.507182e-01 3.927758e+00 101 91 92
3.521999e-01 -2.698341e-01 4.154720e+00 164 153 161
-7.777662e-01 4.744119e-02 3.763428e+00 179 175 182
1.321602e+00 1.607405e-01 3.996809e+00 171 171 181
1.184088e+00 1.929022e-01 4.006838e+00 94 93 101
-8.722539e-02 1.110073e-01 3.754630e+00 170 167 178
-1.093533e+00 1.126975e-01 3.610165e+00 135 126 137
-5.240871e-01 4.942386e-01 3.592158e+00 103 100 109
5.312135e-01 1.030683e+00 3.570432e+00 26 23 30
-7.182525e-01 1.099020e+00 3.274805e+00 41 43 55
7.795697e-01 2.070023e+00 3.369546e+00 126 126 136
-1.358817e+00 1.964324e+00 2.978576e+00 156 156 168
-1.358817e+00 1.964324e+00 2.978576e+00 156 156 168
8.651301e-02 2.145414e+00 3.208028e+00 102 121 151
-1.301983e+00 2.265691e+00 2.977378e+00 151 167 193
-9.603358e-01 -8.606984e-01 4.405054e+00 155 148 153
2.299979e+00 -9.990154e-01 4.099897e+00 88 90 106
2.389480e+00 -7.081249e-01 4.065807e+00 65 80 100
-1.411342e-01 -4.999610e-01 4.151739e+00 96 87 93
-7.217622e-01 -2.668997e-01 3.876540e+00 167 162 166
-2.923915e-01 -1.849340e-01 4.006752e+00 80 71 74
1.082511e+00 2.391625e-02 4.050036e+00 121 119 129
1.246258e-01 6.144532e-01 3.674712e+00 86 81 87
-6.142942e-01 9.271222e-01 3.379390e+00 107 106 112
4.701898e-01 1.209308e+00 3.561338e+00 127 124 132
-7.547270e-01 1.119609e+00 3.421113e+00 118 116 127
-7.965219e-01 1.405939e+00 3.226720e+00 146 146 158
3.925338e-01 1.582444e+00 3.445122e+00 24 23 37
-1.057846e+00 1.707734e+00 3.110321e+00 144 144 154
-7.785442e-01 2.025833e+00 3.057157e+00 167 170 179
-9.896763e-01 2.061627e+00 3.003973e+00 59 55 70
-7.310097e-01 2.227121e+00 2.992137e+00 208 214 240
-1.265372e+00 2.321673e+00 2.810722e+00 112 138 165
-1.696274e+00 9.619071e-01 8.507036e+00 100 97 106
-1.023498e+00 -9.652743e-01 4.077163e+00 80 66 68
-5.230974e-01 -8.917720e-01 4.178549e+00 88 77 73
-8.003263e-01 -7.963132e-01 4.198738e+00 97 92 99
-3.594946e+00 1.301056e+00 8.263947e+00 113 120 136
-9.563122e-01 -4.154922e-01 3.878887e+00 158 155 164
-2.372308e-01 -3.323797e-01 4.003240e+00 141 135 139
-1.168088e+00 -1.139232e-01 3.733830e+00 69 63 73
-4.132191e-01 2.569791e-03 3.799695e+00 64 63 71
-1.131965e+00 2.154548e-01 3.631205e+00 88 85 92
-2.566586e-01 5.100786e-01 3.628517e+00 128 119 124
-5.284178e-01 5.580616e-01 3.585387e+00 79 76 85
-5.728039e-02 6.427221e-01 3.645464e+00 83 81 87
-1.123766e+00 7.223923e-01 3.378033e+00 166 165 173
-1.058652e+00 1.967951e+00 3.016506e+00 152 155 165
-3.537711e+00 6.944678e-01 7.686080e+00 120 105 109
-2.798528e+00 -7.940287e-01 3.619965e+00 81 87 109
-1.497008e+00 -4.424598e-01 3.760550e+00 82 80 91
-9.884119e-01 -4.021377e-01 3.875966e+00 99 95 102
-5.859223e-01 -3.717240e-01 3.989700e+00 160 155 161
-1.013014e+00 -3.980895e-01 3.883689e+00 102 95 103
-8.618999e-01 -3.914440e-01 3.896066e+00 75 72 79
-3.801449e-01 -3.504658e-01 3.978929e+00 111 106 112
-7.779728e-01 -6.314365e-02 3.800473e+00 87 84 91
-7.227357e-01 1.177963e-01 3.747446e+00 86 86 93
-5.045557e-01 1.212183e-01 3.719957e+00 86 83 92
-4.883678e-01 1.304267e-01 3.691032e+00 170 167 176
-1.002389e+00 2.869999e-01 3.602328e+00 110 109 117
-8.678518e-01 3.831507e-01 3.580640e+00 113 110 117
-1.220918e+00 3.674682e-01 3.520586e+00 162 160 165
-3.186254e-01 4.478323e-01 3.592310e+00 72 63 64
-1.298397e+00 4.275551e-01 3.481722e+00 114 111 118
-7.363298e-01 6.323088e-01 3.570644e+00 136 130 140
-9.728050e-01 8.458317e-01 3.402682e+00 99 96 105
-1.460498e+00 9.139843e-01 3.324441e+00 176 177 183
-1.261579e+00 1.385644e+00 3.165952e+00 108 110 122
-1.240901e+00 1.416249e+00 3.157728e+00 108 110 123
-3.534638e+00 6.326678e-01 7.600056e+00 159 152 66
-1.044675e+00 -4.746354e-01 3.893546e+00 186 181 188
-5.837854e-01 -4.025170e-01 3.958324e+00 89 86 93
-1.347214e-01 -3.519023e-01 4.032011e+00 161 158 165
-3.682381e+00 1.523325e+00 8.694026e+00 192 198 233
-3.623707e+00 1.405326e+00 8.320644e+00 163 195 232
-3.608844e+00 1.270238e+00 7.819218e+00 109 128 160
-1.000845e+00 6.750705e-02 3.646435e+00 169 167 172
-1.992908e+00 1.075742e+00 6.735154e+00 48 45 56
-2.985811e-01 -3.525302e-01 3.996806e+00 139 134 140
1.223633e-01 -2.554214e-01 4.079201e+00 150 144 152
-3.674211e+00 1.524489e+00 8.686113e+00 181 201 236
-3.637767e+00 1.413964e+00 8.318187e+00 101 117 151
-7.563531e-01 -1.931982e-01 3.894425e+00 46 37 42
7.549235e-01 -1.112440e+00 4.172708e+00 138 134 134
-6.496839e-02 -3.277463e-01 3.970799e+00 175 170 176
4.698386e-01 -3.601022e-01 3.954597e+00 65 60 66
-6.969817e-01 1.767676e-01 3.750073e+00 143 145 158
-1.330514e+00 2.159865e-01 3.722043e+00 109 107 118
-1.504738e+00 -1.183400e-01 3.739200e+00 141 141 153
2.672713e-01 2.397069e-01 3.831345e+00 184 183 191
-1.157824e+00 -4.749213e-01 3.887773e+00 206 204 208
-1.016099e+00 1.671725e-01 3.716634e+00 96 87 92
-1.246287e+00 -5.272543e-01 3.918436e+00 204 199 205
-1.314314e+00 -3.090782e-01 3.819477e+00 98 98 106
-5.096033e-01 -3.013431e-01 3.947037e+00 89 85 82
-6.903264e-01 -2.902121e-01 3.914809e+00 84 83 81
-5.517477e-01 2.206586e-01 3.665569e+00 108 107 105
-1.427103e+00 -3.146085e-01 3.791564e+00 101 106 109
-1.543004e+00 -2.811761e-01 3.679731e+00 39 35 34
-3.778250e-01 1.544219e-01 3.676733e+00 113 116 109
-3.174547e-01 2.931412e-01 3.599466e+00 118 119 123
5.324580e-01 -1.610117e-01 4.084723e+00 27 23 22
-2.758131e-01 -1.905512e-01 3.950741e+00 93 88 82
-6.810748e-01 -1.183127e-01 3.874539e+00 111 115 116
-1.003992e-01 3.073937e-01 3.634145e+00 126 126 128
-1.126988e+00 2.247585e-01 3.571230e+00 109 109 108
2.185382e-01 -9.564100e-01 4.327324e+00 59 59 60
-7.563817e-01 -8.285277e-01 4.068854e+00 76 75 79
1.342063e-01 -3.061535e-01 4.078457e+00 103 104 106
-1.102521e+00 -2.996072e-01 3.819606e+00 86 85 85
1.589763e-02 -1.735631e-01 3.985507e+00 102 101 98
-3.970936e-01 -1.929534e-01 3.993401e+00 83 79 78
-2.942799e-01 3.308486e-01 3.615435e+00 124 125 120
-2.755897e-01 4.358189e-01 3.575125e+00 100 96 85
-1.776193e-01 4.894543e-01 3.587814e+00 101 91 82
-1.776193e-01 4.894543e-01 3.587814e+00 101 91 82
-3.628786e-01 -2.730889e-01 3.954275e+00 113 112 110
-9.699979e-01 -9.063102e-02 3.788833e+00 89 89 79
-3.760312e-01 -2.582756e-02 3.734520e+00 96 99 100
7.861202e-02 1.816786e-01 3.699562e+00 17 16 27
-1.558215e-01 2.167189e-01 3.669086e+00 122 123 122
-7.915728e-01 2.390313e-01 3.650758e+00 108 107 102
-8.163992e-01 2.892933e-01 3.597302e+00 67 60 52
-5.894307e-02 4.296543e-01 2.939811e+00 16 15 20
-1.182170e+00 4.207166e-01 3.510817e+00 122 124 123
-1.102713e+00 4.388161e-01 3.523170e+00 115 108 97
1.463608e-01 -8.593235e-01 4.289255e+00 50 50 52
9.617166e-01 -7.450234e-01 4.459388e+00 98 98 100
-1.512653e-01 -6.930013e-01 3.992458e+00 30 27 23
-4.648923e-01 -5.811198e-01 4.022507e+00 27 22 18
-1.430572e+00 -3.239105e-01 3.781794e+00 110 120 121
-4.634103e-01 1.263762e-01 3.617564e+00 98 99 105
-7.846407e-01 1.941757e-01 3.633822e+00 51 50 46
-9.938979e-01 3.804588e-01 3.530687e+00 112 111 89
-2.012892e-01 4.757009e-01 3.582839e+00 57 46 40
-9.641737e-01 4.278139e-01 3.545290e+00 123 121 114
-9.642425e-01 4.524510e-01 3.545778e+00 130 132 131
-2.793685e-02 -8.044164e-01 4.084887e+00 27 22 19
-1.155310e+00 -6.383433e-01 3.858502e+00 82 79 72
-3.464290e-01 -5.389962e-01 4.014733e+00 21 16 12
-3.520918e-01 -5.029798e-01 4.021378e+00 24 19 15
-3.066328e-01 -4.856194e-01 4.020005e+00 89 81 77
-1.491775e+00 -1.156689e-01 3.705777e+00 30 29 25
-7.087913e-02 1.853116e-01 3.683887e+00 19 20 25
-1.779185e-01 2.548202e-01 3.630540e+00 26 26 34
-1.139896e+00 3.301317e-01 3.502239e+00 104 103 101
6.438049e-01 5.676228e-01 3.783650e+00 118 111 93
-2.984496e-01 5.078816e-01 3.594093e+00 110 108 92
-9.698073e-01 -9.180066e-01 3.854321e+00 80 79 75
-2.998798e-01 -8.994950e-01 3.911121e+00 37 33 32
-5.710885e-02 -8.351506e-01 4.076675e+00 86 78 76
-1.124009e-01 -6.078378e-01 4.077782e+00 94 89 85
-2.898876e-01 -6.024446e-01 3.974314e+00 77 72 66
-4.335445e-01 -5.485413e-01 4.037450e+00 93 88 85
-2.851493e-01 -5.174958e-01 3.998823e+00 35 26 25
-1.237817e+00 -5.311772e-01 3.868717e+00 89 85 84
-4.260741e-01 -4.855547e-01 4.030342e+00 115 114 112
4.021743e-01 -3.299184e-01 4.118920e+00 111 114 116
-1.196697e+00 -4.084077e-01 3.857484e+00 109 110 115
-1.330816e+00 -3.937720e-01 3.799572e+00 115 113 114
3.880028e-01 -2.300462e-01 4.093198e+00 115 113 113
1.977992e-01 -1.597748e-01 4.115792e+00 102 99 94
-4.267628e-01 -1.697777e-01 3.955155e+00 54 44 33
-3.447141e-01 -1.404575e-01 3.973406e+00 87 83 70
-2.587126e-01 -3.770988e-02 3.886277e+00 87 82 76
-7.045943e-01 -5.210340e-02 3.840208e+00 26 25 27
-4.072812e-01 -1.710315e-02 3.709757e+00 100 103 108
-1.278700e+00 4.111499e-02 3.535396e+00 105 105 105
-8.516511e-01 2.192373e-01 3.584976e+00 46 36 26
-1.304568e+00 2.546116e-01 3.521221e+00 55 52 45
4.709988e-01 5.891178e-01 3.732550e+00 50 49 46
-1.450587e+00 -8.313419e-01 3.874210e+00 67 70 81
7.813316e-02 -6.999184e-01 4.150152e+00 116 112 112
-1.145106e+00 -4.604600e-01 3.869170e+00 91 87 86
-1.583390e+00 -3.295873e-01 3.604625e+00 65 66 68
-1.522182e+00 -1.051270e+00 3.764620e+00 117 123 127
-1.490578e+00 -9.950756e-01 3.965139e+00 151 153 168
-1.541713e+00 -9.743243e-01 3.779784e+00 112 116 121
-1.589595e+00 -8.806287e-01 3.906953e+00 73 72 77
7.266574e-01 7.716156e-01 3.718424e+00 197 198 200
-7.705778e-01 -5.127821e-01 4.012685e+00 204 208 216
-1.137889e+00 -4.107856e-01 3.863004e+00 183 191 201
-1.129227e+00 -2.368576e-01 3.817663e+00 165 160 159
-1.475205e+00 -5.520907e-01 3.847979e+00 198 207 214
-1.473217e+00 -4.868358e-01 3.833244e+00 191 195 203
-1.496428e+00 -3.981378e-01 3.817680e+00 84 82 86
9.134072e-01 2.245647e-01 4.081597e+00 125 134 142
1.913569e-01 -7.408919e-01 4.269490e+00 181 189 199
-3.314131e-01 -4.762491e-01 4.019698e+00 159 154 139
-7.862682e-01 -4.247283e-01 3.972471e+00 173 174 172
5.003224e-01 -1.334576e-01 4.123126e+00 106 102 106
-1.623464e+00 -2.441213e-01 3.625155e+00 95 105 132
-1.463015e+00 -9.062395e-01 3.827817e+00 157 170 173
-1.134610e+00 -4.999102e-01 3.886722e+00 85 75 72
-1.135380e+00 -5.016241e-01 3.884927e+00 85 75 72
-3.740777e-01 1.364137e-01 3.629048e+00 52 57 75
-1.072228e+00 2.950191e-01 3.526891e+00 88 80 81
-2.223684e-01 4.854213e-01 3.599175e+00 168 149 138
-1.285691e+00 2.798583e-01 3.518400e+00 119 112 111
-2.126322e-02 -5.986369e-01 4.143551e+00 105 105 107
-2.658338e-01 -4.071117e-01 4.043451e+00 165 157 152
-7.204813e-01 -3.936026e-01 3.963311e+00 65 66 78
-9.210818e-01 -3.952849e-01 3.891031e+00 87 76 75
-7.869229e-01 -1.216824e-01 3.868516e+00 136 135 140
-8.365451e-01 3.996122e-01 3.576283e+00 155 153 154
