ply
format ascii 1.0
element face 0
property list uchar int vertex_indices
element vertex 954
property float x
property float y
property float z
property uchar diffuse_red
property uchar diffuse_green
property uchar diffuse_blue
end_header
5.214767e-01 5.860980e-01 3.028836e+00 59 81 96
4.559887e-01 6.227521e-01 3.117248e+00 190 206 206
4.743394e-01 5.352722e-01 3.140642e+00 39 41 36
4.317271e-01 5.923675e-01 3.128785e+00 71 73 68
4.666422e-01 6.284138e-01 3.117273e+00 110 123 130
3.922581e-01 5.164806e-01 3.144023e+00 227 216 180
4.076241e-01 5.124774e-01 3.144937e+00 129 123 107
4.034135e-01 5.319585e-01 3.146670e+00 231 226 201
4.460430e-01 5.405907e-01 3.137033e+00 122 116 92
3.830661e-01 5.052083e-01 3.143777e+00 198 185 150
4.118312e-01 5.260681e-01 3.148040e+00 252 254 241
4.151978e-01 5.486993e-01 3.137315e+00 208 223 219
4.429348e-01 5.272926e-01 3.140867e+00 197 208 204
4.219709e-01 5.547189e-01 3.136281e+00 100 98 101
4.219709e-01 5.547189e-01 3.136281e+00 100 98 101
3.943655e-01 5.108561e-01 3.142538e+00 132 125 105
3.986417e-01 5.070592e-01 3.142007e+00 190 192 167
4.388491e-01 5.363841e-01 3.136425e+00 57 58 44
4.419291e-01 5.507595e-01 3.137983e+00 243 240 229
3.911452e-01 5.108329e-01 3.142511e+00 131 126 97
4.012401e-01 5.018543e-01 3.144046e+00 190 195 180
4.024191e-01 5.021541e-01 3.144511e+00 114 121 109
3.981830e-01 5.089890e-01 3.142826e+00 198 198 175
4.440000e-01 5.275479e-01 3.142038e+00 197 203 200
4.455082e-01 5.352358e-01 3.137455e+00 193 187 157
4.458277e-01 5.353640e-01 3.137623e+00 207 199 180
4.516508e-01 5.332232e-01 3.141877e+00 158 173 168
4.431741e-01 5.440599e-01 3.135855e+00 241 240 220
3.927359e-01 5.102441e-01 3.142663e+00 98 94 96
4.012724e-01 5.016795e-01 3.144203e+00 115 122 106
3.958786e-01 5.085131e-01 3.142976e+00 100 98 82
3.991639e-01 5.078523e-01 3.143952e+00 198 199 194
4.001741e-01 5.073919e-01 3.143375e+00 104 104 92
4.150707e-01 5.338570e-01 3.147231e+00 122 108 83
4.136094e-01 5.360115e-01 3.146530e+00 210 190 163
4.098500e-01 5.401875e-01 3.145927e+00 242 225 181
4.104970e-01 5.403908e-01 3.146142e+00 129 120 97
4.080259e-01 5.427805e-01 3.145192e+00 228 215 189
4.164768e-01 5.396156e-01 3.144833e+00 252 249 244
4.391812e-01 5.265371e-01 3.140053e+00 231 241 239
4.397094e-01 5.266935e-01 3.139831e+00 226 235 232
4.411908e-01 5.267543e-01 3.140957e+00 226 230 230
4.425788e-01 5.273619e-01 3.140676e+00 172 181 178
4.438437e-01 5.280879e-01 3.141865e+00 162 173 166
4.448174e-01 5.317583e-01 3.138076e+00 207 207 198
4.353844e-01 5.393730e-01 3.136893e+00 91 94 120
4.216993e-01 5.531347e-01 3.137052e+00 101 105 109
4.388086e-01 5.418743e-01 3.136375e+00 89 95 112
4.247421e-01 5.549202e-01 3.132192e+00 105 114 125
4.228444e-01 5.542780e-01 3.137021e+00 202 215 220
4.475400e-01 5.366947e-01 3.139162e+00 207 216 197
4.474844e-01 5.372893e-01 3.138770e+00 193 187 171
4.348878e-01 5.508121e-01 3.136674e+00 251 236 210
4.503081e-01 5.386467e-01 3.140615e+00 198 204 192
4.531994e-01 5.368490e-01 3.140893e+00 90 93 99
4.555646e-01 5.364322e-01 3.141456e+00 193 205 193
4.564064e-01 5.367333e-01 3.141461e+00 171 172 167
4.539546e-01 5.387388e-01 3.140887e+00 231 236 216
4.544233e-01 5.391236e-01 3.140893e+00 213 214 206
4.487226e-01 5.444566e-01 3.139408e+00 196 194 181
3.862510e-01 5.114135e-01 3.145245e+00 139 132 113
3.926766e-01 5.111912e-01 3.142290e+00 131 131 110
4.026492e-01 5.006185e-01 3.146984e+00 89 92 75
4.023159e-01 5.026915e-01 3.143793e+00 118 121 106
4.013242e-01 5.038781e-01 3.143837e+00 141 140 122
3.984719e-01 5.079050e-01 3.143580e+00 206 204 192
4.215791e-01 5.264040e-01 3.148865e+00 151 134 105
4.191100e-01 5.287201e-01 3.148411e+00 236 223 188
4.158867e-01 5.331699e-01 3.147227e+00 212 193 163
4.120386e-01 5.375223e-01 3.146021e+00 226 215 195
4.137426e-01 5.361399e-01 3.146352e+00 117 103 81
4.346498e-01 5.194938e-01 3.150068e+00 212 221 220
4.075999e-01 5.434251e-01 3.143807e+00 151 148 134
4.087091e-01 5.423052e-01 3.145479e+00 229 220 203
4.079591e-01 5.432218e-01 3.145214e+00 207 199 182
4.252262e-01 5.291091e-01 3.147516e+00 249 245 221
4.369214e-01 5.266273e-01 3.139249e+00 232 230 221
4.116569e-01 5.455853e-01 3.142575e+00 184 187 197
4.283552e-01 5.357334e-01 3.136824e+00 241 240 207
4.393831e-01 5.263494e-01 3.139881e+00 180 189 186
4.371788e-01 5.294667e-01 3.137940e+00 92 107 118
4.391651e-01 5.278307e-01 3.138869e+00 141 141 129
4.400783e-01 5.272020e-01 3.138943e+00 57 65 53
4.394141e-01 5.280661e-01 3.138764e+00 220 227 235
4.433824e-01 5.264547e-01 3.142215e+00 181 182 174
4.427475e-01 5.277836e-01 3.140797e+00 215 225 217
4.442229e-01 5.278035e-01 3.141620e+00 144 154 146
4.307705e-01 5.400332e-01 3.136021e+00 144 145 121
4.414402e-01 5.349004e-01 3.137673e+00 217 229 238
4.451904e-01 5.331327e-01 3.137980e+00 189 186 178
4.392369e-01 5.391618e-01 3.136732e+00 194 191 189
4.485829e-01 5.310464e-01 3.142312e+00 193 203 201
4.401883e-01 5.412953e-01 3.136365e+00 193 191 178
4.480937e-01 5.411338e-01 3.139515e+00 134 129 107
4.569682e-01 5.362777e-01 3.142057e+00 171 172 164
4.280724e-01 5.599825e-01 3.135762e+00 215 222 227
4.422723e-01 5.511301e-01 3.138010e+00 240 233 210
4.251972e-01 5.218127e-01 3.149869e+00 162 140 116
4.246928e-01 5.228612e-01 3.149699e+00 153 138 109
4.216717e-01 5.259215e-01 3.148938e+00 230 217 192
4.224573e-01 5.254496e-01 3.149089e+00 138 116 83
4.224573e-01 5.254496e-01 3.149089e+00 138 116 83
4.209446e-01 5.268979e-01 3.148881e+00 224 211 179
4.221264e-01 5.261116e-01 3.148913e+00 222 207 177
4.172984e-01 5.309838e-01 3.147691e+00 194 178 153
4.145683e-01 5.337380e-01 3.146878e+00 240 223 190
4.165178e-01 5.319946e-01 3.147813e+00 214 201 167
4.169012e-01 5.321031e-01 3.147395e+00 204 187 144
4.118337e-01 5.379327e-01 3.145927e+00 152 135 115
4.100187e-01 5.399829e-01 3.146064e+00 210 190 164
4.332057e-01 5.263312e-01 3.139675e+00 223 233 224
4.243039e-01 5.336399e-01 3.145800e+00 244 242 227
4.394038e-01 5.277237e-01 3.138971e+00 188 190 185
4.249215e-01 5.412320e-01 3.135285e+00 212 206 200
4.411072e-01 5.291585e-01 3.138314e+00 110 112 107
4.444276e-01 5.267909e-01 3.143153e+00 189 197 190
4.389082e-01 5.340281e-01 3.137550e+00 142 138 114
4.431794e-01 5.315039e-01 3.138222e+00 185 193 185
4.401083e-01 5.368205e-01 3.137127e+00 222 226 243
4.385998e-01 5.420989e-01 3.136181e+00 210 208 193
4.539932e-01 5.349416e-01 3.141587e+00 202 211 209
4.541962e-01 5.351131e-01 3.141755e+00 204 223 227
4.539127e-01 5.374743e-01 3.141122e+00 216 226 216
4.512791e-01 5.422192e-01 3.140084e+00 216 213 206
4.468475e-01 5.978891e-01 3.123763e+00 34 48 57
4.391118e-01 5.402270e-01 3.135971e+00 47 51 60
4.632434e-01 5.672161e-01 3.135664e+00 248 249 246
5.146637e-01 5.657190e-01 3.134799e+00 143 150 153
4.268978e-01 5.438940e-01 3.134908e+00 112 123 129
4.480429e-01 5.457061e-01 3.138996e+00 78 79 75
4.598902e-01 5.648898e-01 3.136527e+00 178 175 217
5.086058e-01 5.745551e-01 3.123570e+00 169 171 223
4.649543e-01 6.304797e-01 3.120554e+00 249 255 255
4.561743e-01 5.079743e-01 3.144589e+00 83 94 156
4.804909e-01 6.006763e-01 3.129822e+00 113 127 189
4.813207e-01 6.326807e-01 3.119395e+00 172 187 244
4.813207e-01 6.326807e-01 3.119395e+00 172 187 244
4.593315e-01 4.385884e-01 3.113956e+00 80 82 159
4.725076e-01 4.377390e-01 3.108406e+00 254 254 254
4.275201e-01 5.372804e-01 3.145054e+00 161 170 226
4.574899e-01 5.020371e-01 3.155605e+00 201 207 243
4.275711e-01 5.440752e-01 3.135631e+00 56 69 139
4.573517e-01 5.423548e-01 3.137933e+00 120 122 173
5.027382e-01 5.556707e-01 3.135513e+00 165 176 218
4.648494e-01 6.189481e-01 3.125272e+00 111 112 177
4.933663e-01 6.047569e-01 3.128453e+00 249 254 254
4.278817e-01 4.750666e-01 3.160797e+00 165 168 221
4.570260e-01 4.374542e-01 3.114163e+00 91 85 152
4.285947e-01 4.778765e-01 3.159840e+00 176 177 225
4.288117e-01 4.776510e-01 3.159284e+00 176 177 225
4.631594e-01 4.368949e-01 3.107852e+00 180 179 225
4.422565e-01 4.894986e-01 3.157833e+00 154 170 222
4.466495e-01 4.937978e-01 3.156204e+00 97 86 144
4.399644e-01 5.336453e-01 3.137158e+00 179 180 213
4.706130e-01 5.353263e-01 3.140359e+00 67 68 131
3.540268e-01 5.473927e-01 3.149682e+00 43 50 130
4.259556e-01 4.712845e-01 3.160800e+00 99 103 163
4.356520e-01 4.971299e-01 3.154694e+00 166 176 229
4.260644e-01 5.815470e-01 3.129893e+00 45 47 119
4.535536e-01 5.797121e-01 3.136719e+00 174 183 232
4.377801e-01 5.981075e-01 3.131384e+00 176 185 226
5.198885e-01 5.504162e-01 3.140519e+00 120 119 179
4.448782e-01 4.862558e-01 3.158730e+00 168 186 237
4.016252e-01 5.480273e-01 3.142421e+00 150 155 193
4.527817e-01 4.972389e-01 3.155842e+00 195 193 230
4.446654e-01 5.068387e-01 3.152348e+00 185 188 233
4.426992e-01 5.203207e-01 3.149927e+00 184 189 226
4.341996e-01 5.389935e-01 3.136321e+00 168 181 227
4.725639e-01 5.332182e-01 3.140258e+00 80 80 144
4.311999e-01 6.045497e-01 3.125366e+00 249 254 255
5.086955e-01 5.527263e-01 3.133389e+00 46 48 122
4.656320e-01 6.267491e-01 3.119251e+00 236 253 253
4.937660e-01 6.080182e-01 3.126470e+00 241 254 255
4.776596e-01 6.267394e-01 3.121974e+00 241 255 255
4.693846e-01 4.406275e-01 3.118822e+00 184 187 234
4.286290e-01 5.042750e-01 3.153701e+00 92 96 167
4.275538e-01 5.055245e-01 3.153006e+00 68 82 147
4.452540e-01 4.923165e-01 3.156608e+00 69 70 130
4.025855e-01 5.564078e-01 3.138558e+00 156 160 205
4.436975e-01 5.079512e-01 3.152724e+00 195 190 233
4.498558e-01 5.006489e-01 3.154429e+00 179 181 222
3.978523e-01 5.800227e-01 3.126856e+00 252 255 254
4.233250e-01 5.567555e-01 3.135613e+00 145 148 199
4.410467e-01 5.459735e-01 3.134473e+00 164 160 201
4.426072e-01 5.789674e-01 3.133046e+00 166 172 220
4.509432e-01 5.819838e-01 3.132586e+00 111 120 186
4.499983e-01 5.829370e-01 3.132759e+00 67 79 152
4.459347e-01 5.876882e-01 3.131336e+00 94 106 169
4.765569e-01 5.520947e-01 3.142568e+00 84 81 153
4.367862e-01 5.989950e-01 3.131524e+00 86 93 166
4.347257e-01 6.018777e-01 3.129619e+00 82 88 160
5.222791e-01 5.578844e-01 3.136911e+00 151 156 211
4.652592e-01 6.240135e-01 3.125604e+00 181 190 242
5.321900e-01 5.553714e-01 3.139054e+00 79 78 157
5.337383e-01 5.582793e-01 3.138232e+00 141 153 206
5.312289e-01 5.622261e-01 3.136296e+00 123 124 188
4.936779e-01 6.072795e-01 3.126913e+00 141 158 213
4.768693e-01 6.276720e-01 3.121891e+00 110 108 183
4.116150e-01 4.956059e-01 3.156283e+00 155 160 208
3.886168e-01 5.250829e-01 3.147400e+00 130 142 197
4.665506e-01 4.375286e-01 3.106058e+00 235 232 255
4.681101e-01 4.382423e-01 3.105850e+00 95 91 159
4.207248e-01 5.136343e-01 3.150975e+00 56 65 130
3.980059e-01 5.743911e-01 3.135316e+00 88 90 155
4.302495e-01 5.466801e-01 3.135017e+00 180 180 230
4.442236e-01 5.427065e-01 3.135825e+00 49 49 101
4.252772e-01 5.671090e-01 3.134190e+00 134 137 192
4.609998e-01 5.628096e-01 3.135301e+00 115 112 164
4.922101e-01 5.326047e-01 3.144671e+00 183 174 237
5.044415e-01 5.722294e-01 3.106873e+00 239 254 255
5.047646e-01 5.732354e-01 3.105630e+00 247 252 255
5.066197e-01 5.720280e-01 3.105616e+00 238 254 255
4.754509e-01 5.991674e-01 3.126327e+00 190 195 243
5.106247e-01 5.600346e-01 3.135741e+00 120 114 168
4.854864e-01 5.935277e-01 3.129414e+00 248 254 255
4.861380e-01 5.944227e-01 3.130003e+00 241 255 255
5.227306e-01 5.548361e-01 3.138917e+00 29 33 100
4.645034e-01 6.271224e-01 3.121020e+00 132 149 198
4.924485e-01 6.026593e-01 3.127721e+00 243 254 254
4.030559e-01 4.961478e-01 3.154252e+00 96 100 161
4.691043e-01 4.391755e-01 3.106872e+00 173 172 223
4.286380e-01 5.302633e-01 3.141557e+00 175 179 245
4.269199e-01 5.428480e-01 3.135487e+00 179 188 246
4.193307e-01 5.627426e-01 3.132938e+00 102 117 177
4.766429e-01 5.174358e-01 3.146658e+00 115 119 180
4.431451e-01 5.574117e-01 3.136295e+00 230 229 254
4.245077e-01 5.914548e-01 3.130706e+00 146 152 205
4.848972e-01 5.304407e-01 3.144484e+00 197 199 247
4.798225e-01 5.482334e-01 3.144307e+00 202 205 251
4.638532e-01 5.893555e-01 3.128493e+00 125 132 182
4.589325e-01 6.003433e-01 3.126271e+00 124 130 184
5.033125e-01 5.725554e-01 3.106839e+00 138 139 198
5.161323e-01 5.820665e-01 3.128424e+00 115 116 181
5.161687e-01 5.823297e-01 3.132292e+00 230 249 255
4.636953e-01 4.440405e-01 3.102204e+00 207 213 254
4.370506e-01 4.953351e-01 3.156031e+00 62 81 142
4.147726e-01 5.224388e-01 3.149105e+00 118 109 178
4.417143e-01 4.973879e-01 3.155133e+00 69 69 121
4.088260e-01 5.589676e-01 3.137796e+00 178 190 240
4.568846e-01 5.157403e-01 3.144853e+00 105 107 170
4.415975e-01 5.361801e-01 3.137345e+00 17 17 82
4.511638e-01 5.318257e-01 3.141911e+00 124 132 181
4.582654e-01 5.379119e-01 3.144933e+00 118 123 178
4.732444e-01 5.218136e-01 3.144615e+00 209 212 254
4.765863e-01 5.186562e-01 3.145248e+00 74 72 146
4.330518e-01 5.890034e-01 3.129429e+00 153 155 203
4.493881e-01 5.711154e-01 3.137401e+00 115 118 171
4.493881e-01 5.711154e-01 3.137401e+00 115 118 171
4.547875e-01 5.678638e-01 3.135133e+00 102 101 158
4.812269e-01 5.450348e-01 3.141746e+00 136 139 194
4.750289e-01 5.542730e-01 3.137953e+00 107 113 170
4.784730e-01 5.492927e-01 3.143485e+00 166 166 232
4.974563e-01 5.280639e-01 3.148911e+00 139 145 196
4.974563e-01 5.280639e-01 3.148911e+00 139 145 196
4.491738e-01 5.844456e-01 3.132401e+00 187 191 243
4.383421e-01 5.978073e-01 3.132009e+00 156 165 221
4.541816e-01 5.796652e-01 3.136725e+00 133 135 192
4.377091e-01 5.989204e-01 3.131389e+00 87 93 148
4.771702e-01 6.092354e-01 3.125570e+00 129 133 171
4.798290e-01 6.075288e-01 3.126056e+00 165 163 211
4.859823e-01 6.058405e-01 3.127032e+00 150 152 200
4.863328e-01 6.063327e-01 3.127047e+00 142 142 197
4.323882e-01 5.910351e-01 3.128855e+00 69 79 121
5.073546e-01 5.464780e-01 3.134395e+00 36 53 105
4.159417e-01 4.831789e-01 3.151400e+00 76 84 120
4.313913e-01 6.075838e-01 3.125262e+00 242 255 255
5.008358e-01 5.460240e-01 3.134773e+00 31 51 104
4.990739e-01 5.479012e-01 3.137490e+00 151 176 212
4.377111e-01 4.945992e-01 3.155718e+00 162 192 228
4.421519e-01 4.905379e-01 3.157176e+00 63 75 125
4.252650e-01 5.106119e-01 3.151752e+00 64 74 117
4.939039e-01 5.316773e-01 3.147329e+00 173 189 221
4.855009e-01 5.932287e-01 3.128709e+00 239 254 254
4.740420e-01 6.069327e-01 3.123795e+00 152 180 202
4.809547e-01 6.048216e-01 3.126155e+00 182 201 231
4.010508e-01 5.582564e-01 3.137922e+00 143 170 199
4.341248e-01 5.433912e-01 3.135014e+00 162 187 226
4.674127e-01 5.515731e-01 3.139496e+00 47 58 115
4.446672e-01 5.903024e-01 3.131688e+00 157 178 202
4.631381e-01 4.308946e-01 3.120943e+00 60 74 110
4.626771e-01 4.436546e-01 3.103665e+00 146 176 223
4.846549e-01 4.270485e-01 3.086212e+00 97 119 151
4.385199e-01 5.136781e-01 3.151192e+00 56 79 120
4.346024e-01 5.425065e-01 3.133812e+00 9 26 69
4.405895e-01 5.462461e-01 3.133819e+00 31 47 76
4.821267e-01 5.342515e-01 3.142889e+00 91 104 146
4.643765e-01 5.543142e-01 3.137357e+00 173 197 232
4.780365e-01 5.501985e-01 3.143509e+00 71 97 149
4.512652e-01 5.810508e-01 3.134322e+00 71 98 152
5.063164e-01 5.719597e-01 3.104437e+00 150 171 220
3.448214e-01 5.946074e-01 3.440126e+00 198 207 224
3.894208e-01 5.236527e-01 3.148891e+00 62 72 126
4.215432e-01 5.302964e-01 3.145595e+00 155 186 232
4.401899e-01 5.276961e-01 3.137470e+00 34 53 107
4.457256e-01 5.345784e-01 3.137183e+00 25 38 74
4.914599e-01 5.338501e-01 3.144690e+00 156 178 214
4.454891e-01 5.896141e-01 3.131329e+00 152 172 199
4.435646e-01 6.085552e-01 3.126538e+00 95 117 164
3.466315e-01 5.922327e-01 3.439412e+00 213 220 230
3.460304e-01 5.925819e-01 3.436186e+00 246 253 255
4.314945e-01 5.019422e-01 3.154662e+00 146 169 215
4.392003e-01 4.991335e-01 3.153754e+00 24 37 79
4.697921e-01 4.947859e-01 3.147398e+00 240 252 255
4.363548e-01 5.356577e-01 3.135909e+00 39 58 97
4.281831e-01 5.449184e-01 3.134022e+00 161 185 218
4.279713e-01 5.455729e-01 3.134883e+00 41 57 99
4.435933e-01 5.409024e-01 3.136191e+00 177 187 225
4.745298e-01 5.369735e-01 3.142122e+00 184 201 231
4.758357e-01 5.389151e-01 3.142382e+00 110 137 166
4.813009e-01 5.350963e-01 3.142785e+00 93 113 148
4.439030e-01 5.902674e-01 3.131125e+00 178 201 242
4.309483e-01 6.070091e-01 3.126205e+00 212 246 253
4.646290e-01 5.904201e-01 3.129482e+00 111 133 179
4.989960e-01 5.699959e-01 3.105141e+00 224 252 255
4.665629e-01 6.057033e-01 3.125911e+00 102 124 170
5.116596e-01 5.812342e-01 3.125260e+00 216 252 255
3.444366e-01 5.950689e-01 3.440161e+00 184 191 209
3.435829e-01 5.960498e-01 3.439429e+00 242 251 255
3.450517e-01 5.941959e-01 3.439203e+00 220 229 237
3.449047e-01 5.943468e-01 3.438939e+00 205 213 224
3.454685e-01 5.936126e-01 3.438412e+00 204 210 225
3.423137e-01 5.972422e-01 3.436573e+00 191 204 220
3.458878e-01 5.926831e-01 3.435516e+00 218 223 229
4.099018e-01 4.957762e-01 3.155102e+00 163 188 229
4.312197e-01 5.009571e-01 3.154986e+00 71 100 144
4.325009e-01 5.066845e-01 3.153417e+00 153 175 212
4.312421e-01 5.093358e-01 3.152601e+00 105 129 162
4.200555e-01 5.636100e-01 3.132136e+00 156 179 221
4.352423e-01 5.527625e-01 3.136985e+00 121 137 175
4.175463e-01 5.735719e-01 3.132809e+00 114 131 167
4.377818e-01 5.561841e-01 3.136410e+00 137 151 188
4.451985e-01 5.540813e-01 3.139043e+00 146 175 209
4.181633e-01 5.927487e-01 3.126502e+00 138 164 199
4.485905e-01 5.707372e-01 3.137987e+00 121 144 176
4.866439e-01 5.310180e-01 3.144195e+00 108 125 158
4.395548e-01 5.844824e-01 3.133174e+00 169 189 222
4.358207e-01 5.907220e-01 3.131061e+00 125 140 173
4.913132e-01 5.338853e-01 3.145456e+00 163 181 217
4.794737e-01 5.492300e-01 3.144342e+00 112 126 171
4.453191e-01 5.886822e-01 3.132091e+00 159 184 219
4.382126e-01 5.980985e-01 3.132782e+00 75 99 134
4.367064e-01 5.998688e-01 3.131891e+00 113 132 168
4.328684e-01 6.075669e-01 3.125391e+00 125 155 179
5.168001e-01 5.393460e-01 3.141279e+00 231 254 255
4.721311e-01 6.231383e-01 3.122815e+00 118 141 179
4.146218e-01 5.467032e-01 3.142843e+00 183 198 241
4.851201e-01 5.284092e-01 3.143552e+00 105 109 159
4.979550e-01 5.544415e-01 3.128294e+00 47 53 127
4.944502e-01 6.082809e-01 3.127385e+00 118 134 206
5.071658e-01 5.653284e-01 3.132683e+00 149 160 203
4.687671e-01 4.392956e-01 3.108020e+00 164 172 216
4.439026e-01 4.981281e-01 3.156432e+00 168 168 205
4.417909e-01 5.940484e-01 3.129642e+00 174 178 223
4.900566e-01 5.390375e-01 3.141428e+00 177 200 246
4.423093e-01 4.886435e-01 3.158750e+00 53 58 128
4.366707e-01 5.320290e-01 3.137973e+00 33 49 95
4.447177e-01 5.420766e-01 3.135701e+00 178 183 211
4.653586e-01 5.541006e-01 3.137985e+00 72 70 128
4.894147e-01 5.360168e-01 3.143737e+00 34 39 114
4.204496e-01 5.139188e-01 3.151955e+00 40 57 121
4.422932e-01 4.886639e-01 3.158795e+00 51 57 126
4.442341e-01 5.426843e-01 3.135815e+00 40 51 89
4.447167e-01 5.759640e-01 3.132768e+00 95 101 147
4.821005e-01 5.376019e-01 3.142217e+00 85 91 141
4.526124e-01 6.197829e-01 3.120698e+00 236 253 255
4.300290e-01 4.759879e-01 3.161045e+00 175 182 221
4.350331e-01 4.980453e-01 3.155083e+00 54 61 125
4.459155e-01 5.046897e-01 3.152617e+00 156 165 218
4.333416e-01 5.295965e-01 3.140266e+00 28 42 94
4.347224e-01 5.354580e-01 3.136188e+00 18 22 85
4.815621e-01 5.321843e-01 3.142712e+00 61 69 116
4.873468e-01 5.275329e-01 3.144406e+00 157 161 208
4.777035e-01 5.394670e-01 3.141489e+00 92 102 150
4.535065e-01 5.742813e-01 3.138089e+00 115 121 163
4.799106e-01 5.534765e-01 3.140849e+00 126 133 185
4.993938e-01 5.689138e-01 3.104836e+00 134 117 224
4.649315e-01 6.134123e-01 3.122325e+00 21 39 83
4.794787e-01 6.035588e-01 3.126364e+00 125 131 173
4.722265e-01 6.166742e-01 3.124336e+00 112 114 151
3.966972e-01 5.021968e-01 3.139802e+00 34 37 93
4.277981e-01 5.045268e-01 3.154448e+00 172 175 224
4.184411e-01 5.172524e-01 3.152153e+00 138 144 202
4.376261e-01 4.944096e-01 3.156696e+00 168 177 237
4.265208e-01 5.082939e-01 3.154602e+00 143 145 214
4.284976e-01 5.331643e-01 3.145738e+00 117 123 180
4.453236e-01 5.417366e-01 3.136424e+00 173 172 201
4.249167e-01 5.680818e-01 3.133691e+00 137 144 186
4.349704e-01 5.648057e-01 3.138924e+00 148 155 205
4.749889e-01 5.261587e-01 3.141075e+00 167 171 232
4.811813e-01 5.348585e-01 3.143321e+00 207 214 253
4.840901e-01 5.323088e-01 3.144128e+00 163 170 213
4.836470e-01 5.355986e-01 3.142869e+00 176 179 218
4.425957e-01 5.910984e-01 3.130489e+00 177 181 252
4.412396e-01 5.932029e-01 3.129960e+00 89 105 165
4.321863e-01 6.044194e-01 3.124850e+00 204 210 255
4.321863e-01 6.044194e-01 3.124850e+00 204 210 255
4.418213e-01 5.933268e-01 3.130138e+00 105 118 161
4.418408e-01 5.933264e-01 3.130010e+00 105 118 161
4.769461e-01 5.530444e-01 3.142730e+00 172 180 225
4.729474e-01 6.156677e-01 3.123977e+00 169 175 211
4.915529e-01 6.074811e-01 3.123977e+00 150 149 146
4.837466e-01 6.279452e-01 3.118643e+00 241 244 251
4.776730e-01 6.328261e-01 3.118543e+00 243 253 255
4.359029e-01 4.991746e-01 3.154525e+00 173 169 157
5.013864e-01 5.756240e-01 3.127676e+00 125 121 127
5.365852e-01 5.615395e-01 3.135220e+00 240 250 253
3.973893e-01 4.970682e-01 3.144056e+00 105 112 118
3.964113e-01 4.941953e-01 3.149379e+00 119 121 118
3.840529e-01 5.177979e-01 3.149006e+00 153 171 181
4.154110e-01 5.005038e-01 3.154737e+00 209 225 239
4.251931e-01 5.045553e-01 3.153495e+00 194 193 188
3.838572e-01 5.158440e-01 3.148411e+00 86 86 84
4.062509e-01 4.977983e-01 3.152584e+00 166 168 162
4.062509e-01 4.977983e-01 3.152584e+00 166 168 162
4.088018e-01 4.986413e-01 3.153003e+00 151 158 165
3.999346e-01 5.169133e-01 3.144012e+00 83 77 61
4.059772e-01 5.157913e-01 3.144600e+00 127 125 112
3.944188e-01 4.930480e-01 3.147756e+00 125 132 135
3.817238e-01 5.142559e-01 3.148364e+00 67 65 64
3.868069e-01 5.113740e-01 3.144989e+00 58 61 61
3.859031e-01 5.149289e-01 3.147577e+00 50 48 45
3.878149e-01 5.177350e-01 3.147984e+00 162 164 157
4.035179e-01 5.058771e-01 3.143973e+00 117 114 113
3.967075e-01 5.138539e-01 3.142314e+00 147 147 145
3.884349e-01 5.253721e-01 3.148459e+00 159 172 177
3.919146e-01 5.226296e-01 3.147695e+00 168 173 176
3.982089e-01 5.185658e-01 3.145230e+00 155 150 134
4.075265e-01 5.162595e-01 3.145572e+00 68 62 58
4.040944e-01 5.257601e-01 3.147697e+00 167 167 165
4.226002e-01 5.096984e-01 3.153604e+00 187 187 182
4.055868e-01 5.340382e-01 3.146114e+00 138 135 131
3.916052e-01 5.039235e-01 3.145311e+00 115 117 113
3.876710e-01 5.116217e-01 3.145161e+00 111 111 99
3.867010e-01 5.169458e-01 3.148805e+00 159 162 153
4.178525e-01 4.886764e-01 3.149713e+00 116 113 108
3.950662e-01 5.178208e-01 3.145375e+00 157 154 144
4.009725e-01 5.162661e-01 3.143637e+00 144 136 114
3.925706e-01 5.247383e-01 3.148483e+00 191 203 215
4.117645e-01 5.102141e-01 3.150215e+00 161 161 159
4.228810e-01 5.130279e-01 3.151717e+00 164 165 167
4.142738e-01 5.233187e-01 3.148506e+00 166 171 168
3.988582e-01 5.164944e-01 3.143836e+00 82 71 65
4.088893e-01 5.075763e-01 3.148452e+00 160 162 160
4.034882e-01 5.190466e-01 3.145984e+00 97 88 81
4.023308e-01 5.208397e-01 3.146473e+00 154 152 145
4.115037e-01 5.117764e-01 3.149721e+00 90 80 78
4.078057e-01 5.303915e-01 3.146439e+00 104 97 91
4.077796e-01 4.924878e-01 3.155490e+00 170 187 201
3.974471e-01 4.924880e-01 3.151825e+00 109 124 125
4.131308e-01 5.372494e-01 3.146100e+00 100 92 85
3.960144e-01 4.905216e-01 3.151659e+00 84 84 84
3.962107e-01 4.928129e-01 3.150118e+00 118 120 116
3.965254e-01 4.927806e-01 3.150375e+00 81 80 77
3.969269e-01 4.926762e-01 3.150598e+00 84 95 96
4.165919e-01 5.318571e-01 3.147335e+00 145 144 131
4.184669e-01 5.305142e-01 3.147702e+00 141 130 116
4.130899e-01 5.369149e-01 3.145991e+00 95 84 70
4.123059e-01 5.386888e-01 3.145955e+00 131 126 125
4.406947e-01 5.263727e-01 3.141230e+00 148 149 154
3.970263e-01 5.422681e-01 3.143656e+00 90 79 77
4.158424e-01 5.745878e-01 3.132007e+00 181 130 113
4.245113e-01 5.531262e-01 3.141799e+00 182 132 118
4.282827e-01 6.054088e-01 3.121973e+00 137 176 230
4.082415e-01 5.426468e-01 3.145389e+00 58 23 8
4.142936e-01 5.339231e-01 3.147043e+00 127 79 59
4.435426e-01 5.503480e-01 3.137956e+00 144 82 58
4.389242e-01 5.574473e-01 3.136870e+00 137 81 61
4.075419e-01 5.421226e-01 3.145394e+00 130 78 55
4.075419e-01 5.421226e-01 3.145394e+00 130 78 55
4.098290e-01 5.393520e-01 3.146334e+00 126 70 51
4.419153e-01 5.539383e-01 3.137620e+00 125 75 60
4.414885e-01 5.544182e-01 3.137541e+00 131 80 59
4.370161e-01 5.203165e-01 3.149537e+00 195 208 242
4.400409e-01 4.919508e-01 3.156211e+00 164 184 232
5.050911e-01 5.495184e-01 3.133940e+00 33 49 100
4.569628e-01 4.373224e-01 3.111705e+00 161 158 192
4.569628e-01 4.373224e-01 3.111705e+00 161 158 192
4.287329e-01 5.381562e-01 3.135545e+00 49 61 114
4.685674e-01 5.305879e-01 3.141857e+00 68 71 122
4.878961e-01 5.273068e-01 3.145001e+00 90 98 143
4.528644e-01 4.367847e-01 3.116523e+00 165 171 197
4.596597e-01 4.348195e-01 3.117210e+00 70 72 114
4.356823e-01 4.960261e-01 3.154907e+00 94 107 162
4.251816e-01 5.335712e-01 3.135256e+00 37 59 109
4.251816e-01 5.335712e-01 3.135256e+00 37 59 109
4.246919e-01 5.352930e-01 3.136215e+00 128 155 202
4.246897e-01 5.363348e-01 3.134659e+00 50 71 121
4.246897e-01 5.363348e-01 3.134659e+00 50 71 121
4.457438e-01 5.386254e-01 3.135914e+00 184 178 212
4.828155e-01 5.438564e-01 3.141957e+00 57 63 116
4.073728e-01 4.948462e-01 3.158267e+00 120 126 178
4.084623e-01 5.295944e-01 3.147359e+00 134 149 204
4.945550e-01 5.172662e-01 3.146130e+00 246 252 255
4.444589e-01 6.091414e-01 3.125664e+00 121 135 182
4.020520e-01 5.688653e-01 3.133273e+00 74 90 137
4.361322e-01 5.852468e-01 3.130699e+00 164 166 217
4.453836e-01 5.896149e-01 3.131628e+00 171 175 214
4.231520e-01 5.143706e-01 3.151743e+00 19 29 68
4.231520e-01 5.143706e-01 3.151743e+00 19 29 68
4.447854e-01 5.417001e-01 3.136108e+00 186 192 224
4.652884e-01 6.226712e-01 3.126371e+00 138 148 200
4.235716e-01 5.375538e-01 3.147354e+00 63 68 74
3.909554e-01 5.784776e-01 3.130958e+00 255 255 255
4.293485e-01 5.340258e-01 3.145164e+00 80 85 91
4.322804e-01 5.414364e-01 3.164660e+00 80 86 90
4.934980e-01 5.313775e-01 3.149700e+00 35 36 41
4.930785e-01 5.243122e-01 3.150094e+00 45 43 46
3.927166e-01 5.583022e-01 3.140461e+00 76 75 80
4.121844e-01 5.244131e-01 3.148214e+00 16 19 24
4.113161e-01 5.311488e-01 3.146625e+00 61 63 62
4.240242e-01 5.368087e-01 3.137181e+00 18 21 30
4.288155e-01 5.376364e-01 3.140029e+00 18 20 33
4.333572e-01 5.363762e-01 3.137007e+00 87 90 97
4.395991e-01 5.407887e-01 3.136449e+00 20 23 30
4.807111e-01 5.301615e-01 3.143333e+00 19 20 24
4.345683e-01 4.986060e-01 3.154879e+00 38 38 46
3.969036e-01 5.734961e-01 3.138022e+00 101 102 107
4.119168e-01 5.227850e-01 3.149433e+00 29 30 34
4.422114e-01 4.969514e-01 3.155645e+00 76 75 80
4.118755e-01 5.912944e-01 3.127149e+00 241 240 235
4.517408e-01 5.396405e-01 3.196046e+00 15 14 19
4.374884e-01 5.983282e-01 3.134200e+00 92 95 100
4.067518e-01 5.304784e-01 3.145774e+00 15 18 23
4.065578e-01 5.310738e-01 3.146864e+00 55 58 63
4.230678e-01 5.685066e-01 3.236585e+00 53 52 58
4.230678e-01 5.685066e-01 3.236585e+00 53 52 58
4.224012e-01 5.721760e-01 3.241510e+00 137 134 154
4.052745e-01 4.969102e-01 3.152656e+00 193 192 190
4.110425e-01 5.049341e-01 3.151425e+00 182 178 169
4.125201e-01 5.126073e-01 3.150521e+00 192 186 172
3.959777e-01 4.932743e-01 3.148199e+00 150 151 155
4.124140e-01 5.160317e-01 3.149231e+00 185 178 169
4.121729e-01 5.170589e-01 3.149169e+00 183 180 166
4.014041e-01 4.965906e-01 3.149009e+00 34 32 33
4.070158e-01 5.038532e-01 3.147422e+00 183 180 173
4.070158e-01 5.038532e-01 3.147422e+00 183 180 173
4.056839e-01 5.096987e-01 3.141861e+00 164 164 155
4.079378e-01 5.151768e-01 3.145423e+00 120 111 104
3.930924e-01 4.923408e-01 3.145499e+00 155 154 150
3.811602e-01 5.115943e-01 3.147287e+00 40 40 40
4.021176e-01 4.970914e-01 3.150170e+00 102 103 106
4.083208e-01 5.155949e-01 3.145192e+00 165 159 145
4.087878e-01 5.154925e-01 3.147341e+00 111 99 83
3.965418e-01 4.895278e-01 3.152709e+00 161 160 155
4.038519e-01 4.983426e-01 3.149337e+00 173 172 167
4.104870e-01 5.073227e-01 3.149640e+00 178 174 165
4.938640e-01 5.988924e-01 3.126571e+00 225 245 254
4.647113e-01 5.916309e-01 3.126716e+00 90 100 102
4.753947e-01 6.324601e-01 3.119754e+00 58 85 144
4.301956e-01 5.404999e-01 3.136430e+00 98 105 103
4.301956e-01 5.404999e-01 3.136430e+00 98 105 103
4.753256e-01 5.397553e-01 3.141555e+00 78 79 74
5.326533e-01 5.565138e-01 3.139852e+00 250 252 255
4.430794e-01 5.087296e-01 3.152085e+00 135 136 127
4.821000e-01 5.448037e-01 3.141565e+00 88 92 89
4.836754e-01 6.346279e-01 3.116133e+00 154 207 242
4.238661e-01 5.146780e-01 3.149972e+00 61 61 63
3.828479e-01 5.596703e-01 3.142159e+00 69 70 79
4.276522e-01 5.457919e-01 3.135108e+00 65 72 75
4.335399e-01 5.372534e-01 3.137005e+00 147 148 150
4.161626e-01 5.284406e-01 3.147764e+00 175 170 174
4.153237e-01 5.232818e-01 3.145962e+00 173 166 173
4.299447e-01 5.458388e-01 3.134145e+00 59 55 68
3.628145e-01 5.421462e-01 3.125152e+00 161 159 162
3.902186e-01 5.437152e-01 3.144169e+00 180 174 178
3.864248e-01 5.334444e-01 3.143442e+00 79 68 74
4.421334e-01 5.290696e-01 3.134925e+00 36 37 42
3.949108e-01 5.199203e-01 3.294775e+00 52 29 49
4.661469e-01 5.043325e-01 3.150357e+00 112 116 127
4.191022e-01 5.786272e-01 3.128805e+00 89 88 96
4.865860e-01 5.488168e-01 3.161116e+00 10 13 20
3.954794e-01 5.015399e-01 3.132252e+00 34 28 32
4.673282e-01 5.147539e-01 3.141756e+00 77 72 77
3.913432e-01 5.574773e-01 3.123245e+00 111 109 114
4.403617e-01 5.357736e-01 3.135943e+00 22 22 32
4.735918e-01 4.315029e-01 3.106725e+00 72 71 76
4.160050e-01 5.325329e-01 3.145942e+00 32 26 26
4.074570e-01 5.518826e-01 3.132446e+00 33 32 40
3.619869e-01 5.452518e-01 3.138498e+00 84 87 92
3.973975e-01 5.339337e-01 3.232273e+00 111 106 103
3.896483e-01 5.422056e-01 3.235816e+00 28 22 24
4.524344e-01 5.644909e-01 3.129306e+00 255 254 252
3.969782e-01 5.622736e-01 3.137770e+00 73 74 76
3.983103e-01 5.512714e-01 3.177473e+00 88 88 87
4.665512e-01 4.919099e-01 3.150957e+00 95 95 103
4.579818e-01 5.332969e-01 3.147580e+00 144 140 139
4.435039e-01 5.906077e-01 3.130718e+00 26 24 29
4.327779e-01 5.265470e-01 3.138331e+00 21 21 29
4.312688e-01 5.416497e-01 3.135852e+00 32 31 37
4.571266e-01 5.673928e-01 3.134838e+00 109 112 121
4.821714e-01 5.084839e-01 3.148658e+00 88 87 95
4.708719e-01 5.468523e-01 3.106629e+00 247 253 252
5.200605e-01 5.420158e-01 3.140774e+00 254 255 250
4.724309e-01 4.402301e-01 3.109464e+00 253 253 252
4.300225e-01 5.030327e-01 3.153632e+00 29 27 35
4.304460e-01 5.030753e-01 3.153437e+00 33 30 38
4.338173e-01 5.365210e-01 3.136835e+00 123 120 130
4.612093e-01 5.620831e-01 3.136540e+00 149 151 163
5.045095e-01 5.299407e-01 3.143183e+00 129 130 135
4.598570e-01 6.263645e-01 3.119982e+00 248 250 255
3.955051e-01 4.940662e-01 3.146972e+00 21 21 23
3.592095e-01 5.821433e-01 3.014064e+00 200 196 197
4.062644e-01 5.322334e-01 3.146636e+00 127 126 131
4.502693e-01 5.826892e-01 3.132750e+00 31 29 33
5.193240e-01 5.827794e-01 3.130235e+00 201 198 216
3.962113e-01 5.019234e-01 3.140081e+00 45 38 42
3.994648e-01 5.372266e-01 3.144005e+00 72 67 74
4.350252e-01 5.064637e-01 3.147673e+00 139 133 137
4.321967e-01 4.880622e-01 3.154088e+00 177 172 179
4.156228e-01 4.700621e-01 3.159556e+00 119 112 119
3.910050e-01 5.540177e-01 3.138581e+00 89 82 89
4.645854e-01 5.095612e-01 3.145563e+00 93 88 93
4.313177e-01 5.630806e-01 3.135498e+00 85 80 86
4.791446e-01 6.324181e-01 3.121180e+00 210 228 253
3.768931e-01 5.389387e-01 3.140648e+00 82 73 76
4.239680e-01 5.382182e-01 3.136444e+00 93 91 99
4.734146e-01 5.346733e-01 3.166708e+00 92 91 99
3.988541e-01 4.954277e-01 3.132025e+00 151 149 152
4.050967e-01 5.466234e-01 3.137119e+00 53 44 31
4.322933e-01 5.226947e-01 3.140211e+00 111 93 71
4.085025e-01 5.419181e-01 3.137507e+00 146 128 105
4.314426e-01 5.261010e-01 3.139630e+00 150 141 125
4.371566e-01 4.964120e-01 3.144222e+00 146 138 129
4.433900e-01 4.901508e-01 3.146715e+00 179 172 159
4.145192e-01 5.226675e-01 3.139254e+00 183 175 156
4.232289e-01 5.217139e-01 3.137149e+00 69 56 43
4.215326e-01 5.469266e-01 3.136875e+00 178 169 156
3.767253e-01 5.201995e-01 3.146611e+00 128 119 98
4.277416e-01 5.179419e-01 3.140010e+00 74 60 46
4.436052e-01 5.150038e-01 3.144081e+00 154 142 120
4.444819e-01 5.145885e-01 3.142541e+00 70 68 68
4.721832e-01 5.341066e-01 3.142701e+00 69 64 62
5.010931e-01 5.248709e-01 3.150015e+00 155 161 165
3.834338e-01 5.070223e-01 3.143376e+00 117 104 83
3.782591e-01 5.210117e-01 3.145879e+00 67 52 35
3.998629e-01 4.972092e-01 3.142023e+00 45 30 21
3.931641e-01 5.144407e-01 3.142115e+00 90 70 43
3.893940e-01 5.237594e-01 3.141734e+00 63 45 31
4.447826e-01 4.952651e-01 3.145773e+00 100 85 70
4.405476e-01 5.024724e-01 3.143576e+00 65 48 32
4.387899e-01 5.072633e-01 3.142630e+00 57 44 38
4.074696e-01 5.496498e-01 3.136576e+00 116 106 93
4.063301e-01 5.512772e-01 3.136197e+00 59 57 52
4.598889e-01 5.027184e-01 3.146509e+00 166 159 146
4.133005e-01 5.593627e-01 3.134802e+00 117 116 100
3.776771e-01 5.212379e-01 3.146090e+00 124 115 96
3.875451e-01 5.097961e-01 3.143103e+00 66 54 29
4.096487e-01 5.375389e-01 3.137876e+00 143 129 107
4.444387e-01 5.233766e-01 3.140937e+00 140 126 108
4.577641e-01 5.201084e-01 3.142895e+00 104 94 75
4.459618e-01 4.728778e-01 3.153794e+00 248 247 249
4.470268e-01 4.727742e-01 3.155556e+00 145 143 144
4.092734e-01 5.387934e-01 3.147919e+00 108 105 100
4.068150e-01 5.299747e-01 3.148951e+00 111 114 117
4.447920e-01 5.279255e-01 3.146848e+00 85 87 82
4.077333e-01 5.577513e-01 3.138680e+00 67 68 72
4.720537e-01 5.163875e-01 3.146862e+00 130 128 119
4.292924e-01 5.915162e-01 3.130029e+00 58 65 65
4.309942e-01 5.065167e-01 3.157315e+00 105 105 107
4.356654e-01 5.049731e-01 3.151886e+00 2 2 1
4.312994e-01 5.099482e-01 3.155958e+00 23 17 9
4.144911e-01 5.393787e-01 3.145757e+00 68 68 70
4.341097e-01 5.419991e-01 3.136331e+00 59 66 76
4.404862e-01 5.349377e-01 3.139026e+00 138 139 141
4.161345e-01 5.405583e-01 3.144281e+00 150 148 151
4.794103e-01 6.261612e-01 3.120233e+00 254 254 251
4.441903e-01 5.072760e-01 3.152309e+00 94 91 86
4.795917e-01 5.072097e-01 3.148226e+00 139 138 155
4.402640e-01 6.099723e-01 3.122546e+00 253 253 253
4.535921e-01 6.204074e-01 3.120302e+00 251 251 250
3.954477e-01 4.935518e-01 3.146917e+00 44 46 45
5.189959e-01 5.772242e-01 3.132324e+00 132 128 146
3.845267e-01 5.151157e-01 3.216501e+00 47 32 41
4.762368e-01 4.159955e-01 3.106043e+00 99 102 111
4.723500e-01 5.003860e-01 3.149341e+00 113 114 118
4.663977e-01 5.632541e-01 3.136865e+00 252 255 255
4.022492e-01 5.839594e-01 3.129456e+00 254 255 253
4.417381e-01 5.924869e-01 3.130534e+00 45 44 50
4.148481e-01 5.923766e-01 3.127070e+00 149 146 164
4.200220e-01 5.155643e-01 3.151086e+00 39 40 45
4.736427e-01 5.007059e-01 3.148823e+00 133 133 140
4.823317e-01 5.618686e-01 3.121023e+00 248 248 244
3.635033e-01 5.858915e-01 2.967717e+00 118 118 146
3.596377e-01 5.974412e-01 3.065338e+00 242 240 252
4.254545e-01 5.423238e-01 3.135459e+00 36 39 49
3.951481e-01 4.315149e-01 2.879928e+00 106 96 100
4.365640e-01 5.418124e-01 3.136803e+00 72 70 81
4.144675e-01 5.925073e-01 3.126796e+00 253 253 254
5.227597e-01 5.547763e-01 3.138626e+00 49 46 61
4.302247e-01 4.971333e-01 3.150513e+00 201 211 221
4.705871e-01 6.084821e-01 3.113064e+00 93 97 98
4.915862e-01 5.154727e-01 3.147894e+00 255 255 255
3.965833e-01 5.591575e-01 3.139057e+00 104 109 113
3.960990e-01 5.562993e-01 3.139556e+00 41 38 33
3.655671e-01 5.425428e-01 3.146119e+00 95 103 107
3.815454e-01 5.216765e-01 3.146534e+00 35 35 37
3.815454e-01 5.216765e-01 3.146534e+00 35 35 37
4.127885e-01 5.495365e-01 3.134594e+00 93 93 91
4.397875e-01 5.337585e-01 3.137679e+00 125 125 121
3.949212e-01 5.781679e-01 3.128017e+00 151 158 164
4.084208e-01 5.615047e-01 3.135344e+00 36 36 40
4.005156e-01 4.962528e-01 3.152155e+00 24 24 29
4.118067e-01 5.264107e-01 3.147365e+00 29 28 26
4.010193e-01 5.585515e-01 3.137955e+00 109 108 103
4.346077e-01 5.380321e-01 3.146293e+00 37 40 49
4.360087e-01 5.554357e-01 3.136625e+00 72 71 69
5.243725e-01 5.451424e-01 3.141279e+00 254 255 255
3.957688e-01 5.478436e-01 3.138898e+00 97 96 94
4.343841e-01 5.401655e-01 3.157382e+00 34 41 49
4.703786e-01 5.064637e-01 3.152260e+00 83 83 79
4.682730e-01 6.293739e-01 3.117076e+00 133 137 140
4.931962e-01 6.089190e-01 3.125805e+00 246 249 254
4.980587e-01 5.676807e-01 3.105440e+00 253 251 254
4.266821e-01 4.910536e-01 3.151963e+00 52 52 44
3.845801e-01 5.476379e-01 3.142731e+00 120 120 118
4.156591e-01 5.414588e-01 3.142577e+00 78 77 75
4.221888e-01 5.177972e-01 3.148840e+00 118 114 103
4.792693e-01 5.964607e-01 3.131740e+00 131 137 148
3.767004e-01 5.373486e-01 3.135532e+00 93 98 92
4.380456e-01 4.942590e-01 3.154668e+00 150 154 165
4.050091e-01 5.703752e-01 3.129238e+00 96 98 94
4.770591e-01 5.425475e-01 3.140070e+00 36 36 38
3.650481e-01 5.338368e-01 3.138669e+00 88 93 89
4.121859e-01 4.953425e-01 3.150453e+00 62 61 65
4.023390e-01 5.236999e-01 3.146021e+00 61 56 53
4.207178e-01 5.143383e-01 3.149343e+00 120 125 129
4.336768e-01 4.996300e-01 3.152798e+00 138 141 148
4.025900e-01 5.446008e-01 3.142061e+00 109 109 109
4.141878e-01 5.325241e-01 3.145252e+00 37 37 32
4.186070e-01 5.272585e-01 3.146259e+00 47 45 43
4.301711e-01 5.141784e-01 3.150337e+00 45 44 42
4.370205e-01 5.058171e-01 3.152069e+00 44 44 46
4.404897e-01 5.018271e-01 3.152796e+00 42 43 39
4.235666e-01 5.346042e-01 3.145228e+00 41 43 55
4.535602e-01 5.094459e-01 3.144007e+00 117 119 118
4.942158e-01 5.283687e-01 3.148739e+00 54 53 58
4.096419e-01 4.846851e-01 3.144389e+00 25 22 21
4.178698e-01 4.783562e-01 3.147417e+00 84 84 81
4.359239e-01 5.081468e-01 3.150059e+00 122 120 112
4.470287e-01 4.947820e-01 3.155282e+00 111 110 108
4.452707e-01 5.034254e-01 3.152988e+00 59 62 77
4.329166e-01 5.423969e-01 3.135180e+00 147 148 150
4.578943e-01 5.267077e-01 3.142830e+00 139 138 139
4.688122e-01 5.099052e-01 3.151207e+00 156 160 169
3.606378e-01 5.321003e-01 3.140616e+00 28 25 32
4.138592e-01 5.297034e-01 3.145678e+00 68 59 60
4.684139e-01 5.153650e-01 3.146203e+00 59 57 61
4.551731e-01 5.371435e-01 3.140590e+00 69 65 64
4.803766e-01 5.281204e-01 3.141514e+00 95 96 99
4.717352e-01 5.471193e-01 3.142846e+00 128 128 133
4.384349e-01 5.530562e-01 3.137351e+00 150 156 156
4.467772e-01 5.459461e-01 3.137649e+00 73 71 72
4.066276e-01 5.229882e-01 3.148592e+00 42 37 34
4.290905e-01 5.405390e-01 3.136669e+00 13 12 17
4.312745e-01 5.416390e-01 3.135878e+00 11 12 17
4.351194e-01 5.435032e-01 3.135658e+00 14 14 24
4.708257e-01 4.434113e-01 3.118985e+00 98 94 118
4.708257e-01 4.434113e-01 3.118985e+00 98 94 118
3.997454e-01 5.396247e-01 3.144765e+00 110 111 114
4.342396e-01 5.395248e-01 3.136150e+00 12 10 23
4.002725e-01 4.967433e-01 3.150632e+00 104 111 105
4.097956e-01 5.023460e-01 3.153611e+00 85 83 86
4.393152e-01 5.421617e-01 3.136084e+00 65 79 108
4.251642e-01 5.174739e-01 3.151863e+00 169 164 160
4.104455e-01 5.669050e-01 3.130146e+00 51 56 65
4.412590e-01 5.472568e-01 3.135792e+00 157 141 128
4.241006e-01 5.162872e-01 3.152346e+00 97 92 93
4.021653e-01 5.372178e-01 3.141894e+00 64 71 77
4.206760e-01 5.949208e-01 3.126293e+00 109 120 142
4.523158e-01 6.196552e-01 3.121012e+00 190 235 253
4.363854e-01 5.394640e-01 3.118277e+00 120 119 115
4.182770e-01 5.695543e-01 3.132131e+00 22 18 16
4.646260e-01 5.297526e-01 3.144956e+00 186 184 186
5.403347e-01 5.676904e-01 3.132685e+00 174 187 214
4.476033e-01 4.993847e-01 3.155600e+00 189 189 184
4.674188e-01 5.333591e-01 3.140347e+00 76 67 61
4.257782e-01 5.915555e-01 3.131334e+00 125 129 130
4.386849e-01 5.789228e-01 3.130220e+00 82 84 85
4.067365e-01 5.415666e-01 3.148242e+00 77 77 75
4.001454e-01 5.168454e-01 3.142681e+00 25 18 15
4.273668e-01 5.055268e-01 3.153608e+00 24 28 31
4.246185e-01 5.115391e-01 3.152156e+00 126 128 132
4.433163e-01 5.091897e-01 3.152150e+00 68 67 72
4.381866e-01 5.403940e-01 3.144504e+00 24 27 19
4.076113e-01 5.136473e-01 3.138109e+00 53 49 41
4.557573e-01 4.993576e-01 3.158925e+00 167 169 164
3.802037e-01 5.109745e-01 3.141867e+00 83 78 67
4.308170e-01 5.229729e-01 3.146944e+00 112 110 95
4.328161e-01 5.285812e-01 3.139051e+00 47 51 54
4.318547e-01 4.748996e-01 3.216641e+00 77 79 73
4.458032e-01 4.978991e-01 3.152207e+00 67 61 54
4.417185e-01 5.028508e-01 3.149584e+00 70 67 55
4.247664e-01 5.411707e-01 3.132992e+00 132 134 124
4.923427e-01 5.326942e-01 3.147392e+00 81 86 80
4.758057e-01 5.571974e-01 3.140074e+00 81 82 77
4.360515e-01 6.057465e-01 3.123436e+00 107 112 107
4.868857e-01 5.507017e-01 3.137035e+00 134 139 132
5.064607e-01 5.470329e-01 3.142462e+00 128 128 124
4.863178e-01 6.093310e-01 3.132972e+00 90 99 97
4.164317e-01 5.280889e-01 3.145462e+00 137 135 121
4.420658e-01 5.087532e-01 3.145711e+00 59 62 61
4.511530e-01 5.310572e-01 3.146627e+00 163 164 158
4.506957e-01 6.027036e-01 3.122792e+00 122 129 122
4.664164e-01 6.181722e-01 3.121657e+00 128 129 121
3.706475e-01 5.318627e-01 3.142056e+00 95 91 76
4.257508e-01 5.089443e-01 3.160142e+00 146 147 140
4.017628e-01 5.370821e-01 3.145126e+00 144 146 135
4.470432e-01 5.102037e-01 3.140386e+00 55 57 53
4.237228e-01 5.990143e-01 3.122994e+00 91 95 89
4.530084e-01 6.192292e-01 3.119208e+00 121 124 121
5.320153e-01 5.587605e-01 3.143797e+00 74 97 100
4.258690e-01 4.766339e-01 3.167383e+00 76 76 68
3.742457e-01 5.428496e-01 3.135576e+00 101 99 84
4.340075e-01 4.801690e-01 3.230461e+00 78 82 82
4.010912e-01 5.611258e-01 3.129094e+00 49 54 54
4.770195e-01 5.212768e-01 3.144335e+00 50 57 58
4.792186e-01 6.169292e-01 3.123378e+00 106 110 109
4.883144e-01 6.127629e-01 3.125774e+00 68 78 75
4.780212e-01 6.329529e-01 3.117473e+00 186 207 209
3.721564e-01 5.295844e-01 3.141333e+00 58 49 40
4.303583e-01 4.770195e-01 3.157927e+00 93 94 90
4.120646e-01 5.034833e-01 3.147266e+00 90 86 75
3.976734e-01 5.503177e-01 3.139847e+00 56 56 47
4.713470e-01 5.128014e-01 3.148674e+00 84 89 83
4.725815e-01 5.132947e-01 3.147071e+00 86 89 82
4.451555e-01 5.847804e-01 3.132192e+00 101 103 93
4.859533e-01 5.955311e-01 3.132632e+00 115 134 147
4.265382e-01 5.146770e-01 3.152786e+00 83 83 83
4.206946e-01 5.467911e-01 3.144264e+00 133 132 107
4.447690e-01 5.388226e-01 3.137808e+00 208 202 176
3.924996e-01 5.098789e-01 3.142173e+00 102 103 93
3.873900e-01 5.111863e-01 3.144684e+00 91 96 80
3.963694e-01 5.074656e-01 3.144596e+00 206 206 177
3.990714e-01 5.046224e-01 3.143536e+00 195 203 183
3.979325e-01 5.063036e-01 3.143230e+00 188 190 177
4.491793e-01 6.018685e-01 3.124501e+00 109 119 127
4.266864e-01 6.031344e-01 3.120839e+00 255 255 253
4.291403e-01 6.060062e-01 3.124091e+00 254 254 254
4.793365e-01 6.279829e-01 3.121814e+00 246 255 254
4.293636e-01 5.384382e-01 3.135770e+00 166 181 232
4.913234e-01 6.105607e-01 3.125880e+00 243 255 254
4.928192e-01 6.089398e-01 3.126562e+00 240 254 254
4.743492e-01 6.310148e-01 3.121481e+00 233 254 252
4.888915e-01 5.368886e-01 3.142897e+00 56 61 124
4.288906e-01 5.363049e-01 3.136042e+00 175 190 252
4.328686e-01 5.428085e-01 3.133119e+00 199 209 247
4.340700e-01 5.440826e-01 3.134513e+00 198 205 240
4.590796e-01 6.261224e-01 3.121772e+00 232 253 255
4.958738e-01 6.064125e-01 3.125131e+00 151 152 201
4.603085e-01 6.275912e-01 3.121383e+00 232 254 255
4.177635e-01 5.492318e-01 3.141411e+00 165 180 214
4.616368e-01 5.537184e-01 3.134982e+00 251 253 254
4.306159e-01 5.402975e-01 3.135003e+00 162 188 217
4.358564e-01 5.427075e-01 3.134986e+00 150 182 215
4.387643e-01 5.415523e-01 3.135018e+00 165 185 209
4.322841e-01 5.424988e-01 3.134306e+00 15 32 83
4.317616e-01 6.036896e-01 3.126006e+00 224 254 255
4.366215e-01 5.989727e-01 3.132011e+00 75 94 160
3.426124e-01 5.971635e-01 3.438812e+00 203 214 236
4.719673e-01 5.361308e-01 3.137163e+00 194 213 248
4.314496e-01 5.265676e-01 3.137842e+00 16 31 87
4.320322e-01 6.078815e-01 3.125591e+00 214 244 254
5.323245e-01 5.541041e-01 3.138098e+00 120 169 193
4.377635e-01 5.258965e-01 3.137599e+00 55 83 126
4.641585e-01 5.473437e-01 3.111408e+00 120 151 189
4.421895e-01 6.116288e-01 3.123571e+00 165 200 221
4.372158e-01 5.363948e-01 3.138358e+00 58 65 137
3.460094e-01 5.916612e-01 3.434324e+00 252 253 255
4.075564e-01 5.505145e-01 3.136395e+00 66 77 136
4.296856e-01 5.390242e-01 3.135753e+00 46 52 126
4.783489e-01 5.500822e-01 3.142737e+00 73 86 156
4.282765e-01 5.288307e-01 3.139544e+00 145 168 227
3.439806e-01 5.950963e-01 3.439129e+00 250 249 255
3.433458e-01 5.960547e-01 3.438697e+00 249 248 254
3.443213e-01 5.944755e-01 3.438069e+00 249 250 255
3.443213e-01 5.944755e-01 3.438069e+00 249 250 255
3.428745e-01 5.965405e-01 3.436506e+00 219 220 239
4.439658e-01 5.898807e-01 3.131389e+00 44 62 126
3.464126e-01 5.912931e-01 3.438749e+00 193 194 215
3.443927e-01 5.944545e-01 3.438982e+00 198 196 220
3.445523e-01 5.941771e-01 3.438865e+00 213 215 230
3.456052e-01 5.925679e-01 3.438360e+00 242 244 251
3.447669e-01 5.938463e-01 3.438530e+00 217 213 228
3.430141e-01 5.965350e-01 3.438860e+00 200 199 222
3.429653e-01 5.966215e-01 3.438749e+00 211 213 228
3.439797e-01 5.949511e-01 3.437335e+00 247 250 255
3.459369e-01 5.918113e-01 3.434906e+00 200 199 212
3.459369e-01 5.918113e-01 3.434906e+00 200 199 212
3.423417e-01 5.971407e-01 3.435059e+00 246 244 252
3.462878e-01 5.911107e-01 3.432956e+00 206 204 216
4.276033e-01 6.056548e-01 3.123292e+00 241 251 255
4.598314e-01 6.229736e-01 3.124288e+00 139 137 135
3.962039e-01 5.629569e-01 3.141528e+00 133 131 119
4.227534e-01 5.248392e-01 3.147336e+00 97 85 72
4.079756e-01 5.454483e-01 3.142062e+00 179 178 169
4.118164e-01 5.450275e-01 3.142348e+00 148 142 125
4.118164e-01 5.450275e-01 3.142348e+00 148 142 125
3.824134e-01 5.575477e-01 3.144189e+00 108 107 102
3.836708e-01 5.583429e-01 3.134236e+00 185 186 181
4.182025e-01 5.555149e-01 3.132020e+00 79 79 74
4.580359e-01 6.227301e-01 3.122212e+00 143 148 149
3.508317e-01 5.476712e-01 3.126681e+00 155 158 165
3.820476e-01 5.160115e-01 3.149975e+00 185 181 170
3.994449e-01 5.395986e-01 3.143748e+00 185 182 175
4.666681e-01 6.276303e-01 3.120007e+00 237 244 252
3.520174e-01 5.462114e-01 3.127645e+00 158 162 171
3.520174e-01 5.462114e-01 3.127645e+00 158 162 171
3.842999e-01 5.176878e-01 3.149765e+00 165 159 147
3.748585e-01 5.428521e-01 3.144237e+00 151 140 123
3.832708e-01 5.568537e-01 3.142579e+00 115 112 107
3.958605e-01 5.432254e-01 3.142617e+00 168 161 154
4.050559e-01 5.441231e-01 3.143134e+00 150 141 132
3.965416e-01 5.543389e-01 3.141770e+00 153 145 132
4.278754e-01 5.176752e-01 3.147382e+00 164 157 141
4.257288e-01 5.203116e-01 3.146678e+00 164 157 144
4.257288e-01 5.203116e-01 3.146678e+00 164 157 144
4.211022e-01 5.256404e-01 3.146583e+00 160 149 132
4.211022e-01 5.256404e-01 3.146583e+00 160 149 132
4.053274e-01 5.558572e-01 3.139869e+00 132 130 117
4.221464e-01 5.484588e-01 3.140203e+00 153 151 138
4.606346e-01 5.029603e-01 3.151696e+00 156 153 148
4.746513e-01 6.288107e-01 3.121318e+00 183 184 186
3.884242e-01 5.199159e-01 3.146677e+00 138 128 105
3.846776e-01 5.589333e-01 3.142989e+00 112 108 99
3.846776e-01 5.589333e-01 3.142989e+00 112 108 99
3.952931e-01 5.554633e-01 3.142165e+00 140 133 121
4.226744e-01 5.246053e-01 3.146616e+00 76 63 50
4.532045e-01 4.976306e-01 3.153420e+00 140 135 128
4.650921e-01 5.045105e-01 3.151923e+00 156 153 146
4.459945e-01 5.347557e-01 3.135635e+00 77 69 58
3.888603e-01 5.080261e-01 3.142068e+00 116 116 109
3.990644e-01 5.352943e-01 3.146011e+00 100 92 89
5.351692e-01 5.589533e-01 3.137485e+00 146 167 213
3.984678e-01 4.936793e-01 3.152564e+00 92 107 156
4.332336e-01 5.372394e-01 3.136377e+00 160 182 228
4.622081e-01 5.179853e-01 3.062470e+00 53 57 103
4.499860e-01 5.829379e-01 3.132808e+00 68 83 140
4.109458e-01 4.794786e-01 3.172761e+00 39 49 95
4.643193e-01 5.539642e-01 3.137892e+00 121 130 171
4.675190e-01 5.553807e-01 3.139823e+00 78 77 82
4.046361e-01 5.885802e-01 3.136265e+00 255 255 255
4.128788e-01 5.901263e-01 3.124193e+00 87 86 90
3.546171e-01 5.686063e-01 3.365677e+00 195 190 187
3.546268e-01 5.690927e-01 3.367229e+00 205 200 197
3.546268e-01 5.690927e-01 3.367229e+00 205 200 197
3.584408e-01 5.637327e-01 3.366131e+00 181 180 178
3.567856e-01 5.655033e-01 3.362801e+00 224 223 221
3.588857e-01 5.627448e-01 3.361184e+00 157 151 151
3.588325e-01 5.634076e-01 3.369068e+00 133 126 121
3.559287e-01 5.671891e-01 3.367982e+00 127 118 122
3.561466e-01 5.666388e-01 3.364403e+00 157 153 152
3.551472e-01 5.678424e-01 3.363009e+00 223 219 216
4.591346e-01 5.568696e-01 3.133280e+00 82 81 88
4.591346e-01 5.568696e-01 3.133280e+00 82 81 88
