ply
format ascii 1.0
element face 0
property list uchar int vertex_indices
element vertex 955
property float x
property float y
property float z
property uchar diffuse_red
property uchar diffuse_green
property uchar diffuse_blue
end_header
3.942613e-01 5.863675e-01 3.021048e+00 51 46 55
3.550280e-01 6.109914e-01 3.019022e+00 77 63 50
4.252877e-01 6.003482e-01 3.020760e+00 165 164 152
3.824812e-01 6.603443e-01 3.029386e+00 191 192 187
4.394968e-01 6.451894e-01 3.029345e+00 164 155 148
3.629914e-01 5.997427e-01 3.021701e+00 177 169 161
4.361532e-01 5.941971e-01 3.020831e+00 192 179 160
4.362541e-01 6.113298e-01 3.021908e+00 119 114 104
3.620156e-01 6.264536e-01 3.022948e+00 30 27 22
4.307016e-01 6.143977e-01 3.021619e+00 49 42 30
4.364595e-01 6.132795e-01 3.022027e+00 48 39 32
4.456661e-01 6.129452e-01 3.021029e+00 196 191 185
3.957795e-01 5.883498e-01 3.009047e+00 48 42 46
4.356087e-01 5.899873e-01 3.020758e+00 200 192 178
4.240316e-01 6.020688e-01 3.020879e+00 48 42 43
4.260371e-01 6.121853e-01 3.021292e+00 37 30 31
5.639419e-01 9.789933e-01 3.822225e+00 180 173 167
3.496843e-01 5.451963e-01 3.009856e+00 146 133 116
3.800933e-01 5.579747e-01 3.008549e+00 187 178 162
4.206304e-01 5.926197e-01 3.019946e+00 189 179 170
4.229259e-01 5.925430e-01 3.019918e+00 202 193 176
4.229259e-01 5.925430e-01 3.019918e+00 202 193 176
3.726547e-01 6.041620e-01 3.020272e+00 176 166 154
4.390650e-01 6.108651e-01 3.022277e+00 174 172 159
3.833381e-01 6.564680e-01 3.032842e+00 163 158 150
3.839212e-01 6.608797e-01 3.030120e+00 185 182 175
3.442965e-01 5.430432e-01 3.007493e+00 151 139 121
3.453524e-01 5.438523e-01 3.009034e+00 171 162 145
4.243029e-01 5.899443e-01 3.020027e+00 183 175 160
3.859781e-01 6.026137e-01 3.019624e+00 182 172 162
4.047481e-01 6.003022e-01 3.019790e+00 181 172 163
4.047420e-01 6.002921e-01 3.019753e+00 181 172 163
4.401312e-01 6.497870e-01 3.028087e+00 170 168 163
3.608134e-01 6.023987e-01 3.021550e+00 155 143 129
3.559477e-01 6.085384e-01 3.021437e+00 191 190 182
4.313469e-01 6.281916e-01 3.028235e+00 69 72 84
3.821820e-01 6.578101e-01 3.030412e+00 175 175 167
3.811888e-01 6.600689e-01 3.029817e+00 84 82 77
4.313908e-01 6.346981e-01 3.004170e+00 120 118 106
4.183183e-01 6.190090e-01 3.019791e+00 188 184 172
3.734843e-01 6.550899e-01 3.032569e+00 14 19 22
3.686765e-01 6.559647e-01 3.024868e+00 184 177 174
4.190390e-01 6.161546e-01 3.019883e+00 125 119 102
3.891988e-01 6.122388e-01 2.914716e+00 93 108 115
3.799197e-01 6.550425e-01 3.030430e+00 56 43 37
3.874635e-01 6.598926e-01 3.030940e+00 169 163 155
3.753863e-01 6.606750e-01 3.029316e+00 73 72 67
4.227983e-01 6.508373e-01 3.028538e+00 71 71 63
4.330045e-01 6.514454e-01 3.028776e+00 187 173 167
3.776289e-01 6.600713e-01 3.030401e+00 60 63 54
3.805395e-01 6.601869e-01 3.029996e+00 180 181 175
4.270366e-01 6.163649e-01 3.021674e+00 172 163 153
4.263789e-01 6.498990e-01 3.026352e+00 90 82 72
4.180871e-01 6.165677e-01 3.019262e+00 95 93 83
3.869395e-01 6.597244e-01 3.030978e+00 70 73 64
3.735184e-01 6.620757e-01 3.029366e+00 87 68 65
3.665798e-01 5.901583e-01 3.022162e+00 60 57 64
3.963080e-01 5.541392e-01 3.012335e+00 170 158 143
4.066445e-01 5.519265e-01 3.014627e+00 191 185 170
3.599416e-01 5.869161e-01 3.021021e+00 182 177 173
3.599416e-01 5.869161e-01 3.021021e+00 182 177 173
3.614777e-01 5.953495e-01 3.019560e+00 144 137 127
3.936979e-01 5.584192e-01 3.010559e+00 97 82 75
3.555836e-01 5.655674e-01 3.007979e+00 193 184 175
3.524386e-01 5.681936e-01 3.008871e+00 103 89 76
3.745686e-01 5.931609e-01 3.013376e+00 207 202 198
3.701745e-01 5.962024e-01 3.019953e+00 186 176 165
3.544145e-01 5.435486e-01 3.010706e+00 126 110 94
4.271787e-01 5.501092e-01 3.018916e+00 203 197 184
4.265540e-01 5.525124e-01 3.018733e+00 115 99 83
3.993267e-01 5.574333e-01 3.011614e+00 105 92 79
3.770126e-01 5.620174e-01 3.007660e+00 107 90 78
3.701175e-01 5.680290e-01 3.007932e+00 179 167 153
3.508848e-01 5.719099e-01 3.009226e+00 167 152 139
3.480012e-01 5.727066e-01 3.009076e+00 159 147 132
3.541509e-01 5.724894e-01 3.009473e+00 171 157 144
3.541509e-01 5.724894e-01 3.009473e+00 171 157 144
3.569629e-01 5.979558e-01 3.020757e+00 105 89 73
3.537350e-01 5.984396e-01 3.020334e+00 190 180 170
3.693353e-01 6.016562e-01 3.020199e+00 139 130 117
3.768152e-01 6.010513e-01 3.017362e+00 204 200 191
4.137060e-01 5.304663e-01 3.022629e+00 126 112 93
3.616501e-01 5.536729e-01 3.007221e+00 197 192 185
3.952573e-01 5.525174e-01 3.012256e+00 186 182 173
3.542778e-01 5.649270e-01 3.007847e+00 120 99 85
3.599976e-01 5.663270e-01 3.008166e+00 102 89 81
3.452376e-01 5.733083e-01 3.008942e+00 171 157 144
3.452376e-01 5.733083e-01 3.008942e+00 171 157 144
3.513323e-01 5.739618e-01 3.009403e+00 173 163 153
3.516124e-01 5.756177e-01 3.009751e+00 173 163 153
3.452367e-01 5.778763e-01 3.008747e+00 67 54 46
4.328462e-01 5.821119e-01 3.020625e+00 97 79 63
3.749201e-01 5.879121e-01 3.012222e+00 198 192 184
3.605524e-01 5.962254e-01 3.019685e+00 203 196 190
3.586113e-01 5.985105e-01 3.020347e+00 194 188 177
3.464033e-01 5.449220e-01 3.010759e+00 128 113 88
4.023767e-01 5.376706e-01 3.013251e+00 174 164 154
3.434161e-01 5.556838e-01 3.006256e+00 170 159 140
3.610222e-01 5.597553e-01 3.007784e+00 202 197 191
3.938568e-01 5.542711e-01 3.011908e+00 208 201 191
4.076430e-01 5.522765e-01 3.014021e+00 208 202 196
4.035314e-01 5.531164e-01 3.013258e+00 199 192 182
3.843360e-01 5.568974e-01 3.010226e+00 133 117 105
3.763322e-01 5.590281e-01 3.008237e+00 209 202 194
3.973948e-01 5.561069e-01 3.012726e+00 192 185 176
3.954524e-01 5.564149e-01 3.012077e+00 193 189 179
3.430530e-01 5.696696e-01 3.006036e+00 188 182 173
3.768562e-01 5.651877e-01 3.009391e+00 178 165 149
4.277159e-01 5.599031e-01 3.018592e+00 182 172 162
4.036954e-01 5.635181e-01 3.013037e+00 177 171 160
4.080129e-01 5.631510e-01 3.013060e+00 181 174 163
3.424100e-01 5.738839e-01 3.007098e+00 173 168 162
4.061384e-01 5.654259e-01 3.012282e+00 180 167 149
3.759625e-01 5.922178e-01 3.013016e+00 106 97 93
3.683990e-01 5.965960e-01 3.019985e+00 193 186 175
4.383106e-01 5.936196e-01 3.021096e+00 189 179 157
3.548604e-01 6.051801e-01 3.021150e+00 186 178 167
3.537984e-01 5.457285e-01 3.012404e+00 160 148 132
3.452180e-01 5.502183e-01 3.010012e+00 100 79 60
3.487622e-01 5.519279e-01 3.012395e+00 82 63 50
3.490657e-01 5.526151e-01 3.013099e+00 156 148 134
3.394579e-01 5.571694e-01 3.002769e+00 44 26 27
3.983338e-01 5.454089e-01 3.013516e+00 190 183 171
3.963540e-01 5.482756e-01 3.012848e+00 112 95 75
3.925929e-01 5.571269e-01 3.011507e+00 190 182 163
3.557604e-01 5.656129e-01 3.007895e+00 197 188 175
3.587585e-01 5.687876e-01 3.009254e+00 38 23 15
3.534649e-01 5.717424e-01 3.009189e+00 175 163 151
4.014157e-01 5.652227e-01 3.012801e+00 62 46 34
3.445568e-01 5.757382e-01 3.009047e+00 44 26 23
3.540862e-01 5.759138e-01 3.009540e+00 66 50 43
3.430651e-01 5.795503e-01 3.008155e+00 147 135 121
3.532263e-01 5.919309e-01 3.021954e+00 159 154 143
3.993393e-01 5.892311e-01 3.020728e+00 192 182 177
4.392185e-01 5.910412e-01 3.021209e+00 172 163 146
3.646635e-01 5.994731e-01 3.021323e+00 168 161 142
3.913890e-01 6.029605e-01 3.019651e+00 179 173 162
3.960506e-01 5.323501e-01 3.014432e+00 148 136 113
3.461427e-01 5.532947e-01 3.010063e+00 146 133 117
4.023539e-01 5.399835e-01 3.012450e+00 69 48 46
3.422548e-01 5.494202e-01 3.136992e+00 47 32 32
3.447010e-01 5.562692e-01 3.007430e+00 92 75 53
3.609197e-01 5.517999e-01 3.008084e+00 164 149 129
3.570756e-01 5.580645e-01 3.008669e+00 86 68 54
3.510648e-01 5.615605e-01 3.007956e+00 167 159 148
3.542532e-01 5.619150e-01 3.008240e+00 173 159 146
3.807473e-01 5.563132e-01 3.009845e+00 153 138 117
3.572910e-01 5.623645e-01 3.007679e+00 199 193 180
3.901004e-01 5.567365e-01 3.010136e+00 200 192 184
3.760278e-01 5.599252e-01 3.008031e+00 167 149 127
4.040519e-01 5.654313e-01 3.012705e+00 170 154 143
4.092577e-01 5.650528e-01 3.012783e+00 43 28 20
3.425638e-01 5.807646e-01 3.007990e+00 134 123 116
3.919559e-01 5.861202e-01 3.020975e+00 195 187 177
4.134887e-01 5.855506e-01 3.016494e+00 107 100 92
3.524121e-01 5.937742e-01 3.020933e+00 179 171 158
4.236250e-01 5.952646e-01 3.020166e+00 101 91 72
3.706826e-01 5.992546e-01 3.019915e+00 105 92 75
3.599225e-01 6.006350e-01 3.020718e+00 165 157 145
3.607926e-01 6.017283e-01 3.021485e+00 67 56 42
3.693541e-01 6.010295e-01 3.019624e+00 110 96 83
3.992804e-01 6.010912e-01 3.019713e+00 153 145 134
3.679139e-01 6.026137e-01 3.019878e+00 107 89 75
3.655609e-01 6.064607e-01 3.020275e+00 201 191 182
3.707432e-01 6.071444e-01 3.019976e+00 186 177 168
4.000282e-01 5.337081e-01 3.012889e+00 184 174 165
3.558296e-01 5.486866e-01 3.012952e+00 163 153 139
3.387959e-01 5.572533e-01 3.002689e+00 196 194 187
3.400197e-01 5.568800e-01 3.002696e+00 205 198 192
3.400197e-01 5.568800e-01 3.002696e+00 205 198 192
3.479865e-01 5.592768e-01 3.008119e+00 93 75 63
3.953068e-01 5.511573e-01 3.011342e+00 203 192 177
3.942030e-01 5.543719e-01 3.011863e+00 209 205 195
3.786041e-01 5.569892e-01 3.008333e+00 211 199 188
3.555539e-01 5.640193e-01 3.007503e+00 208 195 179
3.551179e-01 5.647717e-01 3.007858e+00 204 191 175
3.577583e-01 5.658891e-01 3.008097e+00 127 117 108
3.587362e-01 5.660223e-01 3.007870e+00 160 155 144
3.593417e-01 5.659290e-01 3.008029e+00 154 144 132
3.581234e-01 5.662125e-01 3.007809e+00 156 150 144
3.414140e-01 5.699188e-01 3.005785e+00 206 197 184
3.902125e-01 5.614375e-01 3.011081e+00 41 25 16
3.567455e-01 5.688811e-01 3.008927e+00 79 62 52
3.934650e-01 5.644145e-01 3.011214e+00 109 90 79
3.643410e-01 5.747289e-01 3.009425e+00 40 20 11
3.994346e-01 5.825113e-01 3.020331e+00 195 189 178
4.342281e-01 5.805458e-01 3.022517e+00 128 115 98
4.283889e-01 5.870665e-01 3.020289e+00 79 65 51
3.718649e-01 5.959866e-01 3.018737e+00 105 92 76
3.976713e-01 5.978100e-01 3.022641e+00 85 68 52
3.713257e-01 5.982361e-01 3.019435e+00 103 90 74
3.657673e-01 5.992548e-01 3.020817e+00 82 70 54
3.623989e-01 5.994754e-01 3.021103e+00 75 61 47
3.534213e-01 6.000541e-01 3.020782e+00 109 98 85
3.480679e-01 5.980251e-01 3.012824e+00 104 99 95
3.701546e-01 6.001588e-01 3.019614e+00 108 97 80
3.551107e-01 6.016578e-01 3.020741e+00 102 92 75
3.619184e-01 6.027830e-01 3.021543e+00 69 56 43
3.552507e-01 6.022794e-01 3.021012e+00 185 176 160
3.664452e-01 6.024375e-01 3.020383e+00 90 73 58
3.596070e-01 6.027260e-01 3.020851e+00 184 177 164
3.623298e-01 6.032465e-01 3.021519e+00 147 139 126
3.607026e-01 6.031714e-01 3.021073e+00 91 77 64
3.562933e-01 6.032025e-01 3.020532e+00 186 178 163
3.506288e-01 5.441495e-01 3.010018e+00 161 144 128
4.015103e-01 5.332750e-01 3.013311e+00 214 205 196
3.973473e-01 5.474485e-01 3.013078e+00 202 193 176
4.268107e-01 5.449386e-01 3.019984e+00 199 191 179
3.513086e-01 5.637009e-01 3.007549e+00 194 179 162
3.589697e-01 5.651267e-01 3.008478e+00 191 183 172
3.673188e-01 5.636982e-01 3.005597e+00 140 128 116
3.512594e-01 5.672841e-01 3.008009e+00 193 186 176
4.013376e-01 5.592437e-01 3.012597e+00 44 30 20
4.023316e-01 5.781273e-01 3.020969e+00 191 180 168
3.990137e-01 5.830222e-01 3.020337e+00 25 12 4
4.052518e-01 5.830193e-01 3.020285e+00 165 155 133
4.307370e-01 5.830982e-01 3.020414e+00 200 193 180
4.088785e-01 5.876375e-01 3.019632e+00 101 89 75
4.325489e-01 5.865166e-01 3.020563e+00 106 97 83
4.367931e-01 5.871831e-01 3.020733e+00 97 91 77
3.647133e-01 6.017266e-01 3.021768e+00 113 101 89
3.699616e-01 6.014451e-01 3.019677e+00 176 165 152
3.613339e-01 6.030806e-01 3.021552e+00 145 133 120
3.683550e-01 6.031259e-01 3.019872e+00 180 171 154
3.683124e-01 6.031500e-01 3.020077e+00 180 171 154
3.923884e-01 6.022638e-01 3.019650e+00 98 92 80
3.688730e-01 6.033206e-01 3.019817e+00 89 82 69
3.552068e-01 6.042949e-01 3.020942e+00 144 134 125
3.585990e-01 6.043615e-01 3.020679e+00 189 176 161
3.585990e-01 6.043615e-01 3.020679e+00 189 176 161
3.640753e-01 6.056258e-01 3.020352e+00 172 158 142
3.640753e-01 6.056258e-01 3.020352e+00 172 158 142
3.622050e-01 6.059407e-01 3.019445e+00 193 192 184
3.879124e-01 5.348237e-01 3.018564e+00 43 28 21
3.555024e-01 5.493971e-01 3.013079e+00 151 137 114
3.404208e-01 5.567817e-01 3.002841e+00 198 187 183
4.001450e-01 5.560321e-01 3.011937e+00 139 127 113
3.574279e-01 5.655796e-01 3.008016e+00 194 184 175
3.531638e-01 5.667831e-01 3.008164e+00 191 182 164
3.732473e-01 5.643915e-01 3.008735e+00 201 195 190
3.691770e-01 5.657086e-01 3.007014e+00 193 185 175
3.451777e-01 5.761310e-01 3.008972e+00 132 117 112
4.020272e-01 5.792866e-01 3.020474e+00 194 184 182
4.387270e-01 5.828737e-01 3.020938e+00 103 97 79
3.911864e-01 5.905663e-01 3.021076e+00 186 178 175
4.337897e-01 5.899931e-01 3.020650e+00 180 166 152
4.346345e-01 5.904544e-01 3.020658e+00 209 206 195
4.247481e-01 5.922395e-01 3.020172e+00 100 91 80
4.275828e-01 5.930150e-01 3.020305e+00 102 91 78
4.076854e-01 5.973698e-01 3.020130e+00 197 188 179
3.695483e-01 6.012152e-01 3.020095e+00 104 90 77
3.864088e-01 6.004366e-01 3.019482e+00 94 87 79
3.872086e-01 6.040887e-01 3.019686e+00 197 187 180
4.246572e-01 5.752454e-01 3.021920e+00 167 158 141
3.714331e-01 5.789418e-01 3.009490e+00 151 138 122
4.403973e-01 5.921421e-01 3.021392e+00 104 99 82
3.651081e-01 6.041399e-01 3.020814e+00 139 130 113
3.534473e-01 6.065260e-01 3.020192e+00 173 165 154
3.717254e-01 5.762683e-01 3.009911e+00 180 173 165
3.821838e-01 5.564261e-01 3.009676e+00 141 128 111
4.157044e-01 5.542483e-01 3.016131e+00 112 96 82
4.224782e-01 5.629673e-01 3.017113e+00 177 163 144
3.899968e-01 5.320385e-01 3.017679e+00 139 128 109
3.936335e-01 5.316740e-01 3.015792e+00 146 139 120
3.948727e-01 5.339652e-01 3.014544e+00 128 117 103
3.978630e-01 5.436840e-01 3.014062e+00 115 97 75
3.973241e-01 5.455698e-01 3.013655e+00 121 105 86
4.038895e-01 5.590141e-01 3.012755e+00 68 53 45
3.929885e-01 5.303932e-01 3.015423e+00 147 132 111
3.803461e-01 5.654525e-01 3.009629e+00 194 181 166
3.697663e-01 5.659686e-01 2.973934e+00 153 140 123
3.717012e-01 5.694991e-01 3.008003e+00 72 53 41
3.811652e-01 5.380808e-01 3.017064e+00 166 154 132
3.888631e-01 5.639936e-01 3.010559e+00 163 151 135
3.998420e-01 5.349306e-01 3.012884e+00 190 178 166
4.093608e-01 5.705590e-01 3.013397e+00 129 112 99
3.748692e-01 5.774147e-01 3.010691e+00 178 165 153
3.948708e-01 5.520574e-01 3.012127e+00 197 188 178
4.142795e-01 5.568590e-01 3.014523e+00 164 151 134
4.018020e-01 5.588215e-01 3.013476e+00 47 31 31
3.733523e-01 5.647197e-01 3.009150e+00 78 62 54
3.839471e-01 5.832711e-01 3.021092e+00 197 187 182
3.849262e-01 5.568914e-01 3.010587e+00 105 89 74
3.904700e-01 5.562812e-01 3.010286e+00 207 197 187
3.999072e-01 5.810129e-01 3.020235e+00 202 195 192
4.186421e-01 5.557396e-01 3.016979e+00 71 57 44
4.023605e-01 5.586547e-01 3.013604e+00 190 181 173
3.598327e-01 6.073908e-01 3.020804e+00 195 185 175
4.414777e-01 6.424573e-01 3.028126e+00 18 15 22
3.632748e-01 6.074986e-01 3.020598e+00 198 191 181
3.733207e-01 6.083922e-01 3.020133e+00 124 112 99
3.765027e-01 6.073449e-01 3.017356e+00 64 55 40
3.740525e-01 6.213756e-01 3.022248e+00 17 14 17
3.761707e-01 6.233901e-01 3.021686e+00 176 170 159
4.232735e-01 5.583025e-01 3.016499e+00 185 177 166
3.554590e-01 6.020090e-01 3.020942e+00 134 127 109
3.716574e-01 6.064809e-01 3.020054e+00 184 175 168
4.301007e-01 6.082779e-01 3.021228e+00 186 178 168
3.820053e-01 6.198306e-01 3.019766e+00 190 181 172
4.175710e-01 6.129188e-01 3.019127e+00 181 173 162
3.644335e-01 6.247635e-01 3.022700e+00 169 168 160
3.703862e-01 6.242159e-01 3.022111e+00 174 170 159
3.635652e-01 5.707562e-01 3.009846e+00 183 175 157
4.271288e-01 5.570096e-01 3.018539e+00 195 185 173
4.130030e-01 5.896089e-01 3.016846e+00 199 194 183
3.504311e-01 6.026398e-01 3.014384e+00 76 67 58
3.710766e-01 6.025240e-01 3.019731e+00 193 185 178
3.560452e-01 6.093102e-01 3.021442e+00 179 170 161
3.627398e-01 6.241235e-01 3.022681e+00 38 28 27
4.304784e-01 6.125784e-01 3.021658e+00 83 75 67
3.735636e-01 6.250275e-01 3.022558e+00 37 29 26
3.735636e-01 6.250275e-01 3.022558e+00 37 29 26
3.676991e-01 6.257061e-01 3.022405e+00 38 33 27
3.676991e-01 6.257061e-01 3.022405e+00 38 33 27
3.620156e-01 6.264536e-01 3.022948e+00 30 27 22
3.620156e-01 6.264536e-01 3.022948e+00 30 27 22
3.725233e-01 6.267378e-01 3.023083e+00 145 134 125
3.804492e-01 6.587642e-01 3.030283e+00 154 146 143
4.431040e-01 6.478771e-01 3.027667e+00 146 138 132
3.461821e-01 5.713051e-01 3.008298e+00 184 181 172
3.579426e-01 5.682052e-01 3.008461e+00 190 189 184
3.748998e-01 5.641877e-01 3.008728e+00 188 182 178
4.362481e-01 5.526308e-01 3.020587e+00 190 187 182
4.184695e-01 5.565916e-01 3.016951e+00 177 167 147
4.353772e-01 5.535625e-01 3.020423e+00 74 57 49
4.224782e-01 5.629673e-01 3.017113e+00 177 163 144
3.467813e-01 5.912999e-01 3.011746e+00 205 202 197
4.267332e-01 5.791738e-01 3.020024e+00 198 191 181
3.778927e-01 6.067787e-01 3.018078e+00 197 187 175
3.707163e-01 6.114192e-01 3.022025e+00 214 210 199
3.743945e-01 6.129903e-01 3.023436e+00 31 22 23
3.733164e-01 6.171818e-01 3.022456e+00 26 18 18
3.705737e-01 6.302949e-01 3.069184e+00 30 20 18
3.758626e-01 6.166947e-01 3.022257e+00 29 19 19
4.363469e-01 6.044578e-01 3.022245e+00 167 163 156
3.640931e-01 6.233721e-01 3.022336e+00 200 194 182
3.685192e-01 6.238532e-01 3.023154e+00 74 61 54
3.685192e-01 6.238532e-01 3.023154e+00 74 61 54
3.615408e-01 6.247019e-01 3.022806e+00 178 170 159
3.601928e-01 6.247148e-01 3.022940e+00 57 45 41
3.731712e-01 6.231351e-01 3.021798e+00 189 185 174
3.790573e-01 6.222960e-01 3.021362e+00 177 168 161
4.401084e-01 6.097136e-01 3.021980e+00 90 77 71
4.277397e-01 6.130088e-01 3.021518e+00 200 193 180
3.968886e-01 6.124324e-01 2.990965e+00 38 28 25
4.197317e-01 6.167471e-01 3.019607e+00 182 173 164
3.850619e-01 6.247576e-01 3.020316e+00 148 140 127
4.341802e-01 6.508169e-01 3.028493e+00 124 120 111
4.418604e-01 6.487554e-01 3.028215e+00 124 120 115
4.314376e-01 5.540588e-01 3.019465e+00 102 86 74
4.381083e-01 5.569555e-01 3.020552e+00 89 74 56
4.318175e-01 5.593143e-01 3.019251e+00 197 188 179
4.217944e-01 5.930946e-01 3.020008e+00 103 87 70
3.567456e-01 6.070576e-01 3.021186e+00 183 174 163
4.274496e-01 6.117627e-01 3.021473e+00 155 145 136
3.759071e-01 6.221894e-01 3.021527e+00 123 116 105
3.560740e-01 6.241840e-01 3.019828e+00 137 127 118
3.717036e-01 6.231061e-01 3.021880e+00 75 68 57
4.317767e-01 6.115948e-01 3.021642e+00 77 68 61
4.317767e-01 6.115948e-01 3.021642e+00 77 68 61
3.574398e-01 6.255072e-01 3.019432e+00 71 61 54
3.635892e-01 6.273586e-01 3.023112e+00 160 153 145
3.846738e-01 6.235900e-01 3.020310e+00 196 193 182
3.845480e-01 6.234107e-01 3.019680e+00 196 193 182
4.280340e-01 6.155628e-01 3.021633e+00 38 31 20
3.575048e-01 6.272615e-01 3.019602e+00 111 101 89
3.811542e-01 6.605946e-01 3.028924e+00 182 177 177
4.252659e-01 5.552829e-01 3.017407e+00 31 20 18
4.201421e-01 5.562558e-01 3.017126e+00 105 89 75
4.372028e-01 5.534444e-01 3.020780e+00 92 77 64
4.310270e-01 5.556348e-01 3.019398e+00 183 170 161
4.282600e-01 5.566506e-01 3.018821e+00 84 71 62
4.325411e-01 5.587013e-01 3.019099e+00 82 67 55
4.164871e-01 5.635665e-01 3.016022e+00 177 164 151
3.752215e-01 5.891704e-01 3.012145e+00 192 184 177
3.724978e-01 6.009470e-01 3.020027e+00 140 134 122
3.559477e-01 6.085384e-01 3.021437e+00 191 190 182
3.741714e-01 6.053590e-01 3.019898e+00 182 178 166
3.637357e-01 6.161751e-01 3.023803e+00 191 185 177
3.634911e-01 6.218581e-01 3.022241e+00 191 187 180
3.708165e-01 6.337535e-01 3.067288e+00 22 13 11
3.568384e-01 6.238848e-01 3.019481e+00 166 157 148
4.249172e-01 6.134214e-01 3.022187e+00 178 170 158
3.722337e-01 6.245689e-01 3.021972e+00 142 135 129
3.745939e-01 6.242134e-01 3.021832e+00 181 173 164
3.557802e-01 6.256966e-01 3.019482e+00 109 99 89
3.834688e-01 6.228506e-01 3.020070e+00 110 107 87
4.447360e-01 6.095001e-01 3.020509e+00 142 140 127
4.447621e-01 6.104090e-01 3.020839e+00 60 52 40
4.014537e-01 6.221445e-01 3.021022e+00 106 100 88
3.577404e-01 5.691759e-01 3.009347e+00 64 44 31
3.735541e-01 5.695191e-01 3.008607e+00 221 209 204
4.210916e-01 5.598766e-01 3.017112e+00 90 75 67
4.361557e-01 5.578963e-01 3.020031e+00 211 201 201
4.335513e-01 5.588967e-01 3.019782e+00 170 157 144
4.393694e-01 5.664935e-01 3.020310e+00 197 190 172
3.845027e-01 5.805768e-01 3.021227e+00 210 197 185
3.914295e-01 5.868177e-01 3.021234e+00 33 23 22
3.923363e-01 5.917076e-01 3.021194e+00 17 7 2
3.658252e-01 6.000747e-01 3.021540e+00 161 153 142
3.706826e-01 5.992546e-01 3.019915e+00 105 92 75
3.660630e-01 6.007311e-01 3.020972e+00 64 55 38
4.255987e-01 5.884993e-01 3.020270e+00 89 79 64
4.267060e-01 5.895800e-01 3.020268e+00 77 63 45
4.270589e-01 5.901353e-01 3.020275e+00 146 138 119
4.271027e-01 5.901240e-01 3.020363e+00 146 138 119
3.845646e-01 6.204488e-01 3.019753e+00 184 171 163
3.629482e-01 6.257532e-01 3.022845e+00 178 168 159
3.976713e-01 5.964007e-01 2.944807e+00 189 181 168
4.335488e-01 6.126032e-01 3.022164e+00 189 181 168
4.391651e-01 6.113379e-01 3.022137e+00 188 181 171
4.372805e-01 6.183035e-01 3.040808e+00 79 71 63
4.430562e-01 6.166884e-01 3.040165e+00 73 68 58
3.760315e-01 6.249959e-01 3.022337e+00 187 178 174
4.435113e-01 6.108424e-01 3.022305e+00 36 29 21
4.269128e-01 6.163248e-01 3.022403e+00 172 165 150
4.351447e-01 6.142225e-01 3.021995e+00 172 164 158
4.380724e-01 6.137473e-01 3.022339e+00 180 173 158
4.380724e-01 6.137473e-01 3.022339e+00 180 173 158
4.315741e-01 6.155971e-01 3.021856e+00 157 150 138
4.439076e-01 6.416916e-01 3.027755e+00 67 55 46
3.844083e-01 5.983409e-01 2.898339e+00 151 156 157
4.547589e-01 6.405809e-01 3.026025e+00 151 156 157
4.302918e-01 5.540048e-01 3.019303e+00 88 73 67
4.207651e-01 5.603984e-01 3.016929e+00 207 198 192
4.213842e-01 5.606526e-01 3.017224e+00 71 57 41
4.200619e-01 5.608591e-01 3.015400e+00 126 113 102
3.599458e-01 5.988468e-01 3.020733e+00 181 177 168
3.657673e-01 5.992548e-01 3.020817e+00 82 70 54
4.277206e-01 5.866979e-01 3.020220e+00 189 185 170
4.195253e-01 5.925266e-01 3.019922e+00 139 128 116
4.345916e-01 5.898642e-01 3.020681e+00 94 89 70
3.694708e-01 6.251802e-01 3.022240e+00 115 102 87
4.186342e-01 6.153471e-01 3.019266e+00 175 166 155
4.401272e-01 6.116633e-01 3.022217e+00 83 73 63
4.330779e-01 6.142074e-01 3.022443e+00 205 184 189
4.272297e-01 6.155300e-01 3.020846e+00 41 22 20
4.362355e-01 6.145453e-01 3.022257e+00 161 151 142
3.924360e-01 6.243830e-01 3.021405e+00 89 77 61
4.325717e-01 6.162698e-01 3.021968e+00 157 145 128
4.348819e-01 6.291542e-01 3.024113e+00 188 185 180
4.371543e-01 6.437238e-01 3.027513e+00 193 181 170
4.371256e-01 6.489868e-01 3.027969e+00 80 82 73
3.885709e-01 6.592804e-01 3.030847e+00 174 167 161
3.761493e-01 6.598075e-01 3.029798e+00 180 178 168
3.804122e-01 6.606607e-01 3.029765e+00 89 91 85
3.845720e-01 5.801617e-01 3.020960e+00 183 175 165
3.967388e-01 5.929723e-01 3.031916e+00 189 179 165
4.277668e-01 5.873657e-01 3.020233e+00 180 175 165
3.574812e-01 6.038340e-01 3.020457e+00 189 179 167
4.082372e-01 5.953904e-01 3.019684e+00 95 84 74
4.077336e-01 5.977233e-01 3.019707e+00 145 137 124
4.393998e-01 5.982901e-01 3.021550e+00 65 56 59
4.369283e-01 6.048239e-01 3.021611e+00 18 8 16
3.670424e-01 6.240143e-01 3.022233e+00 200 191 182
4.272216e-01 6.137424e-01 3.021531e+00 69 61 43
4.281985e-01 6.135206e-01 3.021509e+00 61 53 43
4.386000e-01 6.113837e-01 3.022160e+00 74 68 51
4.280968e-01 6.139968e-01 3.021554e+00 187 178 166
4.338429e-01 6.128488e-01 3.021844e+00 199 188 182
3.666535e-01 6.262380e-01 3.022590e+00 84 74 68
3.752053e-01 6.251354e-01 3.021902e+00 117 107 95
4.035488e-01 6.211990e-01 3.021000e+00 47 34 26
3.779562e-01 6.257797e-01 3.021855e+00 173 163 154
4.295408e-01 6.159180e-01 3.021665e+00 57 44 36
4.421474e-01 6.132408e-01 3.022654e+00 60 51 41
4.408709e-01 6.493745e-01 3.028086e+00 87 84 75
3.576220e-01 5.739263e-01 3.009753e+00 169 160 148
3.570051e-01 6.050551e-01 3.020920e+00 200 192 182
3.735636e-01 6.250275e-01 3.022558e+00 37 29 26
4.537584e-01 6.053846e-01 3.023382e+00 248 254 254
3.948434e-01 5.675994e-01 3.011152e+00 172 155 139
4.127327e-01 5.653010e-01 3.015442e+00 43 22 17
3.663520e-01 6.253696e-01 3.022463e+00 158 154 143
4.040450e-01 6.151536e-01 3.005824e+00 33 24 26
3.649464e-01 6.292655e-01 3.022751e+00 135 123 117
4.325793e-01 5.923071e-01 3.020722e+00 210 207 196
3.687924e-01 6.027574e-01 3.019699e+00 175 165 152
4.330276e-01 6.098171e-01 3.006919e+00 175 169 157
4.210930e-01 5.491132e-01 3.016596e+00 104 91 78
3.967314e-01 5.907730e-01 3.020910e+00 196 184 169
4.317252e-01 5.916044e-01 3.020510e+00 173 156 141
3.748735e-01 6.261858e-01 3.022024e+00 188 177 169
3.729045e-01 6.265040e-01 3.022200e+00 181 174 164
3.855502e-01 6.271660e-01 3.020521e+00 72 59 48
3.631824e-01 6.277544e-01 3.023341e+00 182 179 165
4.407320e-01 5.997994e-01 3.021896e+00 51 48 48
4.329543e-01 6.125416e-01 3.021829e+00 77 73 55
4.416700e-01 5.990344e-01 3.021880e+00 71 60 69
4.030178e-01 5.804424e-01 3.020571e+00 55 44 56
4.148590e-01 5.832351e-01 3.016601e+00 201 194 187
3.862566e-01 6.233899e-01 3.019727e+00 172 166 154
4.336714e-01 5.325456e-01 3.021825e+00 185 183 171
4.151942e-01 5.583004e-01 3.016198e+00 166 154 138
4.058095e-01 5.590483e-01 3.014159e+00 84 65 52
3.650658e-01 6.268535e-01 3.022720e+00 29 23 20
4.094957e-01 5.634599e-01 3.013391e+00 50 32 21
4.191194e-01 6.141336e-01 3.019306e+00 116 108 97
3.817004e-01 6.584406e-01 3.029643e+00 66 60 57
3.962413e-01 5.851224e-01 3.020403e+00 190 182 176
3.752975e-01 6.201448e-01 3.021331e+00 192 185 173
4.327678e-01 5.346860e-01 3.020777e+00 67 51 49
4.327678e-01 5.346860e-01 3.020777e+00 67 51 49
3.996799e-01 5.588984e-01 3.012298e+00 71 53 44
4.031991e-01 5.792498e-01 3.020450e+00 181 171 162
4.001013e-01 5.824931e-01 3.020332e+00 24 16 14
4.005943e-01 5.834954e-01 3.020372e+00 44 30 38
3.840939e-01 5.908200e-01 3.023465e+00 192 183 173
3.962631e-01 5.892161e-01 3.029930e+00 206 201 197
3.634901e-01 5.992693e-01 3.021187e+00 78 70 56
4.544697e-01 6.067291e-01 3.022525e+00 127 135 137
4.550763e-01 6.160793e-01 3.023368e+00 110 118 120
4.550763e-01 6.160793e-01 3.023368e+00 110 118 120
4.399287e-01 6.479920e-01 3.027746e+00 182 180 174
3.522530e-01 5.926802e-01 3.020958e+00 127 114 100
4.366845e-01 5.917059e-01 3.020907e+00 178 165 144
4.444752e-01 5.954530e-01 3.020420e+00 89 77 60
4.478415e-01 6.146446e-01 3.021065e+00 136 126 117
3.578694e-01 6.295093e-01 3.019367e+00 77 68 57
3.745447e-01 6.591106e-01 3.029739e+00 178 175 168
3.748299e-01 6.251388e-01 3.023097e+00 181 169 160
3.916675e-01 5.864328e-01 3.021904e+00 202 190 181
3.928522e-01 5.867669e-01 3.021107e+00 146 132 129
4.053469e-01 6.211489e-01 3.021050e+00 196 189 181
3.745725e-01 6.263933e-01 3.022114e+00 182 173 164
3.769449e-01 6.307121e-01 3.022514e+00 59 52 42
3.772571e-01 6.309571e-01 3.022544e+00 163 148 141
4.472881e-01 6.118583e-01 3.021418e+00 165 162 153
3.613968e-01 6.325021e-01 3.019456e+00 95 80 73
4.281992e-01 5.475162e-01 3.020051e+00 187 173 161
4.383392e-01 6.493768e-01 3.028350e+00 178 174 165
3.792580e-01 6.043808e-01 3.018293e+00 203 197 181
4.207499e-01 5.946030e-01 3.019943e+00 137 123 113
3.897060e-01 5.312318e-01 3.020112e+00 120 107 90
4.058137e-01 5.799905e-01 3.020020e+00 159 149 136
3.575681e-01 6.004040e-01 3.020440e+00 196 186 176
3.742844e-01 6.033395e-01 3.018295e+00 170 158 146
4.299069e-01 5.425401e-01 3.019877e+00 185 175 165
4.326540e-01 5.554621e-01 3.019535e+00 166 150 135
3.711507e-01 5.732963e-01 3.008275e+00 53 33 27
6.818779e-01 9.632611e-01 4.222906e+00 127 114 104
3.450355e-01 5.459372e-01 3.008888e+00 94 71 55
4.176530e-01 5.285756e-01 3.023115e+00 15 9 13
4.416779e-01 5.658751e-01 3.020797e+00 123 108 91
4.411658e-01 5.796977e-01 3.019443e+00 206 203 198
3.793832e-01 5.996542e-01 3.015213e+00 215 211 200
4.290512e-01 5.882873e-01 3.020416e+00 169 158 145
3.741717e-01 6.104429e-01 3.021220e+00 223 218 206
4.513315e-01 5.926402e-01 3.023849e+00 107 100 84
4.252877e-01 6.003482e-01 3.020760e+00 165 164 152
3.657296e-01 6.200379e-01 3.022997e+00 186 184 174
3.839133e-01 6.459534e-01 3.031886e+00 19 14 21
4.336714e-01 5.325456e-01 3.021825e+00 185 183 171
4.355959e-01 5.331952e-01 3.022109e+00 77 66 48
4.074187e-01 5.597746e-01 3.014393e+00 167 157 141
4.355109e-01 5.582826e-01 3.020006e+00 183 172 160
4.396449e-01 5.580070e-01 3.020785e+00 195 187 174
4.413595e-01 5.589344e-01 3.021123e+00 66 49 34
4.042449e-01 5.828211e-01 3.020489e+00 55 45 54
4.090456e-01 5.837718e-01 3.019139e+00 128 115 99
3.633869e-01 6.017919e-01 3.021818e+00 152 138 125
4.418962e-01 6.119420e-01 3.022298e+00 37 26 25
4.490432e-01 6.122520e-01 3.021379e+00 187 182 176
4.542855e-01 6.148505e-01 3.023818e+00 151 146 139
3.903340e-01 6.572091e-01 3.029999e+00 142 138 131
3.414858e-01 5.464437e-01 3.003929e+00 159 147 125
4.090653e-01 5.287109e-01 3.021583e+00 150 138 120
3.885759e-01 5.350054e-01 3.018594e+00 157 144 127
4.319581e-01 5.350102e-01 3.020571e+00 182 178 168
3.585070e-01 5.670162e-01 3.008199e+00 118 110 108
3.518669e-01 5.697510e-01 3.008324e+00 203 200 195
4.225043e-01 5.546278e-01 3.017500e+00 146 141 137
4.114788e-01 5.584064e-01 3.015253e+00 159 143 128
3.546706e-01 5.745968e-01 3.009428e+00 169 160 145
4.469418e-01 6.107253e-01 3.021111e+00 185 179 170
4.475575e-01 6.119327e-01 3.021821e+00 158 155 146
3.902692e-01 6.562148e-01 3.030317e+00 167 162 157
4.333732e-01 5.309715e-01 3.021777e+00 185 177 166
4.378824e-01 5.605136e-01 3.020169e+00 160 146 130
4.423630e-01 5.597974e-01 3.021057e+00 169 154 139
4.394321e-01 5.650602e-01 3.020393e+00 201 193 179
3.974972e-01 5.902727e-01 3.016015e+00 192 182 177
3.544639e-01 6.074260e-01 3.021471e+00 178 166 152
4.224961e-01 5.946274e-01 3.020075e+00 180 171 154
4.332532e-01 6.185721e-01 3.095302e+00 179 179 173
4.444596e-01 6.447543e-01 3.027447e+00 88 79 70
4.387811e-01 6.474572e-01 3.027600e+00 183 184 176
3.441569e-01 5.422711e-01 3.007461e+00 162 145 129
4.266250e-01 5.246069e-01 3.023639e+00 164 156 138
3.986547e-01 5.340833e-01 3.012835e+00 204 197 186
3.533614e-01 5.507804e-01 3.013558e+00 153 137 124
3.937799e-01 5.525678e-01 3.012076e+00 100 82 65
3.895176e-01 5.566875e-01 3.010898e+00 98 73 54
3.438153e-01 5.797072e-01 3.008032e+00 40 24 24
3.873102e-01 5.690621e-01 3.010242e+00 189 173 158
3.983647e-01 5.627489e-01 2.952032e+00 52 33 28
4.401961e-01 5.600088e-01 3.020655e+00 169 152 139
4.372500e-01 5.767050e-01 3.020835e+00 179 173 159
4.385952e-01 5.899328e-01 3.021051e+00 107 91 75
4.366572e-01 6.062553e-01 3.021684e+00 134 125 116
4.325551e-01 6.149692e-01 3.022365e+00 173 167 160
3.862938e-01 5.695028e-01 3.009659e+00 44 24 12
3.504311e-01 6.026398e-01 3.014384e+00 76 67 58
3.979869e-01 5.429509e-01 3.013595e+00 107 89 67
3.564594e-01 5.596762e-01 3.008441e+00 161 151 139
3.924344e-01 5.537417e-01 3.010678e+00 95 72 58
4.031390e-01 5.568173e-01 3.013147e+00 85 65 55
3.594978e-01 5.692442e-01 3.009265e+00 181 164 144
3.965058e-01 5.668697e-01 3.011482e+00 190 177 160
4.174310e-01 5.639302e-01 3.016227e+00 43 24 18
3.873678e-01 5.876894e-01 3.021340e+00 196 187 180
3.875344e-01 6.577111e-01 3.033078e+00 106 96 86
3.584579e-01 5.559257e-01 3.008664e+00 98 77 61
3.527320e-01 5.711752e-01 3.009100e+00 58 38 30
3.727057e-01 5.648416e-01 3.008535e+00 209 199 193
4.081500e-01 5.714926e-01 3.013099e+00 175 161 146
4.003800e-01 5.770655e-01 3.020309e+00 198 189 182
3.969976e-01 5.854858e-01 3.020084e+00 35 26 32
3.645042e-01 6.023820e-01 3.021554e+00 149 137 124
3.624508e-01 5.902075e-01 3.020625e+00 98 85 74
3.997551e-01 5.843086e-01 3.022309e+00 45 30 28
3.956200e-01 5.874401e-01 3.017769e+00 215 207 204
3.961126e-01 6.035783e-01 3.019746e+00 146 134 123
3.873250e-01 5.564242e-01 3.010880e+00 149 133 117
3.738100e-01 5.643757e-01 3.008637e+00 185 177 170
4.191236e-01 5.555127e-01 3.016008e+00 78 64 56
3.952325e-01 5.871917e-01 3.020977e+00 34 20 10
4.091042e-01 5.944305e-01 3.018823e+00 185 175 159
4.266472e-01 6.165357e-01 3.021658e+00 56 43 32
3.611066e-01 6.327255e-01 3.019462e+00 164 152 148
3.979761e-01 6.658953e-01 3.031542e+00 64 84 82
4.343893e-01 5.546456e-01 3.020183e+00 140 125 109
4.236489e-01 5.584349e-01 3.017823e+00 185 177 166
4.200069e-01 5.610523e-01 3.017012e+00 189 179 166
3.976648e-01 5.336276e-01 3.014013e+00 91 74 59
4.030240e-01 5.358371e-01 3.013508e+00 118 101 89
3.619079e-01 5.905449e-01 3.021128e+00 95 81 69
4.297502e-01 5.272690e-01 3.022343e+00 175 170 157
4.127356e-01 5.625104e-01 3.015727e+00 172 164 152
3.887093e-01 5.889593e-01 3.021298e+00 189 182 174
4.217944e-01 5.930946e-01 3.020008e+00 103 87 70
4.245687e-01 5.210952e-01 3.024946e+00 149 136 118
3.555931e-01 5.598402e-01 3.008801e+00 90 72 61
4.316952e-01 5.499790e-01 3.020105e+00 185 177 166
4.349553e-01 5.500920e-01 3.020812e+00 90 77 60
3.460937e-01 5.783578e-01 3.009323e+00 145 132 124
4.358009e-01 5.612576e-01 3.019821e+00 47 33 24
4.388581e-01 5.657990e-01 3.020532e+00 111 98 83
4.402147e-01 5.666825e-01 3.020414e+00 114 103 93
3.957024e-01 5.925137e-01 3.021156e+00 159 148 132
4.234431e-01 5.237005e-01 3.024914e+00 37 25 14
4.240659e-01 5.240225e-01 3.024473e+00 151 142 127
4.276154e-01 5.262910e-01 3.023403e+00 60 42 31
3.518676e-01 5.445656e-01 3.010417e+00 152 138 121
4.350523e-01 5.548338e-01 3.020191e+00 164 148 134
4.353742e-01 5.619027e-01 3.019852e+00 140 120 96
4.006303e-01 5.853791e-01 3.020258e+00 196 186 174
4.005362e-01 5.871106e-01 3.020190e+00 191 179 164
4.370481e-01 5.841759e-01 3.020763e+00 105 91 75
4.254455e-01 5.891590e-01 3.020109e+00 147 138 123
3.917301e-01 5.974221e-01 3.023244e+00 148 140 117
4.333570e-01 5.349815e-01 3.020859e+00 202 196 187
3.832290e-01 5.366821e-01 3.017420e+00 115 99 81
3.837910e-01 5.978609e-01 3.019309e+00 164 155 139
4.387041e-01 6.235416e-01 3.023971e+00 23 22 27
4.397697e-01 5.975124e-01 3.021664e+00 171 161 153
4.472097e-01 6.164689e-01 3.021131e+00 206 198 191
4.011018e-01 5.846506e-01 3.020252e+00 185 177 169
3.846804e-01 5.986925e-01 3.019304e+00 168 156 144
3.743945e-01 6.129903e-01 3.023436e+00 31 22 23
4.449526e-01 6.481678e-01 3.027779e+00 179 170 163
4.362108e-01 5.934020e-01 3.020869e+00 207 200 189
4.179839e-01 6.159744e-01 3.019322e+00 179 170 161
4.334816e-01 6.020610e-01 3.023702e+00 176 170 156
4.336714e-01 5.325456e-01 3.021825e+00 185 183 171
4.355959e-01 5.331952e-01 3.022109e+00 77 66 48
4.249087e-01 5.229131e-01 3.024339e+00 155 140 122
4.264769e-01 5.554897e-01 3.018784e+00 157 145 132
4.353352e-01 5.317738e-01 3.022439e+00 101 90 73
4.353779e-01 5.342666e-01 3.021599e+00 68 56 48
3.873678e-01 5.876894e-01 3.021340e+00 196 187 180
4.322463e-01 5.282064e-01 3.022610e+00 200 195 184
3.802350e-01 5.631443e-01 3.009792e+00 59 42 31
4.384116e-01 5.665196e-01 3.020326e+00 161 149 138
4.083982e-01 5.724303e-01 3.013267e+00 199 195 186
4.051424e-01 5.837019e-01 3.020297e+00 166 155 135
3.963595e-01 5.885628e-01 3.026030e+00 212 203 199
3.962691e-01 5.918058e-01 3.020897e+00 202 193 184
4.468413e-01 6.119181e-01 3.021324e+00 120 110 104
4.347756e-01 5.338053e-01 3.021518e+00 157 139 134
4.015296e-01 5.849862e-01 3.020642e+00 62 48 55
4.275859e-01 5.860861e-01 3.020359e+00 86 76 61
3.636493e-01 5.998434e-01 3.021088e+00 173 168 158
4.091166e-01 5.936477e-01 3.019618e+00 90 81 68
4.262305e-01 6.117018e-01 3.023490e+00 112 98 98
4.463896e-01 6.079903e-01 3.021024e+00 94 79 75
3.394635e-01 5.576684e-01 3.002431e+00 189 182 175
4.346213e-01 5.341934e-01 3.021384e+00 86 74 68
4.327785e-01 5.534849e-01 3.018541e+00 76 69 52
4.388814e-01 5.663367e-01 3.020429e+00 85 73 60
4.340715e-01 6.123183e-01 3.021889e+00 69 59 56
4.550389e-01 6.143417e-01 3.023468e+00 247 252 249
4.316399e-01 5.868829e-01 3.020456e+00 84 71 56
4.348655e-01 5.565968e-01 3.019725e+00 159 151 131
4.349314e-01 5.565631e-01 3.019975e+00 159 151 131
3.740346e-01 5.683128e-01 3.009286e+00 174 167 156
4.023577e-01 5.660484e-01 3.012344e+00 170 158 142
3.727092e-01 6.026748e-01 3.019644e+00 98 85 70
4.345831e-01 5.537384e-01 3.020261e+00 155 141 128
3.492834e-01 5.505199e-01 3.012522e+00 111 92 78
4.342559e-01 5.556526e-01 3.019879e+00 178 169 150
4.239138e-01 5.597212e-01 3.017638e+00 142 131 121
4.263159e-01 5.905946e-01 3.020150e+00 97 83 66
4.245564e-01 5.916497e-01 3.020032e+00 185 170 146
4.358921e-01 5.890917e-01 3.020741e+00 197 190 178
4.455359e-01 5.951137e-01 3.020280e+00 83 75 60
4.229316e-01 5.551040e-01 3.017903e+00 98 92 81
4.306241e-01 5.546153e-01 3.019489e+00 103 94 79
4.177019e-01 5.786709e-01 3.020079e+00 97 89 70
4.388094e-01 5.787731e-01 3.020902e+00 176 167 149
4.386496e-01 5.809313e-01 3.020940e+00 184 173 158
4.386496e-01 5.809313e-01 3.020940e+00 184 173 158
4.384822e-01 5.820821e-01 3.020916e+00 177 166 152
4.192321e-01 5.877698e-01 3.020208e+00 186 178 161
4.214929e-01 5.900318e-01 3.019961e+00 192 184 170
4.329365e-01 5.874931e-01 3.021591e+00 107 95 76
4.355755e-01 5.880394e-01 3.020679e+00 183 167 153
4.357064e-01 5.885912e-01 3.020656e+00 104 99 80
4.348996e-01 5.888490e-01 3.020633e+00 182 169 149
4.351485e-01 5.892834e-01 3.020640e+00 106 98 82
3.646114e-01 6.288501e-01 3.023423e+00 89 76 63
3.938959e-01 6.078575e-01 2.977983e+00 195 186 187
4.388868e-01 6.432271e-01 3.028354e+00 64 50 44
3.796072e-01 5.380963e-01 3.016904e+00 102 85 65
4.159480e-01 5.319951e-01 3.022698e+00 166 149 132
4.292764e-01 5.537691e-01 3.019267e+00 131 120 117
4.235828e-01 5.590379e-01 3.016332e+00 204 191 182
4.303236e-01 5.582843e-01 3.019198e+00 82 71 53
4.377736e-01 5.842922e-01 3.020872e+00 181 168 152
4.210526e-01 5.915961e-01 3.019948e+00 150 141 130
4.201265e-01 5.917853e-01 3.019918e+00 137 131 119
4.367186e-01 5.881222e-01 3.020815e+00 205 201 188
4.321503e-01 5.896717e-01 3.020610e+00 155 144 125
4.370361e-01 5.884106e-01 3.020786e+00 140 130 121
4.217167e-01 5.960008e-01 3.020641e+00 178 171 153
3.703775e-01 6.281845e-01 3.022577e+00 91 81 66
3.920794e-01 6.231378e-01 3.023203e+00 127 121 112
4.280313e-01 6.139713e-01 3.021394e+00 187 178 166
4.384122e-01 6.122070e-01 3.022196e+00 63 56 40
4.207801e-01 5.851213e-01 3.019880e+00 187 180 164
4.127838e-01 6.169474e-01 3.020835e+00 166 165 154
3.760120e-01 5.724638e-01 3.009200e+00 140 123 107
4.353251e-01 5.783930e-01 3.020990e+00 145 129 111
3.889662e-01 5.534012e-01 3.012490e+00 125 108 90
4.277162e-01 5.628861e-01 3.018185e+00 131 110 93
4.089489e-01 5.866385e-01 3.019457e+00 109 97 80
4.389688e-01 5.799785e-01 3.021819e+00 182 173 159
3.904472e-01 5.957155e-01 3.021326e+00 34 22 12
4.183922e-01 5.875038e-01 3.019709e+00 186 174 156
4.382594e-01 5.928287e-01 3.021141e+00 192 186 180
4.087195e-01 5.848900e-01 3.019564e+00 100 92 80
4.381752e-01 5.776185e-01 3.020873e+00 95 85 76
3.619060e-01 6.027730e-01 3.021492e+00 69 56 43
4.384822e-01 5.820821e-01 3.020916e+00 177 166 152
4.377527e-01 5.883107e-01 3.021112e+00 144 138 125
4.209609e-01 6.162747e-01 3.019578e+00 190 191 177
4.321812e-01 6.506740e-01 3.028593e+00 179 175 168
3.855816e-01 5.810926e-01 3.020968e+00 224 218 214
3.953710e-01 5.868305e-01 3.020950e+00 134 121 106
4.379998e-01 5.838180e-01 3.021077e+00 179 167 153
4.288502e-01 6.074419e-01 3.023302e+00 149 139 130
3.890362e-01 5.896919e-01 3.021253e+00 208 203 200
3.769951e-01 6.265377e-01 3.021907e+00 152 140 130
3.978401e-01 6.036630e-01 3.019741e+00 84 75 63
4.477329e-01 6.090409e-01 3.021297e+00 173 167 160
3.615472e-01 6.277336e-01 3.022419e+00 146 137 126
3.655802e-01 6.253263e-01 3.022530e+00 191 184 173
3.867095e-01 6.590072e-01 3.032018e+00 55 48 39
3.681058e-01 6.271439e-01 3.022565e+00 112 106 92
3.699315e-01 6.269985e-01 3.022436e+00 172 166 152
3.779906e-01 6.229864e-01 3.021526e+00 126 115 98
4.160274e-01 6.012913e-01 3.017887e+00 83 67 51
3.841158e-01 5.996084e-01 3.019285e+00 183 173 164
4.379901e-01 6.143246e-01 3.022376e+00 50 36 24
4.264817e-01 6.157908e-01 3.020683e+00 172 165 150
4.549426e-01 6.136753e-01 3.023455e+00 242 240 239
4.482559e-01 6.101901e-01 3.021317e+00 205 203 191
4.065508e-01 6.212169e-01 3.022940e+00 43 34 25
4.437443e-01 5.842569e-01 3.019638e+00 136 132 123
3.637117e-01 6.001133e-01 3.021105e+00 184 177 166
4.032076e-01 6.217932e-01 3.022726e+00 171 164 155
4.148618e-01 5.281846e-01 3.033521e+00 21 10 16
4.269813e-01 6.163716e-01 3.021603e+00 172 163 153
3.781295e-01 6.305892e-01 3.022659e+00 62 54 50
4.427327e-01 6.107117e-01 3.022367e+00 149 140 135
4.620541e-01 5.286240e-01 3.041369e+00 39 31 29
4.408036e-01 6.134502e-01 3.022402e+00 45 34 25
4.339792e-01 6.056299e-01 3.021527e+00 129 119 110
4.213347e-01 5.284254e-01 3.024583e+00 25 13 6
4.384213e-01 6.109123e-01 3.022102e+00 173 167 153
4.445977e-01 5.903769e-01 3.020296e+00 138 134 125
4.445977e-01 5.903769e-01 3.020296e+00 138 134 125
4.248829e-01 6.140798e-01 3.022179e+00 67 61 49
4.472960e-01 6.123046e-01 3.021278e+00 196 195 186
3.871293e-01 5.843283e-01 3.021096e+00 200 190 174
4.474456e-01 6.126156e-01 3.021390e+00 109 101 95
4.456385e-01 6.181393e-01 3.021085e+00 78 71 71
3.874708e-01 5.530183e-01 3.014031e+00 130 111 97
3.938704e-01 5.438085e-01 3.014580e+00 153 138 118
3.968262e-01 5.970033e-01 3.023316e+00 154 144 127
3.983020e-01 5.968774e-01 3.023422e+00 15 9 1
4.443558e-01 5.921455e-01 3.020462e+00 209 205 202
4.465962e-01 6.409515e-01 3.026023e+00 166 163 156
4.407004e-01 5.508765e-01 3.021097e+00 105 96 84
4.436340e-01 5.720547e-01 3.021138e+00 206 202 194
4.420303e-01 6.138504e-01 3.022204e+00 150 142 131
4.028500e-01 5.542209e-01 3.013509e+00 142 126 110
4.339962e-01 5.495492e-01 3.020785e+00 165 156 141
4.339133e-01 5.610548e-01 3.019599e+00 172 155 138
4.371960e-01 5.794335e-01 3.020801e+00 169 161 143
4.393789e-01 6.132301e-01 3.022277e+00 39 29 24
3.905231e-01 6.645407e-01 3.029848e+00 82 79 76
4.264346e-01 5.238677e-01 3.023918e+00 163 155 142
3.975159e-01 5.423763e-01 3.014233e+00 164 152 131
3.566873e-01 5.574751e-01 3.009595e+00 130 118 104
4.033010e-01 5.556831e-01 3.013439e+00 106 90 80
4.033010e-01 5.556831e-01 3.013439e+00 106 90 80
4.006150e-01 5.662270e-01 3.012192e+00 184 169 157
3.891654e-01 5.683968e-01 3.010462e+00 154 140 127
4.358009e-01 5.612576e-01 3.019821e+00 47 33 24
4.410617e-01 5.914771e-01 3.021367e+00 169 155 146
4.465594e-01 6.082560e-01 3.021094e+00 111 98 92
4.465594e-01 6.082560e-01 3.021094e+00 111 98 92
4.178856e-01 6.147307e-01 3.020016e+00 123 110 97
4.234037e-01 5.210804e-01 3.025291e+00 136 127 111
4.225348e-01 5.218937e-01 3.025419e+00 134 125 110
4.597034e-01 5.169060e-01 3.043248e+00 27 26 17
4.589469e-01 5.212189e-01 3.042994e+00 23 21 19
3.510454e-01 5.449558e-01 3.010468e+00 154 137 118
3.399763e-01 5.502557e-01 3.001247e+00 87 77 70
4.569885e-01 5.239777e-01 3.042677e+00 39 32 21
4.624091e-01 5.271747e-01 3.041639e+00 144 141 127
4.616919e-01 5.272669e-01 3.041492e+00 73 66 60
4.627062e-01 5.283618e-01 3.041559e+00 151 146 130
4.272123e-01 5.404906e-01 3.020024e+00 145 130 109
4.261182e-01 5.424338e-01 3.019643e+00 147 131 115
4.015286e-01 5.664838e-01 3.012330e+00 44 22 9
4.367315e-01 5.615788e-01 3.019974e+00 118 96 72
3.441546e-01 5.852666e-01 3.009681e+00 97 88 80
3.625152e-01 6.039963e-01 3.021245e+00 96 83 66
3.690125e-01 6.080797e-01 3.020209e+00 120 104 92
3.689609e-01 6.288448e-01 3.022903e+00 139 130 121
3.841954e-01 6.280244e-01 3.020685e+00 133 124 113
4.255333e-01 5.203822e-01 3.024827e+00 66 54 45
3.414516e-01 5.474294e-01 3.004442e+00 104 90 77
4.593633e-01 5.207119e-01 3.043211e+00 185 181 173
4.593633e-01 5.207119e-01 3.043211e+00 185 181 173
4.283989e-01 5.307812e-01 3.022149e+00 160 142 122
4.357817e-01 5.326145e-01 3.021819e+00 196 197 177
4.267144e-01 5.415979e-01 3.019616e+00 141 125 103
4.227771e-01 5.467021e-01 3.017601e+00 90 73 56
4.182904e-01 5.485343e-01 3.017419e+00 212 200 190
4.195005e-01 5.534293e-01 3.017182e+00 153 140 123
4.190510e-01 5.573218e-01 3.015604e+00 136 120 105
3.535551e-01 5.728937e-01 3.009222e+00 209 199 190
4.297371e-01 5.598652e-01 3.018950e+00 180 164 149
4.310536e-01 5.618079e-01 3.019068e+00 46 26 19
4.411780e-01 5.609618e-01 3.020782e+00 119 103 79
4.314645e-01 5.624346e-01 3.019148e+00 140 119 100
4.214610e-01 5.640556e-01 3.016884e+00 138 119 97
4.403715e-01 5.656046e-01 3.020515e+00 122 107 91
4.394459e-01 5.674005e-01 3.020285e+00 206 207 199
4.037441e-01 5.807558e-01 3.020880e+00 27 19 6
3.834347e-01 5.899584e-01 3.021604e+00 36 26 24
3.720514e-01 5.961457e-01 3.019212e+00 105 92 76
3.708329e-01 6.019400e-01 3.019646e+00 195 189 179
3.683220e-01 6.038382e-01 3.019861e+00 85 77 66
3.655384e-01 6.050497e-01 3.020124e+00 171 158 145
4.434845e-01 5.956508e-01 3.020277e+00 83 67 51
4.460911e-01 6.095356e-01 3.021250e+00 179 170 164
4.184238e-01 6.145504e-01 3.019284e+00 170 162 152
3.951860e-01 6.218677e-01 3.020900e+00 192 181 180
3.695060e-01 6.251944e-01 3.022234e+00 115 102 87
4.148987e-01 6.212202e-01 3.022438e+00 137 124 115
4.449508e-01 6.471075e-01 3.027397e+00 77 83 70
3.729782e-01 6.593056e-01 3.029026e+00 85 82 77
3.902871e-01 6.598373e-01 3.030457e+00 78 79 74
3.886211e-01 6.621484e-01 3.030303e+00 72 66 60
4.597108e-01 5.186259e-01 3.043322e+00 167 161 160
4.342437e-01 5.280412e-01 3.023254e+00 115 110 98
4.132699e-01 5.315870e-01 3.022167e+00 152 137 118
4.289658e-01 5.305530e-01 3.022129e+00 86 69 51
4.289658e-01 5.305530e-01 3.022129e+00 86 69 51
4.625078e-01 5.251930e-01 3.041818e+00 51 46 33
3.576519e-01 5.516022e-01 3.011203e+00 80 63 47
4.166157e-01 5.480223e-01 3.016606e+00 208 199 191
4.318912e-01 5.512414e-01 3.019821e+00 152 135 123
4.346810e-01 5.562578e-01 3.019935e+00 126 114 98
4.356195e-01 5.574329e-01 3.019963e+00 134 125 115
4.390117e-01 5.592977e-01 3.018961e+00 95 82 58
4.413327e-01 5.606226e-01 3.019030e+00 138 120 96
4.265215e-01 5.636916e-01 3.017795e+00 102 84 65
4.257468e-01 5.638127e-01 3.017720e+00 95 78 61
4.233724e-01 5.642457e-01 3.017138e+00 97 76 59
4.193438e-01 5.648885e-01 3.016398e+00 103 86 71
4.355850e-01 5.662702e-01 3.020085e+00 103 93 80
4.420697e-01 5.660345e-01 3.020832e+00 180 172 157
4.407459e-01 5.663085e-01 3.020525e+00 188 179 162
4.249990e-01 5.772860e-01 3.020262e+00 90 78 58
4.080359e-01 5.834317e-01 3.019878e+00 106 91 72
4.383096e-01 5.788588e-01 3.021294e+00 99 84 73
3.577630e-01 5.971665e-01 3.021067e+00 136 122 106
4.375486e-01 5.849351e-01 3.020873e+00 176 163 147
4.367662e-01 5.854353e-01 3.020918e+00 118 106 85
4.208144e-01 5.893008e-01 3.020430e+00 203 193 183
4.359643e-01 5.875740e-01 3.020909e+00 179 166 153
4.219682e-01 5.909389e-01 3.019898e+00 105 92 81
4.335742e-01 5.903396e-01 3.021078e+00 180 169 150
4.086414e-01 5.944803e-01 3.019562e+00 92 81 69
3.564184e-01 6.032234e-01 3.019360e+00 89 84 73
4.265282e-01 5.922830e-01 3.020809e+00 181 165 143
3.841693e-01 5.996250e-01 3.019284e+00 183 173 164
4.266086e-01 5.928488e-01 3.020185e+00 97 89 74
4.285425e-01 5.931404e-01 3.020337e+00 105 95 82
4.304028e-01 5.929403e-01 3.020397e+00 100 95 80
3.812995e-01 6.074761e-01 3.017977e+00 104 95 78
4.530849e-01 6.070247e-01 3.023257e+00 169 173 161
4.204337e-01 6.173960e-01 3.019714e+00 167 151 140
4.046497e-01 6.222196e-01 3.021161e+00 87 75 63
3.703775e-01 6.281845e-01 3.022577e+00 91 81 66
4.321375e-01 6.487002e-01 3.029059e+00 86 78 68
4.220603e-01 6.507998e-01 3.028658e+00 90 87 79
4.216466e-01 6.509411e-01 3.028331e+00 179 176 169
4.253419e-01 6.503983e-01 3.025719e+00 190 193 184
4.431597e-01 6.483971e-01 3.027897e+00 182 175 167
4.443007e-01 6.480962e-01 3.027437e+00 186 188 177
4.317519e-01 6.513388e-01 3.028976e+00 181 170 164
3.939796e-01 6.562849e-01 3.026221e+00 98 93 88
3.750397e-01 6.598319e-01 3.029611e+00 171 163 156
3.780498e-01 6.610783e-01 3.029721e+00 164 151 142
4.136076e-01 5.319187e-01 3.022102e+00 83 67 52
4.136076e-01 5.319187e-01 3.022102e+00 83 67 52
4.116951e-01 5.322591e-01 3.021710e+00 79 61 47
4.281559e-01 5.317233e-01 3.021975e+00 112 97 75
3.487906e-01 5.520593e-01 3.012299e+00 76 58 50
4.145445e-01 5.358802e-01 3.021677e+00 117 99 76
4.145445e-01 5.358802e-01 3.021677e+00 117 99 76
4.327553e-01 5.351937e-01 3.020675e+00 196 187 176
3.956603e-01 5.461623e-01 3.013516e+00 167 154 137
4.306638e-01 5.535502e-01 3.018121e+00 195 185 179
4.383549e-01 5.526129e-01 3.021132e+00 86 76 74
4.307175e-01 5.546062e-01 3.019840e+00 103 94 79
4.193745e-01 5.594507e-01 3.016643e+00 104 94 84
4.350003e-01 5.575141e-01 3.019802e+00 124 116 102
4.243442e-01 5.593555e-01 3.017854e+00 104 93 84
