ply
format ascii 1.0
element face 0
property list uchar int vertex_indices
element vertex 964
property float x
property float y
property float z
property uchar diffuse_red
property uchar diffuse_green
property uchar diffuse_blue
end_header
4.373201e-01 5.500154e-01 2.939715e+00 155 153 164
3.434137e-01 5.289277e-01 2.940276e+00 79 73 75
4.277000e-01 5.499016e-01 2.947559e+00 87 78 83
4.242235e-01 5.494020e-01 2.949788e+00 93 82 86
4.473977e-01 5.511332e-01 2.923959e+00 131 135 146
4.389297e-01 5.503704e-01 2.930749e+00 168 167 175
4.377604e-01 5.517126e-01 2.939562e+00 114 114 122
4.380255e-01 5.521498e-01 2.939867e+00 168 167 173
4.212893e-01 5.507246e-01 2.945320e+00 165 153 153
4.389535e-01 5.547381e-01 2.942051e+00 97 96 101
4.398316e-01 5.543483e-01 2.935543e+00 109 108 116
4.142295e-01 5.518396e-01 2.954889e+00 149 144 148
4.362883e-01 5.559325e-01 2.946017e+00 82 73 76
4.156496e-01 5.523205e-01 2.952291e+00 108 98 99
4.439225e-01 5.578971e-01 2.940065e+00 110 110 120
4.141642e-01 5.558907e-01 2.973109e+00 137 138 143
4.250984e-01 5.564948e-01 2.952521e+00 115 106 106
4.269223e-01 5.565464e-01 2.948235e+00 98 90 87
4.226657e-01 5.608816e-01 2.954631e+00 132 123 123
3.977476e-01 5.617980e-01 2.971182e+00 61 53 51
4.009233e-01 5.651598e-01 2.970361e+00 87 82 88
3.582685e-01 5.595026e-01 2.976593e+00 144 148 160
3.974579e-01 5.689150e-01 2.968879e+00 180 180 188
3.744123e-01 5.665651e-01 2.972156e+00 152 150 155
4.203905e-01 5.782883e-01 2.963869e+00 169 168 174
3.639674e-01 5.693830e-01 2.972470e+00 120 114 116
3.954923e-01 5.857454e-01 2.960688e+00 53 55 67
3.910040e-01 5.889005e-01 2.959845e+00 18 18 26
3.828136e-01 5.962700e-01 2.957968e+00 54 45 48
3.980948e-01 6.083403e-01 2.954054e+00 118 118 126
3.924583e-01 6.187508e-01 2.949181e+00 133 132 138
3.730665e-01 4.259730e-01 2.834036e+00 197 148 159
3.733114e-01 4.275560e-01 2.835583e+00 254 75 99
3.946446e-01 4.322161e-01 2.830356e+00 199 145 146
3.755014e-01 4.306018e-01 2.839490e+00 209 43 57
3.691162e-01 4.277795e-01 2.836276e+00 171 14 47
3.913748e-01 4.374534e-01 2.841897e+00 191 61 65
3.811344e-01 4.362018e-01 2.845944e+00 192 79 75
3.874961e-01 4.378149e-01 2.845167e+00 205 75 77
3.934245e-01 4.390339e-01 2.842576e+00 198 154 169
3.858725e-01 4.380419e-01 2.846276e+00 136 56 67
4.036898e-01 4.394336e-01 2.832551e+00 201 137 121
3.780613e-01 4.371025e-01 2.848003e+00 149 22 43
3.976181e-01 4.411841e-01 2.842640e+00 156 114 75
4.038326e-01 4.402575e-01 2.833545e+00 164 93 78
3.939527e-01 4.416738e-01 2.846481e+00 132 60 68
3.770937e-01 4.377375e-01 2.849118e+00 169 129 95
3.913318e-01 4.414880e-01 2.847572e+00 142 71 80
3.917452e-01 4.416897e-01 2.847803e+00 186 137 130
3.817734e-01 4.400832e-01 2.851277e+00 192 147 113
3.888455e-01 4.418893e-01 2.850410e+00 229 185 163
3.838220e-01 4.410914e-01 2.851733e+00 200 120 107
3.999333e-01 4.433534e-01 2.843689e+00 210 113 94
3.982289e-01 4.434197e-01 2.845561e+00 208 155 123
3.691251e-01 4.359736e-01 2.848196e+00 155 23 28
3.667045e-01 4.346867e-01 2.846157e+00 185 91 76
3.934263e-01 4.433604e-01 2.849517e+00 220 155 122
3.938995e-01 4.442953e-01 2.850885e+00 165 106 77
4.043039e-01 4.445835e-01 2.840560e+00 215 167 129
4.043039e-01 4.445835e-01 2.840560e+00 215 167 129
3.993935e-01 4.452172e-01 2.847203e+00 189 126 128
3.992044e-01 4.456287e-01 2.848270e+00 147 78 68
3.777347e-01 4.416802e-01 2.854711e+00 162 106 89
4.041863e-01 4.454196e-01 2.841921e+00 139 94 61
3.900126e-01 4.449753e-01 2.853909e+00 187 123 110
4.003641e-01 4.463923e-01 2.847751e+00 222 93 102
3.818802e-01 4.436273e-01 2.855826e+00 188 121 102
3.801785e-01 4.433348e-01 2.856328e+00 178 15 26
3.749016e-01 4.412993e-01 2.854548e+00 219 170 150
3.741026e-01 4.414813e-01 2.855177e+00 135 95 80
3.844403e-01 4.452612e-01 2.857565e+00 155 117 83
3.961690e-01 4.476542e-01 2.854327e+00 147 38 60
3.985551e-01 4.477487e-01 2.851936e+00 209 153 124
3.571341e-01 4.337714e-01 2.844217e+00 222 54 69
3.599987e-01 4.353260e-01 2.846535e+00 132 69 36
4.016865e-01 4.477662e-01 2.848597e+00 181 130 99
4.049591e-01 4.471310e-01 2.842988e+00 147 99 73
4.049591e-01 4.471310e-01 2.842988e+00 147 99 73
3.615267e-01 4.364522e-01 2.848123e+00 122 75 62
3.986626e-01 4.486208e-01 2.853705e+00 175 119 98
3.745570e-01 4.427960e-01 2.856887e+00 145 68 60
3.828670e-01 4.459315e-01 2.858872e+00 208 95 94
4.015090e-01 4.492005e-01 2.851374e+00 204 162 131
4.015090e-01 4.492005e-01 2.851374e+00 204 162 131
4.010483e-01 4.491842e-01 2.851326e+00 185 117 101
3.865485e-01 4.477740e-01 2.860259e+00 158 33 41
3.961320e-01 4.498269e-01 2.857562e+00 201 80 79
3.860361e-01 4.478397e-01 2.860600e+00 148 98 76
4.084595e-01 4.487394e-01 2.841661e+00 238 189 159
4.064203e-01 4.493675e-01 2.845592e+00 102 69 60
3.821677e-01 4.470299e-01 2.860983e+00 255 210 189
3.827262e-01 4.475608e-01 2.861707e+00 188 42 45
4.043353e-01 4.502285e-01 2.849594e+00 136 73 81
3.757566e-01 4.452190e-01 2.859628e+00 171 103 82
3.650787e-01 4.405849e-01 2.854072e+00 171 111 82
3.778531e-01 4.464281e-01 2.861278e+00 149 62 52
4.013973e-01 4.511038e-01 2.854452e+00 188 98 90
3.951342e-01 4.512071e-01 2.860377e+00 167 99 70
3.911079e-01 4.507219e-01 2.862560e+00 143 107 82
4.066569e-01 4.502487e-01 2.845890e+00 118 70 81
3.670512e-01 4.420914e-01 2.856072e+00 122 77 70
3.670512e-01 4.420914e-01 2.856072e+00 122 77 70
3.964761e-01 4.515025e-01 2.859745e+00 156 81 58
3.784614e-01 4.472137e-01 2.862526e+00 252 204 181
3.802321e-01 4.478973e-01 2.862912e+00 126 88 67
3.994440e-01 4.520726e-01 2.858475e+00 202 158 134
3.994440e-01 4.520726e-01 2.858475e+00 202 158 134
4.092596e-01 4.505317e-01 2.843476e+00 161 93 70
3.970407e-01 4.520958e-01 2.860531e+00 199 99 83
3.732436e-01 4.455076e-01 2.860735e+00 141 105 76
3.655170e-01 4.419346e-01 2.855824e+00 147 111 79
3.852734e-01 4.500112e-01 2.864293e+00 137 97 67
3.761970e-01 4.467971e-01 2.862021e+00 138 101 78
4.054076e-01 4.521718e-01 2.851712e+00 195 133 117
3.813927e-01 4.489821e-01 2.864068e+00 180 133 114
4.052576e-01 4.526600e-01 2.852499e+00 131 83 71
3.833195e-01 4.500498e-01 2.864779e+00 175 119 86
3.826855e-01 4.499414e-01 2.865061e+00 167 107 77
3.735124e-01 4.465525e-01 2.861991e+00 177 106 88
3.860773e-01 4.509031e-01 2.864471e+00 166 127 97
3.860773e-01 4.509031e-01 2.864471e+00 166 127 97
3.924899e-01 4.527152e-01 2.864137e+00 182 108 95
3.885346e-01 4.519623e-01 2.865552e+00 255 196 171
3.618738e-01 4.414034e-01 2.854840e+00 216 156 120
3.800071e-01 4.496322e-01 2.865335e+00 154 100 76
4.032515e-01 4.536442e-01 2.856517e+00 197 149 126
3.907023e-01 4.528539e-01 2.865564e+00 189 111 98
3.907023e-01 4.528539e-01 2.865564e+00 189 111 98
3.752466e-01 4.480038e-01 2.863756e+00 255 196 188
3.752466e-01 4.480038e-01 2.863756e+00 255 196 188
3.855234e-01 4.522255e-01 2.867420e+00 144 89 69
3.751289e-01 4.484779e-01 2.864594e+00 184 51 57
3.739362e-01 4.480017e-01 2.864028e+00 138 20 22
4.104095e-01 4.533997e-01 2.847300e+00 181 173 186
3.784826e-01 4.497414e-01 2.865451e+00 186 109 96
3.982469e-01 4.547428e-01 2.863424e+00 254 201 173
3.947261e-01 4.545208e-01 2.865970e+00 255 206 177
4.065779e-01 4.544377e-01 2.853967e+00 205 139 115
3.987542e-01 4.553395e-01 2.864279e+00 205 79 67
3.949743e-01 4.547225e-01 2.865716e+00 202 46 49
3.945158e-01 4.549318e-01 2.866553e+00 196 67 56
3.620218e-01 4.432829e-01 2.857187e+00 134 88 59
3.773437e-01 4.502143e-01 2.866198e+00 179 7 26
3.628762e-01 4.437957e-01 2.857939e+00 140 82 60
4.004460e-01 4.557209e-01 2.862765e+00 236 185 140
3.572895e-01 4.409498e-01 2.853217e+00 115 88 69
3.807198e-01 4.520154e-01 2.868672e+00 236 205 176
3.666821e-01 4.461230e-01 2.861405e+00 221 155 129
3.923999e-01 4.556331e-01 2.868964e+00 254 191 164
3.923999e-01 4.556331e-01 2.868964e+00 254 191 164
3.975783e-01 4.565121e-01 2.866692e+00 138 88 65
3.723334e-01 4.492809e-01 2.865548e+00 148 95 79
3.576381e-01 4.426279e-01 2.855261e+00 189 154 168
3.965862e-01 4.574531e-01 2.868941e+00 213 80 76
4.074833e-01 4.572457e-01 2.857398e+00 190 138 117
3.972586e-01 4.575848e-01 2.868538e+00 210 82 70
3.550970e-01 4.415272e-01 2.853266e+00 215 53 54
3.524014e-01 4.402220e-01 2.851132e+00 148 99 79
3.776119e-01 4.524585e-01 2.869224e+00 192 122 120
3.770124e-01 4.525027e-01 2.869447e+00 139 110 103
3.809730e-01 4.542670e-01 2.871311e+00 177 150 139
4.085408e-01 4.580937e-01 2.857180e+00 172 165 177
3.631130e-01 4.466586e-01 2.861573e+00 255 202 188
3.837165e-01 4.556368e-01 2.872777e+00 171 66 91
3.758640e-01 4.526937e-01 2.870022e+00 191 159 166
3.913151e-01 4.577775e-01 2.872547e+00 161 100 75
3.748630e-01 4.524533e-01 2.869782e+00 166 39 53
3.631118e-01 4.472929e-01 2.862503e+00 162 81 74
3.631118e-01 4.472929e-01 2.862503e+00 162 81 74
4.027831e-01 4.595519e-01 2.866425e+00 250 201 161
4.042457e-01 4.597280e-01 2.865421e+00 183 177 188
4.028726e-01 4.603859e-01 2.868159e+00 135 96 83
3.932583e-01 4.595221e-01 2.874384e+00 181 161 172
3.548080e-01 4.435860e-01 2.855724e+00 190 165 172
3.855269e-01 4.574871e-01 2.874604e+00 144 88 86
3.689021e-01 4.507213e-01 2.867140e+00 167 112 80
3.976485e-01 4.602780e-01 2.872330e+00 236 199 180
3.864161e-01 4.582461e-01 2.875545e+00 174 116 89
4.037211e-01 4.610835e-01 2.867979e+00 114 101 108
3.577830e-01 4.459198e-01 2.859407e+00 140 95 71
4.004594e-01 4.617170e-01 2.872227e+00 172 166 185
3.901227e-01 4.604469e-01 2.877111e+00 120 101 107
3.807117e-01 4.575133e-01 2.875930e+00 187 170 159
3.979151e-01 4.620665e-01 2.874896e+00 166 163 180
3.636024e-01 4.500222e-01 2.865851e+00 173 155 152
3.972078e-01 4.696931e-01 2.886541e+00 211 202 207
3.977489e-01 4.702489e-01 2.886338e+00 209 200 203
3.664705e-01 4.598444e-01 2.878333e+00 187 182 186
4.279549e-01 4.633778e-01 2.828159e+00 123 114 118
4.184276e-01 4.694066e-01 2.860288e+00 208 205 212
4.129866e-01 4.716805e-01 2.873006e+00 141 138 145
4.286066e-01 4.633147e-01 2.825496e+00 160 151 152
3.669716e-01 4.610363e-01 2.879823e+00 206 201 205
4.275172e-01 4.650347e-01 2.832058e+00 198 188 187
4.123974e-01 4.723654e-01 2.875004e+00 208 206 211
4.105791e-01 4.731477e-01 2.879164e+00 210 208 213
4.265455e-01 4.663644e-01 2.836883e+00 98 98 92
4.246231e-01 4.679800e-01 2.844366e+00 204 205 197
3.950525e-01 4.725211e-01 2.891730e+00 172 165 172
4.073044e-01 4.738280e-01 2.883960e+00 216 211 217
3.957966e-01 4.728323e-01 2.892098e+00 173 166 173
3.957966e-01 4.728323e-01 2.892098e+00 173 166 173
4.181425e-01 4.715591e-01 2.864094e+00 110 108 109
4.057448e-01 4.738995e-01 2.885488e+00 218 213 219
4.194477e-01 4.712829e-01 2.861341e+00 140 141 145
4.028553e-01 4.743321e-01 2.889148e+00 220 215 221
4.182060e-01 4.722511e-01 2.865213e+00 164 165 160
4.305472e-01 4.645105e-01 2.823040e+00 125 124 119
3.944049e-01 4.733695e-01 2.893303e+00 215 210 216
4.287796e-01 4.663142e-01 2.830964e+00 143 135 133
4.175184e-01 4.730696e-01 2.868046e+00 163 158 155
4.179660e-01 4.730131e-01 2.867165e+00 178 175 170
4.114947e-01 4.748510e-01 2.880399e+00 119 119 111
4.124019e-01 4.752044e-01 2.879637e+00 173 168 162
4.329750e-01 4.637088e-01 2.813945e+00 128 130 125
4.367901e-01 4.605544e-01 2.797202e+00 117 125 114
4.090868e-01 4.762110e-01 2.885722e+00 181 176 173
4.100857e-01 4.763756e-01 2.884590e+00 183 173 168
4.060245e-01 4.769501e-01 2.890506e+00 110 106 97
4.114052e-01 4.768988e-01 2.883618e+00 135 131 119
4.114052e-01 4.768988e-01 2.883618e+00 135 131 119
4.061438e-01 4.772319e-01 2.890354e+00 168 164 152
4.061438e-01 4.772319e-01 2.890354e+00 168 164 152
4.061438e-01 4.772319e-01 2.890354e+00 168 164 152
4.391328e-01 4.594159e-01 2.787023e+00 95 106 89
4.391328e-01 4.594159e-01 2.787023e+00 95 106 89
3.931097e-01 4.757114e-01 2.896950e+00 203 198 194
4.213641e-01 4.753837e-01 2.864539e+00 162 158 157
4.079430e-01 4.794653e-01 2.892208e+00 92 89 80
4.392975e-01 4.620382e-01 2.791601e+00 100 116 90
4.148771e-01 4.784939e-01 2.881124e+00 159 156 151
4.118412e-01 4.790824e-01 2.886547e+00 150 149 145
4.019417e-01 4.789758e-01 2.896459e+00 83 78 73
4.013623e-01 4.789041e-01 2.896740e+00 147 144 139
4.122211e-01 4.790211e-01 2.885735e+00 143 142 138
4.300593e-01 4.715092e-01 2.837548e+00 65 73 64
4.165772e-01 4.785444e-01 2.878442e+00 164 164 164
4.158829e-01 4.789403e-01 2.880620e+00 99 99 97
4.204912e-01 4.774595e-01 2.869947e+00 107 98 97
4.079712e-01 4.798952e-01 2.892335e+00 146 148 137
4.079712e-01 4.798952e-01 2.892335e+00 146 148 137
4.360020e-01 4.666028e-01 2.810812e+00 54 70 34
4.314167e-01 4.706541e-01 2.831606e+00 113 117 102
4.075326e-01 4.799876e-01 2.892876e+00 133 136 125
4.075326e-01 4.799876e-01 2.892876e+00 133 136 125
4.293828e-01 4.723379e-01 2.840150e+00 60 73 55
4.293828e-01 4.723379e-01 2.840150e+00 60 73 55
4.177309e-01 4.785118e-01 2.876416e+00 96 87 90
4.250513e-01 4.754852e-01 2.856777e+00 130 133 116
4.184673e-01 4.788987e-01 2.875847e+00 106 100 100
4.253613e-01 4.758171e-01 2.856389e+00 80 88 67
4.182184e-01 4.791986e-01 2.877135e+00 124 115 118
4.267195e-01 4.752676e-01 2.852707e+00 56 64 51
4.267195e-01 4.752676e-01 2.852707e+00 56 64 51
4.042387e-01 4.815641e-01 2.898549e+00 81 83 69
4.317843e-01 4.722522e-01 2.832882e+00 102 113 99
3.975423e-01 4.803891e-01 2.900781e+00 151 145 139
3.198663e-01 4.442370e-01 2.840775e+00 126 135 123
3.198663e-01 4.442370e-01 2.840775e+00 126 135 123
4.342548e-01 4.708099e-01 2.824080e+00 124 140 114
3.629630e-01 4.676080e-01 2.886760e+00 70 73 65
4.262640e-01 4.771016e-01 2.857019e+00 111 127 100
4.377295e-01 4.676882e-01 2.807363e+00 94 109 76
4.362621e-01 4.693322e-01 2.814855e+00 61 77 41
4.360698e-01 4.698781e-01 2.817030e+00 113 128 97
4.285145e-01 4.764555e-01 2.850770e+00 114 119 97
4.337731e-01 4.718597e-01 2.826954e+00 111 125 99
3.475680e-01 4.604122e-01 2.872834e+00 66 77 44
3.839243e-01 4.776747e-01 2.901436e+00 132 130 118
3.839243e-01 4.776747e-01 2.901436e+00 132 130 118
3.714513e-01 4.725847e-01 2.894518e+00 129 131 116
4.007146e-01 4.825141e-01 2.902524e+00 124 129 99
4.259720e-01 4.782976e-01 2.859012e+00 129 144 111
3.314343e-01 4.522967e-01 2.855938e+00 110 123 97
3.306689e-01 4.518531e-01 2.855082e+00 49 61 38
4.318447e-01 4.751593e-01 2.839577e+00 39 50 33
4.012106e-01 4.829106e-01 2.902564e+00 68 75 42
4.012106e-01 4.829106e-01 2.902564e+00 68 75 42
4.403431e-01 4.673229e-01 2.798965e+00 91 113 66
4.389236e-01 4.698736e-01 2.810500e+00 50 66 29
3.194637e-01 4.457697e-01 2.842201e+00 54 62 41
3.365937e-01 4.554717e-01 2.862108e+00 107 120 110
3.715214e-01 4.732101e-01 2.895085e+00 55 57 37
4.318954e-01 4.756398e-01 2.839716e+00 105 117 95
4.314742e-01 4.758645e-01 2.840796e+00 118 132 107
4.314742e-01 4.758645e-01 2.840796e+00 118 132 107
4.288851e-01 4.779118e-01 2.851594e+00 144 156 134
3.891106e-01 4.806946e-01 2.904747e+00 69 77 54
3.585028e-01 4.676656e-01 2.885579e+00 103 114 71
4.282564e-01 4.782636e-01 2.853463e+00 112 126 81
4.194237e-01 4.827690e-01 2.880318e+00 141 140 145
3.757727e-01 4.756954e-01 2.898645e+00 44 56 20
3.673890e-01 4.720633e-01 2.893029e+00 111 124 100
4.401882e-01 4.688543e-01 2.802512e+00 106 129 85
4.332165e-01 4.754689e-01 2.835988e+00 119 132 106
4.332165e-01 4.754689e-01 2.835988e+00 119 132 106
4.250120e-01 4.809508e-01 2.866404e+00 183 183 171
4.239350e-01 4.813313e-01 2.869009e+00 115 113 120
4.115649e-01 4.850104e-01 2.896567e+00 97 95 96
4.148596e-01 4.845919e-01 2.890924e+00 94 89 93
4.148596e-01 4.845919e-01 2.890924e+00 94 89 93
4.321226e-01 4.765401e-01 2.840216e+00 113 123 99
4.204367e-01 4.831416e-01 2.878995e+00 116 117 121
3.641191e-01 4.712738e-01 2.891511e+00 117 134 93
3.632892e-01 4.708692e-01 2.890741e+00 122 132 95
3.435519e-01 4.607622e-01 2.871429e+00 137 156 124
3.435519e-01 4.607622e-01 2.871429e+00 137 156 124
4.043183e-01 4.850537e-01 2.903378e+00 60 61 52
3.275177e-01 4.520066e-01 2.853503e+00 161 171 155
3.275177e-01 4.520066e-01 2.853503e+00 161 171 155
4.187164e-01 4.840169e-01 2.883792e+00 109 108 114
3.972555e-01 4.838835e-01 2.905985e+00 130 138 101
3.156370e-01 4.452659e-01 2.839007e+00 125 137 101
4.146106e-01 4.848239e-01 2.891195e+00 223 218 222
3.656273e-01 4.721295e-01 2.892716e+00 48 65 23
3.656273e-01 4.721295e-01 2.892716e+00 48 65 23
4.318214e-01 4.773823e-01 2.843001e+00 113 126 96
4.027019e-01 4.850502e-01 2.904634e+00 115 121 90
3.900368e-01 4.821563e-01 2.906401e+00 60 64 49
3.887718e-01 4.817527e-01 2.906095e+00 92 91 76
4.168142e-01 4.847042e-01 2.887872e+00 104 103 109
4.354773e-01 4.748836e-01 2.828244e+00 100 116 80
4.307818e-01 4.784524e-01 2.847745e+00 128 132 115
3.521776e-01 4.657276e-01 2.880747e+00 99 107 83
3.497545e-01 4.645279e-01 2.878323e+00 113 129 92
4.148329e-01 4.851379e-01 2.891181e+00 100 98 101
4.148329e-01 4.851379e-01 2.891181e+00 100 98 101
4.017765e-01 4.851458e-01 2.905138e+00 58 72 23
4.015218e-01 4.852131e-01 2.905595e+00 123 136 90
4.015218e-01 4.852131e-01 2.905595e+00 123 136 90
3.791469e-01 4.786218e-01 2.902788e+00 61 74 18
4.024348e-01 4.855767e-01 2.905440e+00 126 135 93
4.024348e-01 4.855767e-01 2.905440e+00 126 135 93
4.415801e-01 4.699417e-01 2.800384e+00 103 119 83
3.589042e-01 4.696982e-01 2.887950e+00 53 61 21
4.040537e-01 4.860270e-01 2.904976e+00 60 63 44
3.545129e-01 4.674787e-01 2.883599e+00 110 119 98
3.545129e-01 4.674787e-01 2.883599e+00 110 119 98
4.190034e-01 4.848439e-01 2.884202e+00 164 163 168
3.195730e-01 4.486446e-01 2.845269e+00 91 100 81
4.103904e-01 4.862900e-01 2.898944e+00 120 132 93
3.435320e-01 4.619475e-01 2.872832e+00 117 137 88
4.261475e-01 4.822250e-01 2.865454e+00 117 125 112
3.842806e-01 4.810477e-01 2.905538e+00 116 123 92
4.337406e-01 4.772265e-01 2.837041e+00 54 67 41
3.422431e-01 4.613709e-01 2.871339e+00 112 129 84
4.211413e-01 4.847300e-01 2.880562e+00 103 107 108
3.636610e-01 4.723463e-01 2.892410e+00 128 145 100
4.225234e-01 4.842164e-01 2.876969e+00 82 80 85
4.225234e-01 4.842164e-01 2.876969e+00 82 80 85
3.285139e-01 4.539693e-01 2.856091e+00 136 146 126
3.955635e-01 4.850983e-01 2.908598e+00 69 70 55
3.912595e-01 4.837897e-01 2.908114e+00 119 127 103
4.230272e-01 4.844081e-01 2.876456e+00 180 179 185
4.230272e-01 4.844081e-01 2.876456e+00 180 179 185
4.131399e-01 4.866140e-01 2.895894e+00 108 102 103
3.158038e-01 4.469969e-01 2.840896e+00 49 58 31
4.364877e-01 4.756682e-01 2.826501e+00 67 84 39
4.366433e-01 4.754900e-01 2.825303e+00 144 161 117
4.366433e-01 4.754900e-01 2.825303e+00 144 161 117
3.342176e-01 4.574093e-01 2.862557e+00 116 132 95
4.213246e-01 4.851772e-01 2.880813e+00 148 151 154
4.213246e-01 4.851772e-01 2.880813e+00 148 151 154
4.024709e-01 4.865504e-01 2.906502e+00 130 142 101
3.564840e-01 4.693547e-01 2.886533e+00 101 114 86
4.210871e-01 4.853689e-01 2.881666e+00 155 159 162
4.210871e-01 4.853689e-01 2.881666e+00 155 159 162
4.063537e-01 4.869330e-01 2.903630e+00 114 122 107
3.919462e-01 4.844537e-01 2.908904e+00 70 75 53
3.519582e-01 4.671710e-01 2.882268e+00 62 73 42
3.307113e-01 4.558146e-01 2.859286e+00 46 58 34
3.307113e-01 4.558146e-01 2.859286e+00 46 58 34
4.296481e-01 4.815747e-01 2.856561e+00 55 80 33
4.270473e-01 4.831059e-01 2.865727e+00 116 124 108
4.195339e-01 4.859894e-01 2.885382e+00 150 151 156
4.195339e-01 4.859894e-01 2.885382e+00 150 151 156
4.193029e-01 4.861845e-01 2.886350e+00 158 157 163
3.993993e-01 4.863456e-01 2.908293e+00 121 125 98
3.993993e-01 4.863456e-01 2.908293e+00 121 125 98
3.508301e-01 4.667421e-01 2.881376e+00 52 68 32
4.288546e-01 4.817411e-01 2.857982e+00 95 116 83
4.189163e-01 4.863888e-01 2.887434e+00 154 153 158
4.060572e-01 4.872846e-01 2.904849e+00 114 127 100
3.732286e-01 4.775124e-01 2.900708e+00 104 116 76
3.435473e-01 4.629439e-01 2.873787e+00 110 126 89
4.351654e-01 4.774992e-01 2.833974e+00 68 83 44
4.028638e-01 4.870489e-01 2.907004e+00 65 75 40
4.028638e-01 4.870489e-01 2.907004e+00 65 75 40
3.987645e-01 4.863383e-01 2.908516e+00 135 138 117
4.257466e-01 4.840463e-01 2.869959e+00 137 138 143
3.234336e-01 4.523141e-01 2.851726e+00 52 63 31
4.161268e-01 4.871151e-01 2.892627e+00 158 156 161
4.355088e-01 4.780593e-01 2.834642e+00 110 123 79
3.528284e-01 4.682098e-01 2.883915e+00 145 153 128
3.617763e-01 4.726829e-01 2.892141e+00 124 135 96
4.245755e-01 4.850208e-01 2.874412e+00 90 92 97
4.245755e-01 4.850208e-01 2.874412e+00 90 92 97
4.237495e-01 4.852710e-01 2.876341e+00 156 157 162
4.149029e-01 4.876210e-01 2.895272e+00 141 132 137
3.805899e-01 4.812208e-01 2.906007e+00 135 143 103
3.345774e-01 4.588247e-01 2.864765e+00 128 141 111
3.236423e-01 4.528342e-01 2.852071e+00 121 134 93
4.057058e-01 4.881794e-01 2.906299e+00 111 124 94
4.057058e-01 4.881794e-01 2.906299e+00 111 124 94
4.193784e-01 4.871674e-01 2.887301e+00 157 156 161
3.835495e-01 4.827097e-01 2.907781e+00 76 82 50
4.388810e-01 4.759886e-01 2.820482e+00 55 76 33
3.745043e-01 4.790896e-01 2.902714e+00 105 119 84
3.745043e-01 4.790896e-01 2.902714e+00 105 119 84
4.338616e-01 4.800575e-01 2.842426e+00 102 125 83
3.664726e-01 4.756889e-01 2.897351e+00 56 71 32
3.591053e-01 4.720413e-01 2.890489e+00 65 75 38
3.556964e-01 4.702898e-01 2.887111e+00 102 113 91
4.210286e-01 4.869355e-01 2.884147e+00 99 100 104
3.474303e-01 4.660633e-01 2.878664e+00 95 110 77
3.283604e-01 4.560704e-01 2.858123e+00 116 127 97
3.224277e-01 4.528609e-01 2.851487e+00 112 130 70
3.895989e-01 4.851921e-01 2.910170e+00 61 74 26
3.930321e-01 4.862651e-01 2.910792e+00 79 78 60
3.323696e-01 4.584248e-01 2.863038e+00 107 118 88
3.323696e-01 4.584248e-01 2.863038e+00 107 118 88
3.267142e-01 4.554363e-01 2.856562e+00 48 59 25
3.267142e-01 4.554363e-01 2.856562e+00 48 59 25
4.341756e-01 4.804086e-01 2.841916e+00 116 137 94
4.341756e-01 4.804086e-01 2.841916e+00 116 137 94
3.429568e-01 4.643066e-01 2.874980e+00 129 136 118
4.136287e-01 4.889722e-01 2.899039e+00 107 101 103
3.829591e-01 4.831044e-01 2.908194e+00 62 66 31
3.829591e-01 4.831044e-01 2.908194e+00 62 66 31
3.989068e-01 4.881305e-01 2.911036e+00 131 133 120
3.927104e-01 4.864862e-01 2.911121e+00 129 131 109
3.637268e-01 4.750764e-01 2.895577e+00 125 140 101
4.071722e-01 4.892351e-01 2.906277e+00 103 111 86
4.284380e-01 4.852750e-01 2.866816e+00 91 98 91
4.284380e-01 4.852750e-01 2.866816e+00 91 98 91
3.824050e-01 4.832736e-01 2.908476e+00 135 142 100
3.824050e-01 4.832736e-01 2.908476e+00 135 142 100
4.037204e-01 4.891215e-01 2.909256e+00 97 100 83
4.037204e-01 4.891215e-01 2.909256e+00 97 100 83
3.933738e-01 4.869658e-01 2.911587e+00 138 137 117
3.534584e-01 4.701076e-01 2.886000e+00 149 160 106
4.420513e-01 4.744462e-01 2.807216e+00 120 140 115
4.420513e-01 4.744462e-01 2.807216e+00 120 140 115
3.639401e-01 4.752545e-01 2.895446e+00 63 76 33
3.247816e-01 4.550630e-01 2.855171e+00 115 125 86
4.414194e-01 4.754643e-01 2.811638e+00 110 128 104
3.530901e-01 4.702831e-01 2.886533e+00 141 151 100
4.325699e-01 4.824280e-01 2.849993e+00 48 61 43
4.411538e-01 4.758100e-01 2.813033e+00 122 137 116
4.411538e-01 4.758100e-01 2.813033e+00 122 137 116
4.227507e-01 4.878261e-01 2.882560e+00 77 77 79
3.992294e-01 4.885701e-01 2.911081e+00 123 126 107
4.398714e-01 4.768164e-01 2.818195e+00 127 139 115
4.398714e-01 4.768164e-01 2.818195e+00 127 139 115
3.884741e-01 4.858403e-01 2.911017e+00 59 74 31
3.388857e-01 4.629783e-01 2.871238e+00 110 119 100
4.265224e-01 4.867452e-01 2.873309e+00 144 142 147
4.261108e-01 4.866361e-01 2.873349e+00 165 162 169
3.913792e-01 4.869504e-01 2.912043e+00 70 83 39
4.246420e-01 4.874735e-01 2.877974e+00 150 151 156
4.240145e-01 4.876540e-01 2.879345e+00 143 140 149
3.904812e-01 4.868217e-01 2.912174e+00 56 73 30
4.233333e-01 4.880769e-01 2.881698e+00 146 142 149
4.083163e-01 4.902303e-01 2.906809e+00 114 125 85
4.083163e-01 4.902303e-01 2.906809e+00 114 125 85
4.216805e-01 4.886965e-01 2.885885e+00 133 134 139
4.382862e-01 4.790114e-01 2.827583e+00 113 125 111
4.382862e-01 4.790114e-01 2.827583e+00 113 125 111
4.208052e-01 4.890859e-01 2.888257e+00 157 160 165
4.054876e-01 4.901428e-01 2.909007e+00 103 112 88
4.371449e-01 4.802330e-01 2.833596e+00 126 139 119
3.918042e-01 4.873805e-01 2.912378e+00 107 120 76
3.918042e-01 4.873805e-01 2.912378e+00 107 120 76
3.642824e-01 4.764012e-01 2.897177e+00 107 120 76
4.368490e-01 4.801707e-01 2.833505e+00 122 136 112
3.488878e-01 4.687251e-01 2.882330e+00 50 61 27
4.359727e-01 4.815471e-01 2.839472e+00 113 127 104
3.388400e-01 4.637551e-01 2.872086e+00 112 123 94
3.174862e-01 4.522716e-01 2.847995e+00 136 147 105
4.178593e-01 4.901965e-01 2.894781e+00 148 145 150
4.348394e-01 4.824542e-01 2.843967e+00 104 118 92
4.266440e-01 4.872701e-01 2.872821e+00 78 77 82
4.266440e-01 4.872701e-01 2.872821e+00 78 77 82
4.269783e-01 4.874659e-01 2.873084e+00 126 127 130
3.894862e-01 4.872132e-01 2.912744e+00 114 129 88
3.808324e-01 4.841191e-01 2.909186e+00 149 154 118
3.770743e-01 4.826389e-01 2.907200e+00 111 126 85
4.331788e-01 4.839366e-01 2.851254e+00 115 129 104
3.589483e-01 4.746012e-01 2.893279e+00 110 122 76
4.230343e-01 4.892455e-01 2.883848e+00 147 144 151
4.393830e-01 4.796005e-01 2.825594e+00 126 128 114
4.334502e-01 4.841539e-01 2.850927e+00 78 89 62
3.885217e-01 4.872963e-01 2.912832e+00 112 130 76
3.871832e-01 4.868582e-01 2.912424e+00 119 131 86
3.871832e-01 4.868582e-01 2.912424e+00 119 131 86
3.184660e-01 4.535369e-01 2.849761e+00 65 77 41
3.929365e-01 4.886609e-01 2.913483e+00 109 119 84
4.251085e-01 4.890510e-01 2.879900e+00 92 91 99
3.834955e-01 4.854222e-01 2.910052e+00 66 77 29
3.749095e-01 4.823559e-01 2.906657e+00 114 134 82
3.637388e-01 4.772249e-01 2.897640e+00 112 129 77
4.257849e-01 4.887620e-01 2.877438e+00 96 95 100
4.257849e-01 4.887620e-01 2.877438e+00 96 95 100
3.659132e-01 4.784264e-01 2.899953e+00 157 171 136
3.618302e-01 4.765014e-01 2.896349e+00 122 134 84
4.334918e-01 4.849239e-01 2.852724e+00 142 156 122
4.162705e-01 4.915920e-01 2.899266e+00 150 149 154
4.241054e-01 4.896495e-01 2.882448e+00 103 100 107
4.241054e-01 4.896495e-01 2.882448e+00 103 100 107
4.160826e-01 4.917568e-01 2.899947e+00 76 74 79
3.803923e-01 4.848551e-01 2.910247e+00 61 66 34
3.237643e-01 4.569435e-01 2.856630e+00 120 135 80
3.237643e-01 4.569435e-01 2.856630e+00 120 135 80
4.231030e-01 4.903158e-01 2.885867e+00 97 94 101
3.100718e-01 4.496033e-01 2.840296e+00 132 142 117
4.330258e-01 4.855517e-01 2.854719e+00 80 94 61
3.966972e-01 4.904340e-01 2.914378e+00 66 77 42
3.150897e-01 4.526210e-01 2.846646e+00 112 122 97
4.159894e-01 4.923171e-01 2.901064e+00 214 212 217
4.263983e-01 4.894271e-01 2.877209e+00 117 117 119
4.231552e-01 4.907488e-01 2.886325e+00 151 149 154
3.393775e-01 4.659708e-01 2.874829e+00 116 132 103
3.509108e-01 4.719437e-01 2.886919e+00 129 133 116
3.879048e-01 4.882677e-01 2.914089e+00 60 74 38
3.182846e-01 4.547764e-01 2.850731e+00 106 120 97
3.182846e-01 4.547764e-01 2.850731e+00 106 120 97
4.243497e-01 4.906304e-01 2.883821e+00 97 95 100
4.157802e-01 4.926468e-01 2.901423e+00 104 102 107
4.035980e-01 4.923958e-01 2.913643e+00 47 56 29
4.190620e-01 4.923101e-01 2.895923e+00 148 145 152
4.144787e-01 4.929387e-01 2.903538e+00 92 90 93
3.106167e-01 4.508535e-01 2.841902e+00 120 132 109
4.403011e-01 4.812338e-01 2.825843e+00 119 125 102
4.250370e-01 4.907513e-01 2.882384e+00 140 139 144
4.250370e-01 4.907513e-01 2.882384e+00 140 139 144
4.323617e-01 4.878352e-01 2.861932e+00 63 69 55
3.644324e-01 4.791450e-01 2.900259e+00 118 134 95
4.197180e-01 4.926660e-01 2.895677e+00 85 83 88
3.103239e-01 4.510665e-01 2.842095e+00 58 72 49
4.375435e-01 4.838413e-01 2.838842e+00 98 100 86
4.193868e-01 4.927677e-01 2.896334e+00 87 85 90
4.193868e-01 4.927677e-01 2.896334e+00 87 85 90
4.190670e-01 4.928402e-01 2.896995e+00 83 80 86
4.190670e-01 4.928402e-01 2.896995e+00 83 80 86
4.229830e-01 4.918968e-01 2.888657e+00 144 142 146
4.188533e-01 4.929165e-01 2.897442e+00 83 81 86
4.188533e-01 4.929165e-01 2.897442e+00 83 81 86
4.185350e-01 4.930313e-01 2.898236e+00 87 85 90
4.185350e-01 4.930313e-01 2.898236e+00 87 85 90
4.179031e-01 4.929807e-01 2.898556e+00 80 79 84
3.169086e-01 4.549607e-01 2.850536e+00 57 68 51
4.169286e-01 4.933798e-01 2.901071e+00 77 75 78
3.816994e-01 4.869678e-01 2.912890e+00 119 122 105
4.215846e-01 4.923226e-01 2.891515e+00 131 130 135
4.165630e-01 4.934306e-01 2.901583e+00 80 80 82
4.156147e-01 4.931334e-01 2.901369e+00 126 126 129
3.682907e-01 4.812476e-01 2.903700e+00 113 127 102
3.682907e-01 4.812476e-01 2.903700e+00 113 127 102
3.682907e-01 4.812476e-01 2.903700e+00 113 127 102
3.587390e-01 4.769045e-01 2.895776e+00 132 149 113
4.406633e-01 4.816905e-01 2.825281e+00 104 113 92
3.507128e-01 4.730266e-01 2.888210e+00 108 115 99
4.360616e-01 4.853133e-01 2.845307e+00 132 135 124
4.294681e-01 4.895691e-01 2.870548e+00 73 81 68
4.137974e-01 4.935257e-01 2.904511e+00 53 49 50
3.768798e-01 4.851242e-01 2.909805e+00 133 138 111
4.384716e-01 4.841038e-01 2.836883e+00 113 121 101
4.053223e-01 4.937628e-01 2.914092e+00 128 137 123
4.053223e-01 4.937628e-01 2.914092e+00 128 137 123
4.037579e-01 4.937556e-01 2.915661e+00 150 154 137
4.037579e-01 4.937556e-01 2.915661e+00 150 154 137
4.030162e-01 4.935086e-01 2.915173e+00 146 148 134
3.592522e-01 4.776263e-01 2.896683e+00 65 81 51
3.738385e-01 4.844394e-01 2.908800e+00 72 83 52
3.931240e-01 4.915691e-01 2.917298e+00 122 135 108
3.916757e-01 4.910268e-01 2.916603e+00 116 130 107
3.916757e-01 4.910268e-01 2.916603e+00 116 130 107
3.152959e-01 4.549623e-01 2.849293e+00 123 134 117
3.445560e-01 4.705708e-01 2.882416e+00 99 112 89
3.445560e-01 4.705708e-01 2.882416e+00 99 112 89
4.167315e-01 4.943919e-01 2.902872e+00 119 114 116
3.485414e-01 4.726585e-01 2.886671e+00 118 126 110
4.105530e-01 4.945291e-01 2.910189e+00 116 119 112
3.949756e-01 4.920643e-01 2.916862e+00 129 142 114
3.575229e-01 4.773098e-01 2.895691e+00 113 124 104
3.726698e-01 4.843602e-01 2.908324e+00 118 130 104
3.325502e-01 4.646299e-01 2.869537e+00 131 138 122
3.685122e-01 4.826320e-01 2.905345e+00 117 132 102
3.685122e-01 4.826320e-01 2.905345e+00 117 132 102
3.627165e-01 4.800332e-01 2.900711e+00 145 161 134
3.392384e-01 4.684195e-01 2.877417e+00 59 72 44
3.755378e-01 4.858592e-01 2.910340e+00 62 73 38
3.909402e-01 4.917459e-01 2.917919e+00 63 75 51
3.235584e-01 4.604260e-01 2.860115e+00 149 156 140
4.061842e-01 4.949932e-01 2.914690e+00 34 40 28
4.331125e-01 4.894596e-01 2.861125e+00 158 165 149
3.748072e-01 4.857840e-01 2.910276e+00 132 142 116
3.562543e-01 4.773365e-01 2.894857e+00 49 55 28
3.465692e-01 4.725951e-01 2.885335e+00 31 44 14
3.465692e-01 4.725951e-01 2.885335e+00 31 44 14
4.399200e-01 4.848270e-01 2.833297e+00 44 50 22
3.913025e-01 4.921880e-01 2.918153e+00 108 123 91
3.554925e-01 4.772865e-01 2.894790e+00 59 65 37
4.005280e-01 4.947255e-01 2.918458e+00 25 41 2
3.368925e-01 4.680719e-01 2.875789e+00 47 54 20
4.065948e-01 4.957695e-01 2.915542e+00 116 124 100
3.562270e-01 4.780037e-01 2.896058e+00 134 141 107
3.562270e-01 4.780037e-01 2.896058e+00 134 141 107
3.754928e-01 4.868259e-01 2.911551e+00 109 123 87
3.368900e-01 4.685029e-01 2.876418e+00 108 119 84
3.549150e-01 4.776826e-01 2.895055e+00 123 130 96
3.154270e-01 4.571899e-01 2.851823e+00 109 125 98
3.609309e-01 4.805837e-01 2.900644e+00 62 76 40
3.609309e-01 4.805837e-01 2.900644e+00 62 76 40
4.056891e-01 4.961602e-01 2.916938e+00 123 126 101
3.854577e-01 4.909195e-01 2.917137e+00 50 69 40
3.854577e-01 4.909195e-01 2.917137e+00 50 69 40
3.387351e-01 4.696376e-01 2.878486e+00 108 117 81
4.055475e-01 4.962999e-01 2.917547e+00 34 40 12
3.634264e-01 4.818947e-01 2.902789e+00 54 73 42
3.180440e-01 4.589739e-01 2.855316e+00 98 112 84
4.066401e-01 4.964102e-01 2.915918e+00 46 56 31
4.080837e-01 4.969284e-01 2.916215e+00 83 96 70
4.080837e-01 4.969284e-01 2.916215e+00 83 96 70
3.685850e-01 4.846003e-01 2.907484e+00 57 69 29
3.606377e-01 4.811201e-01 2.901327e+00 55 69 33
4.400215e-01 4.868451e-01 2.836928e+00 99 106 73
4.176239e-01 4.968697e-01 2.905035e+00 177 174 181
4.155889e-01 4.970974e-01 2.908236e+00 162 159 164
3.985680e-01 4.954196e-01 2.919998e+00 134 152 98
4.123138e-01 4.972281e-01 2.912236e+00 67 69 64
3.976891e-01 4.952965e-01 2.920250e+00 76 91 47
3.663713e-01 4.836527e-01 2.905548e+00 113 132 104
3.094764e-01 4.549432e-01 2.846095e+00 60 75 44
4.137837e-01 4.971738e-01 2.910236e+00 146 146 146
4.118723e-01 4.972620e-01 2.912757e+00 49 52 45
4.125973e-01 4.973478e-01 2.911940e+00 147 148 148
3.999425e-01 4.959189e-01 2.919933e+00 63 74 34
3.311787e-01 4.666123e-01 2.871278e+00 42 57 18
3.988156e-01 4.958005e-01 2.920196e+00 73 91 36
3.502444e-01 4.763861e-01 2.891335e+00 124 141 97
3.473510e-01 4.750236e-01 2.888561e+00 47 63 26
3.485344e-01 4.757266e-01 2.889720e+00 115 132 90
4.104088e-01 4.978256e-01 2.915101e+00 46 49 42
3.726889e-01 4.871597e-01 2.911449e+00 55 72 34
3.372896e-01 4.703075e-01 2.878573e+00 55 73 35
3.372896e-01 4.703075e-01 2.878573e+00 55 73 35
3.710080e-01 4.866193e-01 2.910364e+00 68 81 37
3.710080e-01 4.866193e-01 2.910364e+00 68 81 37
3.628200e-01 4.829688e-01 2.903877e+00 67 91 43
4.124801e-01 4.981053e-01 2.913057e+00 164 163 169
3.663090e-01 4.846716e-01 2.906828e+00 52 74 36
3.879364e-01 4.933733e-01 2.919981e+00 61 81 46
3.612120e-01 4.824310e-01 2.902609e+00 113 129 81
4.122744e-01 4.983127e-01 2.913767e+00 109 108 114
4.335427e-01 4.928581e-01 2.866016e+00 56 56 48
3.755401e-01 4.888237e-01 2.913595e+00 139 153 104
3.542822e-01 4.792881e-01 2.896419e+00 48 66 25
3.530491e-01 4.788946e-01 2.895477e+00 112 129 87
3.536140e-01 4.790719e-01 2.895524e+00 91 109 68
4.260286e-01 4.966405e-01 2.889907e+00 191 195 211
3.515300e-01 4.782166e-01 2.893878e+00 82 100 56
3.601208e-01 4.823321e-01 2.901812e+00 67 80 37
3.257890e-01 4.653081e-01 2.866733e+00 73 98 42
3.112927e-01 4.576179e-01 2.849799e+00 94 114 79
3.275447e-01 4.662111e-01 2.868613e+00 110 138 80
3.700043e-01 4.869621e-01 2.910372e+00 158 173 118
3.140847e-01 4.592127e-01 2.853047e+00 114 137 93
4.234037e-01 4.977042e-01 2.896494e+00 182 185 200
4.228817e-01 4.978752e-01 2.897815e+00 194 197 212
3.546342e-01 4.800500e-01 2.897454e+00 47 69 23
3.043466e-01 4.541071e-01 2.841510e+00 102 134 87
4.223670e-01 4.978925e-01 2.898323e+00 191 194 209
4.218278e-01 4.981622e-01 2.899985e+00 186 191 206
3.888318e-01 4.945463e-01 2.921007e+00 63 83 32
3.315858e-01 4.687322e-01 2.873457e+00 163 181 136
3.758478e-01 4.898817e-01 2.915122e+00 42 59 8
3.758478e-01 4.898817e-01 2.915122e+00 42 59 8
3.541909e-01 4.801534e-01 2.896918e+00 95 117 71
4.335777e-01 4.943743e-01 2.868978e+00 112 113 96
4.080548e-01 4.991918e-01 2.918785e+00 47 63 24
4.079102e-01 4.993471e-01 2.919567e+00 115 134 88
3.983188e-01 4.976912e-01 2.923062e+00 130 149 93
3.796160e-01 4.916385e-01 2.917469e+00 96 113 68
3.762354e-01 4.902328e-01 2.915159e+00 61 78 23
3.754957e-01 4.899463e-01 2.914768e+00 48 66 18
4.014838e-01 4.985432e-01 2.922783e+00 50 62 26
3.792940e-01 4.915880e-01 2.917480e+00 37 56 10
3.702015e-01 4.878249e-01 2.911321e+00 136 153 98
3.305810e-01 4.686071e-01 2.872562e+00 116 141 86
4.364857e-01 4.926815e-01 2.857414e+00 78 93 60
3.751585e-01 4.899264e-01 2.914754e+00 139 159 110
4.115708e-01 4.998479e-01 2.916710e+00 192 198 210
3.712269e-01 4.884880e-01 2.912611e+00 103 123 64
3.861059e-01 4.945063e-01 2.921301e+00 151 171 112
3.052981e-01 4.559383e-01 2.844270e+00 35 69 13
3.663100e-01 4.865327e-01 2.908770e+00 59 80 24
3.663100e-01 4.865327e-01 2.908770e+00 59 80 24
3.936038e-01 4.971811e-01 2.923732e+00 111 131 78
4.438582e-01 4.885059e-01 2.828390e+00 118 144 96
3.183270e-01 4.631612e-01 2.859998e+00 35 61 14
4.050648e-01 4.999537e-01 2.922396e+00 89 109 70
4.050648e-01 4.999537e-01 2.922396e+00 89 109 70
3.543496e-01 4.813628e-01 2.898400e+00 116 141 83
3.543496e-01 4.813628e-01 2.898400e+00 116 141 83
3.497741e-01 4.791694e-01 2.894015e+00 60 87 32
3.961467e-01 4.981123e-01 2.923816e+00 91 106 75
4.432515e-01 4.894516e-01 2.832101e+00 145 171 108
4.432515e-01 4.894516e-01 2.832101e+00 145 171 108
3.425516e-01 4.757420e-01 2.886587e+00 54 79 22
3.844910e-01 4.945666e-01 2.921148e+00 34 53 1
3.748952e-01 4.910267e-01 2.915995e+00 108 136 86
4.397424e-01 4.923992e-01 2.847618e+00 52 75 19
3.997481e-01 4.995076e-01 2.924514e+00 93 103 75
4.104922e-01 5.011633e-01 2.919351e+00 87 97 71
3.922699e-01 4.975506e-01 2.924071e+00 51 56 26
3.271608e-01 4.687814e-01 2.870863e+00 118 139 82
4.070493e-01 5.012144e-01 2.922606e+00 95 109 74
3.755172e-01 4.918700e-01 2.917205e+00 50 78 27
4.046069e-01 5.007664e-01 2.923085e+00 33 48 17
4.089813e-01 5.015121e-01 2.920932e+00 77 94 40
3.311983e-01 4.713191e-01 2.876125e+00 120 150 88
3.311983e-01 4.713191e-01 2.876125e+00 120 150 88
4.349550e-01 4.964377e-01 2.868226e+00 148 165 123
3.991898e-01 5.001239e-01 2.925173e+00 52 68 35
3.479536e-01 4.800391e-01 2.894129e+00 95 116 58
4.003870e-01 5.007317e-01 2.925613e+00 91 104 78
4.086152e-01 5.021000e-01 2.922117e+00 20 43 0
3.769053e-01 4.934498e-01 2.919367e+00 119 144 87
4.368450e-01 4.961758e-01 2.862645e+00 96 121 73
3.477153e-01 4.802903e-01 2.894213e+00 42 63 6
3.477153e-01 4.802903e-01 2.894213e+00 42 63 6
4.334704e-01 4.983212e-01 2.875616e+00 111 138 88
4.391999e-01 4.952491e-01 2.854541e+00 100 122 83
3.649145e-01 4.888492e-01 2.910801e+00 97 122 67
3.937409e-01 4.999022e-01 2.926689e+00 64 79 36
3.937409e-01 4.999022e-01 2.926689e+00 64 79 36
3.969120e-01 5.007982e-01 2.926824e+00 48 71 18
4.326316e-01 4.992208e-01 2.878673e+00 111 137 90
3.570948e-01 4.857494e-01 2.904196e+00 121 136 76
3.570948e-01 4.857494e-01 2.904196e+00 121 136 76
4.446082e-01 4.926749e-01 2.833921e+00 39 61 12
4.084556e-01 5.035699e-01 2.924121e+00 43 69 27
4.065965e-01 5.033526e-01 2.925043e+00 103 115 79
4.357869e-01 4.986374e-01 2.869986e+00 94 118 66
4.357869e-01 4.986374e-01 2.869986e+00 94 118 66
3.774146e-01 4.950757e-01 2.920911e+00 50 74 16
3.774146e-01 4.950757e-01 2.920911e+00 50 74 16
4.064548e-01 5.036421e-01 2.925557e+00 53 65 26
4.086758e-01 5.039673e-01 2.924223e+00 135 157 119
4.472536e-01 4.915627e-01 2.823361e+00 47 68 30
4.111275e-01 5.041675e-01 2.922056e+00 105 118 98
4.341035e-01 5.003204e-01 2.877525e+00 47 74 23
4.341035e-01 5.003204e-01 2.877525e+00 47 74 23
4.096550e-01 5.044934e-01 2.924218e+00 53 70 38
3.732690e-01 4.940012e-01 2.918844e+00 77 94 39
4.443146e-01 4.945046e-01 2.838128e+00 102 128 80
3.669892e-01 4.914736e-01 2.914090e+00 71 84 41
4.337359e-01 5.009127e-01 2.879015e+00 104 135 76
3.814679e-01 4.973474e-01 2.923603e+00 119 133 83
3.814679e-01 4.973474e-01 2.923603e+00 119 133 83
3.892677e-01 5.001691e-01 2.927097e+00 118 130 84
3.892677e-01 5.001691e-01 2.927097e+00 118 130 84
3.148056e-01 4.664994e-01 2.861040e+00 38 62 0
3.148056e-01 4.664994e-01 2.861040e+00 38 62 0
4.363470e-01 4.996417e-01 2.870014e+00 49 78 17
4.119613e-01 5.051608e-01 2.922943e+00 168 180 171
3.943677e-01 5.020826e-01 2.929103e+00 52 78 30
3.943677e-01 5.020826e-01 2.929103e+00 52 78 30
4.284268e-01 5.032680e-01 2.894980e+00 64 85 67
4.273843e-01 5.038910e-01 2.898365e+00 71 86 63
4.251530e-01 5.047284e-01 2.903982e+00 84 103 73
3.846336e-01 4.993813e-01 2.926555e+00 61 81 18
3.764712e-01 4.963205e-01 2.922024e+00 40 56 9
4.215422e-01 5.054917e-01 2.910959e+00 77 96 62
4.148001e-01 5.059214e-01 2.920789e+00 158 169 162
3.459370e-01 4.829963e-01 2.896411e+00 37 56 13
4.196698e-01 5.056129e-01 2.913474e+00 88 102 79
4.028749e-01 5.047983e-01 2.928808e+00 110 135 80
3.091948e-01 4.648405e-01 2.855893e+00 54 83 25
3.465007e-01 4.834441e-01 2.896922e+00 76 94 56
3.048866e-01 4.627444e-01 2.851037e+00 108 137 83
3.048866e-01 4.627444e-01 2.851037e+00 108 137 83
4.147391e-01 5.062159e-01 2.920853e+00 99 112 93
3.884623e-01 5.010594e-01 2.927971e+00 54 72 17
4.419991e-01 4.981256e-01 2.851759e+00 99 122 75
4.297082e-01 5.041494e-01 2.893508e+00 62 84 40
3.731105e-01 4.954622e-01 2.919897e+00 119 138 86
4.391092e-01 4.999135e-01 2.862942e+00 48 71 32
4.196764e-01 5.063679e-01 2.915256e+00 111 126 94
3.978203e-01 5.041356e-01 2.930546e+00 53 67 24
3.978203e-01 5.041356e-01 2.930546e+00 53 67 24
3.423689e-01 4.817713e-01 2.892862e+00 26 54 5
4.455900e-01 4.961925e-01 2.837781e+00 87 112 82
4.171536e-01 5.066631e-01 2.919137e+00 66 81 60
4.412339e-01 4.988483e-01 2.854956e+00 98 114 77
4.127296e-01 5.066654e-01 2.923835e+00 176 192 161
4.153691e-01 5.068772e-01 2.921453e+00 53 70 41
3.895057e-01 5.019389e-01 2.928930e+00 60 79 19
4.343966e-01 5.031912e-01 2.881511e+00 100 125 79
4.221102e-01 5.068353e-01 2.912161e+00 119 145 100
4.221102e-01 5.068353e-01 2.912161e+00 119 145 100
4.165470e-01 5.072173e-01 2.920102e+00 93 115 77
4.152328e-01 5.072270e-01 2.921666e+00 192 212 177
4.152328e-01 5.072270e-01 2.921666e+00 192 212 177
4.392424e-01 5.010891e-01 2.864969e+00 89 105 79
3.457591e-01 4.842274e-01 2.897331e+00 35 62 19
4.484347e-01 4.953672e-01 2.827132e+00 93 113 85
3.807117e-01 4.994135e-01 2.925759e+00 53 82 23
3.550410e-01 4.885906e-01 2.905960e+00 22 50 10
3.863277e-01 5.015962e-01 2.928734e+00 52 71 15
3.303204e-01 4.769991e-01 2.881294e+00 62 88 25
3.763421e-01 4.978887e-01 2.923369e+00 59 76 32
3.707713e-01 4.956593e-01 2.919622e+00 70 84 32
3.836812e-01 5.007719e-01 2.927646e+00 110 138 88
3.681803e-01 4.946456e-01 2.917599e+00 104 120 83
4.410484e-01 5.004088e-01 2.858355e+00 88 105 73
3.719809e-01 4.962423e-01 2.920334e+00 44 62 22
4.242809e-01 5.071464e-01 2.908994e+00 39 58 32
4.288422e-01 5.059866e-01 2.898205e+00 32 49 30
3.768158e-01 4.983163e-01 2.923836e+00 115 136 91
3.596446e-01 4.911721e-01 2.911036e+00 30 58 10
3.596446e-01 4.911721e-01 2.911036e+00 30 58 10
4.369898e-01 5.029864e-01 2.874186e+00 97 120 91
3.927268e-01 5.039555e-01 2.930878e+00 62 85 32
4.339782e-01 5.046519e-01 2.885337e+00 29 52 23
4.176406e-01 5.080187e-01 2.920113e+00 94 114 81
4.109328e-01 5.077624e-01 2.926788e+00 68 90 42
3.921607e-01 5.039146e-01 2.931189e+00 66 94 36
3.490154e-01 4.865300e-01 2.901294e+00 113 146 92
3.490154e-01 4.865300e-01 2.901294e+00 113 146 92
3.094524e-01 4.671729e-01 2.858342e+00 62 92 38
4.392585e-01 5.021312e-01 2.867020e+00 87 100 82
4.268569e-01 5.068989e-01 2.903622e+00 86 106 79
4.268569e-01 5.068989e-01 2.903622e+00 86 106 79
3.919820e-01 5.036497e-01 2.929577e+00 125 150 95
4.062703e-01 5.072823e-01 2.929486e+00 58 86 37
3.826323e-01 5.008520e-01 2.927494e+00 99 126 83
4.249186e-01 5.074599e-01 2.908181e+00 79 97 71
4.244488e-01 5.075221e-01 2.909080e+00 85 100 77
4.244488e-01 5.075221e-01 2.909080e+00 85 100 77
3.880537e-01 5.027331e-01 2.929758e+00 57 79 33
3.880537e-01 5.027331e-01 2.929758e+00 57 79 33
3.111049e-01 4.682365e-01 2.860473e+00 93 123 69
4.194023e-01 5.083849e-01 2.918343e+00 118 143 104
3.931949e-01 5.045243e-01 2.931330e+00 60 81 25
4.442506e-01 4.998100e-01 2.848774e+00 78 96 80
3.835888e-01 5.013970e-01 2.927965e+00 50 75 38
3.586992e-01 4.913423e-01 2.910723e+00 13 39 2
4.236070e-01 5.080244e-01 2.911349e+00 37 61 29
4.477344e-01 4.974601e-01 2.833235e+00 74 87 77
3.461840e-01 4.857650e-01 2.899195e+00 97 126 80
4.483592e-01 4.974344e-01 2.831758e+00 27 44 25
3.118641e-01 4.692150e-01 2.862222e+00 34 62 13
3.171468e-01 4.717869e-01 2.867758e+00 86 107 54
3.171468e-01 4.717869e-01 2.867758e+00 86 107 54
3.128904e-01 4.697597e-01 2.863315e+00 43 70 21
3.128904e-01 4.697597e-01 2.863315e+00 43 70 21
3.543931e-01 4.898080e-01 2.907145e+00 19 43 7
3.179279e-01 4.722406e-01 2.868639e+00 143 164 108
3.114181e-01 4.692802e-01 2.862447e+00 92 120 71
3.187817e-01 4.727541e-01 2.869783e+00 47 68 11
3.814723e-01 5.012461e-01 2.927762e+00 27 49 13
4.348283e-01 5.054366e-01 2.883947e+00 35 60 39
4.348283e-01 5.054366e-01 2.883947e+00 35 60 39
4.059436e-01 5.080333e-01 2.930315e+00 59 84 43
3.103348e-01 4.688750e-01 2.860925e+00 38 66 18
3.103348e-01 4.688750e-01 2.860925e+00 38 66 18
3.532410e-01 4.895285e-01 2.906305e+00 37 59 23
4.482836e-01 4.980607e-01 2.832816e+00 80 99 80
4.060814e-01 5.079840e-01 2.929593e+00 152 179 137
3.678326e-01 4.961268e-01 2.919120e+00 88 110 72
3.497212e-01 4.880849e-01 2.903112e+00 34 66 17
3.477320e-01 4.872649e-01 2.901618e+00 48 81 26
2.987856e-01 4.633168e-01 2.847822e+00 65 99 38
2.987856e-01 4.633168e-01 2.847822e+00 65 99 38
4.466562e-01 4.992620e-01 2.839632e+00 83 96 86
4.466562e-01 4.992620e-01 2.839632e+00 83 96 86
3.989530e-01 5.070100e-01 2.932725e+00 47 74 25
3.564375e-01 4.912552e-01 2.909596e+00 71 96 60
3.426448e-01 4.849726e-01 2.896642e+00 89 117 76
3.995003e-01 5.071970e-01 2.932743e+00 28 51 8
3.869832e-01 5.036125e-01 2.930623e+00 87 106 78
3.396428e-01 4.836487e-01 2.893446e+00 44 72 24
4.063617e-01 5.086733e-01 2.930887e+00 26 51 12
3.684334e-01 4.967065e-01 2.919719e+00 76 98 59
3.861581e-01 5.035348e-01 2.930535e+00 117 141 112
3.460141e-01 4.868218e-01 2.900007e+00 108 135 92
4.382855e-01 5.042970e-01 2.871974e+00 85 108 79
4.214591e-01 5.097233e-01 2.917511e+00 92 107 85
4.048728e-01 5.086779e-01 2.932238e+00 99 125 89
4.048728e-01 5.086779e-01 2.932238e+00 99 125 89
4.315675e-01 5.072274e-01 2.893616e+00 65 78 58
3.641167e-01 4.950677e-01 2.916637e+00 42 52 23
3.454202e-01 4.866498e-01 2.899563e+00 30 56 17
3.451636e-01 4.867271e-01 2.899802e+00 85 111 75
3.329989e-01 4.809790e-01 2.886949e+00 97 124 73
3.312149e-01 4.801508e-01 2.884964e+00 31 59 8
4.363003e-01 5.060524e-01 2.881335e+00 28 42 27
4.132888e-01 5.098923e-01 2.926832e+00 109 137 88
4.247157e-01 5.097136e-01 2.912170e+00 26 51 19
4.142110e-01 5.101113e-01 2.926568e+00 94 116 75
4.110448e-01 5.098834e-01 2.929332e+00 131 152 109
3.975151e-01 5.072907e-01 2.933249e+00 101 129 80
3.975151e-01 5.072907e-01 2.933249e+00 101 129 80
4.204606e-01 5.101279e-01 2.919019e+00 107 127 99
4.121186e-01 5.101069e-01 2.928740e+00 64 82 44
3.889350e-01 5.049222e-01 2.931562e+00 31 52 21
3.858036e-01 5.039970e-01 2.930856e+00 83 107 85
4.024059e-01 5.086837e-01 2.933105e+00 21 46 16
3.494884e-01 4.891328e-01 2.904193e+00 24 52 12
4.352471e-01 5.067676e-01 2.884702e+00 36 56 44
4.046644e-01 5.092650e-01 2.932998e+00 88 114 75
3.962795e-01 5.072028e-01 2.933142e+00 28 49 21
3.958389e-01 5.071251e-01 2.933441e+00 24 43 17
3.926326e-01 5.062951e-01 2.933357e+00 21 50 20
3.873112e-01 5.045082e-01 2.931274e+00 22 43 21
3.359739e-01 4.830614e-01 2.891085e+00 29 56 10
4.372685e-01 5.058785e-01 2.877589e+00 85 104 82
4.303087e-01 5.085666e-01 2.898532e+00 34 50 47
4.096935e-01 5.099938e-01 2.929985e+00 29 52 24
4.007597e-01 5.086812e-01 2.934158e+00 71 86 57
3.297820e-01 4.800587e-01 2.884000e+00 89 120 63
4.367304e-01 5.065743e-01 2.881099e+00 82 99 80
3.254573e-01 4.781329e-01 2.879676e+00 25 57 8
4.355714e-01 5.071807e-01 2.885141e+00 71 89 75
4.039015e-01 5.091855e-01 2.932450e+00 17 45 7
3.967324e-01 5.077275e-01 2.934139e+00 91 114 88
3.263323e-01 4.786167e-01 2.880676e+00 29 60 10
4.216678e-01 5.107151e-01 2.918254e+00 94 107 90
3.974260e-01 5.079709e-01 2.934210e+00 94 116 85
3.941708e-01 5.070670e-01 2.933790e+00 83 105 84
3.941708e-01 5.070670e-01 2.933790e+00 83 105 84
4.392624e-01 5.060375e-01 2.874409e+00 18 37 17
4.226204e-01 5.107078e-01 2.916378e+00 106 121 100
3.632970e-01 4.959540e-01 2.917362e+00 10 30 3
4.426817e-01 5.039325e-01 2.859753e+00 40 62 24
4.186885e-01 5.110853e-01 2.922537e+00 125 139 111
4.186885e-01 5.110853e-01 2.922537e+00 125 139 111
4.274454e-01 5.102616e-01 2.907464e+00 107 121 104
4.151610e-01 5.111765e-01 2.926548e+00 112 132 108
4.151610e-01 5.111765e-01 2.926548e+00 112 132 108
4.085996e-01 5.106739e-01 2.931943e+00 55 81 45
3.856413e-01 5.049472e-01 2.932218e+00 21 44 26
3.661008e-01 4.972939e-01 2.919433e+00 22 44 5
3.770603e-01 5.018001e-01 2.927381e+00 80 108 68
4.188787e-01 5.113012e-01 2.922303e+00 50 68 43
3.371640e-01 4.845454e-01 2.893148e+00 80 106 67
3.835645e-01 5.043524e-01 2.931122e+00 103 126 98
3.835645e-01 5.043524e-01 2.931122e+00 103 126 98
3.854820e-01 5.051987e-01 2.932278e+00 87 108 91
3.842146e-01 5.048432e-01 2.931872e+00 25 48 21
4.183935e-01 5.118057e-01 2.923851e+00 72 84 72
4.055327e-01 5.106425e-01 2.933842e+00 36 58 22
3.852492e-01 5.052508e-01 2.932469e+00 25 46 29
3.852492e-01 5.052508e-01 2.932469e+00 25 46 29
4.170764e-01 5.116875e-01 2.924822e+00 75 92 76
4.245035e-01 5.112963e-01 2.913896e+00 20 45 16
4.245035e-01 5.112963e-01 2.913896e+00 20 45 16
4.297380e-01 5.104168e-01 2.902952e+00 78 102 88
4.139310e-01 5.117965e-01 2.928472e+00 78 95 76
4.132025e-01 5.117273e-01 2.929114e+00 76 96 71
3.351718e-01 4.841891e-01 2.891440e+00 83 108 68
4.095766e-01 5.115422e-01 2.932273e+00 73 96 69
