ply
format ascii 1.0
element face 0
property list uchar int vertex_indices
element vertex 964
property float x
property float y
property float z
property uchar diffuse_red
property uchar diffuse_green
property uchar diffuse_blue
end_header
4.350168e-01 5.405210e-01 3.133139e+00 37 36 49
4.182585e-01 5.634940e-01 3.130759e+00 68 67 71
4.128095e-01 5.712135e-01 3.128938e+00 51 51 51
4.679499e-01 5.170903e-01 3.144078e+00 55 50 47
4.683648e-01 5.169242e-01 3.143921e+00 132 127 124
4.150122e-01 5.809696e-01 3.127528e+00 30 28 39
4.372222e-01 5.572463e-01 3.133730e+00 54 51 58
4.524604e-01 5.420908e-01 3.137087e+00 127 123 122
4.749811e-01 5.220097e-01 3.142553e+00 132 139 149
4.533668e-01 5.457481e-01 3.136271e+00 164 162 163
4.342036e-01 5.677914e-01 3.131567e+00 145 147 145
4.376851e-01 5.792530e-01 3.126835e+00 84 83 83
4.283613e-01 5.905980e-01 3.124263e+00 43 41 42
4.890508e-01 5.240360e-01 3.146489e+00 139 137 138
4.447263e-01 5.728717e-01 3.131045e+00 77 74 71
4.768337e-01 5.403592e-01 3.138533e+00 134 132 135
4.841247e-01 5.335208e-01 3.140915e+00 120 116 115
4.847553e-01 5.371925e-01 3.139652e+00 131 123 121
4.859448e-01 5.364599e-01 3.139809e+00 123 110 103
4.342240e-01 5.933130e-01 3.125922e+00 118 114 113
4.885042e-01 5.387503e-01 3.140700e+00 104 97 95
4.397127e-01 5.954613e-01 3.126646e+00 118 119 113
4.562651e-01 5.770699e-01 3.134232e+00 75 74 80
4.558415e-01 5.779946e-01 3.134174e+00 119 119 121
4.330440e-01 6.036034e-01 3.127025e+00 45 44 50
5.111806e-01 5.592444e-01 3.131565e+00 113 108 114
4.639867e-01 6.144995e-01 3.117619e+00 90 89 94
4.718838e-01 6.160428e-01 3.120357e+00 146 142 141
3.979650e-01 4.922296e-01 3.151053e+00 62 60 63
3.980320e-01 4.962101e-01 3.145593e+00 22 20 21
3.943001e-01 5.049794e-01 3.142088e+00 18 18 20
4.014141e-01 4.976955e-01 3.148377e+00 53 51 54
4.011523e-01 4.980048e-01 3.147807e+00 21 19 20
4.030336e-01 4.969065e-01 3.150851e+00 90 88 91
4.011056e-01 5.003527e-01 3.144611e+00 39 35 34
3.972085e-01 5.048850e-01 3.141421e+00 36 36 34
4.027940e-01 4.996910e-01 3.147488e+00 43 37 33
4.058550e-01 4.968613e-01 3.151880e+00 90 88 91
4.050890e-01 4.998950e-01 3.148677e+00 67 61 60
4.051124e-01 5.001640e-01 3.148619e+00 25 20 17
3.986082e-01 5.074730e-01 3.140603e+00 77 76 74
4.023936e-01 5.034000e-01 3.141699e+00 61 56 53
3.990504e-01 5.077754e-01 3.140635e+00 75 74 72
4.066919e-01 5.019345e-01 3.148291e+00 20 15 14
4.075891e-01 5.013489e-01 3.149647e+00 25 20 17
3.919878e-01 5.209459e-01 3.144586e+00 86 82 83
3.878652e-01 5.263636e-01 3.145826e+00 63 62 68
4.069607e-01 5.040589e-01 3.146677e+00 87 82 79
4.127060e-01 4.985003e-01 3.153310e+00 96 95 100
4.100980e-01 5.023245e-01 3.150379e+00 41 37 36
4.110430e-01 5.043123e-01 3.149867e+00 71 66 64
4.091271e-01 5.068790e-01 3.147433e+00 86 81 78
4.091291e-01 5.068766e-01 3.147425e+00 86 81 78
4.083881e-01 5.086184e-01 3.144672e+00 83 78 75
3.624301e-01 5.644464e-01 2.977720e+00 69 72 79
4.000341e-01 5.199966e-01 3.143002e+00 84 80 79
4.097425e-01 5.089013e-01 3.147037e+00 50 42 37
4.108254e-01 5.102270e-01 3.146724e+00 80 73 67
4.102789e-01 5.111198e-01 3.146615e+00 90 85 82
3.631976e-01 5.769686e-01 2.975423e+00 148 145 162
4.056212e-01 5.244787e-01 3.145554e+00 84 80 79
3.936910e-01 5.426234e-01 3.140838e+00 64 62 64
4.034358e-01 5.332527e-01 3.144323e+00 95 93 96
3.985076e-01 5.411265e-01 3.140941e+00 68 67 72
4.230513e-01 5.132797e-01 3.148873e+00 97 95 100
4.070988e-01 5.315574e-01 3.143609e+00 96 92 93
3.912024e-01 5.496137e-01 3.139225e+00 108 108 108
4.325804e-01 5.114566e-01 3.149494e+00 101 95 95
4.357370e-01 5.109959e-01 3.149993e+00 49 38 34
4.337822e-01 5.193956e-01 3.147011e+00 41 35 37
4.041733e-01 5.567013e-01 3.136667e+00 98 98 100
4.284630e-01 5.355455e-01 3.142234e+00 72 72 74
4.294726e-01 5.417092e-01 3.132885e+00 114 114 114
4.032481e-01 5.703172e-01 3.129238e+00 56 56 56
4.358158e-01 5.362777e-01 3.134301e+00 125 124 133
4.045309e-01 5.721085e-01 3.129521e+00 65 65 67
4.289326e-01 5.550228e-01 3.138527e+00 69 67 70
4.228760e-01 5.649045e-01 3.130870e+00 125 120 117
4.169319e-01 5.723897e-01 3.128999e+00 121 115 115
4.165255e-01 5.830739e-01 3.129584e+00 123 121 124
4.746923e-01 5.350020e-01 3.137413e+00 89 88 86
4.935596e-01 5.275557e-01 3.145315e+00 130 129 127
4.299180e-01 5.963193e-01 3.127743e+00 124 120 117
4.447315e-01 5.829364e-01 3.129103e+00 80 76 67
4.976779e-01 5.294938e-01 3.146507e+00 115 117 114
4.363246e-01 5.994175e-01 3.128421e+00 118 116 119
4.970537e-01 5.710475e-01 3.100993e+00 239 238 244
5.155192e-01 5.587154e-01 3.130236e+00 16 15 21
3.517519e-01 5.866933e-01 3.088218e+00 135 138 155
4.823261e-01 5.375108e-01 3.138835e+00 23 20 26
4.405490e-01 4.938635e-01 3.152730e+00 58 55 64
4.410362e-01 5.401408e-01 3.133366e+00 79 73 83
4.733067e-01 6.126660e-01 3.120966e+00 71 71 83
4.277568e-01 5.459345e-01 3.132362e+00 171 168 175
4.355884e-01 5.404683e-01 3.133262e+00 74 71 82
3.515430e-01 5.835973e-01 3.082976e+00 45 51 67
3.517278e-01 5.932333e-01 3.097949e+00 120 123 138
4.297368e-01 5.469525e-01 3.131584e+00 37 35 40
4.455059e-01 5.512837e-01 3.135601e+00 78 77 84
4.423311e-01 5.915240e-01 3.126865e+00 58 61 70
3.819943e-01 5.602734e-01 3.137743e+00 99 93 103
3.566108e-01 5.904761e-01 3.075012e+00 30 39 64
3.931646e-01 5.775424e-01 3.127445e+00 101 104 119
4.337195e-01 5.488877e-01 3.137130e+00 134 128 130
4.727392e-01 5.378066e-01 3.164017e+00 81 80 86
3.855935e-01 5.086935e-01 3.141910e+00 90 80 81
3.943655e-01 5.158685e-01 3.141142e+00 132 121 119
4.308333e-01 5.276184e-01 3.135833e+00 67 65 76
4.341521e-01 5.366557e-01 3.130772e+00 134 130 143
4.834629e-01 5.365948e-01 3.139869e+00 147 145 151
5.055504e-01 5.814725e-01 3.126772e+00 96 117 147
4.213069e-01 5.144554e-01 3.148061e+00 166 164 171
3.578205e-01 5.997370e-01 3.083757e+00 166 182 216
4.414333e-01 5.794096e-01 3.128656e+00 49 46 55
4.416871e-01 5.798517e-01 3.128536e+00 140 139 147
4.000716e-01 4.992393e-01 3.127342e+00 117 110 108
4.015675e-01 4.975287e-01 3.128184e+00 148 137 141
4.597646e-01 4.980863e-01 3.145269e+00 197 191 179
4.127469e-01 5.283868e-01 3.136413e+00 151 136 115
4.378815e-01 5.413270e-01 3.135184e+00 48 47 46
3.863363e-01 5.174623e-01 3.141284e+00 151 132 102
3.874297e-01 5.184718e-01 3.141160e+00 152 138 109
3.950828e-01 4.942587e-01 3.141533e+00 118 105 89
3.875039e-01 5.095512e-01 3.139990e+00 130 116 93
3.862425e-01 5.143349e-01 3.140726e+00 49 35 26
3.965464e-01 5.165589e-01 3.139342e+00 88 69 44
4.095914e-01 5.399912e-01 3.138488e+00 55 37 25
4.735589e-01 5.024207e-01 3.146703e+00 254 254 250
3.823103e-01 5.069566e-01 3.140781e+00 121 110 82
3.829089e-01 5.081607e-01 3.140962e+00 110 100 79
3.826554e-01 5.083509e-01 3.140581e+00 110 100 79
3.876009e-01 5.103573e-01 3.140376e+00 66 54 29
4.003263e-01 5.011448e-01 3.140590e+00 139 121 99
4.246456e-01 5.234405e-01 3.140961e+00 80 62 44
4.411373e-01 5.232993e-01 3.138279e+00 95 78 58
4.343243e-01 5.842848e-01 3.127321e+00 89 78 62
4.814432e-01 5.461304e-01 3.138574e+00 93 81 75
4.057988e-01 5.042780e-01 3.140430e+00 123 107 78
4.180068e-01 5.043049e-01 3.143474e+00 187 170 154
4.261398e-01 4.962403e-01 3.145973e+00 181 168 152
4.689955e-01 5.373264e-01 3.138850e+00 51 55 55
4.671741e-01 5.524349e-01 3.135574e+00 94 87 83
5.135094e-01 5.569771e-01 3.130906e+00 8 10 23
5.140711e-01 5.820324e-01 3.127950e+00 67 78 76
4.100908e-01 5.335731e-01 3.143259e+00 119 120 113
4.100908e-01 5.335731e-01 3.143259e+00 119 120 113
4.343509e-01 5.094981e-01 3.149535e+00 46 43 40
4.290001e-01 5.172022e-01 3.148117e+00 21 15 9
4.128810e-01 5.095783e-01 3.148707e+00 37 34 38
4.074497e-01 5.186740e-01 3.143996e+00 65 65 60
4.282047e-01 5.156614e-01 3.147838e+00 14 8 7
4.235682e-01 5.234124e-01 3.146662e+00 27 21 15
4.125111e-01 5.331967e-01 3.143866e+00 100 100 94
4.330938e-01 5.097653e-01 3.149656e+00 95 95 89
5.321386e-01 5.628010e-01 3.133987e+00 89 108 126
4.111643e-01 5.181344e-01 3.146234e+00 87 84 80
4.113033e-01 5.224191e-01 3.146661e+00 98 103 101
4.113467e-01 5.224259e-01 3.146565e+00 98 103 101
4.218370e-01 5.265331e-01 3.145864e+00 84 78 66
4.386749e-01 5.344346e-01 3.134336e+00 8 4 3
4.114908e-01 5.097090e-01 3.147583e+00 100 101 96
4.107504e-01 5.124155e-01 3.146186e+00 21 17 11
4.074352e-01 5.394000e-01 3.142542e+00 89 92 90
4.306821e-01 6.004142e-01 3.127629e+00 44 48 51
4.834554e-01 5.387507e-01 3.139459e+00 112 108 105
4.743478e-01 6.025699e-01 3.119973e+00 14 15 21
4.088326e-01 5.053691e-01 3.146897e+00 47 43 34
4.066664e-01 5.173358e-01 3.142463e+00 17 14 9
4.053713e-01 5.220164e-01 3.145112e+00 88 87 82
4.099012e-01 5.176021e-01 3.145327e+00 74 74 67
4.086867e-01 5.207883e-01 3.145442e+00 45 44 42
4.067605e-01 5.234326e-01 3.145504e+00 61 58 53
4.068674e-01 5.232589e-01 3.145922e+00 39 34 30
4.058260e-01 5.327850e-01 3.143960e+00 117 127 129
4.163736e-01 5.262027e-01 3.145169e+00 29 25 23
4.285253e-01 5.135367e-01 3.149849e+00 57 58 53
4.149855e-01 5.330527e-01 3.144271e+00 12 13 8
4.229479e-01 5.251200e-01 3.146341e+00 95 86 77
4.389101e-01 5.328036e-01 3.135226e+00 110 116 119
4.268465e-01 5.704734e-01 3.130470e+00 135 137 135
4.780064e-01 5.256812e-01 3.136937e+00 9 8 13
4.367905e-01 5.886952e-01 3.126513e+00 114 116 114
4.807402e-01 6.079040e-01 3.121813e+00 129 135 138
5.350418e-01 5.652496e-01 3.131727e+00 97 114 116
3.971738e-01 5.842320e-01 3.125066e+00 255 255 255
5.230761e-01 5.516405e-01 3.136380e+00 121 121 121
4.086785e-01 5.899182e-01 3.124293e+00 255 255 255
3.985657e-01 4.942179e-01 3.150111e+00 109 109 108
4.302183e-01 4.754205e-01 3.158685e+00 53 51 52
4.005380e-01 4.981429e-01 3.146227e+00 44 46 45
4.050973e-01 4.998349e-01 3.148203e+00 96 92 88
3.956650e-01 5.801299e-01 3.124411e+00 140 144 150
4.587784e-01 5.597819e-01 3.130983e+00 109 107 108
5.043216e-01 5.713185e-01 3.103994e+00 254 254 251
4.250228e-01 5.105777e-01 3.149986e+00 135 134 143
4.078136e-01 5.304319e-01 3.143976e+00 53 54 56
4.344744e-01 5.443774e-01 3.132732e+00 44 48 57
4.334712e-01 5.485422e-01 3.131211e+00 123 121 110
4.421459e-01 5.929402e-01 3.127246e+00 141 145 122
3.995272e-01 4.972791e-01 3.144897e+00 48 53 51
3.988359e-01 4.978986e-01 3.143492e+00 50 53 57
4.010139e-01 4.959526e-01 3.147361e+00 49 50 54
4.146879e-01 4.854680e-01 3.147962e+00 116 116 114
4.401420e-01 5.420683e-01 3.133222e+00 62 66 77
4.101063e-01 5.733200e-01 3.129057e+00 98 97 95
4.197520e-01 5.732133e-01 3.129789e+00 86 85 83
4.359289e-01 5.568924e-01 3.133722e+00 133 131 132
4.629844e-01 5.608615e-01 3.133444e+00 81 79 84
4.541330e-01 5.806059e-01 3.133796e+00 68 68 69
4.646385e-01 6.150615e-01 3.117453e+00 114 115 110
4.681231e-01 6.164743e-01 3.117296e+00 116 116 106
3.604451e-01 5.317622e-01 3.137012e+00 107 117 119
3.977003e-01 4.911199e-01 3.149417e+00 45 45 43
4.031440e-01 4.972719e-01 3.149925e+00 64 64 64
3.483459e-01 5.643526e-01 3.014968e+00 179 176 160
4.042969e-01 5.135157e-01 3.139879e+00 120 115 112
3.623509e-01 5.778582e-01 2.973174e+00 144 138 179
4.109580e-01 5.172049e-01 3.146085e+00 68 64 61
3.851756e-01 5.544016e-01 3.138567e+00 49 54 58
4.441244e-01 5.083842e-01 3.149622e+00 94 91 86
4.538516e-01 5.632403e-01 3.129654e+00 253 253 240
4.602887e-01 5.569454e-01 3.131170e+00 253 253 245
4.537215e-01 5.811880e-01 3.133451e+00 72 71 76
4.697176e-01 5.972876e-01 3.123256e+00 105 105 107
3.980621e-01 4.923081e-01 3.151031e+00 108 108 106
3.913687e-01 5.026131e-01 3.142911e+00 64 65 67
3.983404e-01 4.965071e-01 3.144875e+00 56 57 59
3.983382e-01 4.965122e-01 3.144903e+00 56 57 59
3.982286e-01 4.972055e-01 3.143624e+00 47 51 54
3.991687e-01 4.996564e-01 3.144127e+00 37 39 38
4.012861e-01 4.983183e-01 3.146877e+00 58 59 54
4.012816e-01 4.983241e-01 3.146895e+00 58 59 54
4.186257e-01 4.780230e-01 3.148848e+00 18 18 20
4.027033e-01 5.012199e-01 3.143644e+00 59 58 56
4.102876e-01 4.987693e-01 3.152323e+00 55 56 57
4.064067e-01 5.037587e-01 3.146537e+00 75 74 69
4.064207e-01 5.037456e-01 3.146515e+00 75 74 69
4.068098e-01 5.050631e-01 3.145252e+00 59 56 51
4.068354e-01 5.162644e-01 3.141805e+00 110 105 98
4.162497e-01 5.193037e-01 3.147198e+00 132 137 142
3.901415e-01 5.495099e-01 3.138383e+00 37 38 43
3.881929e-01 5.527123e-01 3.137855e+00 140 141 144
3.828836e-01 5.596298e-01 3.137074e+00 134 138 139
3.940512e-01 5.524302e-01 3.138709e+00 82 82 84
4.469560e-01 4.946902e-01 3.154851e+00 138 136 135
4.317610e-01 5.136432e-01 3.150551e+00 144 140 137
4.580470e-01 5.038317e-01 3.151849e+00 141 141 142
4.657487e-01 5.186342e-01 3.143611e+00 94 94 92
4.688421e-01 5.277735e-01 3.141315e+00 166 169 174
4.855586e-01 5.294418e-01 3.141667e+00 83 83 83
4.771001e-01 5.409819e-01 3.138622e+00 65 65 64
4.570706e-01 5.671825e-01 3.132499e+00 150 149 153
5.009737e-01 5.249758e-01 3.143347e+00 101 97 126
4.907309e-01 5.366362e-01 3.141008e+00 62 62 62
4.491645e-01 5.834686e-01 3.129605e+00 158 157 163
4.482361e-01 5.861138e-01 3.128906e+00 145 146 138
4.562938e-01 5.775836e-01 3.134202e+00 130 130 133
4.309132e-01 6.086748e-01 3.121596e+00 143 137 148
4.309132e-01 6.086748e-01 3.121596e+00 143 137 148
4.586382e-01 5.880900e-01 3.124593e+00 93 93 93
5.222028e-01 5.467663e-01 3.136904e+00 120 117 143
4.017437e-01 4.954281e-01 3.150524e+00 112 112 114
3.945625e-01 5.037429e-01 3.140943e+00 89 91 90
3.858268e-01 5.155322e-01 3.144888e+00 91 92 94
3.980650e-01 5.008647e-01 3.141013e+00 76 77 81
4.004764e-01 4.986408e-01 3.146478e+00 39 41 40
4.006987e-01 4.984390e-01 3.146892e+00 40 42 41
4.026981e-01 4.966776e-01 3.150601e+00 46 46 46
3.999377e-01 5.007619e-01 3.141875e+00 70 70 68
3.901057e-01 5.129926e-01 3.141532e+00 71 70 66
3.950403e-01 5.085385e-01 3.140518e+00 72 72 70
4.009335e-01 5.016680e-01 3.141932e+00 74 76 73
4.033771e-01 5.005636e-01 3.146067e+00 115 114 110
4.035056e-01 5.015766e-01 3.144786e+00 123 122 118
4.163494e-01 4.879755e-01 3.147542e+00 75 74 69
4.046916e-01 5.018833e-01 3.145923e+00 84 83 79
3.945044e-01 5.149015e-01 3.140100e+00 61 58 51
4.069869e-01 5.016564e-01 3.148293e+00 57 57 50
4.072077e-01 5.030036e-01 3.147871e+00 72 69 65
3.881215e-01 5.263500e-01 3.145968e+00 134 139 143
4.086327e-01 5.034589e-01 3.149221e+00 122 121 116
4.057847e-01 5.072809e-01 3.142403e+00 59 60 54
4.043526e-01 5.096879e-01 3.140557e+00 113 112 110
4.103336e-01 5.055791e-01 3.148802e+00 60 56 55
3.659394e-01 5.649724e-01 2.955072e+00 123 128 158
4.121488e-01 5.075182e-01 3.149203e+00 116 115 111
4.050588e-01 5.184719e-01 3.142314e+00 54 50 52
3.626690e-01 5.765425e-01 2.974333e+00 106 105 121
4.119164e-01 5.124280e-01 3.147534e+00 95 92 87
4.119164e-01 5.124280e-01 3.147534e+00 95 92 87
4.102107e-01 5.145167e-01 3.145305e+00 63 60 55
4.051012e-01 5.211323e-01 3.143987e+00 55 51 48
4.401723e-01 4.912187e-01 3.155659e+00 144 148 147
3.812964e-01 5.586302e-01 3.139698e+00 129 130 132
3.883707e-01 5.523958e-01 3.138506e+00 35 35 46
4.079250e-01 5.303304e-01 3.142937e+00 30 30 30
4.225585e-01 5.135455e-01 3.148754e+00 42 42 43
4.357959e-01 5.083027e-01 3.150578e+00 127 124 120
4.339663e-01 5.110521e-01 3.149318e+00 151 151 147
4.125267e-01 5.373448e-01 3.143063e+00 129 125 114
3.965644e-01 5.585484e-01 3.136846e+00 93 100 108
3.865788e-01 5.732348e-01 3.127849e+00 112 119 127
4.066466e-01 5.585029e-01 3.135996e+00 106 106 108
4.053426e-01 5.726184e-01 3.129422e+00 93 97 100
4.343512e-01 5.789436e-01 3.127093e+00 99 98 102
4.792599e-01 5.364964e-01 3.139382e+00 155 156 151
4.898929e-01 5.287374e-01 3.145343e+00 122 124 122
4.324467e-01 5.902041e-01 3.126097e+00 155 157 146
4.496023e-01 5.749739e-01 3.133300e+00 75 75 66
4.904965e-01 5.366944e-01 3.140783e+00 130 130 129
4.531820e-01 5.808444e-01 3.133278e+00 83 82 87
4.974692e-01 5.703210e-01 3.102064e+00 149 146 165
4.794360e-01 6.145579e-01 3.120507e+00 86 86 86
3.947958e-01 5.034020e-01 3.140408e+00 38 39 41
3.982098e-01 5.006678e-01 3.141201e+00 54 54 56
4.013005e-01 4.997668e-01 3.145010e+00 64 65 60
4.053104e-01 4.989397e-01 3.150081e+00 65 65 63
3.986142e-01 5.074676e-01 3.140587e+00 111 112 107
3.955643e-01 5.139849e-01 3.139022e+00 73 68 62
3.960259e-01 5.134552e-01 3.139310e+00 78 74 71
3.935498e-01 5.189315e-01 3.142880e+00 82 82 77
3.881732e-01 5.265496e-01 3.145897e+00 88 91 96
4.113039e-01 5.003243e-01 3.152673e+00 75 79 80
4.115896e-01 5.000570e-01 3.152913e+00 84 85 87
4.089949e-01 5.059072e-01 3.147513e+00 58 55 50
3.967168e-01 5.242506e-01 3.145077e+00 89 89 78
4.102566e-01 5.124854e-01 3.146133e+00 70 67 62
4.094665e-01 5.208944e-01 3.145449e+00 128 123 119
4.129555e-01 5.170276e-01 3.147527e+00 81 80 78
4.121779e-01 5.208224e-01 3.146686e+00 148 143 140
4.026552e-01 5.324179e-01 3.143822e+00 96 96 96
3.996853e-01 5.376807e-01 3.144581e+00 151 151 151
3.958231e-01 5.435043e-01 3.140210e+00 120 119 124
3.912403e-01 5.489500e-01 3.139268e+00 121 120 125
3.906235e-01 5.499022e-01 3.138992e+00 36 35 43
4.045883e-01 5.443352e-01 3.141159e+00 164 160 157
4.162237e-01 5.320212e-01 3.144701e+00 143 139 128
4.369404e-01 5.331647e-01 3.135084e+00 146 150 157
4.195880e-01 5.745149e-01 3.129298e+00 162 164 163
4.621924e-01 5.433590e-01 3.136283e+00 113 114 116
4.915872e-01 5.295306e-01 3.145133e+00 149 148 146
4.376044e-01 5.892901e-01 3.126940e+00 158 157 153
4.499000e-01 5.754121e-01 3.133760e+00 143 142 137
4.450207e-01 5.833439e-01 3.128879e+00 104 101 94
3.856615e-01 5.071896e-01 3.141034e+00 86 86 86
4.389674e-01 5.867557e-01 3.128825e+00 147 146 141
3.636745e-01 5.799473e-01 2.973761e+00 126 125 131
3.636745e-01 5.799473e-01 2.973761e+00 126 125 131
3.897286e-01 5.004178e-01 3.142318e+00 99 100 104
3.973595e-01 4.990569e-01 3.141577e+00 102 100 101
3.619989e-01 5.437758e-01 3.141425e+00 65 69 70
4.214226e-01 5.250807e-01 3.146233e+00 135 131 129
4.192545e-01 5.276905e-01 3.145388e+00 128 124 119
3.960279e-01 4.986918e-01 3.141626e+00 39 39 41
3.999839e-01 4.977984e-01 3.146609e+00 103 103 103
4.701415e-01 5.188494e-01 3.142876e+00 106 101 95
3.894142e-01 5.001615e-01 3.142968e+00 82 91 94
3.774920e-01 5.433978e-01 3.138104e+00 49 50 45
3.813470e-01 5.606099e-01 3.137368e+00 147 148 150
4.535769e-01 4.978114e-01 3.153855e+00 153 152 147
4.164392e-01 5.743052e-01 3.129296e+00 84 84 82
4.401412e-01 5.939360e-01 3.126972e+00 153 153 151
3.984830e-01 4.990048e-01 3.143564e+00 110 110 108
4.017423e-01 5.010249e-01 3.144764e+00 80 79 75
3.452840e-01 5.709055e-01 3.036149e+00 174 166 144
3.578748e-01 6.045144e-01 3.063153e+00 130 114 173
4.269691e-01 5.283756e-01 3.144934e+00 127 122 116
4.497361e-01 5.382119e-01 3.138018e+00 98 98 94
4.774757e-01 5.194075e-01 3.143277e+00 142 146 146
4.409625e-01 5.930138e-01 3.127315e+00 153 153 152
3.933161e-01 5.051713e-01 3.140155e+00 33 35 34
4.028509e-01 5.014152e-01 3.144352e+00 103 103 95
4.091099e-01 5.106937e-01 3.144977e+00 68 65 60
4.107935e-01 5.124264e-01 3.146113e+00 70 67 61
3.585718e-01 5.957099e-01 3.064543e+00 253 254 255
3.585208e-01 5.961475e-01 3.064664e+00 135 122 166
3.583602e-01 5.968643e-01 3.064371e+00 140 125 166
3.573976e-01 6.032181e-01 3.088790e+00 136 119 167
4.517859e-01 5.135114e-01 3.141818e+00 128 127 125
4.444542e-01 5.425975e-01 3.133331e+00 50 50 42
4.447723e-01 5.825088e-01 3.128924e+00 113 110 103
3.988299e-01 4.917056e-01 3.150330e+00 59 57 56
3.860403e-01 5.091312e-01 3.142458e+00 63 64 66
3.985262e-01 4.959198e-01 3.147813e+00 102 102 102
4.033705e-01 4.960015e-01 3.150836e+00 50 50 49
4.025524e-01 5.186320e-01 3.142054e+00 46 43 38
3.630601e-01 5.769386e-01 2.976189e+00 160 155 184
4.132293e-01 5.112879e-01 3.148645e+00 95 94 92
4.345118e-01 4.993353e-01 3.152030e+00 141 144 150
4.000335e-01 5.510238e-01 3.139463e+00 126 123 116
4.351149e-01 5.402193e-01 3.133399e+00 47 49 53
4.335917e-01 5.448723e-01 3.132180e+00 56 56 63
4.797938e-01 5.409292e-01 3.139135e+00 163 160 155
4.638283e-01 5.601316e-01 3.134059e+00 167 165 166
4.622174e-01 5.628762e-01 3.133216e+00 156 155 152
4.011466e-01 5.003150e-01 3.144479e+00 81 80 76
4.132385e-01 4.868449e-01 3.147567e+00 77 76 74
3.878950e-01 5.183685e-01 3.144929e+00 70 69 64
4.022563e-01 5.021958e-01 3.143146e+00 50 54 48
4.049320e-01 5.000490e-01 3.148484e+00 103 99 96
4.081992e-01 4.969685e-01 3.152895e+00 84 84 86
4.023652e-01 5.035843e-01 3.141385e+00 58 55 50
4.089982e-01 5.059052e-01 3.147507e+00 61 57 54
3.980840e-01 5.230640e-01 3.144503e+00 119 116 111
4.063910e-01 5.192718e-01 3.143434e+00 123 119 116
4.057391e-01 5.220593e-01 3.145150e+00 123 120 113
4.079705e-01 5.199907e-01 3.144711e+00 119 116 109
4.139150e-01 5.192745e-01 3.147216e+00 134 130 127
4.090860e-01 5.395490e-01 3.143701e+00 148 149 144
4.344419e-01 5.120996e-01 3.149740e+00 87 80 74
4.298234e-01 5.357503e-01 3.142791e+00 159 160 165
4.337512e-01 5.941683e-01 3.125536e+00 97 97 93
4.307338e-01 6.068608e-01 3.122130e+00 255 255 255
4.302276e-01 5.085657e-01 3.150737e+00 72 69 64
3.959663e-01 5.500483e-01 3.137669e+00 39 37 38
4.331988e-01 5.120514e-01 3.149602e+00 141 133 130
4.898834e-01 5.365031e-01 3.141710e+00 159 159 154
3.985534e-01 5.072304e-01 3.140876e+00 70 69 67
4.003610e-01 5.215881e-01 3.143701e+00 43 41 38
4.083929e-01 5.185892e-01 3.143703e+00 57 49 47
3.614125e-01 5.911281e-01 3.010900e+00 108 103 127
3.854265e-01 5.623736e-01 3.137046e+00 143 143 145
4.004866e-01 5.706347e-01 3.134998e+00 59 60 55
4.332420e-01 5.480930e-01 3.131596e+00 72 71 81
4.876014e-01 5.346113e-01 3.140626e+00 98 94 84
4.575153e-01 5.870013e-01 3.124349e+00 98 98 98
3.997703e-01 5.127793e-01 3.139692e+00 64 61 53
4.035274e-01 5.669540e-01 3.127751e+00 101 101 101
4.333779e-01 5.387100e-01 3.133610e+00 150 150 151
3.996618e-01 5.817616e-01 3.125814e+00 121 126 130
4.691205e-01 5.374292e-01 3.137861e+00 167 165 171
4.816518e-01 5.469068e-01 3.137971e+00 138 137 135
4.363273e-01 5.998243e-01 3.128047e+00 70 66 67
3.974239e-01 4.895109e-01 3.151783e+00 81 82 84
4.027584e-01 4.977683e-01 3.149635e+00 78 76 79
4.084292e-01 4.990196e-01 3.151958e+00 86 85 83
4.046839e-01 5.037963e-01 3.143843e+00 98 93 90
4.055273e-01 5.030206e-01 3.145750e+00 52 47 43
4.010517e-01 5.133895e-01 3.139943e+00 105 101 98
3.750171e-01 5.504185e-01 3.138610e+00 65 68 72
3.999880e-01 5.373304e-01 3.144546e+00 143 142 139
4.248099e-01 5.244018e-01 3.146817e+00 136 128 119
3.926203e-01 5.629729e-01 3.135736e+00 94 98 102
4.524237e-01 5.138494e-01 3.142925e+00 145 144 140
4.335215e-01 5.448635e-01 3.132353e+00 62 62 70
4.675213e-01 5.337205e-01 3.137652e+00 117 118 123
4.434899e-01 5.689938e-01 3.134217e+00 102 102 105
4.468282e-01 5.730989e-01 3.133760e+00 104 102 103
4.872097e-01 5.408763e-01 3.140396e+00 138 135 128
3.977535e-01 4.927461e-01 3.149576e+00 90 88 91
3.997203e-01 4.993356e-01 3.145151e+00 47 45 46
3.999307e-01 4.992128e-01 3.145093e+00 99 97 98
4.025667e-01 4.977262e-01 3.149421e+00 125 123 124
3.943148e-01 5.072836e-01 3.140411e+00 79 78 76
3.975540e-01 5.044770e-01 3.141224e+00 77 77 75
4.131865e-01 4.868645e-01 3.147663e+00 66 65 63
4.056047e-01 4.971010e-01 3.152974e+00 92 90 95
4.030912e-01 5.008388e-01 3.145958e+00 102 98 95
4.031598e-01 5.020167e-01 3.144481e+00 97 93 90
4.060933e-01 5.026188e-01 3.146959e+00 103 98 95
4.092441e-01 5.002739e-01 3.152997e+00 100 100 102
4.126585e-01 5.080667e-01 3.149301e+00 96 92 89
4.091627e-01 5.265205e-01 3.145978e+00 79 76 75
4.255664e-01 5.331204e-01 3.143005e+00 136 135 136
4.140793e-01 5.641027e-01 3.130707e+00 99 99 100
4.826079e-01 5.316305e-01 3.141230e+00 138 137 133
4.347760e-01 5.856982e-01 3.127571e+00 142 142 134
4.004890e-01 5.138833e-01 3.139547e+00 165 163 164
3.959704e-01 5.045228e-01 3.141548e+00 157 160 165
3.968386e-01 5.048455e-01 3.141809e+00 193 197 200
3.985570e-01 5.032059e-01 3.141738e+00 193 197 200
3.921913e-01 5.232556e-01 3.145575e+00 207 212 218
4.041101e-01 5.242690e-01 3.146011e+00 83 83 91
4.070403e-01 5.234455e-01 3.145451e+00 97 98 103
4.087861e-01 5.228432e-01 3.145646e+00 88 88 92
3.825977e-01 5.202071e-01 3.147449e+00 117 121 131
3.836734e-01 5.194751e-01 3.147860e+00 111 119 130
3.936217e-01 5.082948e-01 3.140496e+00 119 123 126
3.836805e-01 5.205940e-01 3.147495e+00 152 158 170
3.882735e-01 5.187205e-01 3.145457e+00 97 95 100
4.146962e-01 4.886172e-01 3.147504e+00 136 136 138
3.950141e-01 5.149487e-01 3.140521e+00 95 92 93
3.954247e-01 5.243085e-01 3.145460e+00 211 214 223
3.984623e-01 5.242429e-01 3.145044e+00 104 103 107
4.009749e-01 5.247155e-01 3.145234e+00 99 102 109
4.203374e-01 5.124802e-01 3.148638e+00 195 198 207
3.847294e-01 5.116492e-01 3.143406e+00 113 116 121
3.974135e-01 5.026538e-01 3.142234e+00 141 142 147
3.899622e-01 5.133125e-01 3.141869e+00 192 191 187
3.869087e-01 5.194050e-01 3.145542e+00 133 134 138
3.976862e-01 5.067909e-01 3.141212e+00 183 186 191
4.055742e-01 4.990319e-01 3.150687e+00 99 98 103
3.947787e-01 5.146907e-01 3.140398e+00 103 101 102
4.122809e-01 4.983915e-01 3.153360e+00 143 149 161
3.946480e-01 5.238668e-01 3.145421e+00 147 148 153
3.952001e-01 5.237736e-01 3.145202e+00 115 114 120
3.999708e-01 5.213937e-01 3.143995e+00 180 179 185
4.094858e-01 5.264831e-01 3.145630e+00 98 103 118
3.934519e-01 5.073398e-01 3.140513e+00 137 138 142
3.835746e-01 5.196962e-01 3.147933e+00 136 142 154
3.939162e-01 5.087834e-01 3.140744e+00 126 127 129
3.992569e-01 5.071870e-01 3.141044e+00 180 181 185
4.251266e-01 5.542992e-01 3.138019e+00 139 139 137
5.307605e-01 5.545591e-01 3.135587e+00 254 255 253
3.816938e-01 5.163476e-01 3.146587e+00 104 109 113
4.750651e-01 5.279740e-01 3.139411e+00 38 41 55
4.752247e-01 6.045045e-01 3.120357e+00 46 49 57
3.935156e-01 5.201485e-01 3.143716e+00 46 45 40
3.993221e-01 5.456480e-01 3.139756e+00 60 59 57
4.247388e-01 5.171045e-01 3.146941e+00 47 44 41
4.193931e-01 5.253545e-01 3.145112e+00 107 104 99
4.168892e-01 5.285821e-01 3.144602e+00 51 50 46
4.240504e-01 5.351996e-01 3.133239e+00 103 108 112
4.365966e-01 5.396435e-01 3.133699e+00 31 37 50
4.873181e-01 5.279158e-01 3.145318e+00 72 73 75
5.065406e-01 5.736610e-01 3.103624e+00 243 247 250
5.042585e-01 5.664051e-01 3.129179e+00 125 127 129
4.667099e-01 6.102944e-01 3.118497e+00 45 43 53
4.038379e-01 4.958048e-01 3.153445e+00 98 98 98
4.195165e-01 5.270997e-01 3.145852e+00 43 42 41
4.164693e-01 5.403030e-01 3.141376e+00 128 127 122
4.188005e-01 5.375585e-01 3.142478e+00 127 123 120
4.624589e-01 5.605878e-01 3.133407e+00 131 129 130
4.726262e-01 6.005129e-01 3.121158e+00 124 127 131
3.824270e-01 5.216765e-01 3.146735e+00 45 49 53
4.252162e-01 4.734120e-01 3.159754e+00 60 61 60
4.298431e-01 4.773731e-01 3.158659e+00 104 109 110
3.990853e-01 5.244032e-01 3.144751e+00 62 54 52
3.930826e-01 5.558213e-01 3.136995e+00 92 92 92
4.459664e-01 4.976690e-01 3.154143e+00 54 46 44
4.404345e-01 5.526083e-01 3.134599e+00 84 84 82
4.865015e-01 5.232821e-01 3.120766e+00 33 33 39
3.915974e-01 5.482079e-01 3.139774e+00 124 126 130
3.904671e-01 5.502551e-01 3.138413e+00 103 115 115
4.403264e-01 4.931244e-01 3.154608e+00 112 113 118
4.360612e-01 5.381616e-01 3.133676e+00 41 38 33
4.400589e-01 5.426404e-01 3.133371e+00 111 111 111
4.673895e-01 5.356667e-01 3.137365e+00 138 138 138
4.920630e-01 5.207274e-01 3.142839e+00 81 85 86
4.363169e-01 5.852564e-01 3.127147e+00 68 69 66
4.797376e-01 5.382599e-01 3.139812e+00 114 112 113
4.293730e-01 6.077518e-01 3.121473e+00 133 137 138
4.982923e-01 5.299646e-01 3.146418e+00 217 242 248
5.054848e-01 5.738967e-01 3.104260e+00 147 152 157
4.077168e-01 5.231171e-01 3.145283e+00 65 61 57
3.844791e-01 5.111420e-01 3.141319e+00 37 33 34
4.174317e-01 5.296035e-01 3.144770e+00 55 54 50
5.147307e-01 5.681488e-01 3.131903e+00 66 71 75
3.988274e-01 5.105044e-01 3.139116e+00 63 62 58
4.255943e-01 5.196603e-01 3.146610e+00 62 62 60
4.001176e-01 5.753853e-01 3.132685e+00 97 104 113
4.001176e-01 5.753853e-01 3.132685e+00 97 104 113
5.126212e-01 5.694227e-01 3.131016e+00 60 67 70
4.041898e-01 5.647988e-01 3.126779e+00 22 25 32
4.208290e-01 5.192879e-01 3.148353e+00 39 35 34
4.054381e-01 5.434650e-01 3.140602e+00 98 95 86
4.440591e-01 5.423752e-01 3.133170e+00 109 107 94
4.238666e-01 5.389403e-01 3.133557e+00 100 104 107
4.439717e-01 4.887907e-01 3.156107e+00 128 129 133
3.411786e-01 5.471151e-01 2.984097e+00 37 31 32
3.931918e-01 5.464011e-01 3.139969e+00 94 95 97
4.001865e-01 5.386699e-01 3.141613e+00 108 110 110
4.295101e-01 5.383951e-01 3.133830e+00 124 128 131
4.422757e-01 5.273626e-01 3.138890e+00 116 112 109
4.327393e-01 5.429838e-01 3.132667e+00 27 30 39
4.010382e-01 5.745729e-01 3.133655e+00 120 121 123
3.965043e-01 5.048642e-01 3.141634e+00 42 41 38
4.095902e-01 5.002030e-01 3.152781e+00 115 118 122
3.552322e-01 5.630401e-01 2.977202e+00 27 31 34
4.132100e-01 5.243656e-01 3.145908e+00 117 117 119
4.074502e-01 5.308801e-01 3.143778e+00 48 49 42
3.908925e-01 5.564037e-01 3.137717e+00 83 83 83
4.332051e-01 5.374079e-01 3.134174e+00 120 121 126
4.532798e-01 5.177541e-01 3.140634e+00 102 96 83
4.193393e-01 5.724303e-01 3.129430e+00 53 45 36
4.611720e-01 5.289786e-01 3.140710e+00 56 55 51
3.343040e-01 5.642125e-01 3.052958e+00 82 65 58
3.995288e-01 5.021732e-01 3.141843e+00 74 73 71
3.977922e-01 5.073426e-01 3.140694e+00 88 87 86
4.298892e-01 4.774958e-01 3.159356e+00 33 32 39
4.234515e-01 4.952892e-01 3.150726e+00 38 33 29
3.621178e-01 5.763147e-01 2.977304e+00 161 159 170
3.820839e-01 5.465625e-01 3.139602e+00 115 115 113
4.049202e-01 5.241236e-01 3.145563e+00 36 32 29
4.028282e-01 5.362286e-01 3.143792e+00 19 19 19
3.857114e-01 5.658281e-01 3.137373e+00 59 57 58
4.041044e-01 5.504533e-01 3.138680e+00 99 100 102
4.274169e-01 5.279061e-01 3.145331e+00 84 81 74
4.265374e-01 5.437464e-01 3.132501e+00 17 18 24
4.587367e-01 5.164042e-01 3.142082e+00 126 127 129
4.110130e-01 5.691225e-01 3.127746e+00 111 105 91
3.370619e-01 5.634012e-01 3.158255e+00 59 45 49
3.794586e-01 5.100707e-01 3.145018e+00 24 24 24
4.003325e-01 4.963931e-01 3.147080e+00 32 32 32
4.130226e-01 4.871239e-01 3.147506e+00 33 32 30
3.955739e-01 5.070586e-01 3.141129e+00 74 73 70
4.016563e-01 5.023309e-01 3.141451e+00 75 74 72
3.919856e-01 5.205803e-01 3.144613e+00 26 26 21
4.076745e-01 5.041837e-01 3.146788e+00 84 79 75
4.086177e-01 5.036667e-01 3.149026e+00 35 31 28
4.099280e-01 5.088721e-01 3.147117e+00 87 82 76
3.993895e-01 5.228607e-01 3.144640e+00 99 90 90
4.025468e-01 5.211767e-01 3.143869e+00 80 75 71
4.019359e-01 5.245465e-01 3.145336e+00 43 39 39
4.097231e-01 5.249390e-01 3.146130e+00 94 89 84
4.095974e-01 5.260352e-01 3.146076e+00 40 38 37
3.889998e-01 5.514748e-01 3.138600e+00 92 91 96
4.099332e-01 5.284671e-01 3.144521e+00 100 100 100
3.852510e-01 5.506928e-01 3.209985e+00 106 104 105
4.222281e-01 5.265289e-01 3.145971e+00 49 35 31
4.217568e-01 5.274670e-01 3.145928e+00 51 42 34
4.260300e-01 5.436873e-01 3.132478e+00 67 68 73
4.091812e-01 5.729107e-01 3.128904e+00 94 93 91
4.211082e-01 5.710607e-01 3.129414e+00 68 65 50
4.555632e-01 5.225593e-01 3.140396e+00 195 193 194
4.098654e-01 5.438654e-01 3.143077e+00 197 196 194
4.203934e-01 5.179042e-01 3.148074e+00 164 156 153
4.203934e-01 5.179042e-01 3.148074e+00 164 156 153
4.119641e-01 5.319305e-01 3.145893e+00 165 159 155
4.119641e-01 5.319305e-01 3.145893e+00 165 159 155
3.975901e-01 5.498649e-01 3.138568e+00 169 170 174
3.975901e-01 5.498649e-01 3.138568e+00 169 170 174
4.127704e-01 5.457316e-01 3.139774e+00 161 146 140
4.324146e-01 5.571261e-01 3.134895e+00 216 214 220
4.117951e-01 5.170374e-01 3.146658e+00 141 133 122
4.126051e-01 5.277446e-01 3.146284e+00 177 172 169
4.104703e-01 5.302685e-01 3.145573e+00 184 180 178
4.060392e-01 5.352844e-01 3.144293e+00 176 172 169
4.052929e-01 5.423275e-01 3.141628e+00 71 68 69
4.056685e-01 5.487788e-01 3.138665e+00 176 179 185
4.056685e-01 5.487788e-01 3.138665e+00 176 179 185
3.912502e-01 5.657411e-01 3.134872e+00 170 177 187
4.404525e-01 5.250882e-01 3.148791e+00 204 205 205
4.019444e-01 5.648325e-01 3.129285e+00 169 168 174
4.307671e-01 5.558347e-01 3.135426e+00 118 107 109
4.051249e-01 4.981915e-01 3.151196e+00 149 149 137
4.053141e-01 4.991734e-01 3.150212e+00 74 75 75
4.031581e-01 5.024405e-01 3.143132e+00 137 136 124
4.081368e-01 4.972871e-01 3.155074e+00 165 169 174
4.097335e-01 5.037239e-01 3.149758e+00 156 152 145
4.099585e-01 5.036181e-01 3.149390e+00 156 152 145
4.053311e-01 5.125132e-01 3.139229e+00 135 120 105
4.122025e-01 5.151564e-01 3.149162e+00 90 82 79
4.225812e-01 5.125002e-01 3.151920e+00 174 182 191
4.187414e-01 5.170528e-01 3.148952e+00 179 186 195
4.139611e-01 5.224132e-01 3.148126e+00 183 188 193
4.121711e-01 5.247646e-01 3.146805e+00 192 194 205
4.096947e-01 5.273726e-01 3.146390e+00 171 179 190
4.095937e-01 5.274970e-01 3.146655e+00 171 179 190
4.076007e-01 5.298817e-01 3.145583e+00 175 183 191
4.076007e-01 5.298817e-01 3.145583e+00 175 183 191
4.057483e-01 5.323219e-01 3.144336e+00 179 185 197
4.120668e-01 5.261689e-01 3.146592e+00 99 95 94
4.120668e-01 5.261689e-01 3.146592e+00 99 95 94
3.962432e-01 5.428032e-01 3.141303e+00 173 177 188
4.307199e-01 5.141392e-01 3.151702e+00 173 169 165
4.169363e-01 5.310920e-01 3.145096e+00 68 64 61
4.169363e-01 5.310920e-01 3.145096e+00 68 64 61
4.046197e-01 5.435237e-01 3.140265e+00 79 75 78
3.955343e-01 5.523496e-01 3.138099e+00 155 155 155
4.148081e-01 5.336000e-01 3.144336e+00 64 63 64
4.148081e-01 5.336000e-01 3.144336e+00 64 63 64
4.126873e-01 5.361542e-01 3.143404e+00 66 62 59
4.126873e-01 5.361542e-01 3.143404e+00 66 62 59
4.090534e-01 5.396135e-01 3.143562e+00 183 181 181
3.919915e-01 5.575523e-01 3.137636e+00 60 58 63
4.218384e-01 5.288236e-01 3.146796e+00 165 173 178
3.955391e-01 5.550064e-01 3.138160e+00 155 152 147
3.958589e-01 5.550367e-01 3.137479e+00 155 152 147
4.173999e-01 5.336138e-01 3.146278e+00 173 176 187
3.884686e-01 5.629257e-01 3.138675e+00 172 171 177
3.956576e-01 5.599101e-01 3.135913e+00 166 174 182
3.956576e-01 5.599101e-01 3.135913e+00 166 174 182
4.025947e-01 5.632032e-01 3.126525e+00 58 75 94
4.047557e-01 5.681329e-01 3.128536e+00 134 126 122
4.586198e-01 5.267687e-01 3.141300e+00 205 205 201
4.078606e-01 5.785773e-01 3.133670e+00 104 97 111
4.078606e-01 5.785773e-01 3.133670e+00 104 97 111
3.780273e-01 5.210766e-01 3.142089e+00 43 43 43
4.072534e-01 5.225314e-01 3.145290e+00 161 153 142
4.305708e-01 5.036904e-01 3.151764e+00 187 191 195
4.211114e-01 5.145787e-01 3.149437e+00 180 188 197
4.211114e-01 5.145787e-01 3.149437e+00 180 188 197
4.187418e-01 5.171383e-01 3.148990e+00 182 187 196
4.095111e-01 5.281894e-01 3.145605e+00 98 97 102
4.077660e-01 5.306874e-01 3.144469e+00 94 90 89
4.035443e-01 5.351919e-01 3.144129e+00 180 190 199
4.059816e-01 5.335611e-01 3.144182e+00 95 89 86
4.059816e-01 5.335611e-01 3.144182e+00 95 89 86
3.935104e-01 5.479293e-01 3.138642e+00 40 43 50
3.934981e-01 5.478806e-01 3.138556e+00 40 43 50
3.900524e-01 5.514096e-01 3.139020e+00 61 59 66
3.946399e-01 5.481867e-01 3.139075e+00 169 165 163
4.350002e-01 5.080596e-01 3.150328e+00 85 84 89
4.004774e-01 5.426753e-01 3.141110e+00 96 92 93
4.318024e-01 5.115438e-01 3.151009e+00 86 84 89
4.380294e-01 5.061383e-01 3.152391e+00 180 171 167
4.358906e-01 5.084844e-01 3.151284e+00 173 172 163
4.231517e-01 5.216871e-01 3.147645e+00 76 74 73
4.336102e-01 5.110008e-01 3.152020e+00 85 79 82
4.162911e-01 5.294042e-01 3.146051e+00 82 79 78
3.916031e-01 5.547754e-01 3.135964e+00 37 38 51
4.239768e-01 5.218517e-01 3.148598e+00 172 165 160
4.012905e-01 5.454501e-01 3.140537e+00 174 174 172
4.040671e-01 5.417236e-01 3.144867e+00 170 167 158
4.210123e-01 5.261531e-01 3.146997e+00 70 67 64
4.176357e-01 5.294444e-01 3.146179e+00 177 177 172
4.000133e-01 5.471551e-01 3.139682e+00 173 175 170
4.155856e-01 5.319550e-01 3.145334e+00 171 166 161
4.008075e-01 5.474106e-01 3.140077e+00 65 60 64
4.127141e-01 5.354191e-01 3.144513e+00 69 60 65
4.111537e-01 5.370679e-01 3.143787e+00 162 162 157
4.104320e-01 5.386748e-01 3.143025e+00 64 63 61
4.041746e-01 5.449367e-01 3.140961e+00 165 160 159
4.031295e-01 5.468353e-01 3.139735e+00 57 54 54
3.987409e-01 5.511237e-01 3.139061e+00 146 146 140
3.967198e-01 5.536106e-01 3.137954e+00 160 157 151
3.967198e-01 5.536106e-01 3.137954e+00 160 157 151
3.966282e-01 5.544473e-01 3.137399e+00 55 53 58
3.903848e-01 5.609597e-01 3.136927e+00 57 55 60
3.894961e-01 5.621023e-01 3.136411e+00 55 56 62
4.087050e-01 5.451480e-01 3.139441e+00 181 187 197
4.120635e-01 5.414444e-01 3.142038e+00 197 197 204
4.298579e-01 5.354157e-01 3.133174e+00 187 199 204
4.057068e-01 5.580164e-01 3.134113e+00 187 193 203
4.197168e-01 5.478041e-01 3.139918e+00 205 205 206
4.013449e-01 5.689694e-01 3.132112e+00 179 178 173
4.234642e-01 5.525116e-01 3.139534e+00 208 210 215
4.575709e-01 5.279614e-01 3.139791e+00 196 189 186
4.594514e-01 5.273597e-01 3.139354e+00 128 123 125
4.594514e-01 5.273597e-01 3.139354e+00 128 123 125
4.721921e-01 5.259416e-01 3.138958e+00 193 192 196
4.387138e-01 5.557143e-01 3.132055e+00 192 188 190
4.510062e-01 5.507418e-01 3.132259e+00 189 190 195
3.986000e-01 4.955811e-01 3.148662e+00 113 112 108
3.815657e-01 5.188220e-01 3.146951e+00 167 181 189
4.039973e-01 4.961155e-01 3.154467e+00 86 85 90
4.044170e-01 4.965493e-01 3.154619e+00 143 147 157
3.889016e-01 5.238056e-01 3.144104e+00 131 141 150
4.008561e-01 5.235069e-01 3.144614e+00 152 145 134
4.224559e-01 5.066010e-01 3.152704e+00 165 158 154
4.140463e-01 5.229906e-01 3.146923e+00 95 91 97
4.109217e-01 5.261174e-01 3.146710e+00 183 187 193
4.109217e-01 5.261174e-01 3.146710e+00 183 187 193
4.201346e-01 5.196458e-01 3.148021e+00 189 185 178
4.075463e-01 5.344632e-01 3.143503e+00 97 91 88
3.917750e-01 5.520860e-01 3.136562e+00 63 61 67
4.298830e-01 5.135168e-01 3.150613e+00 83 78 78
4.191428e-01 5.255331e-01 3.145948e+00 174 168 159
4.191428e-01 5.255331e-01 3.145948e+00 174 168 159
4.118986e-01 5.331714e-01 3.143214e+00 92 84 79
4.329205e-01 5.120900e-01 3.150687e+00 94 91 90
4.204455e-01 5.255299e-01 3.147759e+00 175 172 161
4.183416e-01 5.280780e-01 3.146838e+00 162 154 143
4.213871e-01 5.252958e-01 3.147744e+00 82 73 77
4.161086e-01 5.304691e-01 3.146281e+00 159 158 148
4.161086e-01 5.304691e-01 3.146281e+00 159 158 148
3.989186e-01 5.480813e-01 3.138828e+00 41 39 45
3.969332e-01 5.505660e-01 3.137412e+00 44 42 53
3.969332e-01 5.505660e-01 3.137412e+00 44 42 53
4.117731e-01 5.355524e-01 3.144469e+00 157 151 142
4.189979e-01 5.286715e-01 3.146570e+00 70 61 62
3.939995e-01 5.544859e-01 3.138170e+00 65 59 67
4.077507e-01 5.410200e-01 3.143549e+00 154 156 155
4.086866e-01 5.405068e-01 3.143046e+00 72 64 62
4.086866e-01 5.405068e-01 3.143046e+00 72 64 62
4.009346e-01 5.485296e-01 3.139778e+00 170 165 153
4.057552e-01 5.441127e-01 3.141102e+00 60 54 59
3.994792e-01 5.507592e-01 3.139525e+00 55 51 52
4.015422e-01 5.490857e-01 3.139590e+00 58 53 55
3.986366e-01 5.519940e-01 3.138585e+00 52 52 53
3.994917e-01 5.516101e-01 3.138720e+00 57 54 53
3.972492e-01 5.541795e-01 3.138104e+00 59 54 55
4.100783e-01 5.473544e-01 3.135752e+00 170 172 174
4.100783e-01 5.473544e-01 3.135752e+00 170 172 174
4.189674e-01 5.369067e-01 3.143898e+00 162 160 148
3.986547e-01 5.581837e-01 3.135041e+00 71 88 121
4.235833e-01 5.370890e-01 3.135603e+00 61 70 90
3.973138e-01 5.600309e-01 3.133919e+00 62 82 113
4.057161e-01 5.525012e-01 3.138109e+00 155 150 142
4.057161e-01 5.525012e-01 3.138109e+00 155 150 142
4.002344e-01 5.589313e-01 3.135940e+00 182 174 161
3.988534e-01 5.608369e-01 3.135004e+00 147 145 136
4.292538e-01 5.405685e-01 3.132777e+00 202 202 194
4.332810e-01 5.385991e-01 3.131479e+00 49 52 72
4.429501e-01 5.284010e-01 3.138299e+00 123 118 113
4.436721e-01 5.305198e-01 3.133785e+00 67 67 77
4.311816e-01 5.428672e-01 3.131460e+00 194 198 198
4.173307e-01 5.514445e-01 3.138868e+00 79 71 79
4.017192e-01 5.705104e-01 3.132558e+00 71 70 80
4.054192e-01 5.722593e-01 3.130718e+00 179 180 175
4.177544e-01 5.645122e-01 3.129769e+00 177 173 170
4.080656e-01 5.732396e-01 3.129757e+00 185 182 180
4.413167e-01 5.497088e-01 3.131670e+00 165 153 139
4.562096e-01 5.451730e-01 3.132817e+00 178 174 180
3.982230e-01 4.964884e-01 3.147341e+00 114 113 115
3.957954e-01 5.204023e-01 3.144801e+00 67 58 56
3.981918e-01 5.208009e-01 3.144783e+00 67 61 60
4.123885e-01 5.146047e-01 3.147201e+00 156 149 136
4.027728e-01 5.244766e-01 3.146094e+00 97 90 84
4.120237e-01 5.167454e-01 3.146989e+00 150 143 127
4.132426e-01 5.166440e-01 3.147948e+00 196 196 196
4.346714e-01 4.997622e-01 3.153496e+00 77 87 98
4.346714e-01 4.997622e-01 3.153496e+00 77 87 98
4.266447e-01 5.081067e-01 3.152745e+00 74 75 86
4.285579e-01 5.068800e-01 3.151768e+00 104 105 107
4.116192e-01 5.250759e-01 3.145596e+00 78 76 87
4.132194e-01 5.249271e-01 3.146553e+00 86 85 92
4.108711e-01 5.274352e-01 3.145923e+00 107 106 113
4.054074e-01 5.331279e-01 3.144074e+00 90 87 92
4.002410e-01 5.385697e-01 3.142592e+00 49 48 55
3.923136e-01 5.468733e-01 3.139655e+00 55 54 73
3.915036e-01 5.485576e-01 3.139545e+00 53 51 67
3.881633e-01 5.537904e-01 3.137252e+00 67 61 70
4.053885e-01 5.363933e-01 3.143574e+00 162 160 148
4.337937e-01 5.086471e-01 3.150591e+00 175 167 164
4.277074e-01 5.155242e-01 3.149861e+00 168 166 159
4.196021e-01 5.242276e-01 3.147931e+00 176 171 168
4.153726e-01 5.293642e-01 3.146248e+00 182 177 177
4.065791e-01 5.389974e-01 3.143607e+00 180 183 184
4.294439e-01 5.163056e-01 3.150854e+00 82 80 76
4.074973e-01 5.386713e-01 3.143923e+00 164 158 146
3.985181e-01 5.477069e-01 3.140318e+00 174 170 158
4.009330e-01 5.468383e-01 3.139279e+00 68 59 59
3.947461e-01 5.529448e-01 3.137556e+00 159 162 162
3.924064e-01 5.557402e-01 3.136336e+00 44 44 53
4.058520e-01 5.430079e-01 3.141291e+00 52 51 56
4.082893e-01 5.415474e-01 3.143236e+00 70 60 61
4.443503e-01 5.075920e-01 3.151367e+00 197 192 182
4.425897e-01 5.094720e-01 3.151112e+00 201 196 189
4.371962e-01 5.162055e-01 3.148304e+00 185 184 178
4.372023e-01 5.162048e-01 3.148300e+00 185 184 178
4.288502e-01 5.245434e-01 3.146558e+00 97 92 94
4.119905e-01 5.407084e-01 3.142812e+00 180 190 200
4.167865e-01 5.365886e-01 3.143263e+00 125 124 129
4.240316e-01 5.301225e-01 3.146554e+00 93 83 82
4.240316e-01 5.301225e-01 3.146554e+00 93 83 82
4.369833e-01 5.181924e-01 3.149110e+00 200 199 197
4.098396e-01 5.452168e-01 3.138960e+00 82 83 95
4.232732e-01 5.321443e-01 3.144532e+00 157 152 140
4.170428e-01 5.382206e-01 3.142850e+00 113 107 110
4.196647e-01 5.361357e-01 3.143131e+00 73 72 76
4.152433e-01 5.400923e-01 3.142601e+00 110 104 108
4.205598e-01 5.350867e-01 3.144326e+00 157 152 141
4.205598e-01 5.350867e-01 3.144326e+00 157 152 141
4.182952e-01 5.376991e-01 3.143359e+00 200 199 191
4.173816e-01 5.386731e-01 3.143343e+00 202 198 188
4.168469e-01 5.394969e-01 3.142652e+00 198 197 191
4.155222e-01 5.412685e-01 3.141711e+00 196 198 187
4.152409e-01 5.413396e-01 3.142164e+00 196 198 187
4.144827e-01 5.422393e-01 3.141872e+00 193 191 187
4.145927e-01 5.422102e-01 3.141689e+00 193 191 187
4.102852e-01 5.469406e-01 3.139865e+00 186 186 178
4.071847e-01 5.507027e-01 3.138773e+00 153 150 142
4.049689e-01 5.534050e-01 3.137647e+00 155 147 141
4.027906e-01 5.555730e-01 3.137034e+00 76 65 65
4.027906e-01 5.555730e-01 3.137034e+00 76 65 65
4.043011e-01 5.543333e-01 3.137234e+00 149 144 133
4.027777e-01 5.561441e-01 3.136505e+00 153 146 135
4.016430e-01 5.570743e-01 3.136846e+00 182 180 165
4.016430e-01 5.570743e-01 3.136846e+00 182 180 165
4.011868e-01 5.583828e-01 3.134488e+00 69 67 77
3.956041e-01 5.630772e-01 3.134880e+00 96 87 95
3.956041e-01 5.630772e-01 3.134880e+00 96 87 95
4.282014e-01 5.368839e-01 3.133606e+00 190 199 201
4.604632e-01 5.061490e-01 3.144366e+00 192 193 195
4.292303e-01 5.374020e-01 3.132491e+00 194 199 199
4.624746e-01 5.056525e-01 3.145464e+00 144 146 151
4.407248e-01 5.289126e-01 3.135117e+00 64 70 83
4.536683e-01 5.175490e-01 3.140397e+00 155 148 135
4.420227e-01 5.302729e-01 3.135644e+00 171 168 160
4.547215e-01 5.178801e-01 3.141555e+00 129 129 132
4.071595e-01 5.593302e-01 3.136819e+00 194 195 204
4.572247e-01 5.175572e-01 3.141282e+00 147 151 162
4.204821e-01 5.476272e-01 3.140429e+00 86 80 92
4.410656e-01 5.351365e-01 3.133094e+00 191 189 179
4.414263e-01 5.356852e-01 3.132365e+00 64 64 80
4.339406e-01 5.438684e-01 3.129926e+00 61 64 82
4.419176e-01 5.381768e-01 3.132113e+00 193 187 187
4.421826e-01 5.386377e-01 3.131073e+00 60 64 76
4.577888e-01 5.223830e-01 3.141368e+00 120 121 115
4.396700e-01 5.412208e-01 3.133095e+00 194 190 184
4.609497e-01 5.220420e-01 3.139701e+00 119 113 114
4.011339e-01 5.718749e-01 3.134674e+00 126 131 146
4.733540e-01 5.143007e-01 3.143553e+00 106 117 129
4.733540e-01 5.143007e-01 3.143553e+00 106 117 129
4.395424e-01 5.474485e-01 3.128860e+00 58 56 66
4.462642e-01 5.440165e-01 3.129034e+00 183 172 155
4.095951e-01 5.730941e-01 3.130173e+00 139 131 127
4.165492e-01 5.692170e-01 3.128165e+00 87 81 91
4.165492e-01 5.692170e-01 3.128165e+00 87 81 91
4.360720e-01 5.564137e-01 3.132539e+00 99 89 99
4.255077e-01 5.658496e-01 3.131170e+00 204 203 206
4.247422e-01 5.692148e-01 3.130402e+00 208 209 210
4.310995e-01 5.659129e-01 3.129480e+00 197 193 190
3.930472e-01 5.205108e-01 3.144629e+00 64 54 56
4.110040e-01 5.047259e-01 3.151155e+00 169 170 167
3.988771e-01 5.198816e-01 3.144701e+00 60 56 55
3.976747e-01 5.216966e-01 3.144404e+00 70 61 61
4.116606e-01 5.070503e-01 3.150419e+00 104 103 103
4.011205e-01 5.205121e-01 3.143734e+00 60 55 53
4.005002e-01 5.209503e-01 3.144953e+00 60 55 53
3.995481e-01 5.221534e-01 3.145450e+00 62 53 53
3.999587e-01 5.218693e-01 3.144632e+00 62 53 53
4.001475e-01 5.217438e-01 3.144210e+00 62 53 53
4.003361e-01 5.231007e-01 3.145070e+00 67 56 61
4.017368e-01 5.221082e-01 3.145732e+00 63 58 55
4.025105e-01 5.215944e-01 3.144209e+00 63 58 55
4.038989e-01 5.217951e-01 3.146213e+00 66 58 52
4.116758e-01 5.186932e-01 3.146420e+00 155 149 133
4.223680e-01 5.110832e-01 3.151603e+00 126 121 112
4.173595e-01 5.168166e-01 3.148588e+00 112 102 98
4.241738e-01 5.111018e-01 3.151330e+00 173 177 183
4.132323e-01 5.225122e-01 3.147260e+00 83 90 106
4.189691e-01 5.170975e-01 3.149341e+00 184 187 192
4.130113e-01 5.238996e-01 3.147201e+00 90 81 78
4.130113e-01 5.238996e-01 3.147201e+00 90 81 78
4.093721e-01 5.286161e-01 3.144694e+00 78 63 65
4.087567e-01 5.289204e-01 3.145749e+00 78 63 65
3.957306e-01 5.428866e-01 3.141065e+00 167 179 189
4.003505e-01 5.390551e-01 3.140771e+00 84 75 78
3.978638e-01 5.416233e-01 3.140658e+00 87 76 75
4.015778e-01 5.374509e-01 3.144004e+00 93 88 102
3.928434e-01 5.473067e-01 3.139344e+00 56 55 68
4.352264e-01 5.045749e-01 3.152314e+00 92 90 95
4.352264e-01 5.045749e-01 3.152314e+00 92 90 95
3.911196e-01 5.494344e-01 3.138759e+00 75 69 74
4.223184e-01 5.204870e-01 3.147788e+00 103 95 98
4.188948e-01 5.239396e-01 3.148651e+00 178 178 179
4.159739e-01 5.280849e-01 3.145277e+00 89 84 88
3.956967e-01 5.492713e-01 3.138537e+00 175 177 182
3.933375e-01 5.517738e-01 3.138531e+00 182 184 190
4.253378e-01 5.205857e-01 3.147716e+00 82 77 82
3.914868e-01 5.546410e-01 3.137772e+00 161 165 166
3.982650e-01 5.490807e-01 3.139147e+00 76 69 70
3.979109e-01 5.495418e-01 3.139509e+00 164 166 165
3.945382e-01 5.532274e-01 3.137159e+00 48 43 55
3.871558e-01 5.602840e-01 3.136549e+00 160 168 172
4.152649e-01 5.342351e-01 3.143954e+00 142 132 121
4.476213e-01 5.039362e-01 3.152130e+00 196 192 187
4.443614e-01 5.072088e-01 3.151724e+00 121 119 121
4.161709e-01 5.362274e-01 3.143980e+00 191 194 199
4.361183e-01 5.178353e-01 3.148694e+00 169 169 162
4.081965e-01 5.453777e-01 3.140546e+00 185 188 193
4.129591e-01 5.409824e-01 3.141765e+00 137 133 140
4.073012e-01 5.463658e-01 3.140409e+00 183 182 188
4.211785e-01 5.341470e-01 3.144901e+00 159 154 135
4.177929e-01 5.387921e-01 3.141722e+00 93 91 91
4.177929e-01 5.387921e-01 3.141722e+00 93 91 91
4.143571e-01 5.414883e-01 3.142010e+00 178 181 181
3.907169e-01 5.635936e-01 3.137860e+00 94 92 103
4.196933e-01 5.376298e-01 3.142291e+00 72 73 82
4.137096e-01 5.431437e-01 3.141740e+00 161 160 148
4.107690e-01 5.464268e-01 3.139717e+00 94 89 89
3.934970e-01 5.629445e-01 3.134654e+00 188 188 192
4.097925e-01 5.479049e-01 3.139187e+00 157 150 140
4.088728e-01 5.488767e-01 3.139184e+00 154 153 140
4.020816e-01 5.565614e-01 3.136892e+00 80 74 76
4.515548e-01 5.149642e-01 3.140855e+00 118 117 120
4.293916e-01 5.368259e-01 3.132707e+00 74 80 106
4.033791e-01 5.568998e-01 3.136071e+00 183 189 195
3.945685e-01 5.644719e-01 3.136675e+00 144 140 138
4.620454e-01 5.061612e-01 3.144372e+00 141 143 149
4.536323e-01 5.161277e-01 3.141301e+00 121 115 115
