ply
format ascii 1.0
element face 0
property list uchar int vertex_indices
element vertex 962
property float x
property float y
property float z
property uchar diffuse_red
property uchar diffuse_green
property uchar diffuse_blue
end_header
3.902767e-01 5.562681e-01 3.123078e+00 89 87 87
3.800044e-01 5.665923e-01 3.120891e+00 114 115 117
4.431291e-01 5.147352e-01 3.136492e+00 50 50 60
4.391454e-01 5.392587e-01 3.121907e+00 39 37 50
4.243912e-01 5.533151e-01 3.119261e+00 38 36 49
4.290819e-01 5.552250e-01 3.119473e+00 43 45 58
4.696249e-01 5.291374e-01 3.129956e+00 131 127 123
4.811940e-01 5.243311e-01 3.132199e+00 109 108 115
4.050642e-01 5.976624e-01 3.110139e+00 125 124 130
4.909016e-01 5.392799e-01 3.131572e+00 143 143 143
4.908589e-01 5.392940e-01 3.131599e+00 143 143 143
4.519401e-01 6.011255e-01 3.108981e+00 18 15 24
4.411754e-01 6.116834e-01 3.105469e+00 12 11 19
3.572004e-01 5.480967e-01 3.261614e+00 30 32 45
3.594021e-01 5.472939e-01 3.257009e+00 19 28 11
4.303360e-01 4.844588e-01 3.145116e+00 49 49 51
3.919459e-01 5.467126e-01 3.127970e+00 99 98 106
3.919560e-01 5.467133e-01 3.127879e+00 99 98 106
3.895964e-01 5.490667e-01 3.127227e+00 104 105 111
3.895603e-01 5.490782e-01 3.127505e+00 104 105 111
3.968089e-01 5.423142e-01 3.130913e+00 119 117 124
3.787213e-01 5.608636e-01 3.121460e+00 22 22 24
3.997596e-01 5.482297e-01 3.127547e+00 40 38 39
4.009855e-01 5.470925e-01 3.128239e+00 36 31 35
4.036296e-01 5.447237e-01 3.130184e+00 27 23 24
3.873084e-01 5.611849e-01 3.125379e+00 98 94 93
4.019814e-01 5.474129e-01 3.130118e+00 91 87 86
4.695737e-01 5.107075e-01 3.133913e+00 127 125 128
4.316386e-01 5.815132e-01 3.115176e+00 19 16 23
4.362806e-01 5.859126e-01 3.115780e+00 39 35 35
4.937861e-01 5.354207e-01 3.130987e+00 71 69 80
4.928656e-01 5.542755e-01 3.121648e+00 22 20 31
4.520215e-01 6.011217e-01 3.109023e+00 19 16 25
3.816094e-01 5.178288e-01 3.131188e+00 60 60 62
4.305029e-01 5.103659e-01 3.137095e+00 118 119 123
3.945180e-01 5.444666e-01 3.128510e+00 98 97 103
4.250002e-01 5.155901e-01 3.137412e+00 102 105 112
4.431428e-01 5.069824e-01 3.138670e+00 42 38 39
4.344196e-01 5.153090e-01 3.136027e+00 43 38 35
4.479394e-01 5.023721e-01 3.141157e+00 45 41 40
4.328373e-01 5.167602e-01 3.136433e+00 49 44 47
4.443566e-01 5.060798e-01 3.139442e+00 30 24 26
4.239709e-01 5.254744e-01 3.133994e+00 28 22 24
3.985110e-01 5.496187e-01 3.127433e+00 35 31 30
3.865056e-01 5.612491e-01 3.123031e+00 35 35 36
3.880916e-01 5.600774e-01 3.122713e+00 36 34 35
4.403113e-01 5.107002e-01 3.138571e+00 106 100 102
4.569176e-01 5.162792e-01 3.128971e+00 86 82 79
4.719083e-01 5.125823e-01 3.133540e+00 110 109 115
4.084400e-01 5.822481e-01 3.115603e+00 40 39 37
4.010075e-01 5.878084e-01 3.116414e+00 151 152 156
4.814167e-01 5.226271e-01 3.132537e+00 254 254 254
4.173834e-01 5.886853e-01 3.112458e+00 19 18 23
4.173492e-01 5.886576e-01 3.112578e+00 19 18 23
4.822714e-01 5.408154e-01 3.128346e+00 110 106 105
4.737139e-01 5.487205e-01 3.126469e+00 102 102 95
4.151437e-01 6.044324e-01 3.110487e+00 41 35 37
4.206309e-01 6.125013e-01 3.109019e+00 141 140 141
4.212944e-01 6.152416e-01 3.107277e+00 140 137 144
4.422817e-01 6.054682e-01 3.108315e+00 105 104 109
5.029014e-01 5.778130e-01 3.117356e+00 106 102 103
3.566805e-01 5.486712e-01 3.260385e+00 4 5 8
4.099113e-01 5.012631e-01 3.140022e+00 48 46 50
3.850331e-01 5.280297e-01 3.133894e+00 75 74 79
3.983751e-01 5.399280e-01 3.131696e+00 32 31 36
4.088098e-01 5.310464e-01 3.132454e+00 103 103 105
3.953838e-01 5.491837e-01 3.127414e+00 21 17 16
4.463525e-01 5.047179e-01 3.140769e+00 108 100 97
4.338207e-01 5.166352e-01 3.136748e+00 111 106 103
4.207979e-01 5.290768e-01 3.134061e+00 111 106 101
4.108971e-01 5.382910e-01 3.131482e+00 110 106 105
4.196483e-01 5.310223e-01 3.132643e+00 28 22 24
4.309996e-01 5.202083e-01 3.137381e+00 24 18 19
4.036046e-01 5.459415e-01 3.129800e+00 91 87 88
4.036221e-01 5.459454e-01 3.129734e+00 91 87 88
4.043429e-01 5.455425e-01 3.129782e+00 28 24 23
4.282696e-01 5.459974e-01 3.120061e+00 30 29 34
4.131187e-01 6.073646e-01 3.108135e+00 254 254 254
4.290551e-01 5.926042e-01 3.114624e+00 40 34 36
4.203267e-01 6.122764e-01 3.107664e+00 254 254 252
4.206529e-01 6.135943e-01 3.109023e+00 254 254 253
5.174319e-01 5.626936e-01 3.125301e+00 83 81 85
4.600623e-01 6.158773e-01 3.107768e+00 21 17 31
4.439348e-01 6.330613e-01 3.103610e+00 254 254 254
3.566838e-01 5.497780e-01 3.260463e+00 30 42 22
3.877344e-01 5.504831e-01 3.125566e+00 12 13 17
4.371110e-01 5.032217e-01 3.138922e+00 32 35 39
3.820279e-01 5.567796e-01 3.124000e+00 35 34 40
3.870212e-01 5.549902e-01 3.124951e+00 19 19 18
4.037527e-01 5.434982e-01 3.129968e+00 88 84 81
4.037527e-01 5.434982e-01 3.129968e+00 88 84 81
4.133597e-01 5.346356e-01 3.132561e+00 48 44 45
3.891424e-01 5.603867e-01 3.125006e+00 20 14 16
4.040170e-01 5.464978e-01 3.129840e+00 30 24 28
4.041441e-01 5.464690e-01 3.129417e+00 30 24 28
4.008107e-01 5.544338e-01 3.125784e+00 73 72 74
4.257537e-01 5.320618e-01 3.132596e+00 57 53 56
4.116394e-01 5.455718e-01 3.128440e+00 76 76 76
4.121210e-01 5.451934e-01 3.128576e+00 99 98 104
4.137242e-01 5.444126e-01 3.129705e+00 125 125 123
4.102387e-01 5.477967e-01 3.128453e+00 111 109 110
4.502548e-01 5.225526e-01 3.129618e+00 49 48 46
4.409649e-01 5.412640e-01 3.121586e+00 29 22 32
4.721132e-01 5.124655e-01 3.133323e+00 107 106 114
4.368857e-01 5.462559e-01 3.120558e+00 124 124 123
4.334652e-01 5.554552e-01 3.118958e+00 114 107 104
4.369040e-01 5.543416e-01 3.119267e+00 104 100 101
4.466146e-01 5.471347e-01 3.124864e+00 131 129 130
4.823290e-01 5.242398e-01 3.132294e+00 254 254 252
4.316153e-01 5.831603e-01 3.117222e+00 67 66 62
4.747690e-01 5.492396e-01 3.126660e+00 132 130 131
4.326246e-01 5.877246e-01 3.114518e+00 14 12 17
4.656815e-01 5.604123e-01 3.127054e+00 149 147 146
4.392798e-01 5.844963e-01 3.121568e+00 84 83 82
4.883784e-01 5.454905e-01 3.132938e+00 121 126 126
4.324443e-01 6.001894e-01 3.114535e+00 24 21 30
4.403123e-01 6.012789e-01 3.111339e+00 125 124 129
4.411360e-01 6.020879e-01 3.111155e+00 133 133 135
4.918804e-01 5.830787e-01 3.087710e+00 255 255 254
4.506455e-01 6.113573e-01 3.109751e+00 129 127 130
5.058771e-01 5.784921e-01 3.122185e+00 57 55 60
4.518676e-01 6.380648e-01 3.102856e+00 119 114 129
5.080792e-01 5.949496e-01 3.116333e+00 254 254 252
3.582175e-01 5.480923e-01 3.260685e+00 39 45 31
3.585692e-01 5.480899e-01 3.260784e+00 17 20 9
3.836357e-01 5.546287e-01 3.125917e+00 97 96 101
3.957189e-01 5.435053e-01 3.128843e+00 35 33 34
4.236274e-01 5.170088e-01 3.136402e+00 109 106 114
3.835239e-01 5.552413e-01 3.125818e+00 32 31 29
3.983856e-01 5.412367e-01 3.130846e+00 33 31 33
3.959087e-01 5.440346e-01 3.128110e+00 99 96 91
3.838790e-01 5.557696e-01 3.123400e+00 86 84 87
4.429454e-01 5.034532e-01 3.140214e+00 102 98 96
3.881933e-01 5.554167e-01 3.124630e+00 115 114 116
3.981425e-01 5.484519e-01 3.126820e+00 34 30 31
4.279812e-01 5.302251e-01 3.132098e+00 51 49 46
4.248267e-01 5.334794e-01 3.131797e+00 98 96 100
3.991897e-01 5.634748e-01 3.116381e+00 93 93 93
4.397523e-01 5.397635e-01 3.121621e+00 21 21 22
4.569543e-01 5.261743e-01 3.128319e+00 64 66 65
4.098794e-01 5.697279e-01 3.118101e+00 71 71 71
4.576020e-01 5.283363e-01 3.127844e+00 104 101 98
4.178225e-01 5.654822e-01 3.119942e+00 133 132 129
4.746777e-01 5.332077e-01 3.129538e+00 132 131 137
4.747376e-01 5.337671e-01 3.129187e+00 39 38 43
4.608527e-01 5.470929e-01 3.130464e+00 135 135 137
4.757811e-01 5.428939e-01 3.126015e+00 94 93 89
4.597484e-01 5.663684e-01 3.122101e+00 133 132 138
4.707189e-01 5.600433e-01 3.127696e+00 61 52 53
4.965589e-01 5.423837e-01 3.132424e+00 117 111 145
4.968726e-01 5.423803e-01 3.132130e+00 117 111 145
4.318087e-01 6.022329e-01 3.114037e+00 123 123 111
4.426152e-01 6.025642e-01 3.110919e+00 68 68 70
4.645105e-01 6.131093e-01 3.107765e+00 28 21 28
4.451283e-01 6.351951e-01 3.103664e+00 253 255 254
4.705092e-01 6.198457e-01 3.110548e+00 76 71 77
3.566696e-01 5.496050e-01 3.260478e+00 30 38 24
3.569053e-01 5.495089e-01 3.260607e+00 44 55 39
3.569009e-01 5.494810e-01 3.260522e+00 44 55 39
3.589410e-01 5.474333e-01 3.260931e+00 46 67 45
3.589410e-01 5.474333e-01 3.260931e+00 46 67 45
3.867743e-01 5.231079e-01 3.131795e+00 42 38 34
3.871128e-01 5.229166e-01 3.131775e+00 87 83 82
3.913435e-01 5.258588e-01 3.131878e+00 45 41 40
3.848011e-01 5.467075e-01 3.128125e+00 125 120 116
3.945682e-01 5.433224e-01 3.128510e+00 13 13 19
4.448882e-01 5.028631e-01 3.140863e+00 139 137 138
4.318990e-01 5.156124e-01 3.136253e+00 93 92 90
4.128725e-01 5.358134e-01 3.131495e+00 54 50 51
4.206782e-01 5.452917e-01 3.120103e+00 103 104 106
4.332694e-01 5.348925e-01 3.122868e+00 125 125 127
4.219299e-01 5.502355e-01 3.119362e+00 105 106 108
4.318234e-01 5.463532e-01 3.120340e+00 25 22 26
4.506547e-01 5.297564e-01 3.126551e+00 54 39 35
4.373942e-01 5.442214e-01 3.120446e+00 139 138 143
4.635635e-01 5.212441e-01 3.131964e+00 82 81 78
4.452747e-01 5.408915e-01 3.125519e+00 56 54 55
4.310687e-01 5.611398e-01 3.121537e+00 86 81 85
4.704166e-01 5.337872e-01 3.129398e+00 100 101 103
4.763632e-01 5.319878e-01 3.130267e+00 40 39 44
4.709156e-01 5.516803e-01 3.125693e+00 41 36 41
4.351401e-01 5.829851e-01 3.116983e+00 130 126 125
4.773319e-01 5.576171e-01 3.126156e+00 122 118 118
4.936913e-01 5.417824e-01 3.134518e+00 254 254 252
4.936675e-01 5.419553e-01 3.135115e+00 121 116 151
4.356766e-01 6.078698e-01 3.107390e+00 96 96 103
4.410973e-01 6.027300e-01 3.110849e+00 67 67 67
5.109729e-01 5.559856e-01 3.126370e+00 253 254 250
4.484411e-01 6.105777e-01 3.108635e+00 61 59 61
4.505881e-01 6.119920e-01 3.109459e+00 65 63 64
4.692796e-01 6.224260e-01 3.109712e+00 58 49 56
3.585363e-01 5.470014e-01 3.263101e+00 77 79 90
3.576467e-01 5.486089e-01 3.260859e+00 33 38 34
3.567368e-01 5.497236e-01 3.260424e+00 0 5 0
3.567367e-01 5.497212e-01 3.260417e+00 0 5 0
3.578310e-01 5.486435e-01 3.260639e+00 3 9 1
3.584277e-01 5.480741e-01 3.260767e+00 2 8 0
3.584277e-01 5.480741e-01 3.260767e+00 2 8 0
3.587636e-01 5.478221e-01 3.260875e+00 14 16 11
3.572881e-01 5.493125e-01 3.260363e+00 54 58 34
3.588213e-01 5.477326e-01 3.260612e+00 91 97 63
3.602615e-01 5.461395e-01 3.257575e+00 36 35 8
3.463563e-01 5.484439e-01 3.164920e+00 23 27 39
3.570416e-01 5.452323e-01 3.129355e+00 34 33 38
4.042754e-01 5.005752e-01 3.140484e+00 27 26 32
4.049336e-01 5.020461e-01 3.138424e+00 109 104 109
4.067240e-01 5.112075e-01 3.132697e+00 35 30 27
4.086640e-01 5.101589e-01 3.135818e+00 102 97 94
3.823339e-01 5.369816e-01 3.127741e+00 33 27 27
3.986726e-01 5.215889e-01 3.127588e+00 31 23 20
3.850780e-01 5.353448e-01 3.130381e+00 79 78 83
4.086741e-01 5.130580e-01 3.133948e+00 30 24 22
3.823424e-01 5.394089e-01 3.127408e+00 25 23 21
3.815070e-01 5.432048e-01 3.126779e+00 97 93 92
4.228576e-01 5.032797e-01 3.138247e+00 43 35 32
3.812386e-01 5.437370e-01 3.126432e+00 81 77 76
4.028734e-01 5.272047e-01 3.132364e+00 24 16 14
3.971311e-01 5.412366e-01 3.130365e+00 26 24 30
4.297980e-01 5.172652e-01 3.136512e+00 52 48 47
4.245222e-01 5.241459e-01 3.134847e+00 94 89 94
3.822856e-01 5.662075e-01 3.124493e+00 112 124 124
4.702411e-01 5.063949e-01 3.132220e+00 251 254 255
4.561011e-01 5.326469e-01 3.127701e+00 63 59 56
4.546280e-01 5.386210e-01 3.127255e+00 60 56 53
4.627580e-01 5.410894e-01 3.127221e+00 104 105 109
4.644935e-01 5.466181e-01 3.124559e+00 144 142 150
4.741546e-01 5.500298e-01 3.126315e+00 130 129 127
4.697348e-01 5.540115e-01 3.125526e+00 115 113 114
4.770470e-01 5.482068e-01 3.127117e+00 50 49 47
4.784961e-01 5.487537e-01 3.127716e+00 57 52 49
4.979087e-01 5.873313e-01 3.092815e+00 161 161 164
4.491477e-01 6.316329e-01 3.110268e+00 135 134 133
3.582292e-01 5.481169e-01 3.260800e+00 42 47 37
3.570135e-01 5.494932e-01 3.260448e+00 42 51 43
3.577678e-01 5.487355e-01 3.260656e+00 4 10 2
3.578323e-01 5.487143e-01 3.260608e+00 6 12 3
3.571611e-01 5.493856e-01 3.260286e+00 5 11 1
3.586866e-01 5.478819e-01 3.260752e+00 55 67 37
4.089791e-01 5.008295e-01 3.140171e+00 90 88 93
4.329155e-01 4.814761e-01 3.144571e+00 95 95 97
4.076469e-01 5.088733e-01 3.136703e+00 27 21 21
4.069801e-01 5.110581e-01 3.132984e+00 101 96 92
4.077632e-01 5.107787e-01 3.134027e+00 70 64 64
4.047782e-01 5.161293e-01 3.128677e+00 74 69 66
3.822327e-01 5.385033e-01 3.127617e+00 92 88 87
3.797115e-01 5.454016e-01 3.126123e+00 42 38 35
4.192321e-01 5.287503e-01 3.134047e+00 90 86 83
4.920274e-01 5.321218e-01 3.132564e+00 253 253 255
3.569713e-01 5.494500e-01 3.260536e+00 2 13 0
3.579273e-01 5.485835e-01 3.260636e+00 3 13 2
3.572172e-01 5.493128e-01 3.260401e+00 79 83 68
3.590769e-01 5.474752e-01 3.260900e+00 112 116 89
3.591086e-01 5.474726e-01 3.260897e+00 18 21 4
3.588607e-01 5.475738e-01 3.256329e+00 109 115 83
3.462430e-01 5.487340e-01 3.164396e+00 17 21 35
5.232518e-01 5.880373e-01 3.117919e+00 204 230 255
4.316208e-01 5.661579e-01 3.121183e+00 124 119 126
3.805881e-01 5.684030e-01 3.125801e+00 44 39 45
4.675666e-01 5.634408e-01 3.124590e+00 47 46 52
4.326390e-01 5.114405e-01 3.133991e+00 131 125 129
3.758503e-01 5.640988e-01 3.127710e+00 105 99 109
3.920103e-01 5.491380e-01 3.127727e+00 149 138 143
4.205310e-01 5.466960e-01 3.119273e+00 64 62 74
3.839545e-01 5.269747e-01 3.135891e+00 163 158 165
3.771284e-01 5.609395e-01 3.128089e+00 151 149 160
4.304218e-01 5.128213e-01 3.135033e+00 164 153 161
4.683073e-01 5.275032e-01 3.129624e+00 123 117 119
4.058637e-01 4.990389e-01 3.132934e+00 98 95 103
3.850484e-01 5.282069e-01 3.129178e+00 53 48 55
3.990109e-01 5.289418e-01 3.132828e+00 94 84 92
4.105744e-01 5.227737e-01 3.130320e+00 82 72 77
4.208129e-01 5.299815e-01 3.133395e+00 45 34 40
4.564748e-01 5.388067e-01 3.126210e+00 111 106 112
5.335786e-01 5.862020e-01 3.114588e+00 109 130 159
4.443409e-01 5.025046e-01 3.136125e+00 151 144 152
4.197146e-01 5.438846e-01 3.120843e+00 64 63 71
4.084420e-01 5.837916e-01 3.115361e+00 116 113 120
4.361374e-01 5.602355e-01 3.121453e+00 110 109 114
4.753877e-01 5.404831e-01 3.125769e+00 39 38 44
4.272221e-01 5.958439e-01 3.115037e+00 108 107 115
4.777381e-01 5.526666e-01 3.126604e+00 87 83 89
4.446941e-01 6.351112e-01 3.105514e+00 112 133 162
5.324663e-01 5.861035e-01 3.114612e+00 204 223 252
4.323306e-01 4.834761e-01 3.144632e+00 162 160 170
3.277044e-01 5.895783e-01 3.118887e+00 81 87 109
3.761480e-01 5.614490e-01 3.128018e+00 82 80 91
3.913758e-01 5.474476e-01 3.128476e+00 99 95 102
3.908261e-01 5.480558e-01 3.128522e+00 102 95 103
3.503614e-01 5.974303e-01 3.082317e+00 169 199 235
4.502087e-01 5.342057e-01 3.126842e+00 167 164 170
4.391285e-01 6.141725e-01 3.109275e+00 108 110 122
4.408147e-01 6.147082e-01 3.108516e+00 108 110 123
4.152245e-01 5.250736e-01 3.134305e+00 161 158 165
4.447380e-01 5.017102e-01 3.136729e+00 174 169 176
3.684964e-01 5.758191e-01 3.189533e+00 192 198 233
4.291927e-01 5.341447e-01 3.122545e+00 170 168 175
4.024092e-01 5.295133e-01 3.133473e+00 146 141 145
3.690296e-01 5.757556e-01 3.189312e+00 181 201 236
4.035802e-01 5.466489e-01 3.130745e+00 46 37 42
4.396713e-01 4.850347e-01 3.122044e+00 150 150 160
3.582977e-01 5.378569e-01 3.111754e+00 102 96 99
3.648809e-01 5.401238e-01 3.111059e+00 163 154 157
4.059497e-01 5.259323e-01 3.114359e+00 77 67 68
3.891507e-01 5.232969e-01 3.111870e+00 161 150 154
4.302710e-01 4.896349e-01 3.118701e+00 91 81 82
4.208295e-01 5.582179e-01 3.117776e+00 99 99 109
3.608320e-01 5.409629e-01 3.111317e+00 170 166 167
3.681143e-01 5.433421e-01 3.111426e+00 157 148 151
4.146718e-01 5.014811e-01 3.117007e+00 194 196 210
3.876418e-01 5.492145e-01 3.112395e+00 177 175 180
3.857673e-01 5.548036e-01 3.112252e+00 182 180 185
3.520303e-01 5.349571e-01 3.112451e+00 167 166 171
3.540569e-01 5.453763e-01 3.112174e+00 105 107 115
3.540569e-01 5.453763e-01 3.112174e+00 105 107 115
3.537164e-01 5.478714e-01 3.112532e+00 114 112 123
3.893748e-01 5.209626e-01 3.118890e+00 176 165 163
3.585454e-01 5.521197e-01 3.112536e+00 68 71 79
3.759872e-01 5.344119e-01 3.110702e+00 165 156 159
3.741788e-01 5.387381e-01 3.111108e+00 105 103 106
4.368322e-01 4.871778e-01 3.120962e+00 193 192 198
4.056588e-01 5.213503e-01 3.114729e+00 72 62 61
3.812925e-01 5.509399e-01 3.112176e+00 187 181 185
3.736364e-01 5.617139e-01 3.112638e+00 139 138 144
3.767181e-01 5.624389e-01 3.112386e+00 98 96 109
4.021999e-01 5.405214e-01 3.119491e+00 176 171 175
4.504786e-01 4.912736e-01 3.122975e+00 93 96 103
4.027412e-01 5.633155e-01 3.115558e+00 155 156 161
3.552413e-01 5.357640e-01 3.111852e+00 57 55 58
3.741362e-01 5.297554e-01 3.111390e+00 167 158 161
4.345693e-01 4.717184e-01 3.122970e+00 122 122 131
4.466430e-01 4.627851e-01 3.118842e+00 205 231 250
3.661090e-01 5.488528e-01 3.112088e+00 130 125 129
3.692875e-01 5.487456e-01 3.111940e+00 179 173 175
4.270933e-01 4.913983e-01 3.118340e+00 148 137 141
3.985237e-01 5.213400e-01 3.113532e+00 81 72 67
3.936266e-01 5.286030e-01 3.112918e+00 107 102 106
4.288147e-01 4.944931e-01 3.118565e+00 74 64 61
4.354480e-01 4.907760e-01 3.120272e+00 91 80 84
4.073008e-01 5.262714e-01 3.114567e+00 159 151 153
3.734932e-01 5.652280e-01 3.112400e+00 179 183 192
3.816913e-01 5.572999e-01 3.112426e+00 176 174 187
4.464687e-01 4.922273e-01 3.122646e+00 116 114 121
4.136131e-01 5.280071e-01 3.121572e+00 176 183 191
4.144942e-01 5.278354e-01 3.119380e+00 92 89 96
4.366735e-01 5.056990e-01 3.119358e+00 176 176 188
4.299711e-01 4.582445e-01 3.128240e+00 72 76 87
3.561801e-01 5.400023e-01 3.111662e+00 161 158 165
3.676379e-01 5.341290e-01 3.111287e+00 166 156 159
4.088460e-01 4.925363e-01 3.117552e+00 86 81 87
3.949869e-01 5.079516e-01 3.120134e+00 138 132 132
4.002190e-01 5.045841e-01 3.115508e+00 122 113 116
3.704437e-01 5.363219e-01 3.110950e+00 155 146 148
3.573239e-01 5.506323e-01 3.112468e+00 192 191 200
3.592561e-01 5.489473e-01 3.112378e+00 160 163 168
3.568900e-01 5.520315e-01 3.112654e+00 183 183 193
3.978991e-01 5.124790e-01 3.114730e+00 164 155 158
3.672863e-01 5.439788e-01 3.111336e+00 105 99 103
4.005065e-01 5.111346e-01 3.114589e+00 124 114 115
3.697012e-01 5.436964e-01 3.111094e+00 144 135 138
3.731559e-01 5.407696e-01 3.111198e+00 176 166 165
4.428063e-01 4.698730e-01 3.123810e+00 128 135 144
3.899675e-01 5.240976e-01 3.112988e+00 162 153 154
3.899675e-01 5.240976e-01 3.112988e+00 162 153 154
4.330699e-01 4.802374e-01 3.120561e+00 92 83 85
4.265494e-01 4.892917e-01 3.117671e+00 111 101 99
3.963356e-01 5.235498e-01 3.113187e+00 79 70 71
3.970280e-01 5.251974e-01 3.112959e+00 111 105 105
4.019865e-01 5.216971e-01 3.113050e+00 143 131 131
4.006490e-01 5.251051e-01 3.113658e+00 90 81 84
4.112358e-01 5.157815e-01 3.115755e+00 155 148 150
4.272275e-01 4.999326e-01 3.118444e+00 100 91 92
3.877738e-01 5.510338e-01 3.112270e+00 169 173 184
3.842370e-01 5.554153e-01 3.112413e+00 104 103 111
3.774764e-01 5.621636e-01 3.112229e+00 181 180 188
3.929533e-01 5.474415e-01 3.112823e+00 85 84 90
3.919012e-01 5.485569e-01 3.112848e+00 175 174 180
4.457924e-01 4.943720e-01 3.121861e+00 173 169 170
4.467651e-01 4.934587e-01 3.122147e+00 128 122 126
4.341458e-01 5.068397e-01 3.119320e+00 106 105 111
4.409932e-01 5.003273e-01 3.120672e+00 79 78 86
4.332303e-01 5.086824e-01 3.118833e+00 70 73 80
4.288237e-01 5.323053e-01 3.122060e+00 173 171 177
3.524664e-01 5.339044e-01 3.111929e+00 164 160 166
3.576297e-01 5.379116e-01 3.111844e+00 77 71 73
3.558059e-01 5.425468e-01 3.112092e+00 117 116 122
4.088691e-01 4.899874e-01 3.116533e+00 172 166 170
4.255887e-01 4.730903e-01 3.120430e+00 66 64 69
4.042234e-01 4.969992e-01 3.117278e+00 77 72 78
4.438241e-01 4.579514e-01 3.120733e+00 46 49 56
3.568201e-01 5.480266e-01 3.112294e+00 188 185 194
3.568201e-01 5.480266e-01 3.112294e+00 188 185 194
3.610690e-01 5.449770e-01 3.111834e+00 181 176 180
4.293394e-01 4.753358e-01 3.120969e+00 82 77 83
4.081014e-01 4.998271e-01 3.116521e+00 134 127 131
3.825490e-01 5.259360e-01 3.112373e+00 186 185 191
3.572442e-01 5.525820e-01 3.112515e+00 109 112 121
3.811046e-01 5.286125e-01 3.112331e+00 106 101 105
3.617560e-01 5.483019e-01 3.112234e+00 177 177 181
4.078323e-01 5.039710e-01 3.116786e+00 151 142 143
4.409944e-01 4.712524e-01 3.123094e+00 183 183 193
3.801358e-01 5.340440e-01 3.111408e+00 152 146 148
3.719371e-01 5.430939e-01 3.111206e+00 83 77 77
3.702134e-01 5.449768e-01 3.111546e+00 164 158 162
3.681715e-01 5.480576e-01 3.111924e+00 160 152 150
3.909866e-01 5.260718e-01 3.119873e+00 93 87 87
3.792352e-01 5.373009e-01 3.111639e+00 138 133 130
4.352071e-01 4.828400e-01 3.137217e+00 129 135 147
3.935674e-01 5.236164e-01 3.113551e+00 95 89 91
4.096530e-01 5.084136e-01 3.116877e+00 103 95 93
4.012932e-01 5.168815e-01 3.114683e+00 167 157 156
4.080552e-01 5.119169e-01 3.115825e+00 90 79 81
4.050212e-01 5.149774e-01 3.114735e+00 149 139 138
4.083375e-01 5.118959e-01 3.116069e+00 150 140 141
4.107406e-01 5.115391e-01 3.116332e+00 168 159 162
3.799859e-01 5.427149e-01 3.111571e+00 69 65 66
3.999878e-01 5.225088e-01 3.113640e+00 158 150 147
3.960000e-01 5.269779e-01 3.113439e+00 167 158 159
3.781350e-01 5.456591e-01 3.112027e+00 64 58 60
4.072934e-01 5.180540e-01 3.114089e+00 126 116 114
3.789438e-01 5.571277e-01 3.112379e+00 114 107 114
4.081398e-01 5.281825e-01 3.114729e+00 95 86 91
3.745150e-01 5.627556e-01 3.112550e+00 183 185 198
3.823328e-01 5.554413e-01 3.112346e+00 103 106 115
4.035249e-01 5.343464e-01 3.113915e+00 177 175 180
3.785534e-01 5.594648e-01 3.112337e+00 76 76 88
3.965114e-01 5.417924e-01 3.112951e+00 168 167 172
3.811042e-01 5.572550e-01 3.112440e+00 105 107 119
3.879292e-01 5.504411e-01 3.112662e+00 106 108 121
3.837341e-01 5.549388e-01 3.112574e+00 103 102 110
4.052835e-01 5.333112e-01 3.114172e+00 169 167 170
4.066383e-01 5.328075e-01 3.114580e+00 90 87 94
4.315727e-01 5.079918e-01 3.118486e+00 167 163 164
4.118395e-01 5.282375e-01 3.115252e+00 172 169 176
4.512322e-01 4.887310e-01 3.123970e+00 122 124 129
4.333489e-01 5.079543e-01 3.118793e+00 181 180 186
4.422861e-01 4.991297e-01 3.121115e+00 103 102 110
4.247034e-01 5.173435e-01 3.116971e+00 192 192 200
4.470010e-01 4.948164e-01 3.122146e+00 167 164 173
4.338060e-01 5.088894e-01 3.119120e+00 185 188 197
3.426252e-01 5.425021e-01 3.113613e+00 174 176 189
4.013968e-01 4.832589e-01 3.116318e+00 99 97 102
3.570968e-01 5.396927e-01 3.111762e+00 168 163 170
4.254482e-01 4.733523e-01 3.120440e+00 143 141 146
4.085795e-01 4.924037e-01 3.116615e+00 147 144 149
4.036735e-01 4.977737e-01 3.118045e+00 125 120 126
4.036735e-01 4.977737e-01 3.118045e+00 125 120 126
4.053511e-01 4.974962e-01 3.116942e+00 114 112 117
4.253385e-01 4.778015e-01 3.119456e+00 151 142 145
4.325407e-01 4.721822e-01 3.122401e+00 175 174 182
3.620591e-01 5.450806e-01 3.111905e+00 153 148 153
4.049792e-01 5.022285e-01 3.117055e+00 92 82 83
3.568286e-01 5.516095e-01 3.112336e+00 115 114 122
4.012401e-01 5.063382e-01 3.115557e+00 97 87 85
3.673987e-01 5.425289e-01 3.111255e+00 147 137 140
4.108303e-01 4.984939e-01 3.117090e+00 198 195 204
4.331403e-01 4.771094e-01 3.121681e+00 111 110 116
4.066038e-01 5.043633e-01 3.116532e+00 75 67 65
3.846779e-01 5.289252e-01 3.112473e+00 141 142 151
3.954696e-01 5.203934e-01 3.113323e+00 160 151 146
4.380272e-01 4.774039e-01 3.122208e+00 173 175 187
3.949578e-01 5.216182e-01 3.113247e+00 85 77 75
3.773783e-01 5.395369e-01 3.111265e+00 92 87 84
3.708684e-01 5.463657e-01 3.111366e+00 85 77 84
3.974345e-01 5.196841e-01 3.113417e+00 145 130 125
4.058541e-01 5.113413e-01 3.115164e+00 141 132 135
3.918787e-01 5.263037e-01 3.112790e+00 93 81 81
4.100017e-01 5.087436e-01 3.115957e+00 158 150 148
3.763238e-01 5.434966e-01 3.111381e+00 89 83 85
4.074669e-01 5.122542e-01 3.115293e+00 103 92 95
3.740488e-01 5.463480e-01 3.111523e+00 83 77 79
4.104834e-01 5.110075e-01 3.116086e+00 82 73 76
4.126675e-01 5.094750e-01 3.116105e+00 198 193 199
4.241170e-01 4.987001e-01 3.117753e+00 110 100 101
4.016912e-01 5.220778e-01 3.113256e+00 107 98 93
4.132393e-01 5.162527e-01 3.116249e+00 123 118 123
4.069950e-01 5.232230e-01 3.114446e+00 134 124 123
4.318033e-01 4.982448e-01 3.118998e+00 144 139 135
4.320471e-01 4.984272e-01 3.118889e+00 89 84 80
4.078611e-01 5.261730e-01 3.114520e+00 164 153 157
3.705940e-01 5.651015e-01 3.112526e+00 96 100 111
3.730696e-01 5.640784e-01 3.112392e+00 159 161 173
3.908414e-01 5.464994e-01 3.112813e+00 160 158 163
3.939338e-01 5.444447e-01 3.112808e+00 103 102 108
4.035816e-01 5.348018e-01 3.113985e+00 162 159 166
4.096769e-01 5.289321e-01 3.114873e+00 123 121 126
3.956477e-01 5.436279e-01 3.113233e+00 164 164 175
4.171599e-01 5.219823e-01 3.116192e+00 123 121 122
3.746811e-01 5.646624e-01 3.112197e+00 80 87 97
3.956699e-01 5.439105e-01 3.112930e+00 114 114 126
4.064416e-01 5.333462e-01 3.114315e+00 174 174 182
4.057776e-01 5.345357e-01 3.114247e+00 162 163 168
4.394374e-01 5.000688e-01 3.119899e+00 177 175 176
4.074921e-01 5.335238e-01 3.114558e+00 182 186 197
4.513178e-01 4.884636e-01 3.123808e+00 190 193 199
4.429023e-01 4.974534e-01 3.121091e+00 118 113 117
4.290727e-01 5.117766e-01 3.118158e+00 113 112 117
4.317915e-01 5.092412e-01 3.118666e+00 98 97 103
4.240876e-01 5.172595e-01 3.117307e+00 155 154 160
4.248273e-01 5.165270e-01 3.117422e+00 172 169 176
4.315557e-01 5.097033e-01 3.118551e+00 182 181 188
4.315557e-01 5.097033e-01 3.118551e+00 182 181 188
4.327035e-01 5.085892e-01 3.118713e+00 173 174 179
4.330958e-01 5.082599e-01 3.118969e+00 171 170 176
4.334648e-01 5.081774e-01 3.118706e+00 120 120 128
4.068046e-01 5.355314e-01 3.113821e+00 155 153 156
4.315553e-01 5.102758e-01 3.118153e+00 159 160 170
4.160702e-01 5.261638e-01 3.115676e+00 93 92 99
4.180472e-01 5.242211e-01 3.115868e+00 183 182 187
4.247234e-01 5.179834e-01 3.116945e+00 169 170 175
4.398920e-01 5.032493e-01 3.120113e+00 203 205 217
4.408246e-01 5.023413e-01 3.120329e+00 189 191 203
3.600697e-01 5.346164e-01 3.111066e+00 114 109 106
3.569546e-01 5.438016e-01 3.111715e+00 185 187 199
4.059754e-01 4.982661e-01 3.117583e+00 99 94 100
4.060314e-01 4.985130e-01 3.117625e+00 163 158 164
4.233079e-01 4.805170e-01 3.118142e+00 129 123 125
4.227930e-01 4.814546e-01 3.117846e+00 140 131 132
3.578024e-01 5.484736e-01 3.112202e+00 159 158 167
3.962616e-01 5.121303e-01 3.130007e+00 182 173 176
3.741061e-01 5.323403e-01 3.111201e+00 150 144 148
3.965964e-01 5.109340e-01 3.114707e+00 149 139 138
3.590662e-01 5.525627e-01 3.112446e+00 152 156 167
4.098507e-01 5.018895e-01 3.117247e+00 146 140 150
3.721429e-01 5.423480e-01 3.111490e+00 103 97 101
3.905441e-01 5.251728e-01 3.112699e+00 133 127 127
4.087055e-01 5.101453e-01 3.115862e+00 109 103 105
4.099344e-01 5.090386e-01 3.116302e+00 95 86 85
4.108169e-01 5.117677e-01 3.116141e+00 87 78 81
4.005900e-01 5.240463e-01 3.113539e+00 123 114 117
4.017750e-01 5.242089e-01 3.113514e+00 152 145 145
4.038746e-01 5.221407e-01 3.114244e+00 104 96 93
4.012780e-01 5.257381e-01 3.113826e+00 157 148 149
4.044560e-01 5.239227e-01 3.113909e+00 166 156 155
4.012607e-01 5.293669e-01 3.113958e+00 95 90 94
3.840627e-01 5.524016e-01 3.112323e+00 116 111 117
3.840627e-01 5.524016e-01 3.112323e+00 116 111 117
3.749571e-01 5.623806e-01 3.112721e+00 147 149 162
3.747448e-01 5.625999e-01 3.112435e+00 155 159 171
3.805028e-01 5.568799e-01 3.112207e+00 143 142 150
3.939708e-01 5.446502e-01 3.112793e+00 146 147 152
3.987822e-01 5.404836e-01 3.113535e+00 117 116 123
3.953905e-01 5.439079e-01 3.113146e+00 164 164 175
3.953905e-01 5.439079e-01 3.113146e+00 164 164 175
3.970461e-01 5.423373e-01 3.113152e+00 157 158 162
3.851054e-01 5.544741e-01 3.112369e+00 159 156 165
3.746411e-01 5.650657e-01 3.112355e+00 186 193 199
3.899500e-01 5.501871e-01 3.112321e+00 131 130 138
4.061867e-01 5.338723e-01 3.113776e+00 116 117 122
4.126724e-01 5.275195e-01 3.115156e+00 160 162 167
3.905257e-01 5.499168e-01 3.112499e+00 168 165 172
3.884505e-01 5.520318e-01 3.112339e+00 167 166 171
4.147161e-01 5.258772e-01 3.115477e+00 110 110 120
4.199695e-01 5.218099e-01 3.116473e+00 167 167 177
4.317403e-01 5.097963e-01 3.118587e+00 115 115 123
4.218848e-01 5.209895e-01 3.116534e+00 111 110 116
4.248268e-01 5.181617e-01 3.116953e+00 99 99 102
4.248268e-01 5.181617e-01 3.116953e+00 99 99 102
4.325214e-01 5.106631e-01 3.118442e+00 151 148 155
4.615481e-01 5.520854e-01 3.125289e+00 172 164 147
4.510746e-01 5.628225e-01 3.122033e+00 167 161 155
4.646253e-01 5.449356e-01 3.125709e+00 122 115 102
4.444061e-01 5.642583e-01 3.121406e+00 159 152 142
4.540976e-01 5.577126e-01 3.123124e+00 139 132 121
4.494657e-01 5.198599e-01 3.127991e+00 171 163 143
4.742360e-01 5.244935e-01 3.130939e+00 195 191 182
4.086021e-01 5.358956e-01 3.122817e+00 149 132 108
4.344119e-01 5.228333e-01 3.125295e+00 167 154 137
4.592705e-01 5.571422e-01 3.123609e+00 160 151 139
4.632145e-01 5.623832e-01 3.123303e+00 150 146 135
4.716688e-01 5.618016e-01 3.125333e+00 118 109 107
4.304810e-01 5.241961e-01 3.126289e+00 74 61 47
4.361258e-01 5.190875e-01 3.127655e+00 87 70 49
4.478812e-01 5.576717e-01 3.122481e+00 255 253 254
4.463125e-01 5.594168e-01 3.122029e+00 94 94 90
4.115656e-01 5.373106e-01 3.123677e+00 141 130 107
4.093505e-01 5.460572e-01 3.121488e+00 171 164 146
4.493461e-01 5.110978e-01 3.129777e+00 93 88 83
4.230928e-01 5.394815e-01 3.122560e+00 46 46 46
4.230928e-01 5.394815e-01 3.122560e+00 46 46 46
4.273607e-01 5.413484e-01 3.122690e+00 181 173 158
4.303138e-01 5.398691e-01 3.122908e+00 188 181 165
4.254092e-01 5.465152e-01 3.121627e+00 60 58 56
4.436726e-01 5.593926e-01 3.121679e+00 162 155 141
4.602734e-01 5.615023e-01 3.122928e+00 70 71 74
4.602734e-01 5.615023e-01 3.122928e+00 70 71 74
4.608482e-01 5.643475e-01 3.122484e+00 71 75 78
4.410327e-01 5.098402e-01 3.127423e+00 177 164 143
4.444999e-01 5.205816e-01 3.128351e+00 78 74 71
4.225938e-01 5.410160e-01 3.122095e+00 154 145 130
4.250497e-01 5.393719e-01 3.122596e+00 150 139 122
4.290882e-01 5.412072e-01 3.122600e+00 55 52 52
4.698033e-01 5.343887e-01 3.128706e+00 164 157 141
4.706198e-01 5.367324e-01 3.128648e+00 149 145 134
4.433506e-01 5.733440e-01 3.119582e+00 251 255 254
4.547807e-01 5.647712e-01 3.121886e+00 254 255 249
4.529313e-01 5.665533e-01 3.120821e+00 250 254 253
4.530980e-01 5.671135e-01 3.120982e+00 250 254 253
4.567419e-01 5.683034e-01 3.121633e+00 76 79 85
4.106144e-01 5.222435e-01 3.124706e+00 70 49 30
4.397398e-01 5.039784e-01 3.130683e+00 179 172 157
4.203736e-01 5.220097e-01 3.125580e+00 172 163 149
4.231701e-01 5.195732e-01 3.126149e+00 173 166 147
4.133572e-01 5.374836e-01 3.123757e+00 71 57 41
4.236507e-01 5.381423e-01 3.122747e+00 141 129 111
4.269451e-01 5.358771e-01 3.123213e+00 51 48 46
4.246345e-01 5.410422e-01 3.122439e+00 41 36 35
4.280008e-01 5.383985e-01 3.123058e+00 176 173 158
4.237982e-01 5.416527e-01 3.122631e+00 177 171 157
4.293380e-01 5.382885e-01 3.123125e+00 58 57 56
4.445853e-01 5.267729e-01 3.126392e+00 157 144 127
4.319034e-01 5.404706e-01 3.122929e+00 41 40 37
4.332052e-01 5.403068e-01 3.123248e+00 159 151 135
4.311952e-01 5.507024e-01 3.125122e+00 163 161 144
4.446502e-01 5.580586e-01 3.121779e+00 165 161 149
4.483179e-01 5.652999e-01 3.119730e+00 253 255 250
4.290975e-01 5.908980e-01 3.115541e+00 146 143 126
4.291057e-01 5.906134e-01 3.115808e+00 146 143 126
4.951771e-01 5.400110e-01 3.131820e+00 135 145 147
4.138779e-01 5.144822e-01 3.125009e+00 103 87 63
4.006327e-01 5.284993e-01 3.124043e+00 91 75 54
4.370877e-01 5.148124e-01 3.126481e+00 64 51 38
4.257982e-01 5.276262e-01 3.125508e+00 155 142 115
3.989422e-01 5.514725e-01 3.121424e+00 38 26 17
4.087330e-01 5.425766e-01 3.121889e+00 50 35 22
4.215586e-01 5.398774e-01 3.122377e+00 156 142 130
4.410460e-01 5.233050e-01 3.127535e+00 160 146 128
4.268076e-01 5.369538e-01 3.123088e+00 165 157 141
4.261486e-01 5.421807e-01 3.122469e+00 62 56 54
4.389011e-01 5.315089e-01 3.125129e+00 97 80 59
4.274414e-01 5.445117e-01 3.122158e+00 31 32 24
4.469950e-01 5.486887e-01 3.123597e+00 168 161 143
4.329856e-01 5.619161e-01 3.121004e+00 162 160 141
4.314197e-01 5.677346e-01 3.119378e+00 74 68 54
4.754698e-01 5.304839e-01 3.130267e+00 152 145 134
4.446417e-01 5.601872e-01 3.121484e+00 162 157 148
4.446417e-01 5.601872e-01 3.121484e+00 162 157 148
4.470398e-01 5.616117e-01 3.121744e+00 94 97 90
4.715239e-01 5.406095e-01 3.127896e+00 155 149 139
4.669329e-01 5.447330e-01 3.126601e+00 72 70 67
4.682956e-01 5.462587e-01 3.126518e+00 69 64 62
4.888231e-01 5.347383e-01 3.131717e+00 124 127 126
4.432227e-01 5.744080e-01 3.119225e+00 87 70 65
4.531464e-01 5.670170e-01 3.121348e+00 252 250 252
4.449499e-01 5.751992e-01 3.119338e+00 252 252 254
4.449499e-01 5.751992e-01 3.119338e+00 252 252 254
3.966376e-01 5.281105e-01 3.124221e+00 100 84 61
4.274844e-01 5.196629e-01 3.126595e+00 70 54 43
4.274844e-01 5.196629e-01 3.126595e+00 70 54 43
4.022181e-01 5.455382e-01 3.122628e+00 89 75 53
4.024932e-01 5.487083e-01 3.121377e+00 42 26 19
4.483416e-01 5.090940e-01 3.129767e+00 187 180 167
4.477256e-01 5.115448e-01 3.129277e+00 86 81 73
4.468567e-01 5.123399e-01 3.129000e+00 90 80 74
4.460698e-01 5.131335e-01 3.128738e+00 91 80 71
4.395971e-01 5.189445e-01 3.126823e+00 78 76 69
4.010188e-01 5.547942e-01 3.120893e+00 64 57 50
4.000091e-01 5.565983e-01 3.120731e+00 132 127 114
4.102612e-01 5.490808e-01 3.122460e+00 110 94 73
4.250044e-01 5.411679e-01 3.122178e+00 41 37 30
4.274586e-01 5.394370e-01 3.122993e+00 44 36 29
4.274586e-01 5.394370e-01 3.122993e+00 44 36 29
4.255376e-01 5.416490e-01 3.122543e+00 179 173 161
4.255376e-01 5.416490e-01 3.122543e+00 179 173 161
4.235857e-01 5.447106e-01 3.121981e+00 41 31 22
4.255421e-01 5.440145e-01 3.122108e+00 162 155 143
4.402492e-01 5.319960e-01 3.124904e+00 82 70 53
4.256492e-01 5.453149e-01 3.121915e+00 165 148 132
4.324924e-01 5.398010e-01 3.123254e+00 165 159 141
4.689604e-01 5.080327e-01 3.133587e+00 252 253 251
4.279247e-01 5.508129e-01 3.120463e+00 165 163 155
4.608716e-01 5.275854e-01 3.128286e+00 89 81 66
4.712869e-01 5.187559e-01 3.131653e+00 118 113 107
4.669180e-01 5.272830e-01 3.129403e+00 110 103 89
4.127665e-01 5.803363e-01 3.115979e+00 171 169 157
4.792831e-01 5.242513e-01 3.131945e+00 184 181 175
4.707845e-01 5.350092e-01 3.128782e+00 76 70 70
4.707845e-01 5.350092e-01 3.128782e+00 76 70 70
4.689721e-01 5.367560e-01 3.128195e+00 77 69 67
4.639874e-01 5.414913e-01 3.126675e+00 86 78 73
4.424598e-01 5.622184e-01 3.121161e+00 158 154 150
4.424598e-01 5.622184e-01 3.121161e+00 158 154 150
4.604967e-01 5.466760e-01 3.125353e+00 179 170 159
4.220993e-01 5.893984e-01 3.115103e+00 154 145 124
4.297405e-01 5.838684e-01 3.116218e+00 120 118 105
4.900613e-01 5.366331e-01 3.131719e+00 178 177 174
4.912924e-01 5.360641e-01 3.132043e+00 167 168 167
4.414597e-01 5.792144e-01 3.119204e+00 167 162 148
4.258643e-01 5.936134e-01 3.114732e+00 45 27 19
4.942097e-01 5.358659e-01 3.132409e+00 253 253 251
4.669749e-01 5.606897e-01 3.123943e+00 117 112 98
4.502174e-01 5.762495e-01 3.119653e+00 150 146 139
4.721868e-01 5.575329e-01 3.125246e+00 103 96 92
4.974392e-01 5.443563e-01 3.131312e+00 251 251 253
4.974392e-01 5.443563e-01 3.131312e+00 251 251 253
3.828957e-01 5.333322e-01 3.126287e+00 100 78 48
4.068453e-01 5.139132e-01 3.124930e+00 83 64 44
4.068453e-01 5.139132e-01 3.124930e+00 83 64 44
4.319520e-01 4.990648e-01 3.130396e+00 77 62 43
4.033747e-01 5.387719e-01 3.123408e+00 125 122 104
4.040916e-01 5.383872e-01 3.122382e+00 142 136 118
3.903334e-01 5.543389e-01 3.122084e+00 65 49 34
4.162061e-01 5.325813e-01 3.124135e+00 163 144 126
4.134413e-01 5.355851e-01 3.123674e+00 59 44 31
4.387540e-01 5.196453e-01 3.126680e+00 97 86 78
4.305461e-01 5.307396e-01 3.125437e+00 164 148 130
3.986524e-01 5.588987e-01 3.120573e+00 91 76 58
4.447145e-01 5.180597e-01 3.129010e+00 165 153 128
4.376435e-01 5.238594e-01 3.125866e+00 163 146 128
3.976918e-01 5.629534e-01 3.119820e+00 154 145 120
4.001087e-01 5.635113e-01 3.119908e+00 151 149 127
4.148211e-01 5.510347e-01 3.120931e+00 147 136 113
4.155488e-01 5.518850e-01 3.120860e+00 137 124 101
4.344615e-01 5.355444e-01 3.123809e+00 59 46 31
4.345154e-01 5.354682e-01 3.124003e+00 59 46 31
4.460016e-01 5.279741e-01 3.126335e+00 134 126 107
4.173168e-01 5.537904e-01 3.120851e+00 75 60 42
4.303253e-01 5.433513e-01 3.122568e+00 172 165 149
4.282285e-01 5.454071e-01 3.122058e+00 178 165 150
4.296535e-01 5.441703e-01 3.122365e+00 150 138 125
4.714349e-01 5.165982e-01 3.132080e+00 133 127 120
4.714349e-01 5.165982e-01 3.132080e+00 133 127 120
4.402533e-01 5.449167e-01 3.123159e+00 119 107 90
4.641112e-01 5.304843e-01 3.128474e+00 120 112 96
4.789642e-01 5.213526e-01 3.132551e+00 147 144 139
4.452881e-01 5.515876e-01 3.123269e+00 99 92 79
4.742033e-01 5.297205e-01 3.130325e+00 168 167 159
4.190416e-01 5.805912e-01 3.116461e+00 89 79 63
4.555452e-01 5.487510e-01 3.124361e+00 75 75 67
4.469736e-01 5.563195e-01 3.122432e+00 153 162 154
4.614799e-01 5.442038e-01 3.125844e+00 163 159 150
4.737346e-01 5.345262e-01 3.129284e+00 72 72 72
4.737346e-01 5.345262e-01 3.129284e+00 72 72 72
4.337516e-01 5.703935e-01 3.119201e+00 179 178 166
4.713275e-01 5.490810e-01 3.126537e+00 59 55 54
4.828341e-01 5.419119e-01 3.129356e+00 99 90 88
4.622812e-01 5.601882e-01 3.123455e+00 108 100 89
4.910261e-01 5.354146e-01 3.131974e+00 134 136 138
4.910261e-01 5.354146e-01 3.131974e+00 134 136 138
4.583842e-01 5.639543e-01 3.122493e+00 83 84 85
4.542938e-01 5.680633e-01 3.121387e+00 77 77 80
4.479021e-01 5.739188e-01 3.119627e+00 237 231 234
4.596636e-01 5.643332e-01 3.122446e+00 158 157 154
4.549158e-01 5.691661e-01 3.121160e+00 81 85 86
4.542199e-01 5.712449e-01 3.120907e+00 153 148 146
4.468291e-01 5.827256e-01 3.118266e+00 67 67 63
4.426908e-01 5.873169e-01 3.118208e+00 81 63 48
4.750888e-01 5.602613e-01 3.125392e+00 165 165 160
4.703429e-01 5.650346e-01 3.123658e+00 108 100 94
4.977553e-01 5.436575e-01 3.131513e+00 157 163 165
3.854205e-01 5.246495e-01 3.127193e+00 115 109 88
4.126413e-01 5.056851e-01 3.126670e+00 169 152 128
4.107458e-01 5.236017e-01 3.124597e+00 139 124 101
3.971590e-01 5.419839e-01 3.122378e+00 76 60 48
3.948168e-01 5.448776e-01 3.122522e+00 67 49 35
4.308785e-01 5.122293e-01 3.128035e+00 74 58 44
3.975508e-01 5.424696e-01 3.122432e+00 71 49 33
4.282751e-01 5.151443e-01 3.127322e+00 173 162 152
4.200337e-01 5.215705e-01 3.124475e+00 180 164 144
4.347292e-01 5.088626e-01 3.129646e+00 143 134 121
4.101643e-01 5.357825e-01 3.122465e+00 153 138 120
4.087094e-01 5.374785e-01 3.122296e+00 130 127 114
4.164695e-01 5.318190e-01 3.124306e+00 155 138 112
4.023150e-01 5.438183e-01 3.121943e+00 168 151 135
4.427229e-01 5.082514e-01 3.130554e+00 106 86 69
4.397866e-01 5.109220e-01 3.129486e+00 174 162 150
4.148347e-01 5.339332e-01 3.124105e+00 145 139 126
4.437841e-01 5.127507e-01 3.129843e+00 99 81 61
4.506326e-01 5.081258e-01 3.130237e+00 183 174 157
4.452119e-01 5.131417e-01 3.128621e+00 180 171 156
4.376964e-01 5.259456e-01 3.125936e+00 181 172 154
4.275135e-01 5.346937e-01 3.123426e+00 65 60 41
4.272173e-01 5.355300e-01 3.123390e+00 67 50 37
4.408900e-01 5.247244e-01 3.126143e+00 131 116 93
4.273324e-01 5.373065e-01 3.123121e+00 155 153 142
3.996594e-01 5.629524e-01 3.119869e+00 168 161 147
4.018046e-01 5.616533e-01 3.120067e+00 161 154 138
4.636663e-01 5.076057e-01 3.132496e+00 119 116 112
4.242362e-01 5.447625e-01 3.122050e+00 179 166 148
4.296569e-01 5.403670e-01 3.122924e+00 164 150 134
4.300185e-01 5.419347e-01 3.122679e+00 55 52 42
4.653245e-01 5.106008e-01 3.132187e+00 157 150 140
4.295252e-01 5.426745e-01 3.122564e+00 168 162 150
4.632850e-01 5.201410e-01 3.129900e+00 118 110 99
4.168208e-01 5.637645e-01 3.119461e+00 113 99 78
4.527091e-01 5.351721e-01 3.126282e+00 120 104 90
4.078523e-01 5.748553e-01 3.117249e+00 109 102 85
4.176333e-01 5.696450e-01 3.118183e+00 110 99 79
4.152616e-01 5.785850e-01 3.116468e+00 94 91 78
4.417030e-01 5.566538e-01 3.122210e+00 100 89 73
4.411945e-01 5.577046e-01 3.122055e+00 140 131 117
4.294044e-01 5.738844e-01 3.118277e+00 67 60 54
4.705062e-01 5.391049e-01 3.128021e+00 135 130 126
4.656146e-01 5.485834e-01 3.125659e+00 160 154 151
4.549632e-01 5.593172e-01 3.121705e+00 219 216 220
4.575894e-01 5.609127e-01 3.122873e+00 159 153 147
4.314931e-01 5.853629e-01 3.116660e+00 89 75 69
4.790314e-01 5.454366e-01 3.128420e+00 101 90 84
4.561689e-01 5.658583e-01 3.121968e+00 224 222 228
4.561045e-01 5.658784e-01 3.121762e+00 224 222 228
4.519919e-01 5.698927e-01 3.120691e+00 237 230 229
4.928747e-01 5.351865e-01 3.132312e+00 164 160 156
4.604146e-01 5.636521e-01 3.122453e+00 87 80 73
4.477846e-01 5.743959e-01 3.119586e+00 90 71 66
4.939537e-01 5.350174e-01 3.132581e+00 174 173 177
4.404551e-01 5.811513e-01 3.117929e+00 95 81 73
4.491260e-01 5.739296e-01 3.119773e+00 101 93 85
4.303624e-01 5.904309e-01 3.115545e+00 51 55 51
4.255860e-01 5.949713e-01 3.114418e+00 4 21 23
4.409836e-01 5.855156e-01 3.118271e+00 108 87 68
4.490493e-01 5.802477e-01 3.119094e+00 80 77 69
4.421858e-01 5.865237e-01 3.117144e+00 150 128 113
4.421858e-01 5.865237e-01 3.117144e+00 150 128 113
4.314263e-01 5.975431e-01 3.114274e+00 77 68 50
4.972389e-01 5.429744e-01 3.131471e+00 252 246 245
4.552607e-01 6.225939e-01 3.105206e+00 3 2 19
5.081533e-01 5.650894e-01 3.121094e+00 115 121 120
4.997244e-01 5.782245e-01 3.117826e+00 9 16 26
4.075544e-01 5.697977e-01 3.117898e+00 103 109 107
5.077724e-01 5.944029e-01 3.121237e+00 255 255 255
3.968786e-01 5.602204e-01 3.115140e+00 123 126 130
4.467209e-01 5.499310e-01 3.124809e+00 138 140 137
4.467209e-01 5.499310e-01 3.124809e+00 138 140 137
4.692285e-01 5.577237e-01 3.127451e+00 139 142 141
5.201324e-01 5.640662e-01 3.122988e+00 62 76 77
4.128495e-01 5.349618e-01 3.129620e+00 116 116 113
4.307925e-01 5.339229e-01 3.124538e+00 112 118 115
4.057571e-01 5.657801e-01 3.116100e+00 51 51 49
4.252756e-01 5.711084e-01 3.123948e+00 61 57 54
4.568051e-01 5.430005e-01 3.128135e+00 68 69 62
4.656448e-01 5.399621e-01 3.125761e+00 114 124 123
4.521626e-01 5.345020e-01 3.151851e+00 107 116 115
5.013689e-01 5.605986e-01 3.120935e+00 104 113 110
4.940353e-01 5.871361e-01 3.118032e+00 61 64 67
5.196543e-01 5.615635e-01 3.123834e+00 255 255 251
5.151092e-01 5.686533e-01 3.123246e+00 65 69 72
4.096676e-01 5.300300e-01 3.132971e+00 120 129 132
4.359098e-01 5.312840e-01 3.134732e+00 130 136 131
4.690197e-01 6.154636e-01 3.110815e+00 101 105 102
5.086863e-01 5.809108e-01 3.120561e+00 117 131 132
4.235851e-01 5.271776e-01 3.133849e+00 22 14 13
4.019668e-01 5.825879e-01 3.048171e+00 30 35 48
4.863240e-01 5.555792e-01 3.121038e+00 89 84 81
4.231823e-01 5.176105e-01 3.136410e+00 46 46 41
4.037201e-01 5.462534e-01 3.128624e+00 78 85 87
4.207333e-01 5.303398e-01 3.131446e+00 100 95 89
4.281339e-01 5.619617e-01 3.120671e+00 119 124 127
4.544987e-01 5.447734e-01 3.128566e+00 150 156 161
4.193751e-01 6.024408e-01 3.116556e+00 140 142 147
4.262384e-01 5.984086e-01 3.115129e+00 111 115 115
4.663575e-01 5.552309e-01 3.127294e+00 77 77 74
4.884568e-01 5.395928e-01 3.132099e+00 98 104 100
4.534808e-01 6.247009e-01 3.104865e+00 88 96 92
4.514953e-01 6.267144e-01 3.109652e+00 101 113 113
4.919958e-01 5.912726e-01 3.115162e+00 251 251 250
5.086809e-01 5.797366e-01 3.122129e+00 123 132 131
4.744168e-01 6.269714e-01 3.107428e+00 53 64 67
4.699185e-01 6.239496e-01 3.113428e+00 53 64 67
4.122989e-01 5.285065e-01 3.133235e+00 10 11 11
4.149807e-01 5.435309e-01 3.122896e+00 106 110 109
4.303177e-01 5.344241e-01 3.121712e+00 123 128 129
4.325109e-01 5.385104e-01 3.120733e+00 2 2 5
4.326979e-01 5.516963e-01 3.118897e+00 135 142 137
4.077001e-01 5.788651e-01 3.116390e+00 56 56 53
4.391134e-01 5.552310e-01 3.121155e+00 98 93 90
4.392736e-01 5.580725e-01 3.121813e+00 136 136 135
4.285866e-01 5.695209e-01 3.122945e+00 147 153 158
4.294854e-01 5.943251e-01 3.115097e+00 8 9 14
4.825773e-01 5.420967e-01 3.128105e+00 113 117 116
5.005354e-01 5.635572e-01 3.118986e+00 43 55 67
4.565604e-01 6.297143e-01 3.110346e+00 114 125 126
4.187231e-01 5.306988e-01 3.131064e+00 89 84 78
4.090105e-01 5.423651e-01 3.129023e+00 76 67 62
4.079044e-01 5.435693e-01 3.128617e+00 87 83 74
4.101740e-01 5.474893e-01 3.127063e+00 42 41 44
4.267280e-01 5.301127e-01 3.130668e+00 78 79 73
4.104429e-01 5.480121e-01 3.127205e+00 124 128 122
4.066758e-01 5.511296e-01 3.128981e+00 113 114 106
4.448612e-01 5.189033e-01 3.125158e+00 35 35 34
3.932269e-01 5.744185e-01 3.122304e+00 109 119 113
4.161293e-01 5.918989e-01 3.048744e+00 10 8 10
3.996726e-01 5.770560e-01 3.116351e+00 46 45 51
4.370511e-01 5.446159e-01 3.120314e+00 133 141 143
4.365239e-01 5.476100e-01 3.120044e+00 141 146 143
4.149554e-01 5.740315e-01 3.116832e+00 111 111 106
4.344814e-01 5.556320e-01 3.118407e+00 102 94 87
4.070167e-01 5.830865e-01 3.116083e+00 36 41 46
4.658288e-01 5.249927e-01 3.129682e+00 133 140 138
4.577452e-01 5.346963e-01 3.126930e+00 125 121 109
4.666007e-01 5.353149e-01 3.128090e+00 52 50 42
4.280828e-01 5.791847e-01 3.116420e+00 99 106 100
4.647851e-01 5.570778e-01 3.126673e+00 122 124 121
4.850157e-01 5.375003e-01 3.131534e+00 114 117 120
4.397360e-01 5.893462e-01 3.117909e+00 92 93 88
4.432647e-01 5.866048e-01 3.121774e+00 95 95 93
4.783178e-01 5.531580e-01 3.126392e+00 100 100 97
4.438654e-01 6.324321e-01 3.106244e+00 94 118 123
4.662989e-01 6.251738e-01 3.111364e+00 46 53 59
5.047463e-01 5.879984e-01 3.119937e+00 46 53 54
5.085619e-01 5.844476e-01 3.120932e+00 52 62 63
5.039074e-01 5.908613e-01 3.119624e+00 35 43 46
4.626244e-01 6.422807e-01 3.106168e+00 57 106 101
4.052637e-01 5.130962e-01 3.129946e+00 86 85 78
4.077429e-01 5.139071e-01 3.132389e+00 15 11 8
3.832367e-01 5.414176e-01 3.128234e+00 87 88 81
4.075446e-01 5.157488e-01 3.131760e+00 23 22 16
3.993638e-01 5.276463e-01 3.132460e+00 86 89 82
4.267471e-01 5.018686e-01 3.137813e+00 32 25 24
3.982947e-01 5.418096e-01 3.130864e+00 103 103 105
4.105212e-01 5.363073e-01 3.129502e+00 110 109 109
4.234793e-01 5.231982e-01 3.135601e+00 108 114 110
4.297479e-01 5.184368e-01 3.134735e+00 15 14 11
4.258452e-01 5.237384e-01 3.132332e+00 29 28 24
4.029616e-01 5.612739e-01 3.116443e+00 105 106 101
4.337397e-01 5.357685e-01 3.121699e+00 113 120 122
3.963842e-01 5.760493e-01 3.117155e+00 30 34 43
4.320790e-01 5.474497e-01 3.120077e+00 127 130 139
4.600815e-01 5.166280e-01 3.128744e+00 39 36 29
4.417736e-01 5.357755e-01 3.127144e+00 55 56 56
4.431103e-01 5.342721e-01 3.131138e+00 119 122 125
4.043371e-01 5.797305e-01 3.116727e+00 51 55 58
4.125333e-01 5.725744e-01 3.116441e+00 56 60 63
4.406417e-01 5.480051e-01 3.120019e+00 96 83 77
4.187981e-01 5.705238e-01 3.119179e+00 138 142 144
4.386088e-01 5.522112e-01 3.119312e+00 17 7 9
4.593978e-01 5.285956e-01 3.126997e+00 119 122 118
4.182237e-01 5.718488e-01 3.118951e+00 37 36 41
4.064918e-01 5.852867e-01 3.115496e+00 84 92 97
4.593865e-01 5.343248e-01 3.127259e+00 121 116 105
4.603258e-01 5.340189e-01 3.127366e+00 132 127 116
4.486347e-01 5.474060e-01 3.124473e+00 125 125 125
4.262762e-01 5.712319e-01 3.122808e+00 35 29 36
4.749132e-01 5.378933e-01 3.125404e+00 99 98 103
4.214179e-01 5.987813e-01 3.114136e+00 78 86 88
4.249869e-01 5.802161e-01 3.137520e+00 107 106 107
4.779636e-01 5.427984e-01 3.125687e+00 3 3 7
4.388947e-01 5.811072e-01 3.121518e+00 115 117 116
4.559715e-01 5.699022e-01 3.121073e+00 68 65 66
4.348711e-01 5.931181e-01 3.116509e+00 50 50 45
4.663735e-01 5.574343e-01 3.126854e+00 137 135 136
4.662650e-01 5.573804e-01 3.126980e+00 137 135 136
4.663735e-01 5.574343e-01 3.126854e+00 137 135 136
4.635553e-01 5.647942e-01 3.123043e+00 73 72 70
4.853843e-01 5.438382e-01 3.127923e+00 56 57 50
4.452376e-01 5.841860e-01 3.121942e+00 41 43 45
4.825056e-01 5.484647e-01 3.127449e+00 50 46 42
4.688502e-01 5.620821e-01 3.126926e+00 38 40 34
4.660098e-01 6.221858e-01 3.111933e+00 123 133 130
5.091925e-01 5.777989e-01 3.121394e+00 118 128 127
4.079320e-01 5.086054e-01 3.135951e+00 11 11 13
4.069390e-01 5.111006e-01 3.133102e+00 92 92 82
3.963047e-01 5.242298e-01 3.131830e+00 19 14 18
3.823441e-01 5.394028e-01 3.127560e+00 20 19 24
3.765728e-01 5.458338e-01 3.125934e+00 69 76 80
4.057658e-01 5.151706e-01 3.130064e+00 68 65 58
3.814112e-01 5.422618e-01 3.126678e+00 22 17 19
4.043278e-01 5.191939e-01 3.128292e+00 61 61 52
4.066575e-01 5.164991e-01 3.130803e+00 82 78 67
4.039961e-01 5.200912e-01 3.127679e+00 57 54 46
3.805217e-01 5.450555e-01 3.126337e+00 26 25 31
4.085691e-01 5.170649e-01 3.132826e+00 42 37 32
4.083989e-01 5.188754e-01 3.132375e+00 38 38 31
3.975976e-01 5.395833e-01 3.131345e+00 98 102 99
