ply
format ascii 1.0
element face 0
property list uchar int vertex_indices
element vertex 967
property float x
property float y
property float z
property uchar diffuse_red
property uchar diffuse_green
property uchar diffuse_blue
end_header
3.739041e-01 5.381778e-01 3.124540e+00 119 114 120
3.739041e-01 5.381778e-01 3.124540e+00 119 114 120
4.363436e-01 4.603840e-01 3.133702e+00 100 99 106
4.371705e-01 4.594121e-01 3.133682e+00 102 102 110
4.369770e-01 4.605882e-01 3.134193e+00 182 181 189
4.026290e-01 5.034206e-01 3.130160e+00 166 160 160
3.810312e-01 5.402016e-01 3.126606e+00 138 132 136
4.145715e-01 5.006059e-01 3.131201e+00 76 70 74
4.351287e-01 4.853048e-01 3.133559e+00 133 125 123
4.202714e-01 5.070327e-01 3.130591e+00 133 127 129
4.421237e-01 4.871368e-01 3.133866e+00 80 72 73
4.179111e-01 5.193081e-01 3.129633e+00 149 140 141
4.240441e-01 5.181149e-01 3.129472e+00 97 96 101
4.333738e-01 5.113625e-01 3.129952e+00 141 136 140
4.347159e-01 5.189429e-01 3.128608e+00 79 75 75
4.439303e-01 5.217660e-01 3.126984e+00 151 150 155
4.510887e-01 5.190180e-01 3.127126e+00 112 111 118
4.566226e-01 5.139210e-01 3.140803e+00 141 140 145
4.319076e-01 5.485174e-01 3.134111e+00 109 109 119
4.690378e-01 5.181070e-01 3.140755e+00 153 148 152
3.617490e-01 4.342719e-01 3.117407e+00 205 168 180
3.484238e-01 4.542542e-01 3.116517e+00 185 155 168
3.640705e-01 4.349868e-01 3.118087e+00 194 149 159
3.645537e-01 4.346342e-01 3.118168e+00 196 177 185
3.569720e-01 4.439694e-01 3.117807e+00 202 27 46
3.547416e-01 4.472490e-01 3.117720e+00 187 144 166
3.491459e-01 4.566684e-01 3.117043e+00 255 244 205
3.666116e-01 4.360683e-01 3.118920e+00 184 113 115
3.666116e-01 4.360683e-01 3.118920e+00 184 113 115
3.528823e-01 4.541195e-01 3.117961e+00 145 97 57
3.512930e-01 4.565323e-01 3.117691e+00 138 15 32
3.507225e-01 4.577721e-01 3.117627e+00 255 235 202
3.696822e-01 4.349614e-01 3.119295e+00 144 41 64
3.569700e-01 4.505884e-01 3.118748e+00 135 104 75
3.530980e-01 4.556140e-01 3.118164e+00 187 103 94
3.530980e-01 4.556140e-01 3.118164e+00 187 103 94
3.503563e-01 4.591597e-01 3.117650e+00 165 114 108
3.499227e-01 4.600379e-01 3.117537e+00 210 127 124
3.713574e-01 4.334527e-01 3.119524e+00 255 240 203
3.713574e-01 4.334527e-01 3.119524e+00 255 240 203
3.674333e-01 4.383931e-01 3.119514e+00 253 232 183
3.610142e-01 4.465432e-01 3.119265e+00 134 35 52
3.566132e-01 4.521352e-01 3.118826e+00 145 63 72
3.694717e-01 4.365907e-01 3.119666e+00 253 233 194
3.615218e-01 4.464568e-01 3.119479e+00 169 125 133
3.670559e-01 4.397665e-01 3.119727e+00 238 177 155
3.555548e-01 4.541158e-01 3.118756e+00 209 104 97
3.604489e-01 4.481969e-01 3.119376e+00 135 93 59
3.688124e-01 4.379558e-01 3.119787e+00 168 131 133
3.575346e-01 4.519126e-01 3.119058e+00 135 98 72
3.575346e-01 4.519126e-01 3.119058e+00 135 98 72
3.724053e-01 4.337019e-01 3.119702e+00 146 110 80
3.724053e-01 4.337019e-01 3.119702e+00 146 110 80
3.645344e-01 4.437569e-01 3.119785e+00 198 126 138
3.680882e-01 4.394616e-01 3.119991e+00 148 95 70
3.498914e-01 4.622883e-01 3.117759e+00 167 109 106
3.488667e-01 4.635937e-01 3.117496e+00 163 26 33
3.645189e-01 4.443254e-01 3.119936e+00 166 71 73
3.548120e-01 4.565606e-01 3.118744e+00 190 114 100
3.582915e-01 4.522579e-01 3.119315e+00 255 236 212
3.728670e-01 4.346903e-01 3.120016e+00 131 101 77
3.654884e-01 4.439757e-01 3.120058e+00 177 16 35
3.604014e-01 4.502510e-01 3.119631e+00 157 8 27
3.558591e-01 4.560103e-01 3.119041e+00 130 92 65
3.558591e-01 4.560103e-01 3.119041e+00 130 92 65
3.708134e-01 4.377015e-01 3.120176e+00 255 233 203
3.653247e-01 4.444338e-01 3.120063e+00 202 140 130
3.554369e-01 4.566896e-01 3.118979e+00 141 80 62
3.462989e-01 4.684970e-01 3.116726e+00 169 32 55
3.569191e-01 4.552344e-01 3.119294e+00 253 203 169
3.515608e-01 4.620616e-01 3.118299e+00 166 90 68
3.515608e-01 4.620616e-01 3.118299e+00 166 90 68
3.559938e-01 4.565995e-01 3.119147e+00 255 234 202
3.559938e-01 4.565995e-01 3.119147e+00 255 234 202
3.534814e-01 4.599564e-01 3.118672e+00 255 226 202
3.669700e-01 4.433492e-01 3.120319e+00 255 231 205
3.695049e-01 4.403627e-01 3.120361e+00 90 53 37
3.649668e-01 4.458618e-01 3.120216e+00 255 227 203
3.589677e-01 4.537500e-01 3.119665e+00 165 107 96
3.536245e-01 4.604927e-01 3.118814e+00 132 88 66
3.498682e-01 4.653968e-01 3.117921e+00 226 154 132
3.654300e-01 4.460200e-01 3.120323e+00 120 83 57
3.721774e-01 4.379930e-01 3.120539e+00 255 227 205
3.576764e-01 4.560021e-01 3.119587e+00 246 206 180
3.576764e-01 4.560021e-01 3.119587e+00 246 206 180
3.602740e-01 4.531438e-01 3.119991e+00 255 235 210
3.557882e-01 4.589202e-01 3.119300e+00 255 221 192
3.722691e-01 4.388272e-01 3.120724e+00 143 103 91
3.573995e-01 4.573488e-01 3.119662e+00 137 87 61
3.541163e-01 4.614359e-01 3.119000e+00 255 228 200
3.471112e-01 4.704678e-01 3.117320e+00 148 87 74
3.474899e-01 4.700827e-01 3.117378e+00 180 132 143
3.559049e-01 4.594177e-01 3.119377e+00 111 78 63
3.637063e-01 4.497557e-01 3.120460e+00 137 99 76
3.562655e-01 4.590363e-01 3.119493e+00 125 68 57
3.644281e-01 4.491793e-01 3.120594e+00 154 76 58
3.521487e-01 4.648414e-01 3.118639e+00 191 99 82
3.596069e-01 4.556585e-01 3.120112e+00 156 89 63
3.579281e-01 4.580777e-01 3.119854e+00 108 71 44
3.619770e-01 4.531070e-01 3.120449e+00 255 213 189
3.619770e-01 4.531070e-01 3.120449e+00 255 213 189
3.654910e-01 4.490561e-01 3.120821e+00 171 95 75
3.654910e-01 4.490561e-01 3.120821e+00 171 95 75
3.670865e-01 4.472114e-01 3.121004e+00 158 93 72
3.663932e-01 4.480897e-01 3.120938e+00 150 83 56
3.553387e-01 4.620327e-01 3.119403e+00 255 235 210
3.581186e-01 4.586303e-01 3.119978e+00 253 222 196
3.512777e-01 4.673081e-01 3.118476e+00 255 228 212
3.512777e-01 4.673081e-01 3.118476e+00 255 228 212
3.472389e-01 4.724777e-01 3.117311e+00 167 100 73
3.473190e-01 4.730174e-01 3.117340e+00 254 220 202
3.585962e-01 4.587538e-01 3.120112e+00 127 76 56
3.629342e-01 4.537784e-01 3.120837e+00 251 199 171
3.629342e-01 4.537784e-01 3.120837e+00 251 199 171
3.497228e-01 4.705569e-01 3.118121e+00 125 90 73
3.607328e-01 4.566448e-01 3.120506e+00 253 231 207
3.607328e-01 4.566448e-01 3.120506e+00 253 231 207
3.583147e-01 4.596325e-01 3.120130e+00 255 195 163
3.583147e-01 4.596325e-01 3.120130e+00 255 195 163
3.543285e-01 4.647398e-01 3.119304e+00 106 51 55
3.448879e-01 4.770563e-01 3.116590e+00 116 96 97
3.657654e-01 4.508124e-01 3.121159e+00 173 160 170
3.611823e-01 4.566860e-01 3.120724e+00 138 98 81
3.585687e-01 4.601543e-01 3.120160e+00 181 104 78
3.585687e-01 4.601543e-01 3.120160e+00 181 104 78
3.554991e-01 4.646650e-01 3.119670e+00 156 111 97
3.573600e-01 4.626469e-01 3.120106e+00 247 227 217
3.493985e-01 4.733393e-01 3.118115e+00 251 229 218
3.578532e-01 4.626817e-01 3.120222e+00 111 98 107
3.906866e-01 4.230319e-01 3.120538e+00 143 140 151
3.996062e-01 4.150385e-01 3.119540e+00 138 138 146
4.023613e-01 4.134441e-01 3.119573e+00 113 117 120
4.021233e-01 4.137931e-01 3.119618e+00 105 109 110
4.032373e-01 4.132180e-01 3.119611e+00 104 104 103
4.026578e-01 4.139179e-01 3.119730e+00 179 184 179
3.961424e-01 4.230076e-01 3.121378e+00 182 184 179
3.908021e-01 4.299276e-01 3.122315e+00 111 114 117
4.054534e-01 4.131618e-01 3.119880e+00 75 74 69
3.908850e-01 4.304255e-01 3.122464e+00 141 142 137
4.024193e-01 4.172866e-01 3.120695e+00 68 69 64
3.721338e-01 4.540743e-01 3.123117e+00 216 209 216
3.708554e-01 4.558453e-01 3.123060e+00 209 206 213
3.685947e-01 4.586166e-01 3.122823e+00 216 214 217
3.685947e-01 4.586166e-01 3.122823e+00 216 214 217
3.670398e-01 4.607230e-01 3.122646e+00 210 205 211
4.026906e-01 4.176785e-01 3.120876e+00 120 121 115
3.667186e-01 4.612433e-01 3.122590e+00 214 209 215
3.400566e-01 4.960650e-01 3.114334e+00 195 196 201
3.851226e-01 4.388303e-01 3.123289e+00 207 209 206
3.687748e-01 4.591388e-01 3.122893e+00 145 141 142
3.538547e-01 4.781531e-01 3.119736e+00 202 201 209
3.538547e-01 4.781531e-01 3.119736e+00 202 201 209
3.538547e-01 4.781531e-01 3.119736e+00 202 201 209
3.855938e-01 4.386940e-01 3.123329e+00 102 101 99
4.014742e-01 4.200876e-01 3.121362e+00 68 73 67
3.370737e-01 5.009227e-01 3.112904e+00 158 163 160
3.494436e-01 4.859793e-01 3.118256e+00 109 108 105
4.025186e-01 4.204386e-01 3.121595e+00 69 78 51
3.934833e-01 4.312978e-01 3.123081e+00 73 78 74
3.466978e-01 4.899179e-01 3.117186e+00 167 167 157
4.030613e-01 4.203789e-01 3.121627e+00 124 135 103
3.856397e-01 4.413758e-01 3.123903e+00 148 148 148
3.952240e-01 4.301979e-01 3.123130e+00 109 118 100
3.810848e-01 4.474278e-01 3.124108e+00 157 159 154
4.091738e-01 4.141049e-01 3.120707e+00 46 59 32
4.091738e-01 4.141049e-01 3.120707e+00 46 59 32
3.861764e-01 4.413423e-01 3.123973e+00 107 103 102
3.861764e-01 4.413423e-01 3.123973e+00 107 103 102
3.534678e-01 4.823354e-01 3.119705e+00 146 143 138
3.805243e-01 4.482735e-01 3.124099e+00 140 141 137
3.969555e-01 4.291384e-01 3.123119e+00 38 43 36
3.969555e-01 4.291384e-01 3.123119e+00 38 43 36
3.506926e-01 4.867498e-01 3.118690e+00 70 62 60
4.128068e-01 4.106726e-01 3.120124e+00 111 129 89
4.128068e-01 4.106726e-01 3.120124e+00 111 129 89
3.600838e-01 4.747076e-01 3.121553e+00 84 79 73
3.771291e-01 4.534767e-01 3.124180e+00 77 81 67
3.508921e-01 4.871552e-01 3.118765e+00 143 138 135
3.508921e-01 4.871552e-01 3.118765e+00 143 138 135
3.967096e-01 4.302104e-01 3.123344e+00 63 77 62
3.803745e-01 4.501228e-01 3.124387e+00 140 139 134
3.803745e-01 4.501228e-01 3.124387e+00 140 139 134
4.152829e-01 4.088919e-01 3.119770e+00 95 115 79
3.592608e-01 4.769907e-01 3.121456e+00 136 137 132
4.032331e-01 4.231095e-01 3.122466e+00 108 126 87
3.514172e-01 4.872870e-01 3.118909e+00 75 72 63
4.068471e-01 4.197054e-01 3.122016e+00 45 68 22
3.947897e-01 4.339211e-01 3.123899e+00 124 133 104
4.081288e-01 4.183440e-01 3.121797e+00 100 117 75
3.544255e-01 4.848125e-01 3.120005e+00 111 120 100
3.930222e-01 4.369612e-01 3.124284e+00 79 88 59
3.886994e-01 4.422425e-01 3.124592e+00 125 124 129
4.071083e-01 4.207307e-01 3.122280e+00 55 78 32
3.607555e-01 4.773689e-01 3.121913e+00 103 114 72
3.417039e-01 5.026447e-01 3.114712e+00 86 95 74
3.417039e-01 5.026447e-01 3.114712e+00 86 95 74
3.362233e-01 5.099439e-01 3.111974e+00 47 66 34
4.141315e-01 4.128995e-01 3.120950e+00 33 52 7
3.437802e-01 5.001682e-01 3.115741e+00 48 59 42
3.497508e-01 4.924439e-01 3.118249e+00 96 111 78
3.356958e-01 5.115363e-01 3.111566e+00 108 118 83
4.150756e-01 4.122764e-01 3.120968e+00 102 121 75
3.685994e-01 4.683140e-01 3.123634e+00 116 122 96
3.685994e-01 4.683140e-01 3.123634e+00 116 122 96
3.545520e-01 4.864684e-01 3.120066e+00 52 62 27
3.935297e-01 4.381038e-01 3.124607e+00 80 82 77
3.613995e-01 4.781303e-01 3.122109e+00 103 122 69
3.613995e-01 4.781303e-01 3.122109e+00 103 122 69
3.347611e-01 5.134178e-01 3.111052e+00 97 109 85
3.986563e-01 4.323595e-01 3.124152e+00 53 61 37
3.749880e-01 4.610980e-01 3.124635e+00 65 73 35
3.908081e-01 4.417172e-01 3.124961e+00 98 96 101
4.119606e-01 4.172607e-01 3.122036e+00 47 65 27
4.119606e-01 4.172607e-01 3.122036e+00 47 65 27
3.807321e-01 4.546819e-01 3.125056e+00 68 83 42
3.690053e-01 4.695410e-01 3.123681e+00 73 78 55
3.690053e-01 4.695410e-01 3.123681e+00 73 78 55
3.764966e-01 4.604367e-01 3.124852e+00 63 67 43
3.764966e-01 4.604367e-01 3.124852e+00 63 67 43
3.746999e-01 4.626918e-01 3.124654e+00 60 67 32
3.746999e-01 4.626918e-01 3.124654e+00 60 67 32
3.369860e-01 5.118526e-01 3.112229e+00 51 64 36
4.145016e-01 4.149217e-01 3.121616e+00 87 100 81
3.898192e-01 4.442879e-01 3.125185e+00 97 98 102
3.898192e-01 4.442879e-01 3.125185e+00 97 98 102
3.630654e-01 4.775928e-01 3.122595e+00 71 79 38
3.882893e-01 4.463135e-01 3.125259e+00 82 81 87
3.396082e-01 5.088481e-01 3.113527e+00 55 70 37
3.867183e-01 4.483730e-01 3.125321e+00 96 95 101
3.449293e-01 5.019002e-01 3.116087e+00 102 114 84
4.119541e-01 4.186434e-01 3.122428e+00 48 63 43
3.638228e-01 4.775855e-01 3.122790e+00 65 71 33
4.194419e-01 4.104035e-01 3.120917e+00 106 125 83
4.113300e-01 4.197691e-01 3.122693e+00 65 78 61
3.632040e-01 4.785952e-01 3.122624e+00 65 71 35
3.528080e-01 4.921396e-01 3.119328e+00 63 70 37
3.451022e-01 5.023918e-01 3.116167e+00 51 62 28
4.025112e-01 4.303345e-01 3.124249e+00 105 123 90
3.994104e-01 4.343565e-01 3.124704e+00 121 137 95
3.758398e-01 4.631190e-01 3.125036e+00 62 65 46
3.758398e-01 4.631190e-01 3.125036e+00 62 65 46
4.136413e-01 4.178242e-01 3.122361e+00 53 67 42
3.363998e-01 5.148924e-01 3.111714e+00 43 47 19
3.824790e-01 4.552829e-01 3.125465e+00 123 125 112
3.613847e-01 4.818645e-01 3.122160e+00 101 121 70
3.563507e-01 4.884756e-01 3.120609e+00 62 73 39
3.920351e-01 4.439242e-01 3.125492e+00 140 140 142
3.553852e-01 4.900929e-01 3.120336e+00 56 67 21
3.510879e-01 4.960623e-01 3.118625e+00 53 62 33
3.995974e-01 4.354162e-01 3.124973e+00 70 82 68
3.477523e-01 5.006661e-01 3.117260e+00 52 57 33
3.433411e-01 5.068973e-01 3.115168e+00 123 134 91
4.038351e-01 4.307967e-01 3.124527e+00 132 142 115
3.552165e-01 4.912829e-01 3.120181e+00 105 116 73
4.003313e-01 4.352332e-01 3.125047e+00 124 132 121
4.003313e-01 4.352332e-01 3.125047e+00 124 132 121
3.918643e-01 4.453338e-01 3.125706e+00 140 143 150
3.918643e-01 4.453338e-01 3.125706e+00 140 143 150
3.560702e-01 4.903623e-01 3.120523e+00 42 54 6
3.804753e-01 4.596776e-01 3.125627e+00 57 67 32
3.513797e-01 4.971642e-01 3.118799e+00 55 58 37
3.902416e-01 4.479781e-01 3.125814e+00 77 74 81
3.902416e-01 4.479781e-01 3.125814e+00 77 74 81
3.856303e-01 4.536644e-01 3.125954e+00 141 141 143
3.681543e-01 4.754777e-01 3.123943e+00 118 134 88
3.681543e-01 4.754777e-01 3.123943e+00 118 134 88
4.059037e-01 4.296115e-01 3.124567e+00 102 108 98
4.128783e-01 4.215960e-01 3.123418e+00 115 123 98
4.122827e-01 4.223360e-01 3.123630e+00 98 107 86
3.827960e-01 4.577660e-01 3.125866e+00 50 55 50
3.821641e-01 4.586085e-01 3.125838e+00 50 58 46
3.821641e-01 4.586085e-01 3.125838e+00 50 58 46
3.598982e-01 4.868575e-01 3.121771e+00 57 69 44
3.430120e-01 5.091850e-01 3.114966e+00 36 46 20
4.080455e-01 4.275448e-01 3.124358e+00 117 121 104
4.080455e-01 4.275448e-01 3.124358e+00 117 121 104
4.077724e-01 4.279460e-01 3.124328e+00 47 49 36
4.049895e-01 4.312134e-01 3.124793e+00 152 162 103
3.353917e-01 5.198825e-01 3.110957e+00 128 144 107
3.794288e-01 4.624512e-01 3.125699e+00 70 84 60
3.455284e-01 5.062676e-01 3.116106e+00 73 83 58
4.187665e-01 4.153523e-01 3.122416e+00 42 47 17
4.172716e-01 4.172090e-01 3.122717e+00 116 117 103
4.172716e-01 4.172090e-01 3.122717e+00 116 117 103
3.684446e-01 4.767463e-01 3.124042e+00 54 69 38
4.111821e-01 4.246942e-01 3.124036e+00 30 44 18
3.415937e-01 5.121213e-01 3.114197e+00 118 132 106
3.415937e-01 5.121213e-01 3.114197e+00 118 132 106
4.067008e-01 4.300181e-01 3.124770e+00 43 45 32
3.583895e-01 4.899735e-01 3.121302e+00 56 72 40
3.693642e-01 4.761194e-01 3.124272e+00 114 126 106
3.386578e-01 5.166001e-01 3.112613e+00 100 114 83
3.719715e-01 4.728717e-01 3.124749e+00 121 132 100
3.719715e-01 4.728717e-01 3.124749e+00 121 132 100
3.800215e-01 4.630456e-01 3.125829e+00 42 50 39
3.793216e-01 4.638652e-01 3.125755e+00 50 55 41
3.532170e-01 4.973708e-01 3.119367e+00 114 124 107
3.640565e-01 4.833689e-01 3.122987e+00 131 136 107
4.028549e-01 4.354863e-01 3.125473e+00 63 68 66
3.797939e-01 4.635313e-01 3.125869e+00 102 107 99
4.013661e-01 4.373709e-01 3.125627e+00 74 75 74
3.485735e-01 5.041591e-01 3.117421e+00 71 74 57
3.361304e-01 5.208855e-01 3.111194e+00 84 102 64
3.640581e-01 4.838581e-01 3.123031e+00 63 69 36
3.415990e-01 5.136950e-01 3.114094e+00 46 60 34
3.566488e-01 4.937383e-01 3.120669e+00 111 124 98
3.364529e-01 5.213280e-01 3.111334e+00 43 61 23
3.984900e-01 4.418204e-01 3.126172e+00 157 154 161
3.726433e-01 4.737565e-01 3.124905e+00 117 134 90
4.239845e-01 4.119994e-01 3.122040e+00 66 86 33
3.890983e-01 4.534811e-01 3.126518e+00 94 88 92
3.724438e-01 4.743255e-01 3.124950e+00 65 85 46
3.724438e-01 4.743255e-01 3.124950e+00 65 85 46
3.418838e-01 5.143740e-01 3.114199e+00 82 99 75
3.861123e-01 4.574543e-01 3.126458e+00 43 45 41
3.398328e-01 5.173087e-01 3.113097e+00 44 69 37
3.457946e-01 5.093922e-01 3.116068e+00 47 62 34
3.809271e-01 4.642324e-01 3.126184e+00 117 122 99
3.778324e-01 4.681947e-01 3.125836e+00 84 103 63
3.594363e-01 4.917187e-01 3.121563e+00 62 85 57
3.869005e-01 4.571798e-01 3.126587e+00 141 141 142
3.846200e-01 4.599547e-01 3.126499e+00 47 50 43
3.517667e-01 5.021597e-01 3.118651e+00 104 118 92
3.651593e-01 4.848840e-01 3.123310e+00 73 93 34
3.845451e-01 4.604801e-01 3.126501e+00 154 156 151
3.845451e-01 4.604801e-01 3.126501e+00 154 156 151
4.049330e-01 4.358515e-01 3.125889e+00 186 187 182
3.531254e-01 5.008936e-01 3.119260e+00 53 71 45
3.548748e-01 4.986903e-01 3.119928e+00 56 73 31
3.718788e-01 4.768729e-01 3.124937e+00 77 94 42
4.241736e-01 4.137748e-01 3.122721e+00 158 174 128
3.608305e-01 4.912850e-01 3.122000e+00 121 143 99
3.506601e-01 5.049280e-01 3.118119e+00 45 60 27
3.365136e-01 5.240321e-01 3.111170e+00 31 54 12
3.365136e-01 5.240321e-01 3.111170e+00 31 54 12
3.831252e-01 4.633074e-01 3.126535e+00 97 108 77
3.670243e-01 4.837202e-01 3.123864e+00 57 74 32
3.449087e-01 5.133156e-01 3.115448e+00 11 32 0
3.849935e-01 4.615119e-01 3.126735e+00 81 87 76
3.452741e-01 5.129035e-01 3.115619e+00 97 119 81
3.713795e-01 4.787427e-01 3.124867e+00 117 139 86
3.713795e-01 4.787427e-01 3.124867e+00 117 139 86
3.621316e-01 4.907922e-01 3.122432e+00 57 76 21
3.824827e-01 4.649877e-01 3.126551e+00 118 134 91
3.600757e-01 4.936138e-01 3.121759e+00 100 128 70
3.855073e-01 4.613441e-01 3.126801e+00 186 191 196
3.513552e-01 5.054756e-01 3.118426e+00 41 60 19
3.673054e-01 4.848909e-01 3.123894e+00 122 139 94
3.638113e-01 4.895450e-01 3.122917e+00 104 128 72
3.607140e-01 4.935522e-01 3.121957e+00 62 87 30
3.521851e-01 5.047486e-01 3.118759e+00 112 141 89
3.521851e-01 5.047486e-01 3.118759e+00 112 141 89
3.614845e-01 4.926609e-01 3.122298e+00 108 131 75
4.218625e-01 4.189279e-01 3.123916e+00 39 63 15
4.218625e-01 4.189279e-01 3.123916e+00 39 63 15
4.206944e-01 4.203178e-01 3.124093e+00 48 67 22
3.858224e-01 4.621876e-01 3.126917e+00 36 46 35
3.566696e-01 4.994229e-01 3.120522e+00 125 151 88
3.566696e-01 4.994229e-01 3.120522e+00 125 151 88
3.662544e-01 4.869736e-01 3.123617e+00 108 131 76
3.662544e-01 4.869736e-01 3.123617e+00 108 131 76
4.202534e-01 4.210726e-01 3.124297e+00 42 63 22
3.613866e-01 4.938106e-01 3.122159e+00 114 142 84
3.843218e-01 4.646378e-01 3.126852e+00 145 167 103
3.843218e-01 4.646378e-01 3.126852e+00 145 167 103
3.842453e-01 4.653503e-01 3.126904e+00 116 139 84
3.809429e-01 4.695367e-01 3.126598e+00 93 109 73
3.657263e-01 4.889391e-01 3.123449e+00 114 142 84
3.705549e-01 4.827735e-01 3.124744e+00 67 82 34
4.075641e-01 4.373262e-01 3.126561e+00 132 150 108
3.823126e-01 4.682309e-01 3.126787e+00 39 65 20
3.559760e-01 5.020967e-01 3.120183e+00 136 154 104
4.084355e-01 4.366513e-01 3.126482e+00 34 55 15
3.837220e-01 4.668437e-01 3.126910e+00 31 45 12
3.593785e-01 4.981332e-01 3.121461e+00 134 154 95
3.593713e-01 4.986849e-01 3.121429e+00 63 81 23
3.811723e-01 4.707325e-01 3.126745e+00 23 48 8
3.871126e-01 4.639983e-01 3.127390e+00 53 67 40
3.377234e-01 5.283459e-01 3.111490e+00 121 149 101
3.844627e-01 4.673542e-01 3.127126e+00 54 70 33
3.732620e-01 4.814467e-01 3.125380e+00 131 140 97
4.063677e-01 4.406904e-01 3.127103e+00 102 129 75
3.608327e-01 4.976642e-01 3.121858e+00 100 112 62
3.497489e-01 5.124078e-01 3.117464e+00 55 83 22
3.497489e-01 5.124078e-01 3.117464e+00 55 83 22
4.254661e-01 4.186833e-01 3.124312e+00 58 80 42
4.254661e-01 4.186833e-01 3.124312e+00 58 80 42
4.061157e-01 4.415992e-01 3.127175e+00 56 79 32
4.293180e-01 4.142504e-01 3.123577e+00 76 98 97
4.012306e-01 4.475669e-01 3.127562e+00 160 172 169
3.721985e-01 4.836069e-01 3.125172e+00 63 73 23
3.715204e-01 4.844231e-01 3.124998e+00 48 62 9
3.715204e-01 4.844231e-01 3.124998e+00 48 62 9
3.452721e-01 5.190012e-01 3.115309e+00 58 86 28
3.452721e-01 5.190012e-01 3.115309e+00 58 86 28
3.401160e-01 5.259819e-01 3.112727e+00 32 63 24
3.779679e-01 4.763421e-01 3.126286e+00 111 129 87
3.737496e-01 4.817240e-01 3.125490e+00 62 71 26
3.719430e-01 4.840597e-01 3.125134e+00 111 121 69
3.824658e-01 4.707784e-01 3.127027e+00 106 133 82
4.035676e-01 4.451934e-01 3.127499e+00 53 73 47
3.774910e-01 4.772888e-01 3.126309e+00 110 129 84
3.770967e-01 4.778244e-01 3.126195e+00 31 53 7
3.770967e-01 4.778244e-01 3.126195e+00 31 53 7
3.883035e-01 4.640479e-01 3.127554e+00 98 114 85
4.222948e-01 4.232144e-01 3.125212e+00 12 34 1
3.789264e-01 4.760186e-01 3.126479e+00 35 53 11
3.779114e-01 4.772705e-01 3.126386e+00 50 67 23
4.004092e-01 4.495001e-01 3.127772e+00 45 65 37
3.735969e-01 4.828243e-01 3.125494e+00 45 62 11
3.793238e-01 4.756873e-01 3.126565e+00 91 117 72
3.751907e-01 4.808782e-01 3.125842e+00 53 78 23
4.281724e-01 4.167270e-01 3.124144e+00 10 33 15
4.187423e-01 4.278095e-01 3.125863e+00 106 127 89
4.046574e-01 4.446597e-01 3.127525e+00 110 132 85
4.041315e-01 4.452631e-01 3.127629e+00 102 124 84
3.818641e-01 4.727026e-01 3.126965e+00 44 72 21
3.818641e-01 4.727026e-01 3.126965e+00 44 72 21
3.416793e-01 5.252175e-01 3.113435e+00 19 46 11
4.202297e-01 4.263647e-01 3.125709e+00 44 69 39
4.202297e-01 4.263647e-01 3.125709e+00 44 69 39
4.085737e-01 4.402078e-01 3.127268e+00 99 127 70
3.935338e-01 4.583715e-01 3.127881e+00 57 69 55
3.600992e-01 5.009102e-01 3.121575e+00 36 60 8
3.547459e-01 5.078982e-01 3.119523e+00 32 59 8
3.511292e-01 5.130207e-01 3.117941e+00 52 82 22
3.677847e-01 4.915296e-01 3.124082e+00 138 151 107
4.263690e-01 4.199640e-01 3.124826e+00 88 114 85
4.263690e-01 4.199640e-01 3.124826e+00 88 114 85
4.178600e-01 4.300526e-01 3.126336e+00 26 53 12
4.102259e-01 4.390814e-01 3.127295e+00 27 50 4
3.810840e-01 4.747748e-01 3.126895e+00 40 64 16
3.602575e-01 5.016023e-01 3.121613e+00 18 44 2
3.602575e-01 5.016023e-01 3.121613e+00 18 44 2
3.554819e-01 5.078256e-01 3.119883e+00 78 110 61
3.383775e-01 5.307926e-01 3.111618e+00 46 78 29
3.438462e-01 5.235756e-01 3.114480e+00 48 74 26
4.155073e-01 4.330024e-01 3.126677e+00 37 52 22
4.155073e-01 4.330024e-01 3.126677e+00 37 52 22
4.137478e-01 4.350877e-01 3.126937e+00 39 55 26
4.067412e-01 4.434805e-01 3.127664e+00 40 67 26
4.032166e-01 4.478758e-01 3.127939e+00 37 60 31
3.569314e-01 5.062509e-01 3.120354e+00 92 118 76
3.569314e-01 5.062509e-01 3.120354e+00 92 118 76
3.430652e-01 5.248145e-01 3.114061e+00 179 207 166
3.430652e-01 5.248145e-01 3.114061e+00 179 207 166
3.864433e-01 4.684623e-01 3.127620e+00 95 123 74
3.725498e-01 4.860316e-01 3.125214e+00 61 83 27
3.594826e-01 5.029851e-01 3.121323e+00 92 117 78
3.982720e-01 4.540365e-01 3.128105e+00 53 80 29
4.038477e-01 4.474306e-01 3.127894e+00 91 110 90
4.168244e-01 4.320360e-01 3.126544e+00 77 91 65
4.104379e-01 4.396127e-01 3.127407e+00 83 108 69
3.464607e-01 5.207257e-01 3.115724e+00 30 60 10
3.464607e-01 5.207257e-01 3.115724e+00 30 60 10
3.618225e-01 5.004317e-01 3.122180e+00 97 129 74
4.033453e-01 4.484444e-01 3.128018e+00 79 104 74
4.011798e-01 4.510132e-01 3.128147e+00 82 98 71
4.117370e-01 4.384589e-01 3.127253e+00 83 106 75
3.998734e-01 4.528455e-01 3.128208e+00 72 95 67
4.127730e-01 4.376077e-01 3.127375e+00 28 47 23
3.591138e-01 5.048031e-01 3.121120e+00 43 68 29
3.618407e-01 5.013307e-01 3.122143e+00 76 103 62
3.558169e-01 5.093025e-01 3.119784e+00 46 75 29
4.121993e-01 4.386504e-01 3.127458e+00 42 62 35
4.121993e-01 4.386504e-01 3.127458e+00 42 62 35
3.977610e-01 4.560235e-01 3.128341e+00 102 121 89
3.648230e-01 4.978906e-01 3.123103e+00 84 105 72
4.193057e-01 4.305139e-01 3.126668e+00 25 42 23
3.939673e-01 4.610206e-01 3.128251e+00 132 154 116
3.688355e-01 4.927009e-01 3.124368e+00 19 45 6
3.688355e-01 4.927009e-01 3.124368e+00 19 45 6
3.566952e-01 5.085778e-01 3.120221e+00 89 120 76
4.139825e-01 4.369246e-01 3.127360e+00 30 48 24
3.957636e-01 4.589691e-01 3.128292e+00 48 72 36
3.957636e-01 4.589691e-01 3.128292e+00 48 72 36
3.777355e-01 4.815887e-01 3.126433e+00 104 124 86
3.857061e-01 4.716993e-01 3.127605e+00 94 118 84
3.794551e-01 4.794975e-01 3.126722e+00 98 118 81
4.193046e-01 4.310900e-01 3.126758e+00 97 111 94
3.554153e-01 5.108330e-01 3.119658e+00 29 56 11
3.900181e-01 4.665686e-01 3.128099e+00 113 130 85
3.793023e-01 4.799888e-01 3.126701e+00 31 52 17
3.793023e-01 4.799888e-01 3.126701e+00 31 52 17
3.595233e-01 5.055780e-01 3.121247e+00 38 62 28
4.308541e-01 4.177275e-01 3.124874e+00 24 53 31
4.228335e-01 4.271304e-01 3.126293e+00 29 45 33
4.119225e-01 4.400439e-01 3.127855e+00 89 112 92
4.108486e-01 4.413167e-01 3.127837e+00 30 54 38
3.741961e-01 4.866166e-01 3.125610e+00 24 44 17
3.680333e-01 4.945384e-01 3.124063e+00 74 98 62
4.133885e-01 4.384711e-01 3.127539e+00 32 49 30
3.662109e-01 4.970714e-01 3.123537e+00 99 117 81
3.584868e-01 5.071186e-01 3.120838e+00 106 138 89
4.217039e-01 4.286267e-01 3.126507e+00 26 48 35
4.217039e-01 4.286267e-01 3.126507e+00 26 48 35
4.172322e-01 4.339359e-01 3.127135e+00 95 109 95
4.054352e-01 4.480559e-01 3.128266e+00 90 107 97
4.145021e-01 4.373033e-01 3.127598e+00 81 106 75
4.084855e-01 4.444496e-01 3.128109e+00 30 46 33
3.538817e-01 5.135594e-01 3.118918e+00 28 56 7
3.407982e-01 5.311951e-01 3.112733e+00 108 132 82
4.010749e-01 4.537745e-01 3.128483e+00 79 101 77
4.010749e-01 4.537745e-01 3.128483e+00 79 101 77
4.010749e-01 4.537745e-01 3.128483e+00 79 101 77
3.546432e-01 5.127703e-01 3.119200e+00 89 115 70
3.445435e-01 5.263086e-01 3.114598e+00 122 147 82
3.731374e-01 4.888058e-01 3.125427e+00 88 114 87
3.682706e-01 4.950595e-01 3.124128e+00 32 57 17
3.603295e-01 5.054388e-01 3.121529e+00 118 135 109
4.294940e-01 4.202331e-01 3.125375e+00 6 37 3
4.172555e-01 4.346682e-01 3.127318e+00 20 37 19
4.046993e-01 4.498578e-01 3.128425e+00 94 108 95
3.848554e-01 4.742791e-01 3.127635e+00 92 124 85
3.559419e-01 5.114760e-01 3.119760e+00 25 53 12
3.770888e-01 4.841838e-01 3.126311e+00 112 138 98
3.814062e-01 4.788195e-01 3.127104e+00 88 107 77
3.638912e-01 5.014675e-01 3.122741e+00 111 134 105
3.638912e-01 5.014675e-01 3.122741e+00 111 134 105
4.020557e-01 4.534104e-01 3.128547e+00 91 115 85
3.961002e-01 4.607148e-01 3.128547e+00 32 46 22
3.691493e-01 4.946688e-01 3.124366e+00 91 120 74
3.662272e-01 4.985408e-01 3.123492e+00 59 80 48
3.919661e-01 4.660620e-01 3.128380e+00 33 53 25
3.941812e-01 4.633938e-01 3.128497e+00 46 66 38
4.029289e-01 4.528228e-01 3.128630e+00 82 102 74
3.895406e-01 4.692556e-01 3.128179e+00 23 46 26
3.773470e-01 4.845645e-01 3.126406e+00 11 35 2
4.218715e-01 4.302447e-01 3.126918e+00 89 114 73
4.038497e-01 4.517833e-01 3.128599e+00 97 115 92
3.997605e-01 4.567883e-01 3.128661e+00 75 89 67
3.545352e-01 5.143816e-01 3.119158e+00 41 71 17
4.027447e-01 4.534184e-01 3.128669e+00 24 49 17
4.027447e-01 4.534184e-01 3.128669e+00 24 49 17
4.027447e-01 4.534184e-01 3.128669e+00 24 49 17
3.900229e-01 4.691188e-01 3.128284e+00 70 94 72
3.596600e-01 5.080159e-01 3.121195e+00 68 82 65
3.985371e-01 4.589787e-01 3.128736e+00 18 42 18
3.767455e-01 4.861305e-01 3.126314e+00 31 60 14
4.000432e-01 4.572681e-01 3.128732e+00 32 51 22
3.672636e-01 4.986004e-01 3.123809e+00 79 97 73
4.221633e-01 4.308073e-01 3.127144e+00 42 65 19
4.072271e-01 4.488352e-01 3.128659e+00 34 58 35
3.823175e-01 4.794970e-01 3.127350e+00 98 112 87
3.731052e-01 4.912336e-01 3.125436e+00 31 48 17
4.103992e-01 4.451297e-01 3.128466e+00 84 97 77
4.103992e-01 4.451297e-01 3.128466e+00 84 97 77
3.998157e-01 4.578709e-01 3.128788e+00 80 100 70
3.831822e-01 4.785532e-01 3.127481e+00 85 104 74
3.758499e-01 4.878395e-01 3.126076e+00 91 105 82
3.391706e-01 5.363602e-01 3.111677e+00 23 42 39
3.867579e-01 4.741327e-01 3.127963e+00 85 103 78
3.582461e-01 5.108260e-01 3.120650e+00 77 104 63
3.872163e-01 4.736400e-01 3.128071e+00 27 44 25
3.575971e-01 5.117814e-01 3.120326e+00 88 114 69
3.575971e-01 5.117814e-01 3.120326e+00 88 114 69
4.092372e-01 4.467559e-01 3.128606e+00 93 119 90
4.086946e-01 4.474659e-01 3.128644e+00 22 48 21
3.427776e-01 5.317507e-01 3.113600e+00 129 143 145
3.591631e-01 5.102491e-01 3.120957e+00 75 101 66
3.987143e-01 4.600036e-01 3.128916e+00 90 115 74
3.414974e-01 5.339551e-01 3.112887e+00 89 109 122
3.414974e-01 5.339551e-01 3.112887e+00 89 109 122
3.726247e-01 4.930685e-01 3.125282e+00 39 64 24
3.726247e-01 4.930685e-01 3.125282e+00 39 64 24
4.120807e-01 4.441363e-01 3.128471e+00 86 112 77
4.120807e-01 4.441363e-01 3.128471e+00 86 112 77
3.483231e-01 5.251379e-01 3.116252e+00 34 61 10
3.479757e-01 5.255770e-01 3.116087e+00 105 127 78
4.003071e-01 4.584715e-01 3.128966e+00 46 69 25
3.846854e-01 4.778382e-01 3.127771e+00 114 136 93
3.543885e-01 5.170682e-01 3.118949e+00 54 83 25
4.071200e-01 4.503597e-01 3.128894e+00 83 110 68
3.461474e-01 5.282519e-01 3.115127e+00 18 32 5
3.594255e-01 5.106859e-01 3.121038e+00 24 50 13
4.192807e-01 4.359929e-01 3.127854e+00 53 80 30
4.235073e-01 4.313598e-01 3.127457e+00 78 109 65
3.680553e-01 5.002920e-01 3.123979e+00 34 56 17
3.821818e-01 4.824088e-01 3.127378e+00 103 131 78
3.781071e-01 4.876071e-01 3.126588e+00 101 130 84
3.942928e-01 4.673753e-01 3.128839e+00 37 59 11
3.723325e-01 4.950613e-01 3.125177e+00 89 115 68
3.718725e-01 4.955795e-01 3.125062e+00 42 68 22
4.047951e-01 4.553904e-01 3.129183e+00 64 91 38
3.510067e-01 5.240864e-01 3.117370e+00 52 76 57
3.922799e-01 4.709592e-01 3.128780e+00 52 81 27
4.132905e-01 4.453921e-01 3.128858e+00 56 90 29
4.320608e-01 4.231998e-01 3.126597e+00 3 27 19
4.008502e-01 4.609272e-01 3.129273e+00 72 99 44
4.243200e-01 4.327687e-01 3.127846e+00 105 134 90
4.169979e-01 4.414428e-01 3.128698e+00 59 88 34
3.805750e-01 4.862780e-01 3.127135e+00 117 145 96
4.271459e-01 4.295260e-01 3.127420e+00 103 132 77
4.255041e-01 4.316753e-01 3.127742e+00 112 139 96
3.595744e-01 5.138714e-01 3.120923e+00 53 75 37
4.261002e-01 4.313632e-01 3.127841e+00 49 78 33
4.261002e-01 4.313632e-01 3.127841e+00 49 78 33
4.049075e-01 4.568906e-01 3.129408e+00 129 156 101
4.049075e-01 4.568906e-01 3.129408e+00 129 156 101
3.762971e-01 4.929572e-01 3.126189e+00 115 143 85
3.605891e-01 5.134523e-01 3.121307e+00 65 90 50
4.014755e-01 4.617839e-01 3.129453e+00 141 166 111
4.014755e-01 4.617839e-01 3.129453e+00 141 166 111
3.676601e-01 5.046233e-01 3.123753e+00 51 83 16
4.084346e-01 4.535142e-01 3.129433e+00 118 145 90
4.084346e-01 4.535142e-01 3.129433e+00 118 145 90
3.666193e-01 5.060819e-01 3.123397e+00 55 83 22
3.666193e-01 5.060819e-01 3.123397e+00 55 83 22
4.309323e-01 4.269916e-01 3.127338e+00 21 46 44
3.757061e-01 4.946852e-01 3.126023e+00 78 106 48
4.117323e-01 4.501910e-01 3.129473e+00 68 86 26
3.643398e-01 5.102785e-01 3.122594e+00 52 79 36
3.643398e-01 5.102785e-01 3.122594e+00 52 79 36
4.042591e-01 4.599406e-01 3.129668e+00 127 150 94
4.276524e-01 4.318462e-01 3.128099e+00 22 33 22
3.938097e-01 4.728516e-01 3.129113e+00 46 73 28
3.938097e-01 4.728516e-01 3.129113e+00 46 73 28
4.269018e-01 4.329742e-01 3.128270e+00 23 46 32
4.096727e-01 4.537110e-01 3.129675e+00 51 80 22
4.081875e-01 4.554913e-01 3.129723e+00 121 146 88
3.914766e-01 4.765887e-01 3.128934e+00 110 134 86
4.121109e-01 4.513020e-01 3.129667e+00 76 95 51
3.448278e-01 5.373589e-01 3.114102e+00 14 20 43
4.375655e-01 4.210195e-01 3.126842e+00 12 41 105
4.114128e-01 4.523190e-01 3.129750e+00 69 84 42
4.184343e-01 4.440600e-01 3.129346e+00 82 102 77
4.217620e-01 4.402614e-01 3.129089e+00 30 42 31
4.217620e-01 4.402614e-01 3.129089e+00 30 42 31
3.669314e-01 5.086374e-01 3.123375e+00 59 80 64
3.686285e-01 5.065411e-01 3.123955e+00 31 50 32
3.686285e-01 5.065411e-01 3.123955e+00 31 50 32
3.498263e-01 5.314841e-01 3.116517e+00 29 28 36
4.344790e-01 4.256475e-01 3.127589e+00 8 29 55
3.476863e-01 5.347107e-01 3.115550e+00 7 18 46
4.053532e-01 4.607098e-01 3.129876e+00 105 97 60
4.112047e-01 4.538507e-01 3.129858e+00 93 108 86
3.692714e-01 5.065230e-01 3.124123e+00 122 137 137
3.672369e-01 5.090907e-01 3.123473e+00 175 191 207
3.846393e-01 4.868674e-01 3.127862e+00 100 123 75
3.679377e-01 5.083619e-01 3.123637e+00 19 31 24
3.701552e-01 5.054734e-01 3.124457e+00 124 63 71
3.774497e-01 4.962388e-01 3.126444e+00 98 113 97
3.697534e-01 5.062890e-01 3.124268e+00 34 33 40
4.035653e-01 4.636819e-01 3.129937e+00 129 147 141
3.944257e-01 4.750836e-01 3.129354e+00 64 69 51
3.835254e-01 4.889725e-01 3.127743e+00 22 35 20
3.676309e-01 5.094502e-01 3.123588e+00 24 39 61
3.872044e-01 4.844705e-01 3.128397e+00 22 33 28
3.872044e-01 4.844705e-01 3.128397e+00 22 33 28
3.613406e-01 5.179824e-01 3.121357e+00 22 20 33
3.746651e-01 5.007513e-01 3.125679e+00 141 149 171
3.592415e-01 5.208578e-01 3.120574e+00 95 93 99
4.313965e-01 4.308440e-01 3.128430e+00 124 133 150
4.283415e-01 4.344335e-01 3.128866e+00 67 69 68
4.013231e-01 4.672150e-01 3.129853e+00 48 56 60
3.435993e-01 5.418820e-01 3.113400e+00 126 131 154
4.035026e-01 4.647293e-01 3.130017e+00 130 137 144
4.132630e-01 4.528982e-01 3.130041e+00 136 148 148
3.945710e-01 4.760832e-01 3.129386e+00 132 86 90
4.303037e-01 4.326561e-01 3.128666e+00 39 29 45
3.999656e-01 4.694578e-01 3.129861e+00 36 50 56
3.682587e-01 5.097969e-01 3.123725e+00 218 222 248
3.682587e-01 5.097969e-01 3.123725e+00 218 222 248
3.799914e-01 4.947953e-01 3.126994e+00 149 145 162
3.605377e-01 5.203166e-01 3.120970e+00 22 17 21
3.687906e-01 5.098381e-01 3.123890e+00 26 23 42
3.498249e-01 5.348153e-01 3.116438e+00 35 51 77
3.682477e-01 5.106320e-01 3.123722e+00 220 227 249
3.522003e-01 5.317975e-01 3.117531e+00 129 120 134
4.078118e-01 4.610037e-01 3.130257e+00 127 118 121
4.262814e-01 4.388341e-01 3.129461e+00 82 93 121
4.262814e-01 4.388341e-01 3.129461e+00 82 93 121
4.274144e-01 4.377794e-01 3.129383e+00 32 30 44
4.011137e-01 4.697420e-01 3.130117e+00 131 136 166
3.556033e-01 5.281497e-01 3.118989e+00 22 22 36
4.341180e-01 4.299975e-01 3.128629e+00 157 149 164
3.430150e-01 5.451827e-01 3.113243e+00 158 68 92
4.142707e-01 4.540640e-01 3.130263e+00 40 40 48
3.676505e-01 5.126275e-01 3.123497e+00 27 41 75
3.581248e-01 5.252422e-01 3.120008e+00 58 77 110
4.338311e-01 4.306515e-01 3.128705e+00 207 203 217
4.070943e-01 4.630605e-01 3.130323e+00 42 48 67
3.718962e-01 5.074171e-01 3.124796e+00 27 29 48
4.117808e-01 4.574572e-01 3.130380e+00 134 135 153
4.342753e-01 4.306280e-01 3.128776e+00 89 77 90
4.201348e-01 4.475706e-01 3.130106e+00 54 61 89
4.201348e-01 4.475706e-01 3.130106e+00 54 61 89
4.373345e-01 4.270371e-01 3.128359e+00 61 67 57
3.983371e-01 4.743580e-01 3.129848e+00 123 126 145
3.698863e-01 5.106460e-01 3.124158e+00 144 134 143
3.698863e-01 5.106460e-01 3.124158e+00 144 134 143
3.619466e-01 5.211910e-01 3.121409e+00 41 42 72
4.081621e-01 4.626065e-01 3.130477e+00 185 190 212
4.348242e-01 4.306119e-01 3.128863e+00 143 123 134
4.079825e-01 4.630470e-01 3.130448e+00 55 62 81
4.129152e-01 4.571071e-01 3.130530e+00 66 73 89
3.673536e-01 5.146773e-01 3.123317e+00 10 25 51
3.630649e-01 5.203199e-01 3.121831e+00 130 138 159
3.527817e-01 5.341452e-01 3.117583e+00 114 113 130
4.287354e-01 4.385193e-01 3.129664e+00 37 36 50
4.116021e-01 4.592002e-01 3.130529e+00 68 73 92
3.691923e-01 5.128537e-01 3.123894e+00 60 62 83
3.635771e-01 5.202882e-01 3.121944e+00 8 18 37
4.134412e-01 4.572900e-01 3.130602e+00 117 123 135
4.201268e-01 4.492560e-01 3.130428e+00 139 141 162
4.264944e-01 4.418200e-01 3.130041e+00 189 195 219
4.091697e-01 4.629119e-01 3.130576e+00 105 116 136
4.034996e-01 4.699609e-01 3.130378e+00 125 127 150
3.993593e-01 4.752776e-01 3.130065e+00 122 124 137
3.993593e-01 4.752776e-01 3.130065e+00 122 124 137
4.255678e-01 4.434653e-01 3.130194e+00 153 150 168
4.114888e-01 4.605962e-01 3.130700e+00 75 78 93
4.079427e-01 4.651840e-01 3.130626e+00 39 45 67
4.266719e-01 4.424510e-01 3.130157e+00 30 38 59
3.601853e-01 5.259757e-01 3.120909e+00 18 31 52
4.135817e-01 4.584813e-01 3.130777e+00 91 87 101
4.260313e-01 4.435956e-01 3.130316e+00 22 20 34
3.457575e-01 5.456014e-01 3.114372e+00 45 22 42
3.907637e-01 4.871259e-01 3.128992e+00 101 101 122
3.753986e-01 5.067279e-01 3.125807e+00 152 156 181
3.737495e-01 5.089203e-01 3.125185e+00 68 72 83
3.737495e-01 5.089203e-01 3.125185e+00 68 72 83
4.345891e-01 4.336770e-01 3.129535e+00 46 29 45
3.685697e-01 5.157421e-01 3.123610e+00 121 122 149
3.556433e-01 5.328396e-01 3.118776e+00 32 24 46
4.360827e-01 4.322105e-01 3.129209e+00 47 34 51
3.735823e-01 5.094284e-01 3.125069e+00 101 104 113
3.759813e-01 5.065685e-01 3.125815e+00 112 120 143
4.180747e-01 4.540293e-01 3.130793e+00 194 179 205
3.984446e-01 4.781867e-01 3.129983e+00 40 40 52
4.345683e-01 4.343714e-01 3.129693e+00 120 107 125
4.111954e-01 4.626479e-01 3.130800e+00 83 87 98
4.020027e-01 4.739411e-01 3.130387e+00 92 89 106
3.603315e-01 5.273972e-01 3.120616e+00 187 196 220
4.303812e-01 4.396302e-01 3.130122e+00 124 119 139
4.176037e-01 4.550459e-01 3.130863e+00 44 47 83
4.180472e-01 4.546811e-01 3.130810e+00 46 45 75
3.941676e-01 4.842702e-01 3.129174e+00 138 136 149
4.391525e-01 4.295314e-01 3.129295e+00 128 114 129
4.313039e-01 4.390087e-01 3.130187e+00 152 143 160
4.302347e-01 4.402960e-01 3.130286e+00 60 61 82
3.451950e-01 5.483769e-01 3.114078e+00 226 215 223
4.181690e-01 4.552372e-01 3.130928e+00 161 189 224
4.082104e-01 4.673809e-01 3.130847e+00 68 64 76
4.289284e-01 4.422995e-01 3.130398e+00 140 138 152
4.289284e-01 4.422995e-01 3.130398e+00 140 138 152
3.458134e-01 5.478383e-01 3.114344e+00 111 101 112
4.089425e-01 4.669848e-01 3.130823e+00 147 139 154
3.474036e-01 5.460963e-01 3.115106e+00 136 130 144
4.408284e-01 4.284700e-01 3.129309e+00 65 51 84
3.932369e-01 4.869457e-01 3.129527e+00 77 82 88
3.698817e-01 5.170186e-01 3.123904e+00 52 50 61
4.222499e-01 4.513528e-01 3.130905e+00 145 159 188
4.214630e-01 4.524099e-01 3.131017e+00 54 68 95
3.804859e-01 5.034400e-01 3.126881e+00 51 50 58
3.674196e-01 5.206155e-01 3.123088e+00 226 233 247
3.994118e-01 4.798700e-01 3.130199e+00 89 91 101
3.584760e-01 5.325133e-01 3.119825e+00 111 106 120
3.649299e-01 5.242583e-01 3.122288e+00 132 127 133
3.940362e-01 4.869604e-01 3.129473e+00 174 180 180
3.697070e-01 5.181585e-01 3.123849e+00 37 37 45
3.578366e-01 5.337671e-01 3.119615e+00 144 138 152
3.455032e-01 5.501439e-01 3.114242e+00 37 11 22
3.789195e-01 5.064018e-01 3.126462e+00 145 148 163
3.741231e-01 5.125641e-01 3.125220e+00 80 69 75
4.203428e-01 4.547130e-01 3.131146e+00 79 73 99
4.196303e-01 4.555462e-01 3.131254e+00 111 103 129
4.196303e-01 4.555462e-01 3.131254e+00 111 103 129
4.122126e-01 4.647132e-01 3.131083e+00 59 49 60
3.493169e-01 5.452652e-01 3.115923e+00 173 162 176
3.569871e-01 5.353720e-01 3.119206e+00 52 41 61
3.566013e-01 5.359727e-01 3.119096e+00 151 141 163
3.999366e-01 4.802884e-01 3.130294e+00 99 98 106
3.741383e-01 5.131192e-01 3.125174e+00 123 112 118
4.122604e-01 4.652484e-01 3.131108e+00 134 124 137
4.122604e-01 4.652484e-01 3.131108e+00 134 124 137
3.936725e-01 4.882950e-01 3.129470e+00 59 51 62
3.770227e-01 5.095716e-01 3.126041e+00 117 116 130
4.111947e-01 4.666601e-01 3.131122e+00 74 69 91
4.009229e-01 4.792982e-01 3.130457e+00 50 50 55
3.607571e-01 5.309872e-01 3.120664e+00 192 200 219
3.858284e-01 4.985633e-01 3.128058e+00 153 151 157
3.942096e-01 4.885841e-01 3.129537e+00 143 133 144
4.038059e-01 4.766173e-01 3.130717e+00 113 111 122
3.557014e-01 5.386198e-01 3.118659e+00 110 117 128
3.469090e-01 5.502332e-01 3.114794e+00 93 71 86
3.469090e-01 5.502332e-01 3.114794e+00 93 71 86
4.025791e-01 4.788475e-01 3.130539e+00 44 45 65
3.936612e-01 4.902825e-01 3.129398e+00 46 37 48
4.051512e-01 4.760654e-01 3.130832e+00 164 157 165
4.394106e-01 4.344028e-01 3.130461e+00 41 42 60
3.645405e-01 5.282135e-01 3.124118e+00 221 214 230
3.642275e-01 5.285878e-01 3.124085e+00 222 214 230
3.783802e-01 5.105762e-01 3.126251e+00 166 164 178
4.399814e-01 4.343648e-01 3.130534e+00 140 143 158
4.465818e-01 4.270303e-01 3.129930e+00 101 104 121
4.288420e-01 4.486631e-01 3.132798e+00 101 104 121
3.531843e-01 5.447728e-01 3.117563e+00 46 31 50
4.466700e-01 4.275281e-01 3.130101e+00 46 48 65
4.038107e-01 4.803807e-01 3.130384e+00 136 130 153
3.650837e-01 5.302118e-01 3.122065e+00 80 75 82
3.650837e-01 5.302118e-01 3.122065e+00 80 75 82
3.977388e-01 4.886079e-01 3.130013e+00 64 55 58
4.248255e-01 4.552418e-01 3.132238e+00 123 118 124
4.247924e-01 4.552313e-01 3.131797e+00 123 118 124
3.489214e-01 5.518416e-01 3.115651e+00 102 81 100
3.682127e-01 5.266996e-01 3.123127e+00 77 72 78
3.682127e-01 5.266996e-01 3.123127e+00 77 72 78
3.648044e-01 5.319161e-01 3.123996e+00 172 170 175
3.771245e-01 5.176950e-01 3.125781e+00 150 144 146
3.994617e-01 4.900104e-01 3.130285e+00 64 56 59
3.884664e-01 5.041680e-01 3.128069e+00 72 68 67
3.578117e-01 5.437679e-01 3.119256e+00 108 107 113
3.956023e-01 4.961422e-01 3.129478e+00 127 125 129
4.411425e-01 4.405539e-01 3.131938e+00 36 38 46
4.131520e-01 4.750360e-01 3.131382e+00 96 92 93
3.878818e-01 5.067757e-01 3.128195e+00 84 74 77
3.743924e-01 5.248387e-01 3.125424e+00 64 55 60
3.931420e-01 5.009799e-01 3.129180e+00 63 54 57
4.419503e-01 4.413468e-01 3.132307e+00 42 42 52
3.690369e-01 5.327171e-01 3.123181e+00 172 170 175
4.371129e-01 4.475063e-01 3.132432e+00 83 91 104
4.293263e-01 4.571987e-01 3.132530e+00 175 175 183
3.692460e-01 5.344411e-01 3.123242e+00 100 98 103
4.404241e-01 4.452076e-01 3.132531e+00 124 131 139
3.901998e-01 5.086433e-01 3.128371e+00 88 86 85
3.808158e-01 5.206791e-01 3.126455e+00 143 137 139
4.152687e-01 4.777765e-01 3.131986e+00 122 117 122
4.075282e-01 4.884585e-01 3.131099e+00 151 147 148
4.148044e-01 4.806836e-01 3.131810e+00 103 94 97
4.282407e-01 4.642490e-01 3.132887e+00 63 60 67
3.842488e-01 5.201185e-01 3.127020e+00 143 136 143
3.794780e-01 5.263064e-01 3.126032e+00 92 86 90
4.161118e-01 4.803454e-01 3.131688e+00 167 161 161
3.800589e-01 5.262604e-01 3.126160e+00 150 143 150
3.788771e-01 5.286759e-01 3.125840e+00 92 88 89
3.665661e-01 5.448580e-01 3.122446e+00 171 171 181
3.876213e-01 5.181899e-01 3.127605e+00 180 175 181
3.927194e-01 5.125414e-01 3.128620e+00 108 102 106
4.252917e-01 4.726190e-01 3.133768e+00 143 134 139
3.679407e-01 5.456123e-01 3.122826e+00 112 111 117
3.679407e-01 5.456123e-01 3.122826e+00 112 111 117
3.768256e-01 5.346358e-01 3.125880e+00 119 110 111
3.768618e-01 5.346492e-01 3.125810e+00 119 110 111
3.933609e-01 5.139896e-01 3.128702e+00 165 155 154
3.731290e-01 5.398801e-01 3.124409e+00 103 100 103
4.376918e-01 4.588034e-01 3.133609e+00 120 120 128
3.914768e-01 5.166093e-01 3.128425e+00 186 184 191
3.915736e-01 5.166189e-01 3.128008e+00 186 184 191
4.386385e-01 4.577126e-01 3.133774e+00 116 118 131
4.309623e-01 4.671864e-01 3.133366e+00 139 134 138
3.789261e-01 5.328073e-01 3.126123e+00 139 130 133
4.377900e-01 4.594300e-01 3.133700e+00 171 171 179
3.756531e-01 5.374435e-01 3.125062e+00 85 79 81
4.349527e-01 4.629800e-01 3.133702e+00 79 76 89
3.864616e-01 5.243497e-01 3.127448e+00 90 86 87
4.173179e-01 4.861136e-01 3.131736e+00 120 117 124
4.181754e-01 4.854365e-01 3.132322e+00 185 183 188
3.970028e-01 5.126189e-01 3.129112e+00 116 105 103
4.473468e-01 4.505781e-01 3.134599e+00 62 85 103
3.785709e-01 5.372403e-01 3.125795e+00 72 64 67
3.886107e-01 5.257359e-01 3.127726e+00 74 68 72
3.733995e-01 5.452063e-01 3.125965e+00 174 175 180
3.942208e-01 5.188851e-01 3.128740e+00 183 180 187
4.365555e-01 4.668263e-01 3.134032e+00 151 144 151
4.365555e-01 4.668263e-01 3.134032e+00 151 144 151
4.023733e-01 5.131180e-01 3.129650e+00 157 147 146
4.179249e-01 4.939733e-01 3.131638e+00 85 78 85
4.182150e-01 4.944360e-01 3.132536e+00 87 82 88
4.174521e-01 4.944158e-01 3.136494e+00 87 82 88
4.370146e-01 4.717901e-01 3.134007e+00 131 127 126
3.915984e-01 5.296862e-01 3.127830e+00 60 56 55
4.106051e-01 5.060561e-01 3.130497e+00 103 89 86
4.106051e-01 5.060561e-01 3.130497e+00 103 89 86
4.029690e-01 5.171243e-01 3.129512e+00 112 106 107
4.050120e-01 5.161589e-01 3.129779e+00 86 77 78
4.036882e-01 5.190077e-01 3.129445e+00 92 83 84
4.036882e-01 5.190077e-01 3.129445e+00 92 83 84
3.900939e-01 5.358569e-01 3.127244e+00 65 57 55
4.340344e-01 4.816156e-01 3.133426e+00 77 68 69
4.340344e-01 4.816156e-01 3.133426e+00 77 68 69
4.461633e-01 4.721082e-01 3.135374e+00 175 175 187
4.125985e-01 5.145898e-01 3.135071e+00 139 130 127
4.396919e-01 4.833245e-01 3.133544e+00 114 106 104
4.019185e-01 5.416120e-01 3.129324e+00 123 123 128
3.970957e-01 5.513713e-01 3.129102e+00 62 62 72
4.361658e-01 5.058151e-01 3.130770e+00 93 92 100
4.523319e-01 4.851553e-01 3.135508e+00 75 72 79
4.395319e-01 5.059381e-01 3.131201e+00 155 149 153
4.389850e-01 5.077389e-01 3.130435e+00 144 141 148
4.421386e-01 5.188532e-01 3.127771e+00 115 114 119
4.349015e-01 5.395840e-01 3.134188e+00 28 26 39
4.215687e-01 5.705524e-01 3.134581e+00 161 160 165
3.628958e-01 4.371678e-01 3.118237e+00 201 30 51
3.674010e-01 4.332733e-01 3.118657e+00 189 157 170
3.550902e-01 4.493625e-01 3.118104e+00 255 222 196
3.550902e-01 4.493625e-01 3.118104e+00 255 222 196
3.550015e-01 4.497552e-01 3.118068e+00 209 66 74
3.552096e-01 4.502845e-01 3.118218e+00 193 144 126
3.519902e-01 4.543481e-01 3.117647e+00 223 104 103
3.538384e-01 4.521376e-01 3.118012e+00 179 135 156
3.517915e-01 4.547188e-01 3.117654e+00 170 29 52
3.637593e-01 4.406084e-01 3.119082e+00 255 227 197
3.672768e-01 4.365805e-01 3.119218e+00 190 120 131
3.628550e-01 4.424025e-01 3.119124e+00 132 94 73
3.557406e-01 4.513729e-01 3.118442e+00 139 64 71
3.623724e-01 4.431827e-01 3.119121e+00 136 101 69
3.542459e-01 4.537124e-01 3.118348e+00 201 120 108
3.436223e-01 4.676900e-01 3.115837e+00 138 104 67
3.514338e-01 4.577409e-01 3.117872e+00 142 104 75
3.693319e-01 4.360715e-01 3.119565e+00 135 102 71
3.725203e-01 4.325301e-01 3.119494e+00 134 65 83
3.704011e-01 4.350974e-01 3.119520e+00 167 133 149
3.549404e-01 4.545029e-01 3.118622e+00 254 206 176
3.655448e-01 4.418737e-01 3.119738e+00 146 103 70
3.517859e-01 4.593033e-01 3.118106e+00 187 126 111
3.544728e-01 4.561199e-01 3.118628e+00 130 91 65
3.570492e-01 4.529542e-01 3.119096e+00 166 107 107
3.490211e-01 4.631544e-01 3.117497e+00 255 195 163
3.490211e-01 4.631544e-01 3.117497e+00 255 195 163
3.675920e-01 4.399413e-01 3.119892e+00 167 117 91
3.475422e-01 4.651754e-01 3.117081e+00 177 135 128
3.630866e-01 4.456988e-01 3.119757e+00 128 65 60
3.725087e-01 4.344113e-01 3.119871e+00 253 231 204
3.585539e-01 4.515716e-01 3.119357e+00 156 91 75
3.523252e-01 4.599633e-01 3.118330e+00 188 106 90
3.640491e-01 4.452642e-01 3.119921e+00 253 225 196
3.578761e-01 4.530849e-01 3.119309e+00 183 128 113
3.536556e-01 4.586133e-01 3.118623e+00 203 115 107
3.664152e-01 4.429675e-01 3.120112e+00 131 95 64
3.582818e-01 4.533793e-01 3.119396e+00 158 103 90
3.686681e-01 4.408228e-01 3.120267e+00 128 73 57
3.592230e-01 4.524920e-01 3.119626e+00 254 233 206
3.503541e-01 4.636806e-01 3.118017e+00 158 99 71
3.712441e-01 4.377773e-01 3.120277e+00 136 94 69
3.556719e-01 4.573193e-01 3.119119e+00 193 141 111
3.472441e-01 4.686177e-01 3.117181e+00 199 138 121
3.575638e-01 4.555565e-01 3.119502e+00 127 67 48
3.562016e-01 4.572683e-01 3.119298e+00 151 107 74
3.517123e-01 4.629797e-01 3.118316e+00 184 114 102
3.455723e-01 4.713611e-01 3.116669e+00 134 92 68
3.566324e-01 4.572930e-01 3.119424e+00 230 186 150
3.503293e-01 4.657005e-01 3.118139e+00 151 90 64
3.673856e-01 4.443252e-01 3.120579e+00 254 226 190
3.673856e-01 4.443252e-01 3.120579e+00 254 226 190
3.550303e-01 4.597612e-01 3.119165e+00 139 36 34
3.632936e-01 4.495992e-01 3.120350e+00 252 225 196
3.657137e-01 4.466852e-01 3.120527e+00 253 229 190
3.748675e-01 4.357098e-01 3.120658e+00 249 231 220
3.707262e-01 4.407208e-01 3.120746e+00 184 117 93
3.678233e-01 4.443678e-01 3.120697e+00 137 90 60
3.673898e-01 4.448599e-01 3.120662e+00 131 87 51
3.660463e-01 4.469151e-01 3.120663e+00 131 86 59
3.681659e-01 4.445442e-01 3.120821e+00 214 157 121
3.574575e-01 4.578882e-01 3.119707e+00 245 200 178
3.545790e-01 4.615228e-01 3.119178e+00 139 103 76
3.728047e-01 4.389596e-01 3.120862e+00 249 232 218
3.487105e-01 4.692474e-01 3.117697e+00 139 98 70
3.496222e-01 4.685526e-01 3.117927e+00 164 46 59
3.727533e-01 4.397331e-01 3.120986e+00 108 97 103
3.718046e-01 4.410118e-01 3.121027e+00 109 58 56
3.712937e-01 4.419183e-01 3.121076e+00 130 90 66
3.597076e-01 4.562372e-01 3.120181e+00 253 224 197
3.735204e-01 4.393291e-01 3.121052e+00 186 179 187
3.708636e-01 4.425618e-01 3.121080e+00 124 94 86
3.623630e-01 4.531704e-01 3.120571e+00 134 84 61
3.719001e-01 4.415047e-01 3.121156e+00 176 145 124
