ply
format ascii 1.0
element face 0
property list uchar int vertex_indices
element vertex 942
property float x
property float y
property float z
property uchar diffuse_red
property uchar diffuse_green
property uchar diffuse_blue
end_header
2.323287e+00 -2.041641e+00 1.202997e+00 133 124 127
-1.588770e+00 -4.914337e-01 5.568798e+00 158 149 150
8.444621e-01 1.192470e+00 3.586773e+00 32 27 33
9.451144e-02 1.741172e+00 4.253409e+00 11 11 23
-1.512395e+00 1.890705e+00 4.076352e+00 157 160 167
2.797025e+00 -2.286287e+00 7.485822e-01 44 39 45
2.860339e-01 -9.974808e-01 4.050871e+00 174 173 179
1.282160e+00 -2.685349e-01 3.411344e+00 43 33 34
-1.341931e+00 1.030817e-01 3.675280e+00 185 182 189
-5.390702e-01 5.743854e-01 3.818570e+00 178 176 187
-1.243068e+00 9.788293e-01 4.478962e+00 74 70 77
-1.539766e+00 1.889239e+00 4.077464e+00 47 49 61
-8.750508e-01 -1.764979e+00 2.114544e+00 131 125 129
3.111390e+00 -2.542034e+00 1.618757e-01 67 61 68
3.182264e+00 -2.339668e+00 2.888052e-01 77 74 83
-1.245531e+00 -4.543352e-01 3.740658e+00 73 68 75
-1.644888e-01 -3.579388e-01 3.760196e+00 161 155 157
8.667177e-01 1.092027e-02 3.982704e+00 174 175 180
-3.704946e-01 5.627329e-01 3.686947e+00 178 177 183
-5.372567e-01 1.016754e+00 3.640298e+00 98 99 104
1.484902e+00 1.184426e+00 3.436964e+00 200 226 251
5.288866e-01 1.189880e+00 3.586115e+00 155 150 156
-1.744969e+00 1.789811e+00 4.163818e+00 220 238 254
5.778275e-01 2.028212e+00 3.406429e+00 53 54 59
3.481775e+00 -2.468855e+00 -3.971487e-02 95 96 101
3.295950e+00 -2.187342e+00 1.610687e-01 151 150 156
-9.008323e-01 -1.686438e-01 3.733485e+00 125 125 135
-4.320796e-02 9.814416e-02 3.679453e+00 58 59 64
-1.335736e+00 2.191235e-01 3.665734e+00 119 116 123
-1.243605e+00 3.959526e-01 3.687123e+00 192 192 200
8.484991e-01 5.335720e-01 3.625484e+00 171 167 168
-5.152409e-01 9.910342e-01 3.612184e+00 33 32 38
-4.048753e-01 1.092602e+00 3.603870e+00 84 82 87
-1.540840e+00 1.854580e+00 4.156485e+00 54 57 66
-1.283787e+00 1.894682e+00 4.299979e+00 151 152 157
2.518390e-01 2.176781e+00 3.399485e+00 76 76 86
4.682985e-01 2.297476e+00 3.337712e+00 178 177 185
-1.265746e+00 -1.068275e+00 4.076807e+00 145 135 136
-1.043819e+00 -5.507398e-01 3.731497e+00 192 187 194
-7.379835e-01 -4.602847e-01 3.714955e+00 97 94 102
-6.673719e-01 -4.593988e-01 3.714723e+00 173 170 179
-7.271971e-02 -4.067340e-01 3.763857e+00 66 57 60
1.063059e+00 3.326615e-01 3.626099e+00 89 86 93
1.481813e-01 4.111010e-01 3.701305e+00 88 85 92
-1.308570e+00 4.252958e-01 3.652611e+00 113 110 117
-1.124784e+00 4.477263e-01 3.689933e+00 92 87 97
-1.630632e+00 9.130189e-01 3.596434e+00 138 155 171
-1.464321e+00 1.016088e+00 4.357826e+00 106 106 114
-1.291157e+00 1.058075e+00 4.400171e+00 113 112 118
-1.313461e+00 1.112929e+00 4.361337e+00 162 160 165
-1.651952e+00 1.058381e+00 3.555402e+00 227 244 252
-1.575998e-01 1.067827e+00 3.637857e+00 74 73 79
8.039533e-01 1.204810e+00 3.570367e+00 79 74 80
-1.557963e+00 1.434213e+00 4.441195e+00 168 172 184
-1.330667e+00 1.553626e+00 4.458239e+00 112 116 128
-3.186965e-01 1.664537e+00 4.535372e+00 87 95 108
-1.029254e+00 2.134975e+00 4.034114e+00 141 145 156
1.608173e+00 2.387031e+00 2.261277e+00 96 96 106
-9.565239e-01 -5.083960e-01 3.798513e+00 161 154 162
-1.454757e+00 3.395693e-01 3.660634e+00 188 194 206
-1.168427e+00 3.963219e-01 3.654851e+00 110 105 109
-3.579021e-02 5.392779e-01 3.650366e+00 158 157 163
7.336129e-01 5.454493e-01 3.620914e+00 148 142 146
-2.735017e-01 5.850313e-01 3.684084e+00 156 151 157
-2.759524e-01 5.881604e-01 3.651689e+00 118 113 119
-1.505329e+00 1.077055e+00 4.332933e+00 165 163 168
-8.739905e-01 1.152814e+00 3.580829e+00 142 142 152
-1.275200e+00 1.908694e+00 4.287847e+00 158 158 166
-5.755750e-01 -5.329404e-01 3.826124e+00 178 172 176
1.453982e+00 -2.750802e-01 3.357414e+00 48 38 46
-1.135347e+00 5.082503e-01 3.676583e+00 188 188 196
-1.551867e+00 1.435334e+00 3.460645e+00 218 237 254
2.122074e+00 -1.921390e+00 1.649318e+00 29 20 23
-6.369247e-01 9.144703e-02 3.700455e+00 59 59 69
-1.069449e+00 2.705043e-01 3.902472e+00 156 155 163
-3.494894e-01 1.031382e+00 3.642193e+00 27 26 34
5.879390e-01 2.317454e+00 3.321685e+00 168 170 185
2.863774e+00 -2.570362e+00 5.825487e-01 52 49 56
-2.593044e-01 1.041871e+00 3.599151e+00 167 166 172
-1.784058e-01 1.079882e+00 3.598560e+00 174 175 180
-7.610689e-01 -9.639235e-01 3.795353e+00 69 66 73
-4.583712e-01 7.769382e-02 3.714085e+00 28 26 39
-1.148329e+00 5.679778e-01 3.641897e+00 69 70 75
-9.348745e-01 9.473186e-01 3.630676e+00 103 104 109
4.360462e-01 1.969709e+00 3.390077e+00 19 18 25
-8.113041e-01 -1.944853e+00 1.901972e+00 160 154 158
3.111823e+00 -1.975069e+00 5.971953e-01 99 96 107
4.262442e-01 -8.476144e-01 4.064074e+00 152 141 145
-9.815739e-01 -5.512495e-01 3.736825e+00 191 189 194
-1.340396e+00 1.873030e-01 3.670551e+00 179 178 184
-1.351128e+00 2.695901e-01 3.702828e+00 97 96 104
-1.213367e+00 3.921027e-01 3.655611e+00 86 84 89
-1.197166e+00 4.133124e-01 3.652418e+00 177 176 182
-5.407907e-02 6.125752e-01 3.652075e+00 148 146 151
-1.517172e+00 9.256806e-01 3.564284e+00 121 121 129
-9.303550e-01 1.004976e+00 3.594246e+00 78 77 83
-1.158792e+00 1.118437e+00 3.633009e+00 175 177 189
-1.162181e+00 1.130170e+00 3.583203e+00 168 170 185
3.256065e-01 1.554797e+00 3.580863e+00 114 117 122
-1.272426e+00 1.857297e+00 4.200078e+00 47 45 56
-1.296683e+00 1.971282e+00 3.369032e+00 151 151 163
-1.275641e+00 1.996332e+00 3.380958e+00 157 158 176
-5.824537e-01 -4.797889e-01 3.821609e+00 88 90 97
-1.079006e+00 -3.291854e-01 3.731458e+00 176 172 179
-1.359631e+00 4.097691e-01 3.723906e+00 149 149 155
-1.382342e+00 4.454476e-01 3.635764e+00 71 71 78
-2.511722e-01 5.590278e-01 3.655605e+00 184 183 189
-1.367570e+00 -7.738674e-01 3.737954e+00 188 185 190
-1.498222e-01 -5.460887e-01 3.826860e+00 72 61 65
-1.096499e+00 -2.390929e-01 3.744046e+00 91 83 89
-8.428208e-01 4.894193e-01 3.645677e+00 91 90 95
-1.242687e+00 1.764921e+00 3.480505e+00 24 22 33
-1.066091e+00 1.824216e+00 3.474884e+00 86 86 98
-2.015208e-01 -7.394203e-01 3.885981e+00 58 53 49
-7.479810e-01 -7.083545e-01 3.911336e+00 131 136 139
6.556725e-01 -1.244313e+00 3.844840e+00 8 8 10
5.167055e-01 8.558423e-01 3.619074e+00 134 135 142
3.568226e-01 -4.437936e-01 3.895732e+00 61 60 56
2.882787e-01 -8.407439e-01 3.953944e+00 136 143 152
6.679750e-01 -2.300538e-01 3.932097e+00 137 138 141
-6.629674e-01 -2.560342e-01 3.846639e+00 131 127 119
6.457167e-01 -2.002655e-01 3.923653e+00 37 39 38
6.631884e-01 -1.127854e+00 3.965547e+00 86 88 82
3.244985e-01 -1.064743e+00 4.000949e+00 72 70 71
-7.257391e-01 -3.813696e-01 3.882303e+00 125 125 125
-5.430933e-01 -2.838267e-01 3.828818e+00 38 34 35
-4.571513e-01 5.350253e-01 3.563434e+00 144 148 152
-9.453021e-01 9.844785e-01 3.451988e+00 43 41 47
-9.453021e-01 9.844785e-01 3.451988e+00 43 41 47
-9.805209e-01 2.122686e+00 3.211068e+00 121 126 129
-6.451436e-01 -1.057487e+00 3.958241e+00 72 68 65
-7.424914e-01 -9.264126e-01 3.951017e+00 44 37 45
-1.373777e+00 -2.861125e-01 3.852243e+00 40 39 37
-5.576829e-01 5.066284e-01 3.541025e+00 58 56 61
7.861930e-02 5.637832e-01 3.555829e+00 146 148 151
4.921742e-01 1.511184e+00 4.106665e+00 15 21 28
8.712592e-01 2.168320e+00 3.233736e+00 20 21 27
-1.390404e+00 -2.881643e-01 3.993550e+00 35 35 34
-1.492336e+00 -1.399283e-01 3.822949e+00 54 52 57
5.297580e-01 -4.457293e-02 3.600028e+00 132 132 124
-3.482000e-02 7.177920e-02 3.527038e+00 26 24 30
-1.356925e+00 1.492878e-01 3.713751e+00 130 136 136
-8.915777e-03 1.677882e-01 3.516134e+00 137 135 138
-1.502793e-01 2.599890e-01 3.769382e+00 140 140 141
-1.541848e-01 4.678763e-01 3.455375e+00 103 101 94
-1.121078e+00 1.012004e+00 3.449926e+00 129 133 136
6.700446e-01 1.760850e+00 3.360740e+00 119 123 126
-1.010225e+00 2.224753e+00 3.245456e+00 60 62 74
-6.976227e-01 2.471711e+00 3.147992e+00 81 82 96
3.215983e-01 -1.109076e+00 3.962576e+00 66 69 72
-5.904318e-01 -8.090023e-01 3.889485e+00 82 81 76
-2.195085e-01 -4.996258e-01 3.852791e+00 102 101 99
-1.195302e+00 1.685089e-01 3.631318e+00 61 58 57
6.363542e-01 3.078044e-01 3.675001e+00 146 146 153
-1.253570e+00 3.535518e-01 3.635262e+00 125 129 126
4.831291e-01 1.153634e+00 3.543053e+00 124 125 124
8.494905e-01 1.500307e+00 3.092538e+00 28 26 34
-7.191066e-01 2.441888e+00 3.189980e+00 211 239 249
-1.344644e-01 -1.122683e+00 3.909091e+00 71 72 66
-8.737260e-01 -1.909053e-01 3.775066e+00 132 140 145
-1.776924e-01 2.163831e-01 3.498632e+00 19 13 13
-1.286267e+00 3.344062e-01 3.650791e+00 73 72 78
-8.849041e-01 5.242210e-01 3.546762e+00 147 150 150
-2.977237e-01 6.351942e-01 3.561409e+00 104 103 101
-1.131538e+00 1.003719e+00 3.453512e+00 124 124 128
-1.608752e+00 1.712490e+00 1.535415e+00 130 131 133
-1.547423e+00 1.801137e+00 1.493507e+00 18 17 23
-4.522182e-01 1.076981e+00 3.413399e+00 37 34 43
-9.244142e-01 1.074514e+00 3.449462e+00 52 52 52
-8.718462e-01 1.090166e+00 3.451318e+00 117 118 120
-3.144084e-01 1.101733e+00 3.423607e+00 123 122 127
-7.575430e-01 1.125747e+00 3.515495e+00 75 75 77
4.308099e-01 7.754258e-01 4.399713e+00 60 59 66
5.704572e-01 1.139089e+00 3.526003e+00 100 97 103
9.744910e-01 1.383680e+00 2.958093e+00 118 118 118
-8.630476e-01 2.147749e+00 3.198218e+00 64 73 76
-1.617995e+00 4.266921e+00 7.344528e-01 81 94 111
8.242046e-01 3.124516e+00 2.514996e+00 75 70 101
5.121907e-01 -2.962897e-01 3.828890e+00 111 112 106
-1.047779e+00 -4.522175e-01 3.675027e+00 30 38 30
3.788048e-01 4.245436e-01 3.505743e+00 160 161 163
-1.704418e+00 4.136378e-01 3.490292e+00 255 255 255
-3.771132e-01 9.055072e-01 3.272993e+00 156 157 170
-3.771132e-01 9.055072e-01 3.272993e+00 156 157 170
-1.605951e+00 1.737595e+00 3.362919e+00 255 255 255
-1.072483e+00 -1.177789e+00 4.051172e+00 11 11 13
1.724373e-01 1.202558e+00 3.561973e+00 91 91 89
-1.511266e+00 1.896775e+00 3.312559e+00 88 88 90
-1.515759e+00 2.115913e+00 3.171803e+00 255 255 255
-1.529612e+00 5.697619e-01 3.613918e+00 96 95 93
-6.929041e-01 6.357532e-01 3.643741e+00 91 90 85
-1.724239e+00 -2.498477e-01 3.537562e+00 139 144 148
-1.518556e+00 -7.140632e-01 6.977617e+00 68 71 76
2.973978e-01 -3.746179e-01 3.823141e+00 130 129 127
-6.220990e-01 -3.109262e-01 3.807513e+00 139 139 141
-7.123279e-01 -3.006978e-01 3.801275e+00 132 133 136
4.953099e-01 1.764498e+00 3.312253e+00 53 57 66
6.974248e-01 2.168695e+00 3.494378e+00 105 99 99
-1.559927e+00 -2.742484e-01 3.742812e+00 39 37 38
-1.357138e-01 3.387791e-01 3.500470e+00 133 133 131
-1.567203e+00 -6.894219e-01 6.944044e+00 18 29 15
-8.401780e-01 -1.246465e+00 3.810422e+00 99 103 102
-1.232139e+00 -1.139905e+00 3.732071e+00 44 45 47
-1.468082e+00 -3.679069e-01 3.743138e+00 41 40 43
9.720662e-01 -2.355972e-01 3.827576e+00 48 47 45
-2.198593e-01 3.636525e-01 3.524301e+00 59 64 79
8.574120e-01 7.605701e-01 3.559295e+00 137 142 145
9.163662e-01 1.692659e+00 3.306993e+00 33 35 49
1.283476e+00 1.730632e+00 3.417754e+00 248 255 254
-1.243332e+00 2.274261e+00 3.283131e+00 120 118 125
-1.588941e+00 -7.117527e-01 6.952771e+00 14 15 19
-1.556679e+00 -6.932530e-01 6.952343e+00 14 19 13
-1.602893e+00 -6.909706e-01 6.944390e+00 9 14 9
-1.555939e+00 -6.895689e-01 6.944675e+00 15 21 21
-1.564417e+00 -6.906241e-01 6.909263e+00 20 29 11
-9.497805e-01 -1.279189e+00 3.735973e+00 108 109 110
-1.006876e+00 -1.197012e+00 4.014033e+00 106 106 106
-8.615445e-01 -1.248290e+00 3.765982e+00 100 104 105
-1.385051e+00 -9.086965e-01 3.801584e+00 68 69 63
-7.917077e-01 -3.816437e-01 3.774027e+00 124 124 115
6.997375e-01 -2.145446e-01 3.816768e+00 51 48 43
3.144799e-01 -2.243112e-01 3.818898e+00 53 49 48
-1.432314e+00 -2.702619e-01 3.739840e+00 34 34 32
7.520179e-01 -7.298383e-02 3.758237e+00 67 70 78
-1.115426e+00 4.070442e-01 3.518391e+00 135 135 128
-1.491312e-01 5.734018e-01 3.607736e+00 154 153 151
-3.299679e-02 6.134436e-01 3.524673e+00 154 154 154
-1.793481e-01 5.921577e-01 3.540335e+00 145 145 143
1.833713e-01 1.248752e+00 3.587683e+00 93 91 93
-1.542687e+00 -8.946460e-02 6.884168e+00 253 253 253
-9.264305e-01 1.198126e+00 3.481489e+00 143 144 134
-1.483932e+00 1.120976e+00 3.528552e+00 121 122 124
-1.484093e+00 1.120548e+00 3.530704e+00 121 122 124
1.069750e-01 2.167861e+00 3.400575e+00 255 255 255
-1.051894e+00 2.012126e+00 3.341741e+00 81 79 81
1.684261e-01 2.354344e+00 3.362822e+00 255 255 255
-1.384958e+00 2.329781e+00 3.243741e+00 129 126 132
-1.673160e+00 -7.131040e-01 6.960825e+00 77 79 91
-1.559932e+00 -6.972275e-01 7.016833e+00 25 77 68
-1.587273e+00 -6.974534e-01 6.951990e+00 53 81 44
-1.419601e+00 -7.092742e-01 6.961787e+00 49 72 43
-1.613196e+00 -6.904443e-01 6.945702e+00 5 19 7
-1.586838e+00 -6.888836e-01 6.946683e+00 67 93 60
-1.619457e+00 -6.858355e-01 6.944174e+00 71 89 40
-1.615354e+00 -6.875482e-01 6.936264e+00 58 69 52
-1.545670e+00 -6.897812e-01 6.943151e+00 24 36 26
-1.342941e+00 -1.280834e+00 3.628899e+00 105 114 114
-1.310740e+00 -9.603054e-01 3.743108e+00 107 108 102
-1.334518e+00 -8.575913e-01 3.774818e+00 109 110 105
-1.017383e+00 -7.294473e-01 3.819958e+00 69 66 60
-1.560863e+00 -4.592645e-01 3.770785e+00 140 144 147
6.566190e-01 -3.064957e-01 3.820813e+00 68 69 64
6.703547e-01 -2.713912e-01 3.821614e+00 132 133 128
5.503046e-01 -2.764384e-01 3.833414e+00 134 131 126
1.706614e-01 -2.829005e-01 3.784127e+00 124 123 128
1.395795e-01 -2.818973e-01 3.782805e+00 129 124 125
1.395795e-01 -2.818973e-01 3.782805e+00 129 124 125
1.454654e-01 1.053192e+00 3.517220e+00 92 92 92
-1.357371e+00 9.454071e-01 3.462738e+00 105 106 105
-6.933572e-01 1.152985e+00 3.577977e+00 132 128 124
-7.411074e-01 1.219729e+00 3.557334e+00 88 87 92
-8.323083e-01 1.946379e+00 3.274553e+00 137 136 134
8.434176e-01 2.461145e+00 3.330499e+00 82 80 79
-1.212892e+00 2.171528e+00 3.312410e+00 69 67 73
-1.226829e+00 2.257831e+00 3.278522e+00 254 254 252
-1.527990e+00 -6.890529e-01 7.105706e+00 232 231 229
-1.628084e+00 -7.101784e-01 6.947527e+00 121 149 152
-1.411384e+00 -7.096335e-01 6.956982e+00 46 75 45
-1.600706e+00 -6.899232e-01 6.941110e+00 41 67 35
-1.316684e+00 -6.979639e-01 6.961996e+00 27 35 23
-5.473683e-01 -1.185085e+00 3.853373e+00 54 55 57
-1.072015e+00 -1.157912e+00 3.728039e+00 97 101 102
-1.072617e+00 -1.157705e+00 3.728097e+00 97 101 102
3.506060e-01 -1.125735e+00 3.935510e+00 74 76 79
-1.240325e+00 -1.087900e+00 3.723443e+00 52 54 49
1.072930e+00 -9.952258e-01 3.948313e+00 70 67 60
1.072930e+00 -9.952258e-01 3.948313e+00 70 67 60
-1.306195e+00 -8.207523e-01 3.769099e+00 115 115 113
-3.308207e-01 -7.557489e-01 3.729382e+00 58 54 51
-9.789970e-01 -4.612720e-01 3.768777e+00 139 138 144
-1.534827e+00 -3.413897e-01 3.749531e+00 96 97 102
-1.234759e+00 -2.730530e-01 3.766692e+00 33 31 30
-1.413018e+00 -2.766559e-01 3.755112e+00 35 35 35
9.010203e-01 2.853668e-01 3.585280e+00 84 77 67
-1.029262e+00 4.205809e-01 3.565839e+00 78 74 66
-1.196269e+00 4.208593e-01 3.573621e+00 141 141 133
-3.813300e-01 5.496623e-01 3.608461e+00 100 99 104
-2.151533e-01 6.363894e-01 3.581314e+00 86 87 86
-5.425977e-01 6.218291e-01 3.557881e+00 77 77 74
-5.422464e-01 6.235100e-01 3.555023e+00 77 77 74
-1.646093e+00 6.043525e-01 3.460821e+00 153 153 160
5.489545e-02 1.127167e+00 3.539172e+00 69 68 72
-1.603144e+00 1.114239e+00 3.419925e+00 111 109 121
1.280618e+00 1.592247e+00 3.420997e+00 124 125 146
-1.262434e+00 1.271004e+00 3.338866e+00 129 135 136
-1.035700e+00 1.750134e+00 3.339075e+00 107 108 112
9.513305e-01 2.255627e+00 3.355599e+00 88 89 94
6.541948e-01 2.290389e+00 3.469803e+00 84 84 84
-1.222704e+00 2.090477e+00 3.298596e+00 103 103 101
-1.222704e+00 2.090477e+00 3.298596e+00 103 103 101
1.082851e+00 2.605739e+00 3.333124e+00 114 107 141
-1.573744e+00 -6.491389e-01 7.262374e+00 142 141 139
-1.619506e+00 -7.040747e-01 6.946590e+00 50 64 40
-1.619506e+00 -7.040747e-01 6.946590e+00 50 64 40
-1.316260e+00 -7.233386e-01 6.985765e+00 134 135 139
-1.649871e+00 -6.922080e-01 6.938621e+00 2 12 3
-1.615835e+00 -6.931464e-01 6.944928e+00 62 75 61
-1.655218e+00 -6.905831e-01 6.937473e+00 0 9 6
-1.646430e+00 -6.866843e-01 6.932822e+00 22 32 27
-1.634437e+00 -6.854773e-01 6.937910e+00 72 94 57
-1.390882e+00 -6.963273e-01 6.897742e+00 73 90 5
-1.582108e+00 -9.706800e-01 3.820549e+00 129 131 136
3.127995e-01 -1.002581e+00 3.978326e+00 136 137 139
1.101154e+00 -1.014171e+00 4.011043e+00 79 79 81
6.361678e-01 -8.988655e-01 3.788479e+00 76 72 69
-9.508048e-01 -8.182646e-01 3.780270e+00 60 56 55
-2.760083e-01 -7.121583e-01 3.725984e+00 51 45 49
9.707999e-01 -7.022636e-01 3.886914e+00 159 158 159
-1.344330e-01 -5.354173e-01 3.827768e+00 151 150 148
-9.610775e-01 -4.918917e-01 3.809569e+00 82 83 78
3.327791e-01 -4.188610e-01 3.829533e+00 63 62 68
4.351587e-01 -4.043281e-01 3.840997e+00 70 68 69
-5.862206e-01 -2.284358e-01 3.788657e+00 122 117 113
7.278067e-01 -1.295319e-01 3.777635e+00 149 159 161
8.058108e-01 -6.921838e-02 3.765092e+00 148 148 148
-1.444888e+00 -1.188178e-01 3.733895e+00 149 152 157
1.541586e+00 1.294764e-01 3.630316e+00 250 254 255
-3.531395e-01 8.374464e-02 3.541650e+00 35 36 39
6.835125e-01 1.742863e-01 3.553059e+00 73 72 68
6.957679e-01 1.793172e-01 3.627285e+00 88 89 84
-3.273771e-01 1.360390e-01 3.542497e+00 39 42 48
-2.462593e-01 1.861007e-01 3.541655e+00 151 151 152
9.349910e-01 2.965394e-01 3.607936e+00 81 77 68
7.846032e-01 3.344935e-01 3.565307e+00 89 92 94
-9.673163e-01 2.120083e-01 3.562496e+00 133 126 119
8.259289e-01 3.614556e-01 3.575879e+00 97 98 100
-1.191157e+00 2.192100e-01 3.565934e+00 83 80 73
-2.027561e-01 4.490806e-01 3.504322e+00 49 47 57
-8.416739e-02 4.824514e-01 3.486023e+00 93 88 82
-1.383493e-01 4.740391e-01 3.553065e+00 86 81 77
-2.069861e-01 4.774200e-01 3.545380e+00 89 85 81
-1.201599e+00 3.944323e-01 3.561584e+00 93 89 86
-1.078657e+00 4.546917e-01 3.560444e+00 130 125 119
-4.372239e-01 5.213812e-01 3.556281e+00 91 91 91
-1.239327e-01 5.902808e-01 3.591099e+00 89 90 85
3.564366e-02 6.504253e-01 3.584817e+00 81 80 78
-5.119832e-01 6.237386e-01 3.554897e+00 74 72 72
-3.562089e-01 6.420089e-01 3.555503e+00 135 134 130
-7.903067e-01 5.989418e-01 3.578590e+00 67 68 63
3.418275e-01 7.231947e-01 3.636392e+00 89 88 86
-9.831764e-01 6.080432e-01 3.559409e+00 69 67 71
7.858933e-01 9.046850e-01 3.513588e+00 44 43 47
7.353187e-01 1.117346e+00 3.516084e+00 136 137 133
-1.470437e+00 -5.818383e-02 6.664568e+00 115 112 129
2.739797e-02 1.065736e+00 3.530701e+00 69 68 76
-7.700457e-03 1.137036e+00 3.495890e+00 75 73 78
-3.312121e-01 1.085031e+00 3.539860e+00 101 99 102
8.179746e-01 1.338580e+00 3.517631e+00 140 141 134
8.179746e-01 1.338580e+00 3.517631e+00 140 141 134
-1.392291e+00 1.060644e+00 3.516720e+00 142 143 138
-1.610908e+00 1.113455e+00 3.420215e+00 108 104 119
-1.041100e+00 1.336227e+00 3.376414e+00 97 101 104
-1.310479e+00 1.414020e+00 3.344886e+00 94 99 105
-7.920334e-01 1.561677e+00 3.375962e+00 104 105 104
6.904096e-01 2.274833e+00 3.321171e+00 101 102 104
1.061402e+00 2.567574e+00 3.340077e+00 243 251 250
-1.577893e+00 -6.453314e-01 7.282494e+00 222 220 225
-1.576113e+00 -6.455623e-01 7.278341e+00 129 126 126
-1.441819e+00 -6.690772e-01 7.219554e+00 220 218 220
-1.342129e+00 -7.240503e-01 7.008723e+00 124 123 138
-1.567083e+00 -7.074588e-01 6.976098e+00 128 132 133
-1.423294e+00 -7.170054e-01 6.989928e+00 62 63 65
-1.293984e+00 -7.230360e-01 6.994528e+00 73 74 76
-1.822806e+00 -6.887773e-01 6.895698e+00 53 67 44
-1.670728e+00 -6.903294e-01 6.930008e+00 46 57 41
-1.658610e+00 -6.893706e-01 6.932083e+00 9 14 0
-1.618777e+00 -6.893675e-01 6.942940e+00 82 96 68
-1.660465e+00 -6.858009e-01 6.938176e+00 68 93 35
-1.632565e+00 -6.891838e-01 6.937692e+00 2 15 0
-1.663187e+00 -6.843903e-01 6.935272e+00 22 36 16
-1.562257e+00 -6.890446e-01 6.942408e+00 14 20 16
-1.409668e+00 -6.975191e-01 6.947731e+00 103 125 91
-1.312896e+00 -7.025881e-01 6.955068e+00 142 154 121
-1.285860e+00 -7.003356e-01 6.950506e+00 58 71 46
-1.313864e+00 -1.188636e+00 3.668693e+00 33 34 38
-1.026636e+00 -1.154578e+00 3.721970e+00 105 107 106
6.412684e-01 -1.096131e+00 3.845211e+00 56 56 54
3.123540e-01 -1.013958e+00 3.979667e+00 130 131 133
1.194990e+00 -9.856988e-01 4.029936e+00 91 92 94
-2.790240e-01 -9.910369e-01 3.641874e+00 68 65 61
-2.108668e-01 -9.904335e-01 3.643475e+00 73 74 69
-1.209481e+00 -8.807122e-01 3.717473e+00 55 55 48
8.258729e-02 -8.431676e-01 3.842950e+00 52 51 47
-1.432097e-01 -7.416626e-01 3.702796e+00 116 116 111
4.107479e-02 -6.608031e-01 3.844744e+00 94 90 92
-3.739895e-01 -6.469332e-01 3.814230e+00 75 74 69
9.425176e-01 -4.226816e-01 3.863770e+00 144 143 149
3.376766e-01 -2.319240e-01 3.830226e+00 107 104 99
6.770127e-01 2.279296e-01 3.599365e+00 124 123 119
1.320313e-02 2.430865e-01 3.499894e+00 168 172 175
-9.494293e-02 2.730719e-01 3.521871e+00 169 173 174
-2.224770e-01 3.010873e-01 3.510709e+00 57 57 64
-1.015191e+00 2.361609e-01 3.594639e+00 155 156 150
4.693219e-01 3.747273e-01 3.579637e+00 97 96 92
-5.411214e-01 4.233743e-01 3.581011e+00 78 78 78
-1.758208e-01 4.811281e-01 3.476197e+00 130 127 118
-8.929449e-01 4.052436e-01 3.589269e+00 72 72 72
-1.216913e+00 3.952822e-01 3.592113e+00 83 82 76
-3.220122e-01 5.006855e-01 3.566865e+00 142 139 134
5.417466e-01 6.055502e-01 3.566785e+00 91 90 88
1.368514e+00 1.385697e+00 3.484819e+00 61 59 64
-1.295939e+00 1.063024e+00 3.483277e+00 85 82 77
-1.494201e+00 2.199323e+00 3.315957e+00 138 126 162
-1.445110e+00 -6.689190e-01 7.219036e+00 164 164 163
-1.353508e+00 -7.224300e-01 7.009734e+00 117 114 137
-1.321913e+00 -7.243847e-01 7.013573e+00 214 214 221
-1.565734e+00 -7.086276e-01 6.975311e+00 55 58 64
-1.590845e+00 -7.125243e-01 6.949924e+00 72 73 77
-1.311894e+00 -7.290675e-01 6.985938e+00 54 53 58
-1.316642e+00 -7.260332e-01 6.989247e+00 45 45 47
-1.332841e+00 -7.207503e-01 6.996891e+00 73 72 77
-1.332841e+00 -7.207503e-01 6.996891e+00 73 72 77
-1.651647e+00 -6.949717e-01 6.941197e+00 54 67 47
-1.652458e+00 -6.928553e-01 6.937955e+00 54 78 48
-1.823222e+00 -6.839023e-01 6.898540e+00 6 18 6
-1.666417e+00 -6.890118e-01 6.933189e+00 14 27 10
-1.632817e+00 -6.872030e-01 6.935974e+00 10 23 5
-1.599392e+00 -6.866847e-01 6.939568e+00 31 43 34
-1.613785e+00 -6.860448e-01 6.936044e+00 116 128 89
-1.604969e+00 -6.884839e-01 6.931077e+00 65 76 60
-1.412905e+00 -6.929610e-01 6.956010e+00 54 59 34
-1.311682e+00 -6.982804e-01 6.966059e+00 74 80 66
-1.403029e+00 -6.923392e-01 6.948458e+00 171 184 100
-1.558036e+00 -6.910081e-01 6.902943e+00 85 98 15
-1.638260e+00 -6.873047e-01 6.887792e+00 127 143 85
-1.307560e+00 -6.963554e-01 6.960970e+00 178 192 103
-1.271226e+00 -7.034262e-01 6.945771e+00 87 90 53
-1.389398e+00 -6.931347e-01 6.908912e+00 170 179 111
-1.143701e+00 -1.140513e+00 3.726265e+00 43 44 46
-1.033278e+00 -1.064273e+00 3.718466e+00 67 67 67
-8.697683e-01 -1.037972e+00 3.768635e+00 78 77 75
-2.440582e-01 -9.699589e-01 3.770840e+00 56 56 54
-7.026609e-01 -9.171028e-01 3.902702e+00 137 136 141
-1.296677e+00 -8.916250e-01 3.761722e+00 92 93 88
1.096777e-01 -8.665842e-01 3.799215e+00 133 129 126
-1.295529e+00 -8.178828e-01 3.761348e+00 52 51 47
-9.490748e-01 -7.880365e-01 3.790417e+00 66 61 57
4.309876e-01 -4.631090e-01 3.835984e+00 83 82 75
-1.609964e+00 -1.063023e-01 3.594839e+00 89 90 94
-9.377906e-01 2.437769e-01 3.579288e+00 127 121 109
-8.238365e-01 2.876627e-01 3.609014e+00 91 89 90
4.538458e-01 5.431044e-01 3.567216e+00 76 75 71
7.006898e-02 5.957404e-01 3.607317e+00 87 86 84
-1.581534e+00 8.406227e-01 3.465789e+00 93 91 92
1.226571e+00 2.264949e+00 3.374675e+00 132 125 156
-1.555419e+00 -6.964024e-01 7.018360e+00 59 81 96
-1.415809e+00 -7.167198e-01 6.984755e+00 74 75 79
-1.819650e+00 -6.849478e-01 6.892940e+00 68 81 63
-1.588508e+00 -6.900994e-01 6.944181e+00 56 79 54
-1.399440e+00 -6.938483e-01 6.955155e+00 62 68 49
-1.296343e+00 -6.961002e-01 6.964300e+00 163 170 146
2.560758e-01 -1.109851e+00 3.944681e+00 130 134 135
-1.596573e+00 5.400339e-01 3.547033e+00 117 116 112
-1.483985e+00 2.547734e-01 3.682298e+00 154 159 162
-8.543387e-01 -1.189404e+00 3.817047e+00 61 59 61
-4.409945e-01 5.681769e-01 3.555227e+00 144 148 149
8.175877e-01 7.632828e-01 3.557453e+00 138 147 146
-2.982522e-01 2.520405e-01 3.511368e+00 51 53 66
-6.567193e-02 4.358271e-01 3.478106e+00 58 61 66
-1.095267e+00 3.629213e-01 3.560513e+00 140 143 136
1.021014e+00 -1.202161e+00 3.559123e+00 111 111 111
-1.271922e+00 9.464958e-03 3.600879e+00 46 52 66
-4.489658e-02 1.115926e+00 3.485169e+00 73 71 72
-1.657264e+00 9.956486e-01 3.406937e+00 254 254 254
1.925522e-01 -1.215009e+00 3.811650e+00 114 114 115
-2.952851e-02 2.793325e-01 3.532552e+00 138 140 141
-1.112137e+00 9.968721e-01 3.468567e+00 152 151 146
-1.222356e+00 1.018990e+00 3.468164e+00 35 33 36
4.456640e-01 1.264597e+00 3.568171e+00 112 112 112
-1.424542e+00 -9.694078e-01 3.902234e+00 73 73 72
-6.808202e-01 -9.155597e-01 3.926961e+00 124 132 140
-1.371007e+00 -2.746559e-01 3.751443e+00 44 43 41
6.773879e-01 1.481303e-01 3.547922e+00 127 126 122
-3.426081e-03 2.162888e-01 3.508909e+00 146 150 136
-2.811912e-01 3.304105e-01 3.525720e+00 144 146 143
-1.681491e+00 2.807774e-01 3.435817e+00 253 255 252
1.397340e+00 6.751160e-01 3.546972e+00 136 135 139
-1.204360e+00 7.455240e-01 3.487257e+00 131 131 133
-1.291090e+00 -8.029474e-01 3.757432e+00 109 108 106
-4.325476e-01 -4.211112e-01 3.795996e+00 118 118 118
-1.131736e+00 -3.200580e-01 3.768432e+00 123 123 123
-1.131641e+00 -3.200885e-01 3.767911e+00 123 123 123
-4.014819e-01 -3.036061e-01 3.794585e+00 116 118 117
2.755718e-01 2.504993e-01 3.768145e+00 92 94 93
-8.407510e-01 3.107106e-01 3.605866e+00 102 99 92
-9.876647e-01 1.168831e+00 3.485291e+00 27 25 38
-1.151795e+00 -7.871917e-01 3.726353e+00 60 59 55
-1.194764e+00 -7.326827e-01 3.757513e+00 51 50 46
-1.553766e-01 -4.772572e-01 3.817084e+00 95 91 92
2.569976e-01 -3.150451e-01 3.808564e+00 62 62 62
-4.478616e-01 1.166316e-01 3.529413e+00 134 139 142
-4.799799e-01 2.611239e-01 3.557072e+00 129 129 127
8.531297e-01 3.898065e-01 3.562351e+00 103 105 106
7.073121e-01 4.280787e-01 3.549721e+00 88 89 84
-1.187377e+00 3.228297e-01 3.702693e+00 130 131 125
-1.054788e+00 4.108598e-01 3.533342e+00 69 66 54
-9.935393e-01 4.428218e-01 3.599290e+00 151 149 140
-8.894524e-02 6.497815e-01 3.541202e+00 81 81 73
-1.329900e+00 5.654399e-01 3.551752e+00 68 67 61
-1.075071e+00 5.946298e-01 3.556623e+00 150 147 138
-6.781058e-01 6.389606e-01 3.621487e+00 73 70 64
6.851883e-01 1.146313e+00 3.510840e+00 66 66 65
-1.116017e+00 -1.165310e+00 3.748635e+00 34 34 38
-1.126919e+00 -1.154849e+00 3.743615e+00 105 107 103
-3.167080e-01 -1.097058e+00 3.639607e+00 74 75 70
7.537457e-01 -1.122835e+00 3.666010e+00 71 69 72
7.529571e-01 -1.118707e+00 3.663180e+00 71 69 72
2.802156e-01 -1.059511e+00 3.929674e+00 70 70 72
-1.233523e+00 -9.260146e-01 3.719898e+00 44 45 40
-1.267683e+00 -8.423607e-01 3.742405e+00 46 46 44
-8.936863e-02 -7.732481e-01 3.699812e+00 106 102 98
-1.053897e+00 -7.288278e-01 3.803526e+00 58 56 52
-1.019694e-01 -5.561154e-01 3.844561e+00 152 150 151
-1.425458e+00 -4.782244e-01 3.753691e+00 102 112 114
-1.368853e+00 -4.646463e-01 3.749886e+00 140 149 152
-1.546391e+00 -4.604368e-01 3.762301e+00 135 145 148
1.162198e+00 -3.904187e-01 3.916964e+00 140 141 145
-2.818508e-01 -2.512841e-01 3.818374e+00 139 135 132
7.419538e-01 -6.514191e-02 3.773079e+00 73 73 73
-1.513202e+00 -1.341878e-01 3.726157e+00 64 62 63
7.018637e-01 8.485481e-02 3.610236e+00 147 149 146
1.019218e+00 1.889582e-01 3.550453e+00 73 72 70
7.733065e-01 2.143803e-01 3.575126e+00 87 86 84
-1.329370e+00 1.287124e-01 3.572376e+00 86 86 84
5.356114e-01 2.859010e-01 3.550789e+00 84 80 69
-1.176474e+00 1.739584e-01 3.554344e+00 123 119 108
-1.024756e+00 1.943841e-01 3.576995e+00 83 79 70
-1.299318e+00 1.823996e-01 3.570794e+00 79 78 73
-1.168362e+00 2.111765e-01 3.572940e+00 73 69 58
8.076707e-01 3.590571e-01 3.582220e+00 137 143 140
2.184874e-01 3.746705e-01 3.578770e+00 100 100 100
-1.174362e+00 2.977156e-01 3.562452e+00 76 79 84
-2.551055e-01 4.765910e-01 3.484714e+00 79 72 62
7.097913e-01 5.663308e-01 3.648334e+00 109 106 98
-2.753982e-01 4.963154e-01 3.552593e+00 91 87 76
6.490927e-01 5.643634e-01 3.645699e+00 110 108 95
-1.177490e+00 4.476933e-01 3.539881e+00 85 84 81
-4.373973e-01 5.201042e-01 3.560215e+00 95 93 94
-2.128213e-01 6.029653e-01 3.590611e+00 140 138 134
-2.128213e-01 6.029653e-01 3.590611e+00 140 138 134
-6.678555e-02 6.326312e-01 3.622691e+00 94 91 87
-9.446821e-01 5.918123e-01 3.563842e+00 80 79 74
-9.447125e-01 5.915481e-01 3.564090e+00 80 79 74
2.244722e-01 7.021856e-01 3.649041e+00 122 121 117
1.249146e+00 1.040215e+00 2.803304e+00 34 38 39
7.911903e-01 9.045447e-01 3.505543e+00 37 38 43
8.030463e-01 9.887062e-01 3.476447e+00 34 35 36
-8.747613e-01 9.783388e-01 3.501369e+00 148 147 143
-1.018119e+00 -1.152940e+00 3.724970e+00 69 71 69
-8.758013e-01 -1.119475e+00 3.770757e+00 73 72 70
3.367834e-01 -1.109817e+00 3.952887e+00 136 137 141
-1.185767e+00 -1.075019e+00 3.722580e+00 57 58 52
-1.220157e+00 -1.050093e+00 3.727498e+00 49 53 56
-5.212388e-01 -9.692685e-01 3.835466e+00 50 47 42
-9.337836e-01 -9.093593e-01 3.815367e+00 119 116 111
-1.258996e+00 -8.495689e-01 3.748152e+00 48 48 46
-1.080973e+00 -8.283772e-01 3.711555e+00 108 105 100
-1.200028e+00 -8.193787e-01 3.729669e+00 49 48 44
-1.200028e+00 -8.193787e-01 3.729669e+00 49 48 44
-5.009442e-01 -8.212729e-01 3.832826e+00 75 74 72
-1.154045e+00 -7.209793e-01 3.759632e+00 66 65 61
-1.407725e+00 -4.597112e-01 3.749263e+00 126 130 136
7.520386e-01 -4.177332e-01 3.858288e+00 80 81 85
9.175566e-01 -2.704473e-01 3.857199e+00 96 96 98
-1.449236e+00 -2.379499e-01 3.735970e+00 122 121 117
-1.043873e+00 2.104533e-01 3.595177e+00 151 155 152
-1.667000e+00 1.929656e-01 3.567914e+00 117 122 128
-4.106703e-01 3.761647e-01 3.531062e+00 35 28 28
-2.374496e-01 4.473803e-01 3.477525e+00 39 39 37
-2.675187e-01 6.502631e-01 3.538615e+00 136 135 132
6.335256e-01 1.119945e+00 3.503780e+00 149 148 144
-1.122887e+00 -1.243513e+00 3.748603e+00 77 78 80
-1.170263e+00 -1.139364e+00 3.749741e+00 67 69 66
-1.167380e+00 -1.055348e+00 3.719789e+00 58 58 56
-9.546626e-01 -1.031946e+00 3.706872e+00 73 73 73
-1.327503e+00 -9.525925e-01 3.749950e+00 86 87 82
-1.240837e+00 -8.704682e-01 3.736784e+00 97 97 95
-4.406452e-01 -2.896894e-01 3.780916e+00 124 122 123
-1.546838e+00 -2.749169e-01 3.749493e+00 121 120 117
-6.280334e-01 -2.132231e-01 3.801812e+00 118 115 108
-1.268905e+00 2.134887e-01 3.572470e+00 80 77 70
-1.217177e+00 6.921146e-02 3.561321e+00 60 64 76
-1.415474e+00 1.874755e+00 3.348752e+00 157 157 158
-7.902781e-01 2.036882e+00 3.316648e+00 141 137 138
-9.880846e-01 -3.222481e-01 3.768047e+00 130 129 127
-1.349084e-01 4.489237e-01 3.467208e+00 75 79 90
-1.464984e+00 3.424639e-01 3.635230e+00 74 73 73
5.710097e-01 2.044673e+00 3.296471e+00 52 50 63
-4.836424e-01 1.266393e+00 3.407166e+00 148 149 157
-8.150731e-01 1.401159e+00 3.320251e+00 125 125 125
7.582792e-01 2.073093e+00 3.303466e+00 49 47 61
1.675141e-01 -1.319114e+00 3.779179e+00 95 94 97
-1.403847e+00 -1.037180e+00 3.840460e+00 43 42 40
-8.171865e-01 1.504154e+00 3.314374e+00 136 135 133
-8.646942e-01 2.282195e+00 3.330090e+00 104 94 102
1.127501e-01 -1.232830e+00 3.704709e+00 102 101 106
5.330482e-01 -2.198599e-01 3.803801e+00 49 40 42
-2.167446e-01 -2.298804e-01 3.774450e+00 53 44 49
6.122629e-01 1.169768e+00 3.483653e+00 64 60 61
8.808386e-01 2.130735e+00 3.291076e+00 132 131 126
8.036903e-01 2.093336e+00 3.384656e+00 39 36 48
-7.722969e-01 2.068224e+00 3.329425e+00 108 101 109
-7.719723e-01 2.066498e+00 3.332101e+00 108 101 109
-1.414335e+00 -1.059488e+00 3.779363e+00 106 108 105
-4.625970e-01 -6.554712e-01 3.840266e+00 80 74 74
6.564712e-01 -3.597767e-01 3.830199e+00 75 71 72
-3.597714e-01 1.628578e-01 3.559866e+00 146 146 144
1.459477e+00 4.401366e-01 3.578265e+00 254 255 255
1.959739e-01 1.043080e+00 3.570451e+00 80 76 77
8.183957e-01 1.159060e+00 3.581872e+00 166 162 159
-1.080096e+00 1.023653e+00 3.463817e+00 144 144 141
-1.109236e+00 -9.508579e-01 3.705971e+00 69 69 69
-1.988580e-01 -6.734920e-01 3.722258e+00 107 102 88
-1.988580e-01 -6.734920e-01 3.722258e+00 107 102 88
4.150488e-02 -6.648047e-01 3.847468e+00 94 88 88
-3.332496e-01 -6.599292e-01 3.779328e+00 53 48 45
-3.332496e-01 -6.599292e-01 3.779328e+00 53 48 45
9.485221e-01 -3.976159e-01 3.872582e+00 122 120 123
1.018822e+00 -3.855853e-01 3.859707e+00 47 46 50
1.018822e+00 -3.855853e-01 3.859707e+00 47 46 50
-2.556035e-01 -2.896154e-01 3.822388e+00 126 123 122
-4.889194e-01 2.163757e-01 3.533941e+00 58 55 63
-1.758152e-01 2.509867e-01 3.536008e+00 150 152 154
9.238833e-01 4.598127e-01 3.653180e+00 147 144 139
-1.054260e+00 3.174870e-01 3.525408e+00 68 67 65
-1.086154e+00 3.167693e-01 3.523895e+00 72 71 65
-1.166761e+00 3.489914e-01 3.559555e+00 135 132 127
-4.320904e-01 5.229657e-01 3.611558e+00 113 111 114
-1.046215e+00 1.026684e+00 3.468099e+00 155 152 143
-1.557043e+00 1.846678e+00 3.289348e+00 253 253 255
7.467542e-01 2.298014e+00 3.485245e+00 78 76 77
-1.547574e+00 1.941739e+00 3.296495e+00 252 254 252
8.436588e-01 2.332414e+00 3.527059e+00 83 82 80
-8.198245e-01 2.113137e+00 3.323552e+00 100 94 98
-9.298929e-01 2.125922e+00 3.310281e+00 158 154 151
-1.198212e+00 2.195518e+00 3.297551e+00 133 129 128
-6.726124e-01 -1.103413e+00 3.906342e+00 123 127 131
-2.307053e-01 -9.852487e-01 3.639673e+00 66 65 62
-1.165506e+00 -8.513914e-01 3.708769e+00 54 50 47
-1.165506e+00 -8.513914e-01 3.708769e+00 54 50 47
-1.128050e+00 -6.988182e-01 3.759279e+00 106 103 98
-1.635805e-01 -6.782061e-01 3.795402e+00 60 55 52
-4.310927e-01 3.470201e-02 3.555023e+00 46 45 60
-4.774376e-01 1.681527e-01 3.536433e+00 42 43 48
-1.841922e-01 2.328892e-01 3.497649e+00 128 129 122
6.112227e-01 2.832401e-01 3.596278e+00 76 67 62
-1.285545e+00 1.973074e-01 3.573107e+00 80 75 68
-1.073969e+00 2.403317e-01 3.580853e+00 92 92 94
9.087469e-01 6.221543e-01 3.649597e+00 98 92 92
-1.054103e-01 5.819629e-01 3.608880e+00 102 101 99
-1.284227e+00 9.391743e-01 3.458965e+00 44 42 48
-1.282667e+00 9.497572e-01 3.458238e+00 158 156 156
7.474134e-01 1.335293e+00 3.505000e+00 124 121 116
-1.168627e+00 1.078800e+00 3.469585e+00 97 93 84
-1.658252e+00 1.117738e+00 3.413769e+00 251 251 252
-1.433136e+00 1.162627e+00 3.502750e+00 153 152 149
-9.755218e-01 1.873152e+00 3.273427e+00 147 145 149
-1.373963e+00 -1.045509e+00 3.748911e+00 106 105 101
-2.793849e-01 -9.899979e-01 3.640708e+00 69 61 58
-7.601211e-01 -9.173515e-01 3.888307e+00 129 131 143
-1.100361e+00 -8.140397e-01 3.709399e+00 102 97 93
3.413727e-01 -4.289417e-01 3.833118e+00 142 143 145
-1.239379e+00 -3.421291e-01 3.768968e+00 118 118 118
-8.188614e-01 -2.931521e-01 3.766187e+00 67 63 60
-4.570876e-01 9.985639e-02 3.532797e+00 45 43 54
-1.136971e+00 1.883627e-01 3.577252e+00 76 71 67
-8.629610e-01 2.183305e-01 3.575254e+00 86 80 73
-8.348047e-01 3.017843e-01 3.601790e+00 148 148 140
5.105701e-01 4.779000e-01 3.596931e+00 100 97 92
-2.755580e-01 4.523113e-01 3.525497e+00 67 62 59
-3.277179e-01 6.440954e-01 3.553325e+00 144 144 146
-1.303305e+00 7.963157e-01 3.465280e+00 150 152 151
-1.111183e+00 -1.205654e+00 3.747932e+00 57 58 60
-1.035989e+00 -1.062882e+00 3.725768e+00 62 61 62
-6.954459e-01 -1.018173e+00 3.898012e+00 87 86 91
-1.236316e+00 -9.176936e-01 3.717153e+00 86 85 81
-4.530191e-01 -7.095027e-01 3.813939e+00 118 114 111
-2.253575e-01 -6.123854e-01 3.774290e+00 63 57 54
-2.358924e-01 -3.200931e-01 3.794612e+00 82 81 77
-6.521478e-01 -9.644547e-02 3.750117e+00 77 75 76
-1.506447e+00 2.135973e-01 3.693916e+00 151 155 158
7.886160e-01 2.688904e+00 3.213739e+00 204 230 255
-1.204422e+00 -5.315482e-02 3.694686e+00 64 63 77
3.625936e-01 2.258229e+00 3.388440e+00 132 135 144
2.591679e+00 -1.237348e+00 3.462517e+00 112 116 127
-1.533436e+00 -2.278283e-02 3.799147e+00 175 174 188
-1.345057e+00 2.342454e+00 3.185134e+00 137 140 155
-1.345057e+00 2.342454e+00 3.185134e+00 137 140 155
-6.182413e-01 3.416244e-01 8.156691e+00 39 40 70
-1.566427e+00 -2.738923e-01 3.733168e+00 44 39 45
-5.151199e-01 1.087650e-01 3.630042e+00 162 160 165
-1.459150e+00 5.007416e-01 3.481622e+00 181 180 194
9.485013e-01 9.154052e-01 3.548055e+00 151 151 159
-1.369016e+00 1.930840e+00 3.288755e+00 82 80 94
-1.604504e+00 -1.152131e+00 3.930866e+00 174 172 183
-1.381260e+00 -3.159373e-01 3.897667e+00 150 147 156
-7.464941e-01 1.145561e+00 3.350717e+00 59 56 67
-9.519061e-01 1.476647e+00 3.383088e+00 14 12 23
-7.406895e-01 2.037967e+00 3.269155e+00 65 64 78
2.621216e+00 -7.540264e-01 3.443344e+00 83 95 117
-1.670869e+00 -4.332419e-01 4.095003e+00 92 91 99
7.085167e-01 -4.787703e-01 3.847425e+00 98 96 101
-1.535362e+00 2.270047e-01 3.650672e+00 186 190 202
-1.623261e+00 5.309897e-01 3.471685e+00 118 127 145
-2.026971e-01 6.359691e-01 3.547567e+00 83 82 88
-1.414731e+00 6.224300e-01 3.433008e+00 163 165 177
-1.485139e+00 8.634652e-01 3.364437e+00 166 164 175
-1.253106e+00 1.253981e+00 3.338761e+00 134 136 149
4.524943e-01 1.625436e+00 3.467052e+00 17 15 28
5.178036e-01 1.775836e+00 3.486559e+00 19 21 34
4.101978e-01 2.022467e+00 3.464993e+00 30 29 38
2.104374e-01 2.086745e+00 3.335233e+00 60 59 73
-6.241028e-01 2.324990e+00 3.356975e+00 196 219 250
2.951043e-01 2.470712e+00 3.317283e+00 130 133 152
-1.556273e+00 -9.712410e-01 3.884091e+00 167 161 171
-1.575607e+00 -4.367661e-01 3.739195e+00 105 99 109
-9.988271e-01 -4.156261e-01 3.792732e+00 149 138 143
-1.314393e-01 -2.967609e-01 3.837408e+00 157 150 157
-1.314393e-01 -2.967609e-01 3.837408e+00 157 150 157
-1.645289e+00 -2.544688e-01 4.016974e+00 64 61 67
7.734285e-02 3.409282e-02 3.597943e+00 74 72 85
-4.677080e-01 1.497655e-01 3.641547e+00 65 62 73
-1.506086e+00 1.504182e-01 3.642947e+00 134 133 147
-1.546135e+00 1.565114e-01 3.650030e+00 189 188 202
-5.809980e-02 2.561633e-01 3.592731e+00 61 59 70
-1.217116e+00 7.745591e-01 3.513946e+00 147 144 153
-1.217116e+00 7.745591e-01 3.513946e+00 147 144 153
-8.472928e-01 1.360110e+00 3.390682e+00 18 17 35
5.120075e-01 1.831347e+00 3.500773e+00 28 27 43
1.085798e+00 2.557681e+00 3.427686e+00 205 224 254
-7.402809e-01 -9.592873e-01 3.987141e+00 163 158 165
2.891328e+00 -9.173614e-01 3.509457e+00 130 138 159
-1.498918e+00 -4.685012e-01 3.770441e+00 151 149 160
-1.496464e+00 -4.660480e-01 3.770869e+00 151 149 160
-1.108544e+00 -4.159302e-01 4.008398e+00 164 157 168
1.207637e+00 4.512206e-01 3.684242e+00 185 185 193
-7.865023e-01 4.925119e-01 3.565763e+00 154 149 157
7.021568e-01 1.184822e+00 3.514384e+00 23 20 26
7.779330e-01 1.522665e+00 3.508529e+00 5 4 21
8.111288e-01 1.809350e+00 3.501954e+00 9 8 26
-1.139903e+00 1.702052e+00 3.414509e+00 19 21 34
4.893142e-01 2.021499e+00 3.435575e+00 77 80 99
-5.528758e-01 3.131319e-02 8.064216e+00 99 102 111
2.829779e-01 -1.008276e+00 4.004662e+00 173 168 175
-1.334283e+00 -8.246333e-01 3.842765e+00 101 91 92
4.563370e-01 -3.682854e-01 3.916730e+00 164 153 161
-7.638237e-01 2.054727e-02 3.712655e+00 179 175 182
1.451087e+00 9.697614e-02 3.692336e+00 171 171 181
1.322794e+00 1.243327e-01 3.702508e+00 94 93 101
-3.659479e-02 8.150988e-02 3.596668e+00 170 167 178
-1.117567e+00 1.169616e-01 3.645267e+00 135 126 137
-5.150321e-01 5.062515e-01 3.583805e+00 103 100 109
5.784016e-01 1.059826e+00 3.507977e+00 26 23 30
-7.455277e-01 1.172358e+00 3.371704e+00 41 43 55
8.136683e-01 2.143888e+00 3.444652e+00 126 126 136
-1.411418e+00 2.090824e+00 3.252927e+00 156 156 168
-1.411418e+00 2.090824e+00 3.252927e+00 156 156 168
8.573383e-02 2.244552e+00 3.373081e+00 102 121 151
-1.340705e+00 2.396405e+00 3.269275e+00 151 167 193
-9.010573e-01 -9.948660e-01 4.301659e+00 155 148 153
2.537881e+00 -1.156523e+00 3.399954e+00 88 90 106
2.625545e+00 -8.431126e-01 3.405205e+00 65 80 100
-6.124245e-02 -6.053984e-01 3.940377e+00 96 87 93
-6.977118e-01 -3.201373e-01 3.776911e+00 167 162 166
-2.267030e-01 -2.597952e-01 3.846527e+00 80 71 74
1.205778e+00 -5.130579e-02 3.759619e+00 121 119 129
1.740418e-01 6.166466e-01 3.586328e+00 86 81 87
-6.267384e-01 9.812937e-01 3.433201e+00 107 106 112
5.367103e-01 1.242763e+00 3.489793e+00 127 124 132
-7.601504e-01 1.171591e+00 3.516131e+00 118 116 127
-8.200768e-01 1.490816e+00 3.360632e+00 146 146 158
4.239589e-01 1.640814e+00 3.487329e+00 24 23 37
-1.092224e+00 1.814706e+00 3.305676e+00 144 144 154
-8.105336e-01 2.144072e+00 3.280333e+00 167 170 179
-1.032807e+00 2.186636e+00 3.261959e+00 59 55 70
-7.651368e-01 2.356479e+00 3.236465e+00 208 214 240
-1.333600e+00 2.464982e+00 3.156810e+00 112 138 165
-8.807620e-01 1.757202e-01 8.395036e+00 100 97 106
-1.033764e+00 -1.032269e+00 4.041542e+00 80 66 68
-4.644877e-01 -1.013408e+00 3.966142e+00 88 77 73
-7.254576e-01 -9.400264e-01 3.961913e+00 97 92 99
-2.956849e+00 5.836779e-01 8.406736e+00 113 120 136
-9.447412e-01 -4.724543e-01 3.793886e+00 158 155 164
-1.772894e-01 -4.092307e-01 3.826457e+00 141 135 139
-1.175859e+00 -1.391525e-01 3.719002e+00 69 63 73
-3.800125e-01 -3.226875e-02 3.692541e+00 64 63 71
-1.129547e+00 2.068643e-01 3.602294e+00 88 85 92
-2.290295e-01 5.151861e-01 3.566863e+00 128 119 124
-5.188778e-01 5.728976e-01 3.581046e+00 79 76 85
-1.739847e-02 6.495924e-01 3.593129e+00 83 81 87
-1.156001e+00 7.708732e-01 3.467229e+00 166 165 173
-1.104723e+00 2.089700e+00 3.270648e+00 152 155 165
-2.991587e+00 4.382116e-03 7.674780e+00 120 105 109
-2.876642e+00 -8.003679e-01 3.789052e+00 81 87 109
-1.522467e+00 -4.782394e-01 3.758347e+00 82 80 91
-9.767435e-01 -4.584560e-01 3.793597e+00 99 95 102
-5.351635e-01 -4.507155e-01 3.826316e+00 160 155 161
-1.001966e+00 -4.549157e-01 3.808041e+00 102 95 103
-8.423516e-01 -4.511920e-01 3.796910e+00 75 72 79
-3.301991e-01 -4.235079e-01 3.820063e+00 111 106 112
-7.606854e-01 -9.861131e-02 3.734585e+00 87 84 91
-7.067442e-01 9.571932e-02 3.699365e+00 86 86 93
-4.843358e-01 1.021371e-01 3.643924e+00 86 83 92
-4.708531e-01 1.153360e-01 3.612546e+00 170 167 176
-1.011862e+00 2.917553e-01 3.617370e+00 110 109 117
-8.741188e-01 3.936726e-01 3.600784e+00 113 110 117
-1.246105e+00 3.880273e-01 3.586509e+00 162 160 165
-2.901731e-01 4.596185e-01 3.532995e+00 72 63 64
-1.323859e+00 4.552277e-01 3.570677e+00 114 111 118
-7.324288e-01 6.508079e-01 3.594868e+00 136 130 140
-9.933724e-01 8.942670e-01 3.487832e+00 99 96 105
-1.504425e+00 9.744715e-01 3.489387e+00 176 177 183
-1.307198e+00 1.477982e+00 3.362587e+00 108 110 122
-1.286117e+00 1.510352e+00 3.355171e+00 108 110 123
-3.001887e+00 -5.159357e-02 7.569212e+00 159 152 66
-1.034026e+00 -5.355361e-01 3.808400e+00 186 181 188
-5.449497e-01 -4.736848e-01 3.817968e+00 89 86 93
-6.948737e-02 -4.325659e-01 3.847822e+00 161 158 165
-2.982397e+00 7.573402e-01 8.897466e+00 192 198 233
-2.976169e+00 6.871202e-01 8.481329e+00 163 195 232
-3.034115e+00 6.147537e-01 7.916460e+00 109 128 160
-1.009969e+00 5.919096e-02 3.632079e+00 169 167 172
-1.529059e+00 6.142446e-01 6.800216e+00 48 45 56
-1.924117e-01 2.185765e-01 3.539704e+00 51 48 57
-2.425976e-01 -4.288353e-01 3.825696e+00 139 134 140
2.089062e-01 -3.418637e-01 3.867298e+00 150 144 152
-2.974936e+00 7.600870e-01 8.889582e+00 181 201 236
-2.990952e+00 6.962299e-01 8.478765e+00 101 117 151
-7.226420e-01 -2.483763e-01 3.765986e+00 46 37 42
-2.137934e-01 2.071442e-01 3.568066e+00 61 56 65
7.869762e-01 -1.205937e+00 3.903703e+00 138 134 134
-2.931927e-03 -4.028116e-01 3.768214e+00 175 170 176
5.250426e-01 -4.252847e-01 3.732982e+00 65 60 66
-6.786240e-01 1.558288e-01 3.702894e+00 143 145 158
-1.337817e+00 2.046666e-01 3.765036e+00 109 107 118
-3.329968e-01 2.913162e-01 3.734948e+00 96 100 112
-1.343864e+00 -8.136118e-01 3.860132e+00 179 173 175
-1.521517e+00 -1.420045e-01 3.756854e+00 141 141 153
3.346254e-01 2.039701e-01 3.668207e+00 184 183 191
-8.360553e-01 2.816819e-01 3.746418e+00 90 89 95
-1.155375e+00 -5.341207e-01 3.816679e+00 206 204 208
-1.015076e+00 1.533290e-01 3.713530e+00 96 87 92
-1.241296e+00 -5.938668e-01 3.842613e+00 204 199 205
-1.322606e+00 -3.513094e-01 3.792578e+00 98 98 106
-4.653462e-01 -3.696856e-01 3.799476e+00 89 85 82
-6.549121e-01 -3.501872e-01 3.788783e+00 84 83 81
-5.357432e-01 2.122172e-01 3.596472e+00 108 107 105
-1.435678e+00 -3.494482e-01 3.747246e+00 101 106 109
-1.576079e+00 -3.006817e-01 3.735368e+00 39 35 34
-3.541252e-01 1.411735e-01 3.571517e+00 113 116 109
-3.037610e-01 2.903654e-01 3.529478e+00 118 119 123
6.580213e-01 -2.476098e-01 3.795865e+00 27 23 22
-2.161188e-01 -2.533436e-01 3.779733e+00 93 88 82
-6.492649e-01 -1.664231e-01 3.777099e+00 111 115 116
-7.141514e-02 3.001090e-01 3.528059e+00 126 126 128
-1.146503e+00 2.317077e-01 3.594111e+00 109 109 108
3.507039e-01 -1.121539e+00 3.969507e+00 59 59 60
-7.226233e-01 -9.284379e-01 3.902418e+00 76 75 79
2.384897e-01 -3.934946e-01 3.819541e+00 103 104 106
-1.101511e+00 -3.433246e-01 3.771927e+00 86 85 85
9.343471e-02 -2.438142e-01 3.778100e+00 102 101 98
-3.209986e-01 -2.607669e-01 3.799169e+00 83 79 78
-2.662569e-01 3.335015e-01 3.500988e+00 124 125 120
-2.730629e-01 4.386437e-01 3.529835e+00 100 96 85
-1.527420e-01 4.982180e-01 3.507352e+00 101 91 82
-1.527420e-01 4.982180e-01 3.507352e+00 101 91 82
-3.125001e-01 -3.404059e-01 3.794865e+00 113 112 110
-9.618519e-01 -1.243506e-01 3.742752e+00 89 89 79
-3.480393e-01 -5.369866e-02 3.602958e+00 96 99 100
1.376491e-01 1.666286e-01 3.509430e+00 17 16 27
-1.130343e-01 2.083564e-01 3.519382e+00 122 123 122
-7.872709e-01 2.342500e-01 3.622216e+00 108 107 102
-8.153373e-01 2.958139e-01 3.564567e+00 67 60 52
-1.170703e-01 5.233453e-01 2.825262e+00 16 15 20
-1.205469e+00 4.432810e-01 3.562808e+00 122 124 123
-1.122115e+00 4.594193e-01 3.568630e+00 115 108 97
2.668073e-01 -1.006185e+00 3.958667e+00 50 50 52
1.167678e+00 -9.205948e-01 4.024713e+00 98 98 100
-9.375979e-02 -7.854744e-01 3.735018e+00 30 27 23
-4.093097e-01 -6.692331e-01 3.813628e+00 27 22 18
-1.442042e+00 -3.571916e-01 3.746982e+00 110 120 121
-4.571919e-01 1.160357e-01 3.545735e+00 98 99 105
-7.875161e-01 1.870661e-01 3.616012e+00 51 50 46
-1.010577e+00 3.969611e-01 3.554945e+00 112 111 89
-1.780565e-01 4.850101e-01 3.503075e+00 57 46 40
-9.773306e-01 4.427517e-01 3.576983e+00 123 121 114
-9.819561e-01 4.625470e-01 3.605292e+00 130 132 131
4.305664e-02 -9.149357e-01 3.807010e+00 27 22 19
-1.156418e+00 -6.989267e-01 3.757308e+00 82 79 72
-2.896073e-01 -6.274860e-01 3.806486e+00 21 16 12
-2.930576e-01 -5.903658e-01 3.816588e+00 24 19 15
-2.421147e-01 -5.712512e-01 3.804559e+00 89 81 77
-1.511129e+00 -1.335216e-01 3.723909e+00 30 29 25
-2.176098e-02 1.733094e-01 3.515916e+00 19 20 25
-1.526147e-01 2.493127e-01 3.517623e+00 26 26 34
-1.169146e+00 3.453106e-01 3.566314e+00 104 103 101
7.099868e-01 5.407562e-01 3.634988e+00 118 111 93
-2.900370e-01 5.093308e-01 3.567528e+00 110 108 92
-9.779837e-01 -9.876399e-01 3.706420e+00 80 79 75
-2.656028e-01 -9.862777e-01 3.642986e+00 37 33 32
1.002542e-02 -9.453686e-01 3.800129e+00 86 78 76
-3.087816e-02 -7.122423e-01 3.818737e+00 94 89 85
-2.335448e-01 -6.886844e-01 3.736975e+00 77 72 66
-3.742643e-01 -6.387242e-01 3.834086e+00 93 88 85
-2.310885e-01 -6.014237e-01 3.795238e+00 35 26 25
-1.239706e+00 -5.891456e-01 3.805637e+00 89 85 84
-3.650649e-01 -5.716163e-01 3.831182e+00 115 114 112
5.205608e-01 -4.283504e-01 3.826700e+00 111 114 116
-1.197726e+00 -4.608317e-01 3.790034e+00 109 110 115
-1.338342e+00 -4.356463e-01 3.751275e+00 115 113 114
5.038576e-01 -3.199481e-01 3.816863e+00 115 113 113
3.095531e-01 -2.485608e-01 3.876043e+00 102 99 94
-3.715903e-01 -2.327674e-01 3.808619e+00 54 44 33
-2.823945e-01 -2.053675e-01 3.818865e+00 87 83 70
-2.072140e-01 -8.744786e-02 3.742771e+00 87 82 76
-6.794423e-01 -9.332020e-02 3.763736e+00 26 25 27
-3.786837e-01 -4.162562e-02 3.561493e+00 100 103 108
-1.314466e+00 4.679445e-02 3.567875e+00 105 105 105
-8.642689e-01 2.195469e-01 3.584097e+00 46 36 26
-1.336466e+00 2.676684e-01 3.592603e+00 55 52 45
5.470806e-01 5.799079e-01 3.574381e+00 50 49 46
-1.464648e+00 -8.975948e-01 3.788938e+00 67 70 81
1.687395e-01 -8.165108e-01 3.865904e+00 116 112 112
-1.137678e+00 -5.162972e-01 3.783375e+00 91 87 86
-1.626645e+00 -3.403962e-01 3.616338e+00 65 66 68
-1.570959e+00 -1.100736e+00 3.781222e+00 117 123 127
-1.492172e+00 -1.079642e+00 3.845864e+00 151 153 168
-1.584605e+00 -1.027591e+00 3.788975e+00 112 116 121
-1.599987e+00 -9.519716e-01 3.822560e+00 73 72 77
7.880022e-01 7.573140e-01 3.602400e+00 197 198 200
-7.311316e-01 -5.957063e-01 3.869602e+00 204 208 216
-1.129868e+00 -4.655159e-01 3.797628e+00 183 191 201
