ply
format ascii 1.0
element face 0
property list uchar int vertex_indices
element vertex 929
property float x
property float y
property float z
property uchar diffuse_red
property uchar diffuse_green
property uchar diffuse_blue
end_header
-1.812860e-01 -2.192243e+00 1.001042e+00 159 152 142
-2.360414e+00 -1.281023e+00 1.195765e+00 228 223 220
-1.053826e+00 -3.164003e+00 8.362204e-01 90 78 66
-6.015674e-01 -2.598146e+00 9.045696e-01 120 113 101
-1.870935e-01 -2.320364e+00 9.519842e-01 77 65 49
1.217197e+00 -1.711728e+00 1.225105e+00 167 168 163
-1.216315e-01 -1.120120e+00 1.321933e+00 163 153 137
1.170459e+00 2.641590e+00 -1.013830e+00 54 55 50
1.475165e+00 -1.150077e+00 1.086922e+00 19 19 19
8.769059e-01 -1.067918e+00 1.008111e+00 107 116 120
-6.446692e-01 8.929248e+00 -1.402591e+00 110 116 116
6.898239e-01 -1.031489e+00 9.206294e-01 102 112 121
1.381393e+00 1.463909e+00 -1.013674e+00 99 103 105
1.381393e+00 1.463909e+00 -1.013674e+00 99 103 105
-3.107371e+00 2.287643e+00 3.621211e-01 128 139 146
4.332877e-01 -3.136773e-01 5.488812e-01 112 124 130
-2.347398e+00 -4.915873e-01 1.148446e+00 106 117 120
4.454326e-01 -2.922302e-01 5.828121e-01 30 32 31
-7.431654e-01 1.979154e+00 -5.633317e-01 122 127 130
1.644869e+00 2.454871e+00 -1.120029e+00 111 114 117
-1.755930e+00 2.468307e+00 -2.682140e-01 47 44 39
-1.755930e+00 2.468307e+00 -2.682140e-01 47 44 39
-1.985484e+00 2.694552e+00 4.473227e-02 150 159 159
-1.579037e+00 9.143368e+00 -4.356736e-01 160 161 163
-3.662692e-01 -9.791101e-01 7.461720e-01 19 18 19
7.861603e-01 -6.230312e-01 3.524352e-01 79 89 97
6.547228e-01 -8.642179e-01 8.740574e-01 90 93 86
-2.296394e+00 -5.230253e-01 1.103012e+00 116 131 138
-2.462490e+00 -5.450980e-01 1.230789e+00 112 125 126
-2.611474e+00 -5.697779e-01 1.273877e+00 117 124 126
-5.949411e+00 7.809303e-01 1.103042e+00 105 107 102
-5.911338e+00 8.020807e-01 1.163996e+00 46 45 43
1.513451e+00 2.441230e+00 -1.132300e+00 99 103 101
-3.132861e+00 1.429692e+00 1.068163e+00 155 172 185
1.471389e+00 -1.180405e+00 1.015478e+00 13 11 12
1.091483e+00 1.583583e+00 -1.013652e+00 97 94 85
1.091483e+00 1.583583e+00 -1.013652e+00 97 94 85
1.048495e+00 1.747309e+00 -9.165782e-01 96 95 90
1.048495e+00 1.747309e+00 -9.165782e-01 96 95 90
-6.285861e+00 8.590883e-01 1.501370e+00 127 137 136
-2.746934e-01 2.095533e+00 -3.883676e-01 48 51 52
1.444525e+00 2.804624e+00 -9.598211e-01 128 131 129
7.521592e-01 -1.135477e+00 9.066547e-01 93 101 105
3.621039e-01 -7.400967e-01 7.790044e-01 49 49 47
9.734475e-01 -4.988940e-01 7.300050e-01 26 27 31
-6.266416e+00 1.184354e+00 1.484995e+00 138 148 155
-6.069824e+00 1.396229e+00 1.396176e+00 70 69 65
-3.737095e-01 2.144313e+00 -3.945238e-01 129 137 140
5.420681e-01 2.385452e+00 -6.683416e-01 130 142 150
-4.858799e+00 1.808688e+00 9.550464e-01 60 55 46
-5.698662e+00 1.734022e+00 1.228566e+00 112 109 100
-5.168636e-01 2.899106e+00 -4.452989e-01 48 44 34
-3.888821e-01 2.893886e+00 -4.590036e-01 42 44 41
-5.743695e+00 4.575982e+00 1.078878e+00 108 107 102
-2.255707e+00 4.979063e+00 -7.932379e-02 43 44 39
-7.486470e-01 9.051793e+00 -1.381101e+00 143 147 145
5.138482e-01 -8.310601e-01 4.197531e-01 40 48 54
-9.439612e-01 -1.033831e+00 1.022665e+00 58 61 63
-1.957956e+00 -5.866713e-01 5.337572e-01 96 106 112
-2.450779e+00 -5.417191e-01 5.442991e-01 19 24 29
-8.537149e+00 9.273277e+00 1.103452e+00 146 146 138
-1.031337e+00 9.538577e+00 -1.318704e+00 87 83 78
5.813231e-01 -2.106796e+00 8.048275e-01 227 227 229
7.828188e-01 -1.582841e+00 5.122525e-01 129 124 108
-3.872461e-01 -1.891792e+00 1.201839e+00 116 106 87
-1.824428e+00 -1.494540e+00 1.765401e+00 201 197 196
-7.099676e-01 -2.668097e+00 1.381719e+00 133 124 98
8.057161e-02 -2.229876e+00 8.539936e-01 99 89 64
5.477711e-03 -2.007819e+00 9.641927e-01 127 111 90
7.951831e-01 -1.382892e+00 3.951664e-01 219 218 219
5.238515e-01 -1.478616e+00 5.862141e-01 230 232 231
2.683804e-01 -1.585397e+00 8.182925e-01 214 211 218
-4.405700e-02 -1.642907e+00 9.493563e-01 219 219 220
-3.384254e-01 -1.723103e+00 1.111666e+00 244 244 243
-3.410553e-01 -1.721000e+00 1.105345e+00 244 244 243
-6.404158e-01 -1.794982e+00 1.248732e+00 197 198 202
1.147192e+00 -1.320698e+00 3.607573e-01 204 203 202
-1.223672e+00 -1.236699e+00 1.349160e+00 73 71 58
-7.972490e-01 -2.781146e+00 1.254716e+00 168 161 146
-6.458403e-01 -2.483718e+00 1.277105e+00 86 81 61
3.652178e-01 -1.897372e+00 8.393557e-01 204 206 203
-9.967079e-01 -1.800043e+00 1.440197e+00 25 25 23
1.039866e+00 -1.272901e+00 3.562108e-01 55 60 53
-8.810155e-01 -1.356804e+00 1.145916e+00 39 33 18
-1.677195e+00 -1.540244e+00 1.569497e+00 64 64 62
-2.251129e+00 -1.450818e+00 1.737576e+00 54 53 49
1.858608e+00 -2.968611e+00 5.692378e-01 142 144 139
-5.210153e-01 -2.391401e+00 1.156902e+00 172 169 152
1.477082e-01 -2.120059e+00 8.337919e-01 147 144 129
-8.631056e-01 -1.750976e+00 1.312652e+00 218 215 203
-1.933695e-03 -1.565055e+00 9.264357e-01 25 23 24
-1.691021e+00 -1.453324e+00 1.681194e+00 212 204 185
-1.705931e+00 -1.445421e+00 1.671177e+00 212 204 185
-1.364411e+00 1.693818e+00 -3.213764e-01 169 177 167
1.848866e+00 -3.332735e+00 5.808177e-01 73 66 57
1.062294e+00 -2.013290e+00 5.150885e-01 159 155 143
-8.314010e-01 -1.802477e+00 1.266818e+00 90 82 69
4.403300e-01 -1.400448e+00 5.748061e-01 95 86 78
-3.740287e-01 -1.324956e+00 9.412434e-01 159 164 157
6.492751e-01 -7.846469e-01 2.411662e-01 66 65 60
6.260464e-01 -8.249415e-01 3.310068e-01 160 159 147
7.750033e-01 1.744278e+00 -1.147541e+00 129 126 107
-6.528388e-01 -3.176293e+00 8.654564e-01 131 126 105
1.308184e+00 -2.571546e+00 5.213172e-01 192 200 202
1.060202e+00 -2.569891e+00 6.195626e-01 97 88 68
7.056855e-01 -2.484303e+00 6.460003e-01 156 154 139
-4.064081e-02 -2.397515e+00 5.879855e-01 150 148 130
-7.312082e-01 -2.639905e+00 1.336541e+00 113 98 68
-7.717874e-01 -2.551360e+00 1.320334e+00 225 225 218
-1.467720e-01 -2.217948e+00 7.710793e-01 100 90 75
-1.467720e-01 -2.217948e+00 7.710793e-01 100 90 75
-1.196738e+00 -2.221336e+00 1.518035e+00 196 197 191
-4.105469e-01 -1.781561e+00 1.139907e+00 26 26 27
-1.179637e+00 -1.911916e+00 1.466287e+00 41 40 38
6.531477e-01 -1.440037e+00 5.230406e-01 112 108 98
8.109347e-01 -1.296186e+00 3.578963e-01 24 25 39
2.162401e-01 -8.700432e-01 5.478774e-01 54 48 56
-7.828647e-01 1.741199e+00 -6.312205e-01 131 129 104
-6.130710e-01 -3.078784e+00 6.021818e-01 89 76 57
-7.018195e-01 -3.107534e+00 9.612493e-01 78 66 48
-8.079580e-01 -3.085627e+00 1.273667e+00 108 94 75
7.423460e-01 -2.521266e+00 5.204210e-01 149 147 135
3.541874e-01 -2.442616e+00 6.105097e-01 146 145 126
-2.673922e-01 -2.450078e+00 7.520565e-01 156 151 132
7.312111e-01 -2.256286e+00 7.392224e-01 219 218 213
-3.351593e-01 -2.260251e+00 1.030036e+00 66 58 46
5.799862e-02 -2.159937e+00 8.841777e-01 170 168 155
-2.511029e-01 -2.174337e+00 9.895358e-01 104 101 91
-4.995904e-01 -2.250987e+00 1.291285e+00 169 170 157
2.373461e-01 -2.048242e+00 9.058553e-01 93 80 60
2.665273e-01 -2.035650e+00 9.238721e-01 211 212 205
-1.363193e+00 -1.907155e+00 1.572097e+00 213 204 180
-1.023688e-01 -9.151775e-01 6.729202e-01 43 39 45
1.336608e+00 -3.267574e+00 4.966980e-01 54 47 37
1.341632e+00 -3.272633e+00 5.087237e-01 54 47 37
-8.549892e-01 -3.321093e+00 1.194843e+00 159 149 138
1.339678e+00 -2.878364e+00 5.631096e-01 187 190 174
4.996687e-01 -2.822764e+00 2.652882e-01 144 139 118
-8.504271e-01 -3.174115e+00 1.119983e+00 192 190 175
-5.667830e-01 -2.723480e+00 8.508174e-01 192 192 180
-5.841883e-01 -2.716822e+00 8.268207e-01 192 192 180
9.939045e-03 -2.434886e+00 5.713267e-01 130 122 103
8.591411e-03 -2.432524e+00 5.709722e-01 130 122 103
-3.730891e-01 -2.467937e+00 7.351192e-01 147 149 134
5.062590e-01 -1.820421e+00 7.307453e-01 188 188 186
4.698640e-02 -1.603150e+00 8.280810e-01 81 73 81
-1.274493e+00 -1.922093e+00 1.572275e+00 215 216 219
-1.772503e+00 -1.572631e+00 1.713077e+00 61 49 44
6.723428e-01 -7.519019e-01 2.747278e-01 149 149 133
-4.844275e-01 -7.924797e-01 9.732759e-01 107 99 81
8.290143e-02 -6.228669e-01 6.797227e-01 147 145 131
6.917064e-01 -3.880075e+00 -6.237117e-03 170 161 132
9.103587e-03 -3.702288e+00 -1.493386e-02 83 79 67
1.255748e+00 -3.519240e+00 3.908606e-01 34 33 22
4.727578e-01 -3.338881e+00 -3.044576e-02 72 63 45
-7.692979e-01 -3.138392e+00 1.002645e+00 85 83 69
4.634633e-01 -2.374697e+00 7.133040e-01 119 103 80
-6.671229e-01 -2.559741e+00 1.376793e+00 117 104 87
-1.577818e-01 -2.199396e+00 7.617837e-01 80 68 54
-2.623444e-01 -2.040185e+00 1.097040e+00 95 84 64
-4.053169e-01 -1.229261e+00 9.490413e-01 95 87 79
-8.160994e-01 -1.067757e+00 1.174616e+00 90 87 70
1.517196e+00 -3.751989e+00 5.191566e-01 71 60 54
1.466246e+00 -3.534646e+00 4.692834e-01 38 34 23
1.280072e+00 -3.156624e+00 4.981812e-01 51 43 32
5.344847e-01 -3.107992e+00 9.441453e-02 91 82 57
1.936033e+00 -3.020681e+00 5.475514e-01 213 211 203
1.795903e+00 -3.039649e+00 5.963228e-01 217 217 214
-8.609386e-01 -3.348334e+00 1.153827e+00 208 206 194
-8.576426e-01 -3.206220e+00 1.147656e+00 192 187 170
-8.627742e-01 -3.200075e+00 1.162154e+00 127 123 112
-8.407611e-01 -3.209032e+00 1.189015e+00 127 123 112
-8.225599e-01 -3.101550e+00 8.886654e-01 89 82 64
-8.127658e-01 -3.031027e+00 1.120039e+00 101 94 85
-7.564166e-01 -2.917958e+00 1.025939e+00 189 186 171
6.099154e-01 -2.615260e+00 5.291930e-01 64 56 45
-5.338313e-01 -2.722998e+00 6.439939e-01 172 165 147
-8.957612e-01 -2.793818e+00 1.306919e+00 88 76 60
-4.018090e-01 -2.487553e+00 7.443050e-01 169 172 152
-5.091405e-01 -2.441821e+00 1.076984e+00 178 175 162
3.140160e-01 -2.273210e+00 7.701402e-01 52 39 30
5.314721e-01 -2.128477e+00 8.057622e-01 172 169 161
4.049372e-01 -2.133021e+00 8.468460e-01 114 106 76
1.359734e+00 -3.736086e+00 4.013334e-01 155 152 138
1.458241e+00 -3.530005e+00 5.099754e-01 43 34 29
1.891733e+00 -2.989173e+00 5.553520e-01 210 210 210
-7.735629e-01 -3.210804e+00 9.737277e-01 193 189 169
-8.763648e-01 -3.194134e+00 1.117209e+00 197 193 179
-7.359952e-01 -2.944217e+00 1.090833e+00 191 189 176
-7.333190e-01 -2.929717e+00 1.089976e+00 68 64 52
-6.236923e-01 -2.723331e+00 7.011626e-01 145 139 127
8.569581e-02 -2.563768e+00 4.026441e-01 134 127 104
1.155467e+00 -2.509941e+00 5.845292e-01 152 149 141
-5.507052e-01 -2.645850e+00 9.788540e-01 81 75 62
-8.523277e-01 -2.821639e+00 1.417087e+00 109 98 72
-5.417632e-01 -2.570874e+00 1.174468e+00 107 102 80
8.959683e-02 -1.828448e+00 9.621312e-01 83 80 69
-8.087995e-01 1.347472e-01 5.978631e-01 60 60 84
-3.906049e-01 -2.326921e+00 1.042085e+00 118 110 91
-7.428149e-02 -3.804006e+00 1.432952e-01 114 101 85
-8.867681e-01 -2.410253e+00 1.420287e+00 171 153 141
-3.852342e-01 -8.980951e-01 1.040988e+00 64 44 49
1.154463e+00 -5.181641e-01 2.752437e-01 58 43 48
-9.532687e-01 -2.049357e+00 1.483008e+00 113 100 92
6.617478e-01 -9.979371e-01 2.849238e-01 154 137 115
6.606134e-01 -9.984164e-01 2.854329e-01 154 137 115
4.722919e-01 -2.296604e+00 7.601058e-01 122 106 93
7.863795e-01 -2.209800e+00 7.980662e-01 175 165 152
2.305655e-01 -1.982693e+00 9.621210e-01 161 151 142
-1.166934e+00 -1.742146e+00 1.428171e+00 162 144 130
-5.797248e-01 -1.527192e+00 1.119829e+00 159 143 127
3.480259e-01 -1.287677e+00 7.111641e-01 170 154 141
-1.297322e+00 -1.362006e+00 1.347108e+00 172 159 142
6.337238e-01 -1.867925e+00 8.019908e-01 181 168 159
7.424813e-01 -1.816582e+00 6.762536e-01 183 171 156
-2.643768e-01 -1.451741e+00 9.969696e-01 166 153 137
9.518917e-01 -3.099892e-01 3.211420e-01 170 171 161
5.658184e-01 -2.212524e+00 7.781050e-01 104 84 78
5.102413e-01 -2.181719e+00 8.202207e-01 94 74 70
1.783267e-01 -2.055109e+00 9.657724e-01 102 77 70
-3.233187e-01 -2.148373e+00 1.146781e+00 103 83 74
-9.475863e-02 -1.989296e+00 1.040123e+00 98 74 64
1.229852e+00 -1.263994e+00 4.325554e-01 81 68 66
1.895038e-01 -8.015146e-01 4.020792e-01 73 62 60
3.797711e-01 -7.842268e-01 6.564890e-01 173 159 136
3.853023e-01 -7.892519e-01 6.651682e-01 173 159 136
-7.055495e-01 -1.044506e+00 1.251766e+00 72 50 51
5.046328e-01 -7.567317e-01 6.742664e-01 61 43 44
1.000662e+00 -2.520526e+00 6.694712e-01 100 87 80
9.181924e-01 -2.439198e+00 6.647366e-01 90 78 72
6.462723e-01 -2.250002e+00 7.711842e-01 85 66 61
2.426524e-01 -2.010544e+00 9.742593e-01 180 167 151
6.254675e-01 -1.665405e+00 7.493958e-01 111 97 88
-4.907773e-01 -1.629103e+00 1.032729e+00 50 37 47
-1.034809e+00 -1.782748e+00 1.390790e+00 37 30 39
5.899735e-01 -1.408155e+00 6.173611e-01 50 26 47
-4.549861e-01 -1.311894e+00 9.392992e-01 39 25 40
-1.312741e+00 -1.344692e+00 1.454819e+00 161 145 129
-7.557463e-01 -1.189353e+00 1.199612e+00 95 81 76
-5.797297e-01 -1.104760e+00 1.294053e+00 145 132 113
5.481065e-01 -7.492272e-01 5.662818e-01 172 156 135
-3.874594e-01 -8.986588e-01 1.011386e+00 60 42 48
-1.391126e-01 -2.364996e+00 6.009825e-01 127 108 91
3.698610e-01 -2.046134e+00 8.644952e-01 182 172 152
-1.652667e-01 -2.089676e+00 9.098514e-01 96 77 70
-1.099445e-01 -2.047477e+00 9.443400e-01 133 120 101
1.335711e+00 -1.616773e+00 7.478054e-01 146 139 121
-1.662699e+00 -1.995825e+00 1.722585e+00 89 69 75
-6.449477e-01 -1.679815e+00 1.154757e+00 75 53 65
3.373122e-01 -1.475463e+00 7.131922e-01 148 132 119
-1.273189e+00 -1.788442e+00 1.358277e+00 170 155 134
2.981230e-01 -1.487378e+00 7.762986e-01 46 27 47
-4.835581e-01 -1.630541e+00 1.157864e+00 134 124 103
-7.531674e-01 -1.516155e+00 1.186934e+00 175 158 141
4.562417e-01 -7.252882e-01 -2.470890e-02 153 138 116
2.423070e-01 -8.511438e-01 3.193453e-01 157 137 113
2.520857e-01 -8.290094e-01 3.148684e-01 157 137 113
-5.493890e-01 -1.159922e+00 1.103629e+00 77 67 67
1.386685e+00 -2.899471e+00 5.899991e-01 163 151 135
5.964480e-01 -2.407165e+00 6.748468e-01 146 129 110
-4.967307e-02 -2.399978e+00 5.743801e-01 129 116 93
-6.314194e-01 -2.582690e+00 1.407091e+00 96 77 80
5.181782e-01 -2.126172e+00 8.419845e-01 177 165 142
7.293987e-03 -2.188780e+00 1.037792e+00 77 60 48
-2.439451e-03 -2.144525e+00 8.858116e-01 140 132 111
-6.849015e-01 -1.831638e+00 1.311904e+00 66 42 60
-1.638539e-01 -1.646093e+00 9.078350e-01 50 29 53
-8.515955e-01 -1.787570e+00 1.240044e+00 82 56 66
8.129031e-01 -1.454785e+00 6.155148e-01 65 43 68
-5.926100e-01 -1.651323e+00 1.155164e+00 157 141 123
-3.991236e-01 -1.266609e+00 1.011323e+00 153 138 117
-4.536670e-01 -1.198686e+00 1.034154e+00 71 55 66
6.648259e-01 -2.634469e+00 4.960170e-01 131 116 102
-6.248356e-01 -2.936271e+00 1.261408e+00 79 49 51
3.870058e-01 -2.606114e+00 4.457561e-01 124 115 93
3.811477e-02 -2.421632e+00 5.274494e-01 127 116 95
3.183772e-02 -2.417477e+00 5.191106e-01 127 116 95
8.279468e-01 -2.313566e+00 7.413373e-01 187 179 160
7.107312e-01 -2.274230e+00 7.520384e-01 101 79 86
4.000818e-01 -2.293574e+00 7.590540e-01 146 132 120
7.903596e-02 -2.296617e+00 6.490363e-01 116 109 88
-1.095735e-01 -2.242186e+00 7.543832e-01 120 109 93
-1.148492e-01 -2.239525e+00 7.465896e-01 120 109 93
1.615889e-01 -2.195049e+00 8.101136e-01 140 129 109
-3.181126e-01 -2.250883e+00 9.993634e-01 136 120 96
-2.754734e-01 -2.205434e+00 9.736460e-01 146 138 118
-1.301495e-01 -2.125296e+00 8.972387e-01 127 115 92
6.145609e-01 -1.723848e+00 1.172557e+00 149 142 133
3.481584e-01 -1.618064e+00 7.813795e-01 69 53 69
-6.029557e-01 -1.770740e+00 1.126747e+00 175 160 135
2.883895e-02 -1.648755e+00 8.879969e-01 198 189 178
-2.197599e-01 -1.664612e+00 9.944827e-01 92 60 69
-2.217824e-01 -1.664488e+00 9.940682e-01 92 60 69
9.163006e-01 -1.399344e+00 4.588214e-01 68 35 63
3.700020e-01 -1.199640e+00 7.211053e-01 118 99 100
9.896457e-01 -1.020274e+00 3.592344e-01 161 148 139
-8.209471e-01 -3.601939e+00 1.062727e+00 165 157 145
9.739045e-01 -2.963646e+00 4.123516e-01 141 132 118
6.230917e-01 -2.808893e+00 3.458373e-01 134 123 107
4.538799e-01 -2.654019e+00 4.037245e-01 128 116 103
-8.537128e-02 -2.661052e+00 2.417704e-01 116 100 80
3.653829e-01 -2.586408e+00 3.196324e-01 59 44 39
-4.968435e-01 -2.537195e+00 -5.504171e-02 113 104 89
-1.202381e+00 -2.946237e+00 1.478609e+00 178 169 158
2.253105e-01 -2.539704e+00 4.656197e-01 75 53 49
2.194546e-01 -2.506592e+00 4.051724e-01 127 115 102
2.113257e-01 -2.525863e+00 4.833131e-01 114 107 88
5.922266e-01 -2.391461e+00 6.865799e-01 150 137 124
-4.441120e-01 -2.480439e+00 7.267275e-01 64 49 41
5.383290e-01 -2.347904e+00 6.856021e-01 81 63 58
3.504736e-01 -2.310494e+00 7.285712e-01 78 54 51
-4.880259e-01 -2.609548e+00 1.680510e+00 204 191 181
9.157119e-03 -2.252391e+00 7.246597e-01 80 62 59
-6.297255e-01 -2.449452e+00 1.250277e+00 89 66 60
-2.489094e-01 -2.224671e+00 7.765826e-01 87 66 65
8.871693e-02 -2.174688e+00 7.817483e-01 127 109 89
-5.136016e-01 -2.302027e+00 1.220794e+00 96 73 67
-3.113176e-01 -1.917762e+00 1.115588e+00 154 148 133
5.002895e-01 -1.722121e+00 8.654441e-01 86 73 65
-5.390895e-01 -1.802652e+00 1.134420e+00 96 76 85
-5.935988e-01 -1.786800e+00 1.188755e+00 77 60 68
-1.824035e-01 -1.643349e+00 9.375292e-01 58 38 52
8.832652e-02 -1.645351e+00 1.029349e+00 69 48 61
4.131313e-01 -1.177746e+00 7.533066e-01 201 188 171
2.208793e-01 -1.087760e+00 7.955527e-01 143 136 129
1.091520e-02 -9.206552e-01 5.246450e-01 92 74 70
2.453864e-01 -6.692810e-01 4.775056e-02 78 66 66
1.296904e+00 -3.128122e+00 5.275048e-01 142 131 111
1.401373e+00 -2.977709e+00 5.769535e-01 81 65 57
4.081924e-01 -2.992568e+00 1.730962e-01 112 102 81
1.306512e+00 -2.844273e+00 5.843256e-01 97 79 78
-7.390743e-01 -3.099550e+00 7.357269e-01 139 128 114
4.499172e-01 -2.824997e+00 2.209378e-01 88 72 60
4.759506e-01 -2.835772e+00 2.555541e-01 88 72 60
7.707364e-01 -2.773940e+00 4.395483e-01 113 101 92
-6.899871e-01 -2.927626e+00 9.385902e-01 101 86 79
-5.090781e-01 -2.720466e+00 3.862419e-01 118 104 88
-8.701134e-01 -2.904749e+00 1.425054e+00 76 58 58
9.064582e-01 -2.581980e+00 9.749789e-01 150 140 123
9.327594e-01 -2.411709e+00 6.896439e-01 188 170 155
-7.192409e-01 -2.656410e+00 1.143780e+00 109 92 85
-7.052718e-01 -2.662661e+00 1.154522e+00 109 92 85
6.793119e-01 -2.430046e+00 9.618436e-01 161 147 137
5.683286e-01 -2.360037e+00 6.361687e-01 105 89 86
7.022695e-01 -2.410850e+00 9.035219e-01 105 89 86
-2.123864e-01 -2.375847e+00 5.581825e-01 74 50 45
4.668300e-01 -2.328326e+00 7.255390e-01 112 95 80
-2.036814e-01 -2.360182e+00 6.261258e-01 120 110 93
-3.938620e-01 -2.408850e+00 8.462541e-01 114 102 84
-2.541313e-01 -2.333576e+00 6.502150e-01 115 98 88
-3.971774e-01 -2.457741e+00 1.269881e+00 68 47 53
6.348234e-01 -2.218639e+00 7.641193e-01 112 91 88
-1.449662e-01 -2.259728e+00 7.756047e-01 131 116 94
-1.498731e-01 -1.968698e+00 1.030822e+00 136 119 100
-4.596706e-01 -2.121425e+00 1.693178e+00 113 102 94
-2.361347e-01 -1.948280e+00 1.156819e+00 115 101 96
7.622474e-01 -1.851008e+00 1.202103e+00 107 88 83
6.199112e-01 -1.706765e+00 7.212587e-01 146 139 122
9.808757e-01 -1.571714e+00 5.722973e-01 97 84 76
3.276047e-01 -1.703816e+00 1.004321e+00 175 170 163
-1.363969e+00 -1.955202e+00 1.550655e+00 191 182 181
7.443187e-01 -1.463007e+00 5.874150e-01 196 189 178
6.692626e-01 -1.492550e+00 6.486603e-01 206 206 197
9.493466e-01 -1.377591e+00 5.029525e-01 159 148 130
1.014177e+00 -1.325817e+00 5.018402e-01 100 85 81
-8.917952e-01 -1.595728e+00 1.200345e+00 176 159 145
-1.561273e-01 -1.360712e+00 1.213109e+00 125 111 104
-3.248237e-01 -1.271194e+00 1.080172e+00 98 80 76
9.659472e-01 -2.684671e+00 5.435174e-01 103 89 82
-8.258135e-01 -2.813566e+00 1.381597e+00 127 112 109
-2.321266e-02 -2.391024e+00 5.646654e-01 114 101 85
-5.493342e-01 -2.515869e+00 9.259166e-01 72 53 46
2.758671e-01 -2.269142e+00 8.031976e-01 93 76 62
4.510771e-01 -2.279284e+00 1.015519e+00 142 124 114
-6.485888e-03 -2.262949e+00 8.918710e-01 113 106 85
6.766658e-02 -2.200516e+00 8.355134e-01 115 95 86
6.644646e-01 -2.236080e+00 1.221890e+00 119 99 97
9.473511e-01 -2.027508e+00 6.816369e-01 191 182 170
3.113149e-01 -2.077258e+00 8.901442e-01 102 82 76
-4.360251e-02 -1.958499e+00 1.006866e+00 151 139 122
-1.310581e-01 -1.963476e+00 1.020535e+00 75 59 60
1.617729e-01 -2.001534e+00 1.395700e+00 112 99 83
-4.470149e-01 -2.067597e+00 1.655775e+00 129 116 111
-5.504872e-01 -1.933014e+00 1.338107e+00 158 150 140
6.527219e-02 -1.705570e+00 9.170039e-01 151 144 143
-1.086580e+00 -1.928253e+00 1.556884e+00 86 62 66
5.370347e-01 -1.569850e+00 8.126125e-01 177 165 167
7.075723e-02 -1.587567e+00 8.440375e-01 159 142 133
3.059329e-02 -1.586359e+00 8.287172e-01 159 141 132
-1.534975e-01 -1.599196e+00 1.002266e+00 101 88 80
-6.126216e-01 -1.653898e+00 1.097923e+00 153 137 121
-6.627550e-01 -1.775450e+00 1.489501e+00 181 167 154
-6.596529e-01 -1.774215e+00 1.490396e+00 181 167 154
-4.049583e-01 -1.715840e+00 1.383968e+00 123 107 92
-1.328449e-01 -1.458679e+00 1.105076e+00 171 156 134
1.957810e-01 -4.134808e+00 -1.058768e-02 27 27 18
-7.624746e-01 -2.714971e+00 1.181993e+00 167 156 136
-9.919311e-01 -4.181079e+00 1.369324e+00 200 186 157
-1.033692e+00 -3.369118e+00 1.290545e+00 170 156 129
-6.387289e-01 -4.583218e+00 7.261124e-01 179 170 151
-6.907613e-01 -4.600450e+00 8.757622e-01 178 170 151
-6.907365e-01 -4.600476e+00 8.757438e-01 178 170 151
-7.859547e-01 -4.023915e+00 5.425624e-01 204 190 154
-9.328706e-01 -4.106913e+00 1.005347e+00 175 160 131
-9.302426e-01 -3.838260e+00 1.020360e+00 174 159 128
-8.336271e-01 -3.422638e+00 4.700222e-01 164 146 108
3.953933e-01 -3.230660e+00 1.412288e-02 132 113 81
1.403801e+00 -3.241048e+00 4.462271e-01 198 184 155
-1.029797e+00 -3.493917e+00 1.330331e+00 187 173 146
-9.231927e-01 -3.371183e+00 9.410375e-01 155 146 130
-9.815769e-01 -3.304280e+00 1.202664e+00 72 58 29
-9.261185e-01 -3.180135e+00 1.079729e+00 138 126 111
-7.570776e-01 -2.952984e+00 8.544539e-01 154 147 122
9.384104e-01 -2.589722e+00 6.037755e-01 197 183 147
-5.357556e-01 -4.717037e+00 5.638283e-01 165 155 128
-7.454492e-01 -4.615403e+00 9.943429e-01 182 174 156
1.022027e-01 -4.241681e+00 9.558154e-05 23 20 13
-8.720791e-01 -3.732545e+00 7.883326e-01 169 150 118
-8.235998e-01 -3.483688e+00 6.010746e-01 94 74 39
-1.126561e-01 -3.040136e+00 1.226090e-02 180 168 143
4.305511e-01 -3.024560e+00 1.370925e-01 90 74 44
-1.446809e-01 -2.922956e+00 -5.093953e-02 93 76 45
3.749098e-01 -2.945676e+00 1.876033e-01 101 88 61
-7.726175e-01 -3.107982e+00 7.369279e-01 184 176 155
5.879838e-02 -2.883796e+00 9.723171e-02 79 66 40
1.216397e+00 -2.775486e+00 5.569242e-01 94 80 48
1.131151e-01 -4.369052e+00 1.960781e-01 177 169 156
-6.040741e-01 -4.465709e+00 3.300893e-01 140 123 95
-7.498190e-01 -4.270787e+00 2.763213e-01 190 181 154
6.932899e-03 -4.072265e+00 1.205482e-01 111 97 71
1.722453e-02 -3.752751e+00 5.060491e-02 181 173 148
-8.739260e-01 -3.969009e+00 8.834496e-01 191 173 128
7.879261e-01 -3.585863e+00 8.641827e-02 140 127 100
-8.998750e-01 -3.768553e+00 6.662815e-01 170 153 115
6.896110e-01 -3.380231e+00 8.532771e-02 73 58 29
2.536341e-01 -3.333934e+00 -5.263315e-02 122 106 81
1.051446e+00 -3.282920e+00 3.151945e-01 184 172 147
5.895858e-01 -3.203435e+00 1.345973e-01 99 79 46
9.247717e-01 -2.391890e+00 7.003700e-01 216 213 198
-5.347445e-02 -2.266200e+00 7.550389e-01 148 134 112
-5.347445e-02 -2.266200e+00 7.550389e-01 148 134 112
-7.776791e-01 -2.376716e+00 1.255464e+00 180 167 146
-2.105105e-01 -2.226639e+00 7.827460e-01 138 124 96
-2.205277e-01 -2.216772e+00 7.707316e-01 138 124 96
2.782116e-01 -2.235950e+00 7.719599e-01 155 144 121
-4.880333e-01 -2.275618e+00 1.040258e+00 167 160 133
-6.243230e-01 -4.296472e+00 3.329181e-01 133 126 101
4.579956e-01 -3.911366e+00 -7.459764e-02 134 119 91
-7.724737e-01 -4.086512e+00 5.563622e-01 183 170 135
2.357589e-01 -3.826723e+00 3.210979e-02 191 180 157
-7.978351e-01 -3.949693e+00 5.642721e-01 185 167 130
-1.839706e-02 -3.773204e+00 9.810152e-02 192 183 160
9.730712e-01 -3.532988e+00 1.777048e-01 193 182 152
1.242100e+00 -3.445913e+00 3.568756e-01 121 104 63
1.057101e-01 -3.238017e+00 1.013384e-02 174 155 115
-7.978564e-01 -3.352037e+00 6.045735e-01 85 67 36
-7.978564e-01 -3.352037e+00 6.045735e-01 85 67 36
-6.413562e-01 -3.233317e+00 2.303705e-01 164 152 128
-8.632723e-01 -3.283387e+00 7.871537e-01 159 145 108
2.265004e-02 -3.032413e+00 4.509943e-02 172 160 139
-3.241371e-01 -2.947236e+00 6.492107e-02 103 89 62
1.398782e+00 -2.943218e+00 5.630771e-01 208 201 183
1.332470e+00 -2.849503e+00 5.772014e-01 212 205 186
7.061943e-01 -2.483335e+00 6.532607e-01 184 177 155
-2.427093e-01 -2.280466e+00 7.561619e-01 78 67 45
2.068271e-01 -2.210014e+00 7.861916e-01 167 158 141
1.269107e-01 -4.219911e+00 2.442644e-01 31 28 16
1.541650e-01 -4.015445e+00 2.383947e-02 188 181 159
5.076478e-01 -3.785052e+00 -9.398728e-02 195 188 169
4.705026e-01 -3.721101e+00 -1.042315e-01 195 185 158
3.684258e-01 -3.586904e+00 -7.245710e-02 96 76 41
3.684258e-01 -3.586904e+00 -7.245710e-02 96 76 41
-6.376808e-02 -3.584582e+00 8.824566e-02 179 166 135
-4.203020e-01 -3.608235e+00 1.993950e-01 182 174 151
-3.404685e-01 -3.578525e+00 1.460375e-01 181 172 149
6.413043e-02 -3.384003e+00 -1.133590e-02 202 192 166
8.933832e-01 -3.362537e+00 1.746799e-01 182 169 137
-9.009768e-01 -3.519636e+00 8.089330e-01 179 165 138
-5.792777e-01 -3.309687e+00 1.907619e-01 73 58 35
1.299292e+00 -3.239979e+00 4.773189e-01 171 155 129
7.963136e-02 -3.093905e+00 3.599282e-02 172 160 134
-8.341011e-02 -3.101035e+00 8.182713e-02 181 170 150
-4.536189e-01 -3.080244e+00 1.139134e-01 109 101 78
-4.536189e-01 -3.080244e+00 1.139134e-01 109 101 78
-9.586093e-01 -3.382551e+00 1.276454e+00 198 188 159
5.611505e-01 -2.933415e+00 2.203056e-01 62 51 31
4.579056e-01 -2.852166e+00 2.914987e-01 136 122 95
1.070699e+00 -2.836174e+00 5.114811e-01 58 46 26
8.265139e-01 -2.804993e+00 4.673163e-01 173 165 148
-6.950706e-01 -2.769375e+00 9.306208e-01 82 69 47
-3.493196e-01 -2.545474e+00 5.039089e-01 73 60 38
1.110600e+00 -2.594456e+00 5.886539e-01 210 207 192
1.858730e-01 -2.483349e+00 5.194863e-01 146 136 107
-7.846758e-01 -2.642610e+00 1.271656e+00 98 81 52
5.433298e-01 -2.411908e+00 6.498955e-01 80 68 41
3.103384e-01 -2.248188e+00 7.443609e-01 70 57 40
-2.922092e-01 -2.227077e+00 9.474354e-01 108 92 63
-1.398745e+00 -2.236184e+00 1.502603e+00 215 207 195
2.756953e-02 -2.123580e+00 8.587762e-01 129 116 97
4.509051e-01 -2.134993e+00 8.425766e-01 90 80 52
-1.162390e+00 -2.191518e+00 1.404205e+00 220 213 199
3.800536e-01 -2.083482e+00 8.650449e-01 219 217 200
9.797905e-02 -4.236124e+00 9.704245e-02 162 152 128
4.150153e-02 -4.203166e+00 -1.168062e-01 25 22 15
-5.147232e-01 -4.312786e+00 2.322035e-01 20 16 6
-5.777154e-01 -4.307234e+00 2.587007e-01 75 64 45
8.358237e-02 -4.120438e+00 5.460070e-04 188 172 143
-5.690281e-01 -4.207480e+00 2.946254e-01 120 104 69
-4.000647e-01 -4.102955e+00 3.212287e-01 179 165 138
1.302425e-01 -3.902506e+00 1.374110e-01 190 183 157
7.222454e-01 -3.748103e+00 3.421369e-02 176 163 133
-9.537466e-02 -3.833900e+00 1.197855e-01 188 180 159
9.399732e-01 -3.726692e+00 1.632265e-01 182 168 143
7.909569e-01 -3.637334e+00 3.618876e-02 67 57 30
-6.650085e-02 -3.677605e+00 9.699231e-04 163 152 124
1.223662e+00 -3.612398e+00 3.073667e-01 96 79 55
1.180427e+00 -3.595060e+00 2.982334e-01 195 182 153
-8.759657e-01 -3.755845e+00 6.709156e-01 188 172 137
-6.393202e-01 -3.591253e+00 2.186564e-01 170 155 124
1.180735e+00 -3.356620e+00 3.458220e-01 193 181 158
1.180735e+00 -3.356620e+00 3.458220e-01 193 181 158
8.494060e-01 -3.280319e+00 2.243385e-01 115 99 69
4.031431e-01 -3.191652e+00 7.511418e-02 171 160 137
1.120206e-01 -3.159571e+00 -2.903411e-02 113 102 74
-4.538610e-01 -3.203257e+00 1.250065e-01 155 142 116
-8.304167e-01 -3.336765e+00 7.664769e-01 180 169 140
-7.016287e-01 -3.202609e+00 3.903917e-01 81 65 36
-1.679236e-01 -2.991685e+00 2.538039e-02 76 64 45
-4.930740e-01 -3.029961e+00 1.794603e-01 165 149 113
-7.500427e-01 -3.039902e+00 7.057620e-01 59 47 26
-8.010582e-01 -3.082232e+00 8.990670e-01 60 49 27
4.816919e-01 -2.873984e+00 2.909159e-01 156 144 124
-6.419203e-01 -2.896206e+00 6.795779e-01 166 159 136
-1.006466e+00 -3.117850e+00 1.442256e+00 221 216 191
-7.275943e-01 -2.937929e+00 8.528381e-01 174 165 148
7.793194e-01 -2.780739e+00 4.613714e-01 131 115 90
7.767992e-01 -2.760964e+00 4.801197e-01 57 43 20
5.557286e-01 -2.731590e+00 4.137680e-01 167 154 132
-2.395350e-01 -2.662472e+00 2.870653e-01 66 51 27
9.496232e-01 -2.714430e+00 5.546947e-01 191 183 166
-7.953337e-01 -2.815745e+00 1.178737e+00 161 148 121
-6.908312e-01 -2.652342e+00 1.092929e+00 175 158 131
-5.493384e-01 -2.562584e+00 8.885623e-01 148 134 106
1.501025e-01 -2.446412e+00 5.125379e-01 101 90 68
-3.140236e-01 -2.433728e+00 6.848693e-01 162 151 121
-1.452308e-01 -2.391305e+00 6.035932e-01 162 152 124
6.661962e-01 -2.430010e+00 6.279311e-01 115 100 74
-3.097589e-01 -2.385639e+00 6.710149e-01 149 136 121
-1.558391e-02 -2.373853e+00 6.051079e-01 83 74 53
-4.392684e-01 -2.361153e+00 9.706535e-01 67 51 30
1.859354e-03 -2.247441e+00 7.131034e-01 64 52 34
4.688066e-01 -2.167929e+00 8.135251e-01 85 69 41
-5.695642e-01 -2.219079e+00 1.181290e+00 183 171 154
5.408215e-01 -2.151079e+00 8.168162e-01 221 217 197
-6.062654e-01 -4.356564e+00 5.973060e-01 44 33 21
7.120129e-02 -4.186410e+00 1.050749e-01 102 96 74
-5.046865e-01 -4.284927e+00 2.628611e-01 172 161 139
-7.244782e-01 -4.406383e+00 1.042147e+00 62 55 36
1.100914e-01 -4.159076e+00 2.603339e-01 184 173 151
1.187308e-01 -4.069349e+00 8.677593e-02 133 123 98
3.090312e-01 -3.986432e+00 -1.357378e-02 125 113 87
2.477462e-01 -3.983864e+00 -9.998179e-02 125 113 87
1.479399e-01 -3.955017e+00 1.003967e-01 96 84 59
-8.937239e-01 -4.245353e+00 1.177141e+00 207 192 160
9.689557e-01 -3.827791e+00 1.838748e-01 191 174 146
1.527486e-01 -3.888275e+00 5.169353e-02 132 120 89
-5.519551e-01 -3.969112e+00 2.657586e-01 101 89 65
2.913956e-01 -3.827565e+00 4.307629e-03 194 181 155
2.927773e-01 -3.744589e+00 -2.563009e-02 198 187 165
-9.686375e-01 -4.076380e+00 1.318174e+00 83 67 44
-9.315904e-01 -4.075418e+00 1.346328e+00 83 67 44
1.154094e+00 -3.663675e+00 2.452297e-01 81 67 40
-1.933533e-01 -3.677315e+00 5.473278e-02 73 59 30
4.405079e-01 -3.573387e+00 -8.844196e-02 67 53 18
4.415009e-01 -3.575336e+00 -8.964266e-02 67 53 18
4.147832e-01 -3.579594e+00 -7.481857e-02 189 172 138
-4.147833e-01 -3.692856e+00 2.029330e-01 148 134 105
7.815517e-01 -3.550445e+00 1.089891e-01 179 163 138
-8.089450e-01 -3.714775e+00 4.933260e-01 92 74 43
-4.735997e-01 -3.567076e+00 2.251381e-01 189 178 157
-4.735997e-01 -3.567076e+00 2.251381e-01 189 178 157
-4.735997e-01 -3.567076e+00 2.251381e-01 189 178 157
7.322820e-01 -3.446194e+00 1.197574e-01 179 165 139
-4.061944e-01 -3.526410e+00 1.752441e-01 171 159 134
8.713857e-01 -3.419852e+00 1.576501e-01 177 170 150
5.055179e-01 -3.386975e+00 -5.830872e-03 59 44 18
1.210415e+00 -3.356077e+00 3.449507e-01 123 112 89
1.495287e+00 -3.323882e+00 4.508740e-01 104 85 58
-8.831630e-01 -3.493220e+00 7.897419e-01 66 50 23
-8.831630e-01 -3.493220e+00 7.897419e-01 66 50 23
-8.004313e-01 -3.417056e+00 5.868384e-01 166 153 127
-7.873539e-01 -3.418124e+00 5.977262e-01 166 153 127
-8.004313e-01 -3.417056e+00 5.868384e-01 166 153 127
-5.643164e-01 -3.309352e+00 2.592805e-01 171 156 122
-5.520428e-01 -3.230006e+00 2.218601e-01 165 151 119
-7.489116e-01 -3.275010e+00 3.798146e-01 138 120 87
-1.065738e+00 -3.524851e+00 1.431694e+00 179 166 134
4.086852e-02 -3.066724e+00 -6.347342e-02 106 99 73
1.103583e+00 -3.148779e+00 3.928515e-01 192 181 168
-9.134815e-01 -3.393166e+00 1.121243e+00 189 178 156
-6.749449e-01 -3.183155e+00 4.214881e-01 164 149 117
-8.746237e-01 -3.304755e+00 9.253272e-01 62 47 18
-8.746237e-01 -3.304755e+00 9.253272e-01 62 47 18
6.410236e-01 -3.077528e+00 2.371076e-01 70 58 24
-8.948642e-01 -3.297081e+00 9.378813e-01 78 68 39
-8.692587e-01 -3.296943e+00 9.601715e-01 78 68 39
-5.133900e-01 -3.062748e+00 1.648341e-01 157 140 110
-8.879078e-01 -3.227032e+00 9.175628e-01 121 107 82
1.181217e+00 -3.050810e+00 4.794745e-01 71 55 34
-6.197173e-01 -3.059804e+00 3.854015e-01 158 143 115
-1.017630e+00 -3.291645e+00 1.246153e+00 79 65 36
1.161211e+00 -3.023356e+00 5.012374e-01 109 96 67
-5.533004e-01 -2.939963e+00 2.792656e-01 84 68 35
-5.533004e-01 -2.939963e+00 2.792656e-01 84 68 35
3.454660e-01 -2.914269e+00 2.287393e-01 164 150 124
3.454660e-01 -2.914269e+00 2.287393e-01 164 150 124
-5.609083e-01 -2.964148e+00 3.693492e-01 154 140 109
-5.593615e-01 -2.964485e+00 3.676266e-01 154 140 109
1.172683e+00 -2.969573e+00 4.818395e-01 144 129 98
-8.874547e-01 -3.110422e+00 1.051524e+00 59 46 22
-7.656365e-01 -3.041783e+00 8.676250e-01 133 117 87
-6.691213e-01 -2.942931e+00 5.382718e-01 145 133 101
-9.969916e-01 -3.097427e+00 1.357277e+00 169 153 127
1.812978e-01 -2.774012e+00 2.831833e-01 172 160 135
-6.073414e-01 -2.868207e+00 6.634955e-01 166 154 130
1.073161e+00 -2.827820e+00 4.969315e-01 64 57 31
-9.304233e-01 -2.933590e+00 1.387541e+00 121 107 79
-9.999601e-01 -2.914098e+00 1.361729e+00 228 223 193
9.090343e-01 -2.689153e+00 5.783548e-01 200 187 173
4.137260e-01 -2.631545e+00 4.576193e-01 58 47 29
-3.690399e-01 -2.590672e+00 4.091149e-01 84 69 39
1.142052e-01 -2.567726e+00 4.068574e-01 71 59 36
-4.498517e-01 -2.569012e+00 5.783732e-01 92 80 62
-8.665099e-01 -2.782056e+00 1.323788e+00 96 81 53
-3.787354e-01 -2.547856e+00 5.813761e-01 161 149 127
-3.469450e-01 -2.521541e+00 5.701323e-01 149 137 122
-2.080251e-01 -2.466566e+00 4.788949e-01 83 71 55
-4.778055e-01 -2.530456e+00 7.289785e-01 172 159 139
-4.308474e-01 -2.518883e+00 7.168628e-01 162 147 120
-8.917466e-01 -2.693986e+00 1.313720e+00 229 222 195
5.060315e-01 -2.489107e+00 5.643714e-01 113 102 78
-3.502838e-01 -2.478109e+00 6.792614e-01 127 112 81
4.544176e-01 -2.453680e+00 5.665699e-01 71 62 36
6.318951e-01 -2.445011e+00 6.582897e-01 183 174 152
-7.284222e-01 -2.512727e+00 1.264614e+00 106 91 60
-4.333644e-01 -2.387643e+00 9.947182e-01 172 161 139
-4.322109e-01 -2.285453e+00 9.990177e-01 111 97 79
5.951166e-01 -2.253525e+00 7.292488e-01 136 118 94
1.014355e-01 -2.187441e+00 8.293202e-01 168 156 135
-1.366212e+00 -2.133003e+00 1.506036e+00 172 163 151
-5.283782e-01 -4.672640e+00 3.478164e-01 171 155 122
-5.782260e-01 -4.656983e+00 6.227191e-01 67 59 42
-5.681752e-01 -4.646006e+00 6.105700e-01 181 173 151
6.185575e-02 -4.503180e+00 3.121077e-01 145 135 110
8.723052e-02 -4.354186e+00 2.409744e-01 92 85 66
-5.838811e-01 -4.466209e+00 3.362424e-01 160 141 109
-6.709602e-01 -4.489822e+00 7.108196e-01 171 160 137
-6.430935e-01 -4.372385e+00 7.100337e-01 60 44 23
7.334446e-02 -4.204104e+00 2.767228e-01 52 47 27
4.513994e-02 -4.200892e+00 2.385081e-01 52 47 27
-8.165907e-01 -4.432798e+00 1.216919e+00 77 64 50
1.148076e-02 -4.115192e+00 1.117076e-01 212 205 185
-3.677475e-01 -4.179554e+00 2.291582e-01 101 92 63
-3.677475e-01 -4.179554e+00 2.291582e-01 101 92 63
-8.296597e-01 -4.390497e+00 1.368878e+00 134 124 113
-4.176977e-01 -4.152822e+00 2.926860e-01 181 171 141
3.024333e-01 -3.968295e+00 -2.658513e-03 206 200 176
-4.393860e-01 -4.077216e+00 2.968068e-01 116 105 76
2.465605e-01 -3.940304e+00 3.208347e-02 127 117 86
-8.641349e-01 -4.210436e+00 1.151550e+00 71 60 37
-7.176331e-01 -4.076167e+00 4.807212e-01 63 47 21
4.365961e-03 -3.914617e+00 5.518111e-02 103 91 64
-2.408083e-01 -3.961244e+00 2.381304e-01 182 169 139
-2.723975e-01 -3.909995e+00 2.092414e-01 182 175 150
-9.238647e-01 -4.134869e+00 1.153871e+00 186 171 138
8.572266e-01 -3.751226e+00 7.369181e-02 57 47 19
8.614047e-01 -3.748066e+00 7.241538e-02 57 47 19
3.218129e-01 -3.787991e+00 -4.264387e-04 174 164 139
3.517008e-01 -3.761628e+00 -4.984284e-02 106 96 70
3.075046e-02 -3.820730e+00 9.771806e-02 112 103 75
-1.158739e-02 -3.814675e+00 1.249588e-01 190 183 155
-1.158739e-02 -3.814675e+00 1.249588e-01 190 183 155
-7.801411e-01 -3.957568e+00 5.316884e-01 155 135 100
6.636659e-01 -3.686853e+00 -7.286978e-04 76 64 39
1.233367e+00 -3.594434e+00 3.273046e-01 176 162 133
-1.232885e-01 -3.664606e+00 1.488769e-01 185 174 146
-8.177984e-01 -3.820152e+00 6.339433e-01 180 164 129
7.923156e-01 -3.571400e+00 9.632200e-02 68 56 25
1.438772e+00 -3.577597e+00 4.627408e-01 184 170 145
1.416912e-01 -3.587867e+00 8.061420e-03 189 175 146
9.581251e-03 -3.582260e+00 6.199240e-02 123 109 85
4.455359e-01 -3.510953e+00 -1.011204e-01 92 83 55
-7.557043e-01 -3.654108e+00 2.864866e-01 102 87 54
1.075404e+00 -3.504378e+00 2.744097e-01 166 148 112
-7.833475e-01 -3.668012e+00 4.516894e-01 169 154 126
-9.152199e-01 -3.770257e+00 1.011844e+00 78 61 30
-2.608802e-01 -3.519455e+00 1.406187e-01 69 58 30
-1.111232e+00 -3.807354e+00 1.442083e+00 84 69 49
1.011472e+00 -3.367586e+00 2.889761e-01 177 157 124
1.018981e+00 -3.356317e+00 2.571644e-01 102 90 63
-9.531965e-01 -3.653825e+00 1.116592e+00 199 185 151
-9.764958e-01 -3.621051e+00 1.100752e+00 190 174 133
1.023467e+00 -3.313044e+00 2.574263e-01 68 58 28
1.475160e+00 -3.327951e+00 4.421646e-01 176 158 136
-2.371167e-01 -3.351950e+00 1.636034e-01 137 116 73
-8.427556e-01 -3.500543e+00 7.687861e-01 69 53 27
1.530710e+00 -3.294132e+00 5.007921e-01 63 53 28
1.530710e+00 -3.294132e+00 5.007921e-01 63 53 28
4.384551e-01 -3.209438e+00 3.578654e-02 90 77 47
3.252853e-01 -3.103707e+00 5.251520e-02 116 96 63
-8.441911e-01 -3.322880e+00 7.803266e-01 125 110 81
-9.243652e-01 -3.351162e+00 9.354453e-01 134 119 96
3.269449e-01 -3.069113e+00 1.130270e-01 44 35 11
-1.106527e+00 -3.409420e+00 1.373144e+00 116 95 67
-1.606734e-01 -2.981545e+00 -7.523204e-03 157 146 128
-7.495258e-01 -3.178930e+00 7.136831e-01 174 158 132
-7.593578e-01 -3.162901e+00 7.600967e-01 180 170 143
-9.318200e-01 -3.305367e+00 1.277121e+00 57 41 17
-7.590484e-01 -3.133323e+00 7.532885e-01 187 179 153
-1.034069e-01 -2.913801e+00 3.843297e-02 121 104 76
-8.294185e-01 -3.153192e+00 8.702083e-01 155 139 113
7.439541e-01 -2.942017e+00 3.501228e-01 65 49 32
-5.222546e-01 -2.919819e+00 2.775440e-01 67 50 18
-9.359508e-01 -3.170596e+00 1.236693e+00 205 194 160
-8.974516e-01 -3.069141e+00 1.054319e+00 119 107 80
-8.974516e-01 -3.069141e+00 1.054319e+00 119 107 80
-7.198066e-01 -3.020317e+00 8.845994e-01 99 87 59
-9.695775e-01 -3.106399e+00 1.221252e+00 127 112 86
1.085901e+00 -2.895943e+00 4.996386e-01 185 178 152
-7.629979e-01 -2.995432e+00 8.751425e-01 186 176 151
-1.067419e+00 -3.153403e+00 1.406455e+00 222 214 185
-8.179955e-01 -3.029629e+00 1.024296e+00 108 92 70
-8.179955e-01 -3.029629e+00 1.024296e+00 108 92 70
-4.225353e-01 -2.798545e+00 2.845722e-01 122 103 72
-9.220823e-01 -3.057487e+00 1.209536e+00 57 41 24
-5.279591e-01 -2.833115e+00 4.864961e-01 99 83 49
-1.001549e+00 -3.005503e+00 1.305678e+00 96 80 48
-2.501052e-01 -2.691274e+00 2.840475e-01 116 103 87
-4.384771e-01 -2.732718e+00 4.232334e-01 158 143 117
-7.789241e-01 -2.910110e+00 1.007777e+00 57 45 24
-1.094281e-01 -2.661519e+00 3.216070e-01 129 113 90
-5.204975e-01 -2.747784e+00 6.138130e-01 183 167 135
-3.573091e-01 -2.668486e+00 4.157812e-01 151 141 117
1.959630e-01 -2.646465e+00 3.774278e-01 47 35 18
-5.242350e-01 -2.686506e+00 6.058849e-01 166 153 130
-5.663440e-01 -2.683687e+00 6.134011e-01 104 89 67
1.225116e+00 -2.726203e+00 6.141972e-01 90 83 52
9.119596e-01 -2.671082e+00 5.356531e-01 120 105 84
-2.383159e-01 -2.579296e+00 3.863371e-01 58 46 30
-2.934669e-01 -2.555499e+00 3.736888e-01 67 55 32
-3.717485e-01 -2.589929e+00 5.481880e-01 150 133 103
-3.717485e-01 -2.589929e+00 5.481880e-01 150 133 103
6.095347e-01 -2.617646e+00 5.315943e-01 59 44 22
-5.013772e-01 -2.607074e+00 7.488761e-01 111 96 68
5.487820e-01 -2.567587e+00 5.666188e-01 180 173 151
-5.224504e-02 -2.489893e+00 4.574660e-01 83 73 45
-5.982235e-01 -2.641818e+00 9.620215e-01 180 169 149
2.824125e-01 -2.502155e+00 4.924763e-01 96 84 64
-2.314177e-01 -2.463593e+00 5.073784e-01 48 36 16
-5.850702e-01 -2.579425e+00 9.009496e-01 177 166 140
7.837094e-01 -2.522409e+00 5.993645e-01 121 106 86
2.688401e-02 -2.443274e+00 5.706543e-01 154 142 116
-8.389836e-01 -2.634956e+00 1.286880e+00 106 88 63
1.006583e+00 -2.499833e+00 6.673694e-01 104 96 66
9.583968e-01 -2.483715e+00 6.619076e-01 93 83 56
2.494513e-01 -2.357369e+00 6.554761e-01 151 138 111
-2.529091e-01 -2.305653e+00 6.371332e-01 79 67 43
-7.080672e-01 -2.469510e+00 1.167352e+00 108 90 66
4.098954e-01 -2.348545e+00 7.235907e-01 87 77 44
4.057793e-01 -2.302650e+00 7.296433e-01 149 141 123
-3.507524e-01 -2.276763e+00 9.758735e-01 54 39 16
-1.320823e+00 -2.156040e+00 1.493092e+00 185 178 159
2.024669e-01 -2.058268e+00 9.257506e-01 103 87 53
9.646343e-01 -2.039077e+00 7.068414e-01 231 227 213
-1.232924e+00 -2.105816e+00 1.455416e+00 162 153 136
-2.193105e-01 -2.038726e+00 1.032110e+00 124 107 81
-8.290618e-01 -2.060017e+00 1.306384e+00 197 190 178
-8.290618e-01 -2.060017e+00 1.306384e+00 197 190 178
-1.417946e+00 -2.101276e+00 1.636886e+00 173 168 150
-7.345757e-01 -2.015172e+00 1.270749e+00 161 151 137
-5.713444e-01 -4.668563e+00 5.303698e-01 86 75 53
-7.747995e-01 -4.534707e+00 8.594193e-01 146 135 110
-5.342271e-01 -4.290417e+00 2.668462e-01 68 59 36
1.150392e-01 -4.192236e+00 2.358305e-01 52 47 28
-7.324739e-01 -4.407052e+00 1.095299e+00 86 72 54
-6.347037e-01 -4.336016e+00 7.490365e-01 168 158 133
-7.429680e-01 -4.231355e+00 5.208285e-01 127 111 75
-2.082569e-01 -4.075613e+00 2.115532e-01 199 188 160
-9.569743e-02 -4.012494e+00 1.945515e-01 105 93 65
1.751553e-01 -3.944645e+00 6.694029e-02 73 64 37
1.751553e-01 -3.944645e+00 6.694029e-02 73 64 37
4.255820e-02 -3.950954e+00 1.402283e-01 90 76 45
4.255820e-02 -3.950954e+00 1.402283e-01 90 76 45
-7.317929e-01 -4.070470e+00 4.916147e-01 166 154 124
-7.592149e-01 -4.054131e+00 5.228950e-01 173 159 125
-9.601002e-01 -4.214252e+00 1.332488e+00 81 70 46
7.854974e-01 -3.756836e+00 6.063517e-02 119 110 81
4.835987e-01 -3.752807e+00 -1.138192e-01 114 102 75
-7.471094e-02 -3.854465e+00 1.264883e-01 112 100 75
-8.529292e-01 -4.050922e+00 8.272193e-01 98 78 39
-7.473549e-01 -3.896519e+00 4.722227e-01 69 57 33
6.356948e-01 -3.580478e+00 3.161021e-02 134 119 87
-7.093443e-02 -3.644876e+00 1.040901e-01 35 25 1
9.807349e-01 -3.573374e+00 2.018563e-01 140 125 94
3.800769e-01 -3.561786e+00 -7.692691e-02 82 66 32
7.489061e-01 -3.538615e+00 9.049348e-02 96 83 57
-1.081910e+00 -3.948315e+00 1.424306e+00 115 95 67
-3.167195e-01 -3.624183e+00 1.746830e-01 187 173 145
-1.097455e+00 -3.940297e+00 1.447150e+00 203 187 161
-7.213303e-01 -3.636347e+00 2.993537e-01 180 164 130
6.961350e-01 -3.480726e+00 9.317432e-02 106 86 55
-2.329094e-01 -3.533810e+00 1.529126e-01 172 159 140
3.790839e-01 -3.416318e+00 -6.479966e-02 155 141 113
8.579894e-01 -3.432788e+00 1.700112e-01 103 90 60
-8.555629e-01 -3.665999e+00 7.761121e-01 183 168 136
-4.036854e-02 -3.443898e+00 5.780930e-02 100 90 63
-4.036854e-02 -3.443898e+00 5.780930e-02 100 90 63
8.868288e-01 -3.396720e+00 1.550831e-01 129 120 90
5.637108e-01 -3.386135e+00 2.510391e-02 82 72 37
-7.494644e-02 -3.447495e+00 1.133152e-01 108 89 58
-2.370195e-02 -3.430050e+00 7.516357e-02 193 181 157
-6.051916e-01 -3.489905e+00 2.773531e-01 81 63 33
1.404891e+00 -3.398638e+00 4.373541e-01 138 125 91
-1.005173e+00 -3.672643e+00 1.291280e+00 108 95 69
-1.000405e+00 -3.658404e+00 1.284592e+00 216 206 183
-8.076641e-01 -3.475917e+00 5.673942e-01 96 80 46
8.334493e-01 -3.270681e+00 2.278068e-01 176 161 132
-9.645257e-01 -3.565798e+00 1.104085e+00 64 51 32
4.089969e-01 -3.225948e+00 4.351397e-02 142 122 95
9.401303e-01 -3.242184e+00 3.096773e-01 185 174 146
-5.856948e-01 -3.293765e+00 2.562974e-01 179 161 129
-7.106866e-01 -3.287423e+00 3.429932e-01 159 140 101
-7.488552e-01 -3.295998e+00 3.726193e-01 98 83 54
6.017377e-01 -3.184328e+00 1.560361e-01 145 131 104
-7.778120e-01 -3.342834e+00 5.837452e-01 145 126 93
5.975168e-01 -3.168212e+00 1.308934e-01 98 90 58
8.878227e-01 -3.173565e+00 2.926794e-01 115 102 75
7.283846e-01 -3.143919e+00 1.842918e-01 131 123 102
-7.098466e-01 -3.246551e+00 3.936237e-01 117 101 67
-6.953520e-01 -3.231631e+00 3.736626e-01 158 146 114
1.277766e+00 -3.178559e+00 4.412000e-01 177 165 141
-6.788552e-01 -3.210257e+00 3.748967e-01 139 123 88
-7.494248e-01 -3.238816e+00 5.607127e-01 93 77 52
4.072226e-02 -3.056453e+00 9.607972e-03 160 148 131
-4.210341e-01 -3.096988e+00 1.139560e-01 115 103 76
-7.808953e-01 -3.199423e+00 6.009690e-01 154 140 106
-6.345986e-01 -3.095841e+00 3.592276e-01 115 98 70
6.255120e-01 -2.992482e+00 2.559865e-01 179 167 152
-3.195915e-01 -2.955450e+00 9.382278e-02 95 81 47
-6.842950e-01 -3.082898e+00 5.284194e-01 156 142 115
-6.842950e-01 -3.082898e+00 5.284194e-01 156 142 115
5.606974e-01 -2.966876e+00 2.825792e-01 61 45 19
-6.619891e-01 -3.026917e+00 5.229270e-01 137 120 90
-1.076455e+00 -3.269329e+00 1.380947e+00 171 155 129
-7.442307e-01 -3.058399e+00 7.188567e-01 90 75 55
-1.065198e+00 -3.228625e+00 1.335702e+00 177 161 127
-5.301412e-01 -2.908495e+00 3.139349e-01 77 59 31
3.425453e-01 -2.874957e+00 2.275702e-01 102 90 64
-9.377362e-01 -3.125742e+00 1.207078e+00 173 157 126
-1.056923e+00 -3.158944e+00 1.394096e+00 114 98 68
8.770631e-01 -2.872287e+00 4.570310e-01 158 141 119
1.219436e-01 -2.775739e+00 2.536960e-01 177 168 147
-4.706792e-01 -2.766448e+00 4.377597e-01 127 110 78
-7.993987e-01 -2.942415e+00 1.020123e+00 182 174 148
2.812058e-01 -2.729685e+00 3.437973e-01 178 161 131
1.200485e-02 -2.662596e+00 3.000783e-01 78 71 44
-6.153495e-01 -2.801166e+00 7.791157e-01 113 100 70
-6.380813e-01 -2.803617e+00 8.212110e-01 126 113 86
1.228259e+00 -2.745538e+00 5.846633e-01 137 132 106
-9.763555e-01 -2.885619e+00 1.309808e+00 90 73 47
-5.864198e-01 -2.689563e+00 7.770153e-01 168 153 133
-9.400820e-01 -2.827726e+00 1.257503e+00 93 76 51
1.127846e-01 -2.555693e+00 4.397570e-01 97 84 58
-3.285631e-02 -2.559469e+00 4.628450e-01 75 62 29
-8.269660e-02 -2.533701e+00 4.906299e-01 107 95 61
-1.102891e-01 -2.528499e+00 4.850005e-01 162 147 117
-8.753557e-02 -2.515730e+00 4.842703e-01 164 152 126
5.776195e-01 -2.549177e+00 5.549319e-01 152 137 118
-5.225522e-01 -2.556024e+00 7.599319e-01 108 97 79
-4.975718e-01 -2.543209e+00 7.460218e-01 165 158 137
4.564895e-01 -2.521064e+00 5.702791e-01 157 141 108
4.594752e-01 -2.467120e+00 5.563663e-01 121 115 92
1.960354e-02 -2.394004e+00 5.451777e-01 116 108 87
3.635502e-01 -2.439501e+00 6.196241e-01 177 162 146
-3.421530e-01 -2.415730e+00 7.062272e-01 156 143 125
-5.894320e-01 -2.510754e+00 1.072240e+00 182 169 134
-6.634086e-01 -2.421349e+00 1.191071e+00 149 133 107
-3.002565e-01 -2.294217e+00 8.401127e-01 166 154 130
-1.364288e+00 -2.095283e+00 1.556927e+00 172 163 141
1.174146e-01 -2.021118e+00 9.613606e-01 191 177 151
-1.925009e-01 -1.425195e+00 7.829672e-01 156 140 121
8.175480e-01 -2.562230e+00 5.395013e-01 148 136 109
1.783571e-01 -2.192793e+00 7.155985e-01 135 124 103
8.559146e-02 -1.786734e+00 9.399868e-01 91 77 68
8.599043e-02 -1.786854e+00 9.397653e-01 91 77 68
5.315037e-01 -1.513634e+00 6.372596e-01 188 185 180
-7.001142e-01 -2.558188e+00 1.151084e+00 152 141 121
6.695599e-03 -2.340947e+00 6.611056e-01 72 60 36
2.351097e-01 -2.304987e+00 7.245851e-01 78 67 46
5.069276e-01 -1.714769e+00 8.596626e-01 92 83 71
3.828288e-01 -1.598676e+00 7.337023e-01 154 152 144
-4.765533e-01 -1.106021e+00 8.942275e-01 161 155 143
-4.517478e-01 -9.425145e-01 9.058892e-01 151 142 121
-7.466858e-01 -3.536007e+00 4.917696e-01 54 38 22
1.129202e+00 -2.693868e+00 5.634620e-01 137 125 104
1.114726e+00 -2.489800e+00 7.837750e-01 196 191 172
-3.564885e-01 -2.414796e+00 6.367678e-01 129 115 98
-4.220731e-01 -2.235068e+00 1.186224e+00 93 83 58
-1.851038e-01 -1.894153e+00 9.464935e-01 163 156 138
-2.324789e-01 -1.852998e+00 9.938545e-01 106 100 86
-1.820061e-02 -7.933501e-01 6.335131e-01 165 152 133
-6.335699e-01 -3.104649e+00 4.001690e-01 73 57 41
1.468776e-01 -2.784746e+00 1.514145e-01 74 62 47
5.333831e-01 -2.290326e+00 6.623602e-01 153 143 117
4.841480e-01 -2.266107e+00 6.994109e-01 152 137 116
3.969499e-01 -2.225095e+00 7.092871e-01 144 129 106
-6.164109e-01 -2.382521e+00 1.047707e+00 157 144 127
1.406040e-01 -1.048470e+00 7.064757e-01 54 49 30
-8.122595e-01 -3.677468e+00 6.364268e-01 159 152 134
-7.648771e-01 -3.354403e+00 6.419259e-01 62 46 30
-7.869493e-01 -3.296668e+00 5.568575e-01 141 130 112
-7.558574e-01 -3.193682e+00 5.310428e-01 139 127 110
1.007143e+00 -2.816760e+00 4.840161e-01 153 137 121
-7.726426e-01 -3.053682e+00 8.940706e-01 140 126 106
-8.480231e-01 -2.914057e+00 1.184906e+00 157 145 125
3.318635e-01 -2.582178e+00 4.805310e-01 139 127 111
-6.085929e-01 -2.492706e+00 1.043618e+00 165 152 135
1.776927e-01 -2.218063e+00 7.493903e-01 160 149 131
-5.518629e-01 -2.342797e+00 1.304426e+00 202 195 178
