ply
format ascii 1.0
element face 0
property list uchar int vertex_indices
element vertex 685
property float x
property float y
property float z
property uchar diffuse_red
property uchar diffuse_green
property uchar diffuse_blue
end_header
-2.147600e-01 -3.511771e+00 2.947136e+00 144 149 144
5.119124e-01 -3.385176e+00 2.946198e+00 151 162 159
1.644455e+00 8.001755e-01 3.067354e+00 163 164 163
2.751713e+00 -3.806917e+00 2.923272e+00 176 188 201
-5.865738e+00 1.321021e+00 3.026996e+00 149 159 152
-6.374396e+00 1.503364e+00 3.038774e+00 157 161 153
-5.563834e+00 1.326215e+00 3.026337e+00 156 158 155
-6.453296e+00 1.639477e+00 3.047108e+00 79 74 58
-5.098688e+00 1.647458e+00 3.044847e+00 167 173 168
2.869546e+00 2.396551e+00 3.063370e+00 99 99 89
1.932918e+00 -7.691187e-01 3.101416e+00 121 120 107
4.288912e+00 2.788350e-01 3.016244e+00 169 174 167
1.364121e+00 -3.347122e+00 2.942573e+00 168 173 175
-5.898572e+00 5.695441e+00 3.164348e+00 134 146 140
-3.353896e+00 -4.465450e-01 3.043523e+00 145 147 142
3.361681e+00 -5.591420e-01 2.980215e+00 69 66 61
-2.147600e-01 -3.511771e+00 2.947136e+00 144 149 144
-6.355985e+00 1.803608e+00 3.056023e+00 157 159 148
-1.431679e+00 -3.317291e+00 2.957147e+00 164 169 172
4.619436e+00 1.459173e-01 3.010135e+00 169 172 165
-1.564256e+00 9.328186e-01 2.911129e+00 94 91 82
-2.669545e-01 -3.911273e+00 2.939362e+00 85 83 62
-7.903830e-01 -3.286803e+00 2.955541e+00 166 171 176
1.618235e+00 -3.494988e+00 2.938827e+00 76 68 45
-1.073134e-01 -3.814027e+00 2.941344e+00 80 77 60
-6.514077e-01 -3.171786e+00 2.956511e+00 147 156 154
2.030483e+00 -3.647460e+00 2.931974e+00 93 91 76
-1.920700e+00 -2.918127e+00 2.968560e+00 135 140 130
3.805382e+00 1.173439e-01 3.022704e+00 107 98 81
1.125162e+00 -3.418821e+00 2.944803e+00 82 76 56
1.880220e+00 -3.471175e+00 2.936473e+00 154 155 155
2.291168e+00 -2.166570e+00 2.959971e+00 159 160 152
1.383584e+00 9.358840e-01 3.071213e+00 175 181 177
1.227496e+00 -3.627634e+00 2.944937e+00 138 140 135
1.855394e+00 -2.072095e+00 2.964088e+00 135 135 130
1.892986e+00 1.156995e+00 3.058875e+00 141 148 140
1.433987e+00 -3.441090e+00 2.941501e+00 76 68 47
9.001692e-01 -3.221650e+00 2.946505e+00 148 151 149
1.306631e+00 -3.200677e+00 2.943993e+00 141 142 132
3.418542e+00 -1.101419e+00 2.963270e+00 150 153 153
2.913960e+00 3.560303e+00 3.093725e+00 135 141 140
2.302439e+00 -4.329803e+00 2.923549e+00 45 43 31
1.938313e+00 -3.625835e+00 2.934094e+00 65 59 44
1.297763e+00 -3.393498e+00 2.943994e+00 83 75 59
-2.774540e+00 2.445943e+00 3.108477e+00 93 95 88
1.612244e+00 -3.441649e+00 2.939422e+00 159 165 161
1.110619e+00 -3.325679e+00 2.945252e+00 73 62 44
-5.075343e+00 1.308618e+00 3.025869e+00 72 68 50
-4.846581e+00 1.537307e+00 3.041885e+00 161 162 153
7.629692e-01 1.077372e+00 3.083355e+00 94 94 84
3.027360e+00 3.383975e+00 3.089115e+00 165 182 189
1.515544e+00 -3.864873e+00 2.937419e+00 131 132 125
2.112025e+00 -3.689954e+00 2.931311e+00 68 64 50
1.238819e+00 -3.168411e+00 2.945255e+00 145 148 139
-2.501569e+00 -1.101184e+00 3.026638e+00 139 139 130
1.970019e+00 1.045594e-01 3.024930e+00 139 138 127
-5.047207e+00 1.550313e+00 3.041834e+00 88 82 71
1.289902e-01 1.107771e+00 3.150956e+00 71 67 51
1.720677e+00 2.130290e+00 3.071771e+00 56 56 48
-4.629899e+00 3.681832e+00 3.120959e+00 168 173 169
1.753508e+00 -3.579359e+00 2.936678e+00 119 120 108
-1.296996e+00 -3.146921e+00 2.959802e+00 150 156 151
-2.208995e+00 -3.009359e+00 2.965122e+00 53 50 39
-1.694504e+00 -3.029737e+00 2.963129e+00 72 68 56
4.028462e-01 -3.138386e+00 2.950966e+00 143 149 141
-5.576819e-01 -2.442343e+00 2.971010e+00 87 84 74
-3.788932e+00 -1.347939e+00 3.021866e+00 60 59 48
-2.088910e+00 -1.334969e+00 3.010455e+00 136 137 120
-1.545614e+00 -1.325679e+00 3.007499e+00 133 126 110
-3.012428e+00 -1.082012e+00 3.032635e+00 80 72 49
1.336981e+00 -1.221686e-01 3.152707e+00 143 139 119
1.680337e+00 2.046513e+00 3.072193e+00 49 49 42
1.705662e+00 2.069234e+00 3.071868e+00 125 127 119
1.705662e+00 2.069234e+00 3.071868e+00 125 127 119
2.116143e+00 4.333906e+00 3.114106e+00 111 111 110
2.946513e+00 -4.364381e+00 2.912058e+00 76 73 65
1.144055e+00 -3.292916e+00 2.944987e+00 144 147 143
1.370227e+00 -3.107693e+00 2.943284e+00 56 49 41
3.435205e+00 -2.525531e+00 2.940327e+00 59 55 45
2.030125e+00 -1.583897e+00 2.961067e+00 148 134 117
2.030125e+00 -1.583897e+00 2.961067e+00 148 134 117
1.336981e+00 -1.221686e-01 3.152707e+00 143 139 119
1.822528e+00 4.341218e-01 3.061980e+00 167 173 169
1.871689e+00 4.802373e-01 3.058646e+00 31 31 23
1.871689e+00 4.802373e-01 3.058646e+00 31 31 23
1.888325e+00 6.757921e-01 3.062108e+00 85 84 79
2.748415e+00 1.474051e+00 3.032192e+00 155 159 153
1.230519e+00 2.075058e+00 3.075294e+00 166 175 177
-3.831503e+00 3.261241e+00 3.105984e+00 140 143 132
7.325773e-01 2.394084e+00 3.082596e+00 169 181 178
-4.685422e+00 3.896885e+00 3.130516e+00 168 171 165
-4.685422e+00 3.896885e+00 3.130516e+00 168 171 165
4.108791e-01 2.861391e+00 3.093728e+00 176 176 163
1.801683e+00 3.017579e+00 3.071114e+00 82 81 70
2.002993e+00 3.808637e+00 3.105843e+00 130 140 142
-1.409672e-01 -3.944630e+00 2.940942e+00 44 47 35
1.064698e+00 -3.333135e+00 2.945087e+00 130 130 114
1.650497e+00 -2.699897e+00 2.952388e+00 152 151 139
2.868127e+00 -2.758586e+00 2.945964e+00 63 54 47
2.608659e+00 4.796406e-01 3.013624e+00 175 191 194
-3.837095e+00 1.662020e+00 3.041417e+00 53 54 46
2.081309e+00 8.400677e-01 3.053554e+00 76 73 61
3.083549e+00 1.985586e+00 3.056049e+00 112 112 103
-5.600387e+00 4.012624e+00 3.134351e+00 77 78 70
3.518125e+00 2.172455e+00 3.052283e+00 169 171 168
-4.331762e+00 5.933495e+00 3.183383e+00 151 157 151
-4.010279e+00 6.033884e+00 3.190115e+00 68 67 72
-5.113090e+00 3.462606e+00 3.109356e+00 46 52 51
-2.937231e+00 -5.145484e-01 3.040197e+00 156 158 151
-3.268378e+00 -4.885952e-01 3.041539e+00 163 170 163
-6.336110e+00 1.334891e+00 3.031402e+00 83 83 75
4.732177e-01 5.060913e-01 3.254506e+00 104 97 78
-5.865738e+00 1.321021e+00 3.026996e+00 149 159 152
4.542403e+00 -2.294363e-01 3.011560e+00 31 28 24
-6.208665e+00 1.416256e+00 3.032691e+00 87 88 76
-6.643658e+00 1.590559e+00 3.045706e+00 87 82 68
4.026236e+00 4.182952e-03 3.021919e+00 75 72 63
-5.098684e+00 1.647488e+00 3.044924e+00 167 173 168
4.012265e+00 2.677022e-01 3.020811e+00 167 170 163
-3.816394e+00 -1.295253e+00 3.026765e+00 140 141 135
-3.376091e+00 -8.990085e-01 3.046263e+00 142 145 134
-2.779702e+00 -4.944303e-01 3.040962e+00 143 160 164
1.997909e+00 5.176083e-01 3.063021e+00 95 96 88
-5.415623e+00 2.160265e+00 3.068301e+00 92 92 90
-4.796768e+00 2.067937e+00 3.061231e+00 68 69 64
-4.818548e+00 4.117847e+00 3.141414e+00 63 64 49
2.787019e+00 2.432449e+00 3.064530e+00 90 91 84
-5.960720e+00 5.640120e+00 3.162010e+00 147 157 162
-3.550319e+00 -9.550817e-01 3.044303e+00 84 78 65
4.685189e+00 -9.753451e-01 2.994766e+00 171 176 179
-5.772769e+00 1.824704e+00 3.053212e+00 156 158 145
-5.788655e+00 1.836728e+00 3.055779e+00 156 158 145
-5.687561e+00 1.834907e+00 3.055958e+00 157 155 147
3.472531e+00 2.191243e+00 3.051844e+00 171 173 166
3.243164e+00 2.268484e+00 3.057976e+00 159 163 158
3.559864e+00 2.175799e+00 3.050602e+00 168 170 164
3.722664e+00 2.144043e+00 3.048253e+00 164 169 163
3.986398e+00 2.102575e+00 3.044245e+00 119 120 121
-2.586089e+00 -6.381288e-01 3.024640e+00 154 159 154
-6.028242e+00 9.901070e-01 3.013942e+00 153 160 154
-2.045631e+00 6.417790e-01 2.923892e+00 47 47 39
-4.297606e+00 1.181571e+00 3.022522e+00 97 94 80
-4.369349e+00 3.934882e+00 3.132806e+00 140 139 129
4.029360e+00 2.074450e+00 3.043681e+00 171 179 171
-1.886755e-01 -2.874200e+00 2.955366e+00 61 66 74
1.993164e+00 3.741100e-01 3.062652e+00 156 162 158
7.343098e-01 2.432011e+00 3.082377e+00 116 117 111
-4.380104e+00 4.008372e+00 3.140230e+00 64 61 51
-4.380104e+00 4.008372e+00 3.140230e+00 64 61 51
1.922595e+00 -3.946073e+00 2.931881e+00 122 124 113
2.725846e+00 -3.829711e+00 2.923283e+00 170 186 202
2.772377e+00 -3.445760e+00 2.930572e+00 165 175 177
-3.034631e+00 -1.464778e+00 3.016423e+00 47 38 29
-3.304883e-01 -1.618200e+00 2.978530e+00 119 116 106
2.431615e+00 -1.797266e+00 2.957462e+00 136 139 130
-2.806619e+00 -1.303643e+00 3.022310e+00 111 113 108
-2.806619e+00 -1.303643e+00 3.022310e+00 111 113 108
1.981987e+00 -1.933665e+00 2.963008e+00 45 41 30
2.854709e+00 -4.107562e+00 2.915359e+00 71 72 64
-5.765871e+00 2.079673e+00 3.064396e+00 168 179 174
4.428466e+00 1.631280e+00 3.033406e+00 136 139 132
3.003999e+00 -4.191979e+00 2.912976e+00 88 85 71
3.065389e+00 -4.154254e+00 2.912003e+00 162 164 178
3.248313e+00 -4.279609e+00 2.906496e+00 160 166 177
2.390943e+00 -4.273555e+00 2.922080e+00 143 145 144
2.252753e+00 -3.768353e+00 2.929034e+00 82 77 64
-2.979615e-02 -3.696247e+00 2.943194e+00 164 168 169
2.171287e+00 -3.658831e+00 2.931282e+00 168 179 181
1.036676e+00 -3.221257e+00 2.945745e+00 144 146 143
1.036676e+00 -3.221257e+00 2.945745e+00 144 146 143
3.283284e+00 -2.096041e+00 2.952694e+00 57 59 46
-3.115030e+00 -1.490769e+00 3.011679e+00 46 42 31
-2.720755e+00 -6.692750e-01 3.023576e+00 138 140 135
4.463978e+00 -7.978106e-01 3.003571e+00 81 82 71
4.380272e+00 -7.409893e-01 3.005898e+00 80 80 68
1.176206e+00 2.452823e-01 3.150494e+00 151 145 133
1.176206e+00 2.452823e-01 3.150494e+00 151 145 133
-5.910694e+00 1.218785e+00 3.022951e+00 34 32 19
-5.563834e+00 1.326215e+00 3.026337e+00 156 158 155
1.515931e+00 6.647503e-01 3.079853e+00 160 171 164
-3.977099e+00 1.580603e+00 3.034261e+00 157 158 151
6.854503e-01 1.085532e+00 3.107421e+00 163 168 156
5.082791e-01 1.146065e+00 3.114550e+00 168 172 161
-6.596794e+00 3.999363e+00 3.132597e+00 153 162 163
3.123124e+00 -4.254657e+00 2.908587e+00 90 91 78
4.621051e-02 -3.733531e+00 2.941986e+00 83 77 62
-2.800565e+00 -5.614972e-01 3.029694e+00 61 63 51
1.695778e+00 -1.487040e-01 3.111875e+00 156 155 150
-2.673592e+00 3.190042e-01 3.053695e+00 171 173 172
-5.459612e+00 9.318938e-01 3.011164e+00 138 145 140
9.229725e-01 3.788038e-01 3.173690e+00 142 138 126
6.615784e-01 5.056599e-01 3.206578e+00 147 143 130
1.055668e+00 5.012896e-01 3.134889e+00 143 143 133
9.266631e-01 5.758040e-01 3.146347e+00 146 143 131
6.881516e-01 6.823030e-01 3.165513e+00 148 143 129
-5.242800e+00 1.391515e+00 3.028829e+00 68 66 53
1.380809e+00 7.459379e-01 3.081870e+00 177 182 180
-5.269397e+00 1.716583e+00 3.049348e+00 164 165 161
1.211158e+00 9.104352e-01 3.085150e+00 98 99 91
1.062799e+00 9.863733e-01 3.091941e+00 107 106 95
9.139373e-01 1.048517e+00 3.095350e+00 104 104 94
3.750341e-01 1.193183e+00 3.119532e+00 171 175 171
2.391720e+00 1.504936e+00 3.032486e+00 79 73 66
4.332860e+00 1.681435e+00 3.036038e+00 138 139 132
-6.322422e+00 4.147306e+00 3.138118e+00 154 158 157
2.969767e+00 -4.302744e+00 2.912429e+00 67 61 50
2.092783e+00 -4.177090e+00 2.926827e+00 71 68 50
2.430718e+00 -3.911654e+00 2.925182e+00 126 123 108
2.430718e+00 -3.911654e+00 2.925182e+00 126 123 108
1.600762e+00 -3.892297e+00 2.936408e+00 130 134 129
2.393110e+00 -3.819863e+00 2.926390e+00 80 77 68
3.289999e-01 -3.755028e+00 2.943592e+00 61 58 48
1.936252e+00 -3.569167e+00 2.934363e+00 166 171 172
9.174767e-01 -3.479888e+00 2.945565e+00 119 114 97
-1.617197e+00 -3.131050e+00 2.961624e+00 144 145 140
-4.821632e-01 -3.172110e+00 2.955438e+00 150 154 152
9.963840e-02 -3.059623e+00 2.953281e+00 132 134 123
-1.945872e-01 -3.048005e+00 2.955287e+00 128 128 118
-3.513957e-01 -3.038087e+00 2.956490e+00 129 132 124
4.272643e+00 -2.619571e+00 2.926661e+00 146 152 148
2.797722e+00 -2.076014e+00 2.957973e+00 97 91 77
-2.031169e+00 -1.559941e+00 3.001595e+00 122 123 114
3.022805e+00 -1.829785e+00 2.955636e+00 141 144 142
-4.773776e+00 -1.089536e+00 3.021291e+00 71 62 44
-4.961509e+00 -1.070272e+00 3.022372e+00 74 68 49
-1.473689e+00 -1.343134e+00 3.004671e+00 133 129 112
-1.605418e+00 -1.254584e+00 3.006407e+00 82 76 62
-1.955008e+00 -1.214358e+00 3.013310e+00 92 86 70
-4.508641e-01 -1.340407e+00 2.975132e+00 98 94 82
-7.684062e-01 -1.319599e+00 2.983621e+00 80 74 60
-9.337105e-01 -1.304854e+00 2.988061e+00 80 75 55
-1.792421e+00 -1.229055e+00 3.014321e+00 92 86 71
-1.782890e+00 -1.228606e+00 3.010477e+00 92 86 71
1.071728e+00 -1.459013e+00 2.961660e+00 90 85 64
1.588393e-01 -1.381782e+00 2.968731e+00 97 91 75
2.961956e+00 -1.622980e+00 2.956552e+00 104 96 81
2.837890e+00 -1.612983e+00 2.957194e+00 99 92 76
4.757763e+00 -1.769105e+00 2.940924e+00 96 90 74
4.812374e+00 -1.770408e+00 2.940218e+00 145 142 134
3.765416e+00 -1.526008e+00 2.946426e+00 96 92 83
3.648678e+00 -1.514701e+00 2.946987e+00 94 89 70
2.637464e+00 -7.684405e-01 3.039597e+00 156 161 157
2.223855e+00 -9.971369e-02 3.059398e+00 143 144 136
1.894782e+00 1.133943e-01 3.076615e+00 131 130 125
-5.816203e+00 1.225821e+00 3.023437e+00 129 131 118
-1.500160e+00 4.993460e-01 2.834909e+00 75 75 66
-1.419734e+00 5.370252e-01 2.826987e+00 76 76 66
-1.419734e+00 5.370252e-01 2.826987e+00 76 76 66
1.701517e+00 3.536932e-01 3.079516e+00 69 66 54
1.473870e+00 5.118018e-01 3.090900e+00 70 70 62
1.245345e+00 5.872683e-01 3.106911e+00 137 136 122
-5.325510e+00 1.589823e+00 3.042596e+00 93 88 75
-5.886962e+00 1.696344e+00 3.048481e+00 142 143 128
-5.646494e+00 1.696797e+00 3.047361e+00 143 142 128
-6.355985e+00 1.803608e+00 3.056023e+00 157 159 148
-6.172293e+00 1.898880e+00 3.059041e+00 106 107 96
4.470235e+00 2.599329e-01 3.013165e+00 92 91 82
3.727949e-01 1.071957e+00 3.132535e+00 137 137 128
1.445554e+00 1.010851e+00 3.076571e+00 174 180 177
9.449612e-01 1.305179e+00 3.084680e+00 47 48 41
6.615854e-01 1.373427e+00 3.090562e+00 55 57 46
-6.958589e+00 2.572861e+00 3.087639e+00 82 80 67
-5.327052e+00 2.332149e+00 3.076079e+00 82 82 69
4.828073e+00 8.416787e-01 3.016820e+00 167 179 185
2.693539e+00 1.426702e+00 3.030271e+00 64 63 52
-6.023885e+00 3.481726e+00 3.113032e+00 169 181 177
4.509273e+00 1.453922e+00 3.031287e+00 164 180 184
4.509273e+00 1.453922e+00 3.031287e+00 164 180 184
4.520510e+00 1.604129e+00 3.031896e+00 82 81 86
-6.361880e+00 3.826301e+00 3.125792e+00 160 171 165
4.594677e+00 1.612389e+00 3.031687e+00 151 158 151
-1.642624e-02 2.669657e+00 3.087896e+00 38 38 36
-4.064130e+00 3.585633e+00 3.117354e+00 165 171 167
2.703126e+00 2.441006e+00 3.065933e+00 99 103 96
3.099395e+00 2.359710e+00 3.060714e+00 90 92 86
4.056231e+00 2.119246e+00 3.043598e+00 103 108 110
4.056231e+00 2.119246e+00 3.043598e+00 103 108 110
2.977108e+00 3.689040e+00 3.094000e+00 164 166 163
-7.954122e+00 7.691604e+00 3.243800e+00 164 167 172
-7.823697e-01 -4.157634e+00 2.935779e+00 130 137 136
7.555348e-01 -4.026444e+00 2.939349e+00 99 102 85
-1.704891e-01 -3.187835e+00 2.953443e+00 146 148 144
-1.991467e+00 -3.014141e+00 2.964700e+00 66 66 53
-3.790655e+00 -2.867016e+00 2.979877e+00 146 155 150
1.767361e-01 -3.064846e+00 2.952233e+00 129 130 122
2.300777e+00 -3.121316e+00 2.938023e+00 125 126 112
-1.920700e+00 -2.918127e+00 2.968560e+00 135 140 130
-1.341351e+00 -2.903831e+00 2.965103e+00 78 72 56
1.568864e+00 -2.997183e+00 2.939559e+00 87 84 69
-1.424504e-01 -2.908684e+00 2.954274e+00 158 173 173
-1.424504e-01 -2.908684e+00 2.954274e+00 158 173 173
-2.823053e+00 -2.760797e+00 2.982055e+00 128 131 121
2.760465e+00 -2.998573e+00 2.932788e+00 146 150 149
2.760465e+00 -2.998573e+00 2.932788e+00 146 150 149
-3.681408e+00 -2.656164e+00 2.989905e+00 135 140 133
-3.911553e+00 -2.613217e+00 2.995145e+00 81 74 65
3.270792e+00 -2.122346e+00 2.953604e+00 59 60 55
-3.247109e+00 -1.436415e+00 3.018287e+00 88 89 77
4.571385e+00 -1.828610e+00 2.943146e+00 71 64 38
3.938164e+00 -1.737198e+00 2.942860e+00 122 124 111
-4.485075e+00 1.269010e+00 3.026374e+00 92 85 73
-6.272174e+00 1.534868e+00 3.041018e+00 150 152 148
1.509414e+00 5.409677e-01 3.086487e+00 143 144 131
-4.784752e+00 1.385532e+00 3.030703e+00 152 150 136
4.020646e+00 2.029611e-01 3.020779e+00 87 79 67
-6.439011e+00 1.794167e+00 3.056032e+00 156 158 146
1.801093e+00 9.085127e-01 3.058284e+00 156 160 157
1.508546e+00 1.169102e+00 3.061431e+00 69 69 58
1.892230e+00 1.125901e+00 3.063072e+00 81 85 70
-6.809757e+00 2.587676e+00 3.088454e+00 148 149 144
-5.050116e+00 2.331702e+00 3.075427e+00 159 164 154
-1.217264e+00 2.921300e+00 3.094167e+00 180 193 203
3.624563e-01 2.638712e+00 3.087586e+00 194 205 206
3.912304e+00 1.976389e+00 3.044687e+00 168 181 182
2.593037e+00 2.413216e+00 3.067113e+00 149 150 137
3.397747e+00 2.237057e+00 3.055703e+00 160 163 156
3.882388e+00 2.162529e+00 3.045871e+00 110 112 109
-4.484494e+00 5.579856e+00 3.167264e+00 144 155 151
2.499398e+00 -4.400856e+00 2.917980e+00 60 60 46
2.386265e+00 -3.954204e+00 2.926160e+00 113 116 100
1.454016e+00 -3.907444e+00 2.938120e+00 60 58 46
5.975160e-02 -3.840784e+00 2.941536e+00 114 112 98
2.222385e+00 -3.874283e+00 2.929514e+00 118 119 105
2.222385e+00 -3.874283e+00 2.929514e+00 118 119 105
1.427743e+00 -3.841732e+00 2.939746e+00 62 56 43
2.311264e+00 -3.801734e+00 2.927331e+00 139 145 133
1.884741e+00 -3.602544e+00 2.934454e+00 146 143 133
1.654661e+00 -3.521562e+00 2.937958e+00 135 137 125
1.340312e+00 -3.380715e+00 2.942899e+00 85 79 65
-4.034491e-01 -3.282890e+00 2.953350e+00 163 167 166
-1.371140e-01 -3.265566e+00 2.952358e+00 90 88 77
2.306864e+00 -3.287582e+00 2.936327e+00 145 150 147
-1.055175e+00 -3.156843e+00 2.958761e+00 143 145 141
2.847308e+00 -3.296945e+00 2.932326e+00 147 149 140
1.615093e+00 -3.152366e+00 2.942277e+00 71 64 57
2.316482e+00 -3.160795e+00 2.937911e+00 82 78 67
-1.675352e+00 -2.993569e+00 2.964476e+00 145 147 141
1.701627e+00 -3.124425e+00 2.941611e+00 141 143 130
-2.806304e+00 -2.829867e+00 2.979719e+00 139 150 146
-3.963988e+00 -2.697899e+00 2.987780e+00 78 75 65
1.985374e+00 -2.997077e+00 2.937950e+00 103 102 85
3.409247e+00 -3.016794e+00 2.927726e+00 143 148 143
4.113881e+00 -2.616787e+00 2.929497e+00 146 148 145
4.191652e+00 -2.429951e+00 2.930038e+00 151 153 148
7.812142e-01 -2.157335e+00 2.966538e+00 102 95 77
-4.112071e+00 -1.231315e+00 3.009651e+00 67 59 40
2.860382e+00 -1.721006e+00 2.957325e+00 139 140 132
3.498870e-04 -1.448857e+00 2.972533e+00 120 112 102
1.165091e+00 -1.542250e+00 2.963951e+00 73 62 42
1.844694e+00 -1.598023e+00 2.961968e+00 103 90 66
4.703598e+00 -1.831639e+00 2.941552e+00 96 87 67
3.541914e+00 -1.738919e+00 2.944328e+00 173 186 185
3.920912e+00 -1.765587e+00 2.943070e+00 64 62 54
3.696364e+00 -1.645108e+00 2.946755e+00 79 70 57
-9.053254e-01 -8.032918e-01 2.999943e+00 137 142 134
4.395965e+00 -1.068527e+00 3.006922e+00 126 133 128
-5.603442e+00 3.610694e-01 2.998953e+00 161 169 163
-5.766639e+00 5.062459e-01 3.004502e+00 91 91 87
9.715514e-01 1.431939e-01 3.189185e+00 93 88 72
3.254005e-01 5.943218e-01 3.278245e+00 76 65 53
-3.360366e-01 9.212646e-01 3.543382e+00 72 65 52
1.666517e+00 2.906520e-01 3.086850e+00 158 159 144
1.930773e+00 2.637747e-01 3.068582e+00 95 94 80
3.838587e-01 7.530413e-01 3.214214e+00 71 65 49
1.330545e+00 5.245164e-01 3.101733e+00 156 158 144
1.031423e+00 6.860706e-01 3.114082e+00 154 156 145
-5.643690e+00 1.575714e+00 3.037525e+00 155 158 141
-5.652270e+00 1.640934e+00 3.044164e+00 103 97 79
-5.652270e+00 1.640934e+00 3.044164e+00 103 97 79
-5.997789e+00 1.690925e+00 3.049038e+00 71 68 55
-5.752828e+00 1.679619e+00 3.045038e+00 73 66 51
-1.197930e-01 1.095188e+00 3.215172e+00 85 81 70
1.892456e+00 6.957484e-01 3.068127e+00 85 84 79
1.846212e+00 7.178169e-01 3.070927e+00 136 145 139
4.394962e+00 3.066457e-01 3.013511e+00 99 95 84
1.011044e+00 9.507290e-01 3.095157e+00 165 171 161
4.317258e+00 3.357751e-01 3.015812e+00 94 92 79
1.124024e-01 1.201855e+00 3.139528e+00 100 91 81
-3.389144e-02 1.227694e+00 3.138559e+00 85 82 77
-6.492848e-01 1.357525e+00 3.117899e+00 173 177 172
-6.086436e+00 2.479735e+00 3.083948e+00 137 141 134
-4.844739e+00 2.292697e+00 3.073384e+00 127 132 123
1.563321e+00 2.197966e+00 3.075613e+00 76 76 65
4.030481e+00 1.732067e+00 3.042415e+00 154 158 160
-5.756426e+00 3.762350e+00 3.122837e+00 142 147 124
3.139996e+00 2.081658e+00 3.058015e+00 136 142 128
4.772401e+00 1.673047e+00 3.027353e+00 79 76 73
3.555660e+00 2.018760e+00 3.051175e+00 166 180 180
-4.973506e+00 3.794750e+00 3.124134e+00 121 127 112
-5.459934e+00 4.125058e+00 3.138776e+00 153 156 145
-5.459934e+00 4.125058e+00 3.138776e+00 153 156 145
5.229361e-01 2.914260e+00 3.093122e+00 88 88 81
-4.936275e+00 4.052967e+00 3.140371e+00 155 158 146
4.874833e+00 1.858964e+00 3.021162e+00 168 176 175
-3.963980e+00 3.977534e+00 3.136953e+00 76 77 71
-3.963980e+00 3.977534e+00 3.136953e+00 76 77 71
-5.106529e+00 4.235022e+00 3.147783e+00 157 160 142
-4.760384e+00 5.633131e+00 3.170470e+00 161 172 167
2.912124e+00 3.887956e+00 3.095426e+00 99 98 100
2.029034e+00 4.169344e+00 3.111666e+00 81 83 81
2.029034e+00 4.169344e+00 3.111666e+00 81 83 81
2.845060e+00 3.953538e+00 3.099629e+00 87 84 87
1.823373e+00 4.287052e+00 3.115716e+00 76 74 73
2.941128e+00 -4.336572e+00 2.912565e+00 121 121 113
1.623646e+00 -3.792349e+00 2.938596e+00 145 147 141
2.070616e+00 -3.660616e+00 2.931667e+00 84 85 78
1.396570e+00 -3.488356e+00 2.942060e+00 117 117 100
-2.376322e+00 -3.007168e+00 2.966946e+00 60 61 55
-1.946454e+00 -3.020281e+00 2.965576e+00 62 60 51
-2.492932e+00 -2.778457e+00 2.977582e+00 100 100 95
3.188014e+00 -3.034224e+00 2.929855e+00 72 71 57
-2.899556e+00 -2.697592e+00 2.985261e+00 146 152 143
-1.481502e+00 -2.672272e+00 2.969696e+00 153 158 150
-2.204982e+00 -2.565981e+00 2.975090e+00 82 78 71
2.115163e-01 -2.693166e+00 2.963393e+00 146 147 141
4.013788e+00 -2.853643e+00 2.917126e+00 163 169 165
2.019636e-01 -2.652191e+00 2.963607e+00 144 145 140
1.696350e+00 -2.657942e+00 2.952377e+00 156 157 149
4.125214e+00 -2.720797e+00 2.929745e+00 129 134 127
-3.283985e+00 -2.284698e+00 2.992657e+00 135 138 132
2.220308e+00 -2.611109e+00 2.949724e+00 55 54 41
4.130235e+00 -2.694274e+00 2.929567e+00 78 68 63
4.130235e+00 -2.694274e+00 2.929567e+00 78 68 63
4.122877e+00 -2.670145e+00 2.929573e+00 132 134 124
4.116737e+00 -2.642796e+00 2.929253e+00 79 78 65
-2.082320e+00 -1.512555e+00 3.003736e+00 62 62 49
-2.921239e+00 -1.393752e+00 3.022817e+00 87 83 66
1.795111e+00 -1.702646e+00 2.960504e+00 85 76 63
8.581054e-01 -1.586053e+00 2.964387e+00 148 151 132
1.939333e+00 -1.677524e+00 2.960601e+00 78 63 42
4.203194e+00 -1.861604e+00 2.939000e+00 146 153 148
-8.248586e-01 -1.389052e+00 2.991862e+00 72 64 38
-3.671963e+00 -1.017762e+00 3.035793e+00 83 75 62
3.984103e+00 -1.621538e+00 2.945148e+00 139 136 120
4.115880e+00 -1.620417e+00 2.944377e+00 81 70 54
3.129108e+00 -1.384316e+00 2.971020e+00 71 73 67
1.826003e+00 -1.159448e+00 2.977005e+00 169 173 179
1.270941e+00 -9.940336e-01 2.978500e+00 50 47 33
2.549482e+00 -8.479081e-01 3.049671e+00 92 89 77
4.580784e+00 -8.190278e-01 2.999709e+00 134 134 136
4.097760e+00 -5.509746e-01 3.012556e+00 175 182 175
1.368698e+00 4.539175e-02 3.138225e+00 85 79 63
-5.325813e+00 8.783239e-01 3.002125e+00 55 58 53
1.453584e+00 2.033632e-01 3.116167e+00 86 82 65
-1.452296e+00 3.974084e-01 2.815256e+00 160 165 156
1.280412e+00 3.178991e-01 3.127657e+00 82 78 65
-6.594035e+00 1.443298e+00 3.038739e+00 78 75 68
-6.606605e+00 1.484003e+00 3.040339e+00 156 162 155
1.834878e+00 3.487710e-01 3.069815e+00 103 105 92
-5.253715e+00 1.442562e+00 3.032569e+00 74 68 52
1.064782e+00 6.402539e-01 3.118548e+00 82 75 61
1.087779e+00 6.590932e-01 3.112871e+00 156 160 147
9.237072e-01 7.399384e-01 3.121336e+00 156 154 139
7.121188e-01 8.330817e-01 3.133278e+00 158 157 152
3.324050e-01 9.524704e-01 3.168462e+00 81 78 62
1.294480e-01 1.022920e+00 3.188018e+00 82 80 67
1.289152e+00 8.088135e-01 3.086660e+00 174 179 175
1.085422e+00 9.152804e-01 3.092348e+00 175 176 169
8.590896e-01 1.098429e+00 3.092291e+00 92 90 76
-5.333700e+00 2.009861e+00 3.061044e+00 122 120 106
1.652987e+00 9.990016e-01 3.070274e+00 149 152 140
1.027166e+00 1.152506e+00 3.088003e+00 78 76 72
4.305472e-01 1.269889e+00 3.102069e+00 160 161 155
1.452028e+00 1.048266e+00 3.061916e+00 172 174 166
1.296513e+00 1.121064e+00 3.079167e+00 162 163 158
-4.588056e+00 2.211842e+00 3.068250e+00 83 77 67
2.643460e+00 1.332127e+00 3.030338e+00 141 142 129
-6.998629e+00 3.102960e+00 3.087838e+00 95 92 85
2.186914e+00 1.566084e+00 3.034942e+00 141 143 131
2.186914e+00 1.566084e+00 3.034942e+00 141 143 131
1.730823e+00 2.021015e+00 3.071268e+00 148 154 147
3.564439e+00 1.640549e+00 3.046959e+00 77 80 82
-2.401093e-01 2.726707e+00 3.089075e+00 65 61 55
-4.174420e+00 3.569122e+00 3.117323e+00 149 154 144
-4.174420e+00 3.569122e+00 3.117323e+00 149 154 144
1.345309e+00 2.507812e+00 3.082423e+00 98 100 87
-2.210300e+00 3.285556e+00 3.109238e+00 105 106 91
6.349053e-01 2.738531e+00 3.091622e+00 163 166 161
1.879686e+00 2.485439e+00 3.060014e+00 69 64 57
5.020415e+00 1.757942e+00 3.018946e+00 98 97 94
3.151731e+00 2.299617e+00 3.059302e+00 154 154 142
2.250399e+00 2.615058e+00 3.057370e+00 105 103 98
2.250399e+00 2.615058e+00 3.057370e+00 105 103 98
-3.359841e+00 3.971114e+00 3.156045e+00 81 80 74
2.092732e+00 3.920831e+00 3.106788e+00 159 166 167
2.080862e+00 4.127329e+00 3.110145e+00 79 80 83
2.235902e+00 4.109887e+00 3.104730e+00 104 105 104
3.554784e+00 3.776052e+00 3.080370e+00 168 185 190
3.108215e+00 4.136524e+00 3.095975e+00 108 108 107
-5.194181e+00 6.524048e+00 3.203591e+00 174 185 182
-7.424944e+00 7.029121e+00 2.921585e+00 141 139 134
2.926002e+00 -4.311393e+00 2.913481e+00 51 47 38
2.938779e+00 -4.298724e+00 2.913391e+00 131 132 120
2.649225e+00 -4.157462e+00 2.920718e+00 129 130 116
2.624743e+00 -4.127161e+00 2.921366e+00 60 53 36
2.364173e+00 -3.917164e+00 2.926938e+00 128 125 108
1.901139e+00 -3.792498e+00 2.935647e+00 112 110 95
1.896842e+00 -3.584179e+00 2.933990e+00 85 83 75
1.839669e+00 -3.583390e+00 2.935161e+00 141 144 138
1.464456e+00 -3.562909e+00 2.941333e+00 118 119 107
1.849662e+00 -3.565797e+00 2.935000e+00 87 87 84
1.263739e+00 -3.488089e+00 2.944068e+00 46 35 21
-1.967059e+00 -3.151527e+00 2.960602e+00 82 77 74
-1.216611e+00 -3.184923e+00 2.958407e+00 75 75 66
-1.226415e+00 -3.178708e+00 2.959047e+00 75 75 66
-2.013246e+00 -3.103673e+00 2.962426e+00 144 146 140
6.615429e-01 -3.161321e+00 2.948184e+00 108 104 94
-3.022814e+00 -2.881834e+00 2.978317e+00 149 156 149
4.056518e+00 -3.095463e+00 2.915271e+00 48 48 41
-3.121171e-01 -2.917620e+00 2.955619e+00 90 91 84
-3.166769e+00 -2.731374e+00 2.985320e+00 89 88 79
-2.845066e+00 -2.702535e+00 2.985356e+00 131 133 124
1.669568e+00 -2.424427e+00 2.952711e+00 78 75 62
-2.804600e+00 -1.568119e+00 3.011019e+00 83 79 65
-1.214516e+00 -1.652739e+00 2.992001e+00 127 128 119
3.286455e+00 -1.867010e+00 2.953286e+00 137 140 132
-1.074275e+00 -1.506593e+00 2.993580e+00 137 137 126
-1.380141e+00 -1.423080e+00 3.000113e+00 43 41 25
-1.433733e+00 -1.358941e+00 3.000284e+00 130 129 109
-1.361982e+00 -1.318411e+00 3.003816e+00 129 122 113
1.533731e+00 -1.538939e+00 2.961599e+00 149 144 128
1.023246e+00 -1.484133e+00 2.963471e+00 81 73 61
-6.542340e-01 -1.279449e+00 2.978677e+00 85 76 68
-5.492166e-01 -9.554697e-01 2.996409e+00 72 65 49
-5.489059e+00 5.047020e-01 3.003603e+00 114 119 107
-5.006899e+00 6.469387e-01 2.999966e+00 106 107 94
9.097062e-01 1.695447e-01 3.197616e+00 152 150 130
4.328978e+00 -4.166996e-01 3.014839e+00 163 176 175
4.351353e+00 -3.860885e-01 3.013438e+00 159 178 175
5.303763e-01 3.601517e-01 3.261414e+00 82 78 73
-4.660910e+00 1.178727e+00 3.013017e+00 72 75 65
4.517756e+00 2.427399e-02 3.012864e+00 152 157 142
-5.463136e+00 1.513963e+00 3.036927e+00 69 64 49
-5.341955e+00 1.635639e+00 3.046081e+00 83 80 66
1.122966e+00 8.676669e-01 3.092436e+00 123 124 114
-6.194926e+00 1.937541e+00 3.063062e+00 85 81 72
6.372415e-01 1.080854e+00 3.109807e+00 118 118 103
-4.181918e+00 1.743147e+00 3.039163e+00 160 165 151
7.084642e-01 1.161976e+00 3.098269e+00 85 88 79
1.914224e+00 9.025259e-01 3.056659e+00 133 136 126
1.914224e+00 9.025259e-01 3.056659e+00 133 136 126
1.503441e+00 9.793593e-01 3.061172e+00 176 178 171
-1.753330e+00 1.467500e+00 2.991693e+00 157 162 149
9.972827e-01 1.185191e+00 3.087519e+00 168 172 158
1.224848e+00 1.139804e+00 3.080514e+00 159 168 163
-4.635470e+00 2.038848e+00 3.059318e+00 95 97 91
1.286593e+00 1.266125e+00 3.073892e+00 149 158 149
1.296559e+00 1.230519e+00 3.062313e+00 149 158 149
2.110916e-01 1.500268e+00 3.093081e+00 85 86 80
-2.828080e+00 2.693869e+00 3.138036e+00 143 149 142
1.628018e+00 2.121112e+00 3.073763e+00 80 82 70
-5.318839e+00 3.450821e+00 3.110378e+00 66 66 58
4.781508e-01 2.388623e+00 3.082538e+00 93 94 86
-6.480865e+00 3.728483e+00 3.122084e+00 78 78 69
-5.972575e+00 3.647989e+00 3.121219e+00 77 79 68
1.183228e+00 2.297936e+00 3.077254e+00 156 158 153
-4.375667e+00 3.478219e+00 3.118801e+00 93 92 87
3.723827e+00 1.885327e+00 3.047986e+00 183 190 186
4.029340e+00 1.812169e+00 3.040307e+00 149 162 165
-4.030660e+00 3.673624e+00 3.122017e+00 70 69 57
-1.058833e+00 3.101826e+00 3.100308e+00 94 93 88
-1.451302e+00 3.189102e+00 3.102645e+00 88 89 88
-5.929888e+00 4.093055e+00 3.139279e+00 149 154 131
-5.581857e+00 4.033324e+00 3.136994e+00 133 137 122
3.526852e+00 2.133288e+00 3.053151e+00 172 175 174
3.526852e+00 2.133288e+00 3.053151e+00 172 175 174
-5.438835e+00 4.115633e+00 3.138527e+00 164 169 159
-5.438835e+00 4.115633e+00 3.138527e+00 164 169 159
-6.348870e+00 4.355483e+00 3.149665e+00 85 86 71
-6.348870e+00 4.355483e+00 3.149665e+00 85 86 71
-6.026134e+00 4.299212e+00 3.148451e+00 91 89 76
-5.998983e+00 4.279280e+00 3.144490e+00 91 89 76
-6.650967e+00 4.462327e+00 3.153893e+00 155 160 153
-6.618133e+00 4.439446e+00 3.149540e+00 155 160 153
2.572272e+00 2.502424e+00 3.067792e+00 95 92 88
-5.516598e+00 4.235440e+00 3.144806e+00 152 153 130
3.533505e+00 2.258349e+00 3.050740e+00 95 94 89
3.064462e+00 2.390636e+00 3.058033e+00 165 168 157
1.748279e+00 2.700615e+00 3.064198e+00 163 166 149
1.677014e+00 2.783439e+00 3.064613e+00 156 157 141
1.677014e+00 2.783439e+00 3.064613e+00 156 157 141
4.967982e+00 2.062138e+00 3.024388e+00 128 127 127
-3.372757e+00 4.360928e+00 3.177768e+00 111 111 101
-3.634326e+00 4.895874e+00 3.199709e+00 90 91 85
2.056780e+00 3.722135e+00 3.106304e+00 124 125 121
2.173874e+00 3.716429e+00 3.102715e+00 89 90 95
2.132039e+00 4.027311e+00 3.108112e+00 160 171 167
2.132039e+00 4.027311e+00 3.108112e+00 160 171 167
-4.632717e+00 6.030908e+00 3.185922e+00 151 157 152
-2.864062e+00 -2.708088e+00 2.984606e+00 67 73 65
-2.829497e+00 -1.435354e+00 3.020644e+00 123 124 119
1.246653e+00 -1.515562e+00 2.962653e+00 136 130 111
2.755586e+00 -6.038602e-01 3.030252e+00 68 70 65
2.763585e+00 -6.298155e-01 3.028348e+00 68 70 65
1.776749e+00 -3.031728e-01 3.109549e+00 103 101 92
-4.697546e+00 6.871953e-01 2.997880e+00 187 192 186
1.410511e+00 4.234908e-01 3.104300e+00 136 130 114
1.085304e+00 6.099102e-01 3.120595e+00 141 139 126
-4.865519e+00 1.398267e+00 3.027079e+00 73 68 49
-5.828265e+00 1.771138e+00 3.053225e+00 149 147 135
-6.978828e+00 2.624010e+00 3.091481e+00 86 91 84
2.239725e+00 1.874950e+00 3.046385e+00 130 133 130
3.190262e+00 1.905048e+00 3.053276e+00 113 116 111
-5.482619e+00 3.663058e+00 3.125948e+00 100 100 90
-4.646359e+00 3.765468e+00 3.127883e+00 102 100 93
-3.785960e+00 3.689067e+00 3.122942e+00 84 86 78
-3.825447e+00 3.704576e+00 3.123205e+00 83 84 77
-4.823647e+00 3.923758e+00 3.134398e+00 110 107 96
-3.764049e+00 3.757726e+00 3.126929e+00 156 157 148
-3.764049e+00 3.757726e+00 3.126929e+00 156 157 148
-4.814204e+00 4.016621e+00 3.139119e+00 160 163 152
4.996539e+00 1.795869e+00 3.019964e+00 97 100 99
3.336413e+00 2.250860e+00 3.054098e+00 98 94 83
-4.168966e+00 3.968275e+00 3.138713e+00 71 71 59
-4.359839e+00 3.987016e+00 3.135798e+00 64 61 51
-4.227992e+00 4.058094e+00 3.144920e+00 75 76 70
1.843996e+00 2.868479e+00 3.067532e+00 177 182 176
-3.290560e+00 4.501956e+00 3.185743e+00 88 84 73
3.157249e+00 -6.463131e-01 3.112950e+00 175 174 181
-2.017280e+00 -2.139573e+00 2.891893e+00 18 19 21
3.312185e+00 -1.274295e+00 3.031254e+00 138 140 138
-1.566850e+00 5.607228e-01 2.299738e+00 127 123 114
1.882670e+00 5.111219e-01 2.771677e+00 141 140 136
1.882670e+00 5.111219e-01 2.771677e+00 141 140 136
1.459431e+00 2.179285e+00 3.049306e+00 139 138 136
-2.618345e+00 -1.667067e+00 3.031147e+00 37 30 25
-4.206150e+00 1.478468e+00 2.765325e+00 148 150 149
1.751112e+00 5.724133e-01 2.828885e+00 132 133 128
-1.165242e+00 1.347920e+00 2.885519e+00 150 148 141
1.811348e+00 5.990845e-01 2.868822e+00 72 67 63
2.711726e+00 2.218373e-01 3.143726e+00 172 173 177
-4.903614e+00 1.838669e+00 2.766566e+00 49 45 41
1.441271e+00 8.292988e-01 2.895214e+00 91 88 81
-1.187359e+00 1.521086e+00 2.827888e+00 93 86 83
7.224229e-01 -3.202026e+00 3.034522e+00 137 137 133
-9.721571e-01 -2.825521e+00 3.012219e+00 134 137 142
4.700989e-02 -2.307646e+00 3.051801e+00 53 49 46
3.168817e+00 -1.961680e+00 3.030070e+00 136 121 113
1.592547e+00 -1.675659e+00 3.212819e+00 94 81 72
-5.522243e+00 1.044447e+00 2.275884e+00 112 105 89
2.299510e+00 1.831456e-01 2.778214e+00 72 67 63
7.192582e-02 1.473600e+00 3.002127e+00 68 66 64
-1.204727e+00 1.730303e+00 2.995441e+00 44 42 39
1.934734e+00 1.190294e+00 3.006839e+00 64 62 61
1.418543e-01 -1.944091e+00 3.081368e+00 66 59 49
-4.054963e+00 -1.325014e+00 3.040310e+00 85 79 67
1.041014e+00 1.930020e-01 2.414979e+00 134 131 126
-7.182099e-01 9.458888e-01 2.493948e+00 63 56 48
2.633864e+00 3.269588e-01 3.155914e+00 112 117 120
2.632573e+00 4.015472e-01 3.191620e+00 166 168 168
1.439828e+00 1.069431e+00 2.930322e+00 159 155 152
7.901587e-01 -2.336672e+00 3.002441e+00 117 116 112
3.280142e+00 -2.195118e+00 2.947850e+00 70 72 71
2.064184e-01 -1.959406e+00 3.071686e+00 53 45 40
1.081241e+00 -2.003838e+00 3.083203e+00 81 71 61
2.402905e+00 -4.414851e-01 2.543540e+00 70 64 54
1.486129e+00 2.061378e-01 2.509145e+00 144 140 136
-1.324310e+00 8.372759e-01 2.464357e+00 63 56 51
1.182341e+00 9.279920e-01 2.874797e+00 161 158 154
7.889293e-01 1.144256e+00 2.940133e+00 75 72 64
1.274559e+00 2.107510e+00 3.069604e+00 166 161 161
-5.028426e-01 2.754593e+00 3.123472e+00 65 61 64
1.395154e+00 2.383088e+00 3.102820e+00 71 63 62
-5.093970e-01 -2.138994e+00 3.020928e+00 134 133 124
-3.563488e-01 -1.791086e+00 3.198968e+00 70 61 54
-2.028764e+00 -1.455597e+00 3.131355e+00 75 62 56
-3.696539e+00 -1.204283e+00 3.271810e+00 48 43 39
1.894042e+00 -1.311170e+00 3.099181e+00 113 109 102
-1.081326e+00 1.227094e+00 2.726968e+00 149 142 135
-4.402068e+00 1.772520e+00 2.784675e+00 130 129 125
-8.936138e-01 1.516422e+00 2.819248e+00 80 77 69
-2.095212e+00 1.815977e+00 2.912723e+00 130 125 121
1.318029e+00 2.169062e+00 3.096010e+00 81 76 72
5.591411e-01 2.479811e+00 3.151849e+00 142 141 137
-2.067551e-01 2.808713e+00 3.154633e+00 156 158 157
1.321853e+00 2.220024e+00 3.130777e+00 101 98 93
1.011571e+00 2.356174e+00 3.105341e+00 65 63 64
6.506126e+00 -9.755893e+00 -8.110742e+00 0 255 0
6.525697e+00 -9.785560e+00 -8.145911e+00 255 255 0
-6.424716e-01 1.701598e-02 2.465682e+00 255 0 0
-6.424235e-01 1.736216e-02 2.415683e+00 255 255 0
6.095021e+00 -1.017989e+01 1.328516e+01 0 255 0
6.075420e+00 -1.014645e+01 1.325358e+01 255 255 0
4.111792e+00 -1.001882e+01 1.257350e+01 255 0 0
4.096673e+00 -9.988082e+00 1.253708e+01 255 255 0
