ply
format ascii 1.0
element face 0
property list uchar int vertex_indices
element vertex 923
property float x
property float y
property float z
property uchar diffuse_red
property uchar diffuse_green
property uchar diffuse_blue
end_header
1.102454e+00 1.321009e+00 -3.100631e-01 159 152 136
-1.498779e+00 1.400656e+00 -3.166022e-01 136 128 109
-1.331270e+00 1.272358e+00 -9.861143e-02 136 128 109
-3.387012e+00 2.432247e+00 -2.384651e+00 50 55 71
-4.491783e+00 4.493975e-01 1.716548e+00 73 70 54
-1.380165e+01 4.476262e+00 -6.200353e+00 73 70 54
-1.149630e+00 1.233141e+00 2.681029e-02 192 192 184
-4.860406e+00 6.734523e-01 1.331672e+00 151 151 143
-4.973225e+00 7.511421e-01 1.321301e+00 148 151 140
1.839928e+00 2.349207e+00 -2.326993e+00 131 124 99
-4.127679e+00 7.950312e-01 1.374472e+00 134 122 107
-3.729026e+00 8.567888e-01 1.291218e+00 141 136 113
-3.972547e+00 8.644266e-01 1.298580e+00 81 73 55
-3.810846e+00 8.887924e-01 1.281794e+00 83 76 57
-3.050003e+00 6.092503e-01 1.889939e+00 176 172 155
-6.202852e+00 3.759148e+00 -4.170821e+00 163 161 148
1.710202e+00 3.010924e+00 -3.264630e+00 181 176 157
-1.206865e-01 1.079199e+00 8.999311e-01 67 65 76
1.097675e+00 2.248878e+00 -1.611415e+00 154 150 138
4.834668e-01 1.585842e+00 -1.238230e-01 196 192 180
9.313038e-01 2.130393e+00 -1.135600e+00 207 206 189
-5.485323e+00 1.161029e+00 1.133810e+00 194 197 188
-1.480715e+00 1.438762e+00 5.292506e-01 15 16 6
1.228741e+00 2.257298e+00 -1.403041e+00 189 189 181
1.685690e+00 2.711660e+00 -2.295557e+00 133 130 114
-3.896643e+00 1.011867e+00 1.636211e+00 194 191 184
-7.393317e+00 1.674015e+00 4.346318e-01 163 161 140
-5.012480e+00 1.334736e+00 1.143591e+00 175 173 163
-5.486261e+00 1.381591e+00 1.091239e+00 175 176 162
9.885393e-01 2.443719e+00 -1.368097e+00 108 110 97
-4.040113e+00 1.109854e+00 1.633981e+00 177 175 161
8.366338e-01 2.382956e+00 -1.167702e+00 105 108 88
1.123832e+00 2.802066e+00 -1.772085e+00 178 178 165
1.120470e+00 2.803825e+00 -1.784323e+00 178 178 165
-3.041348e+00 1.672431e+00 9.223802e-01 75 77 75
-8.174314e+00 2.319425e+00 -1.580194e-02 128 130 123
9.073294e-01 2.911909e+00 -1.651110e+00 174 171 154
-4.602302e+00 1.773778e+00 1.022315e+00 100 95 73
8.154502e-01 2.933043e+00 -1.568797e+00 91 88 71
-5.591184e-01 2.361305e+00 -2.007831e-01 156 150 135
-5.591184e-01 2.361305e+00 -2.007831e-01 156 150 135
1.487787e+00 3.465432e+00 -2.623666e+00 180 175 153
-1.055628e-01 2.198597e+00 4.981148e-02 176 174 160
-4.586276e-01 2.444667e+00 -2.765856e-01 171 166 160
1.376497e+00 3.525704e+00 -2.544769e+00 182 175 150
-5.848029e+00 2.146141e+00 7.741469e-01 134 130 111
-9.730010e-01 2.440191e+00 -9.868569e-02 140 133 115
-6.557119e+00 2.733301e+00 -1.575826e-01 135 132 117
-4.223250e+00 2.048229e+00 9.194104e-01 83 78 55
-1.694710e+00 2.330607e+00 2.262737e-01 141 134 116
-4.320561e+00 3.073276e+00 -8.546376e-01 175 177 166
-7.671552e-01 2.532142e+00 -1.942392e-01 87 81 66
1.644745e+00 3.859176e+00 -3.116908e+00 184 180 171
8.855859e-01 3.315606e+00 -1.913506e+00 138 134 114
1.271671e+00 3.568809e+00 -2.468038e+00 176 169 150
2.003623e-01 3.087969e+00 -1.295698e+00 76 77 63
2.397627e-01 3.064715e+00 -1.135034e+00 125 125 115
-4.176261e+00 2.237546e+00 8.764707e-01 144 144 130
3.149558e-01 3.111345e+00 -1.200871e+00 154 156 141
-2.360262e+00 2.023310e+00 1.119132e+00 78 79 66
-7.592341e+00 5.634982e+00 -4.512980e+00 86 88 77
1.661864e+00 4.024593e+00 -3.076983e+00 176 174 159
-1.979609e+00 2.495391e+00 3.306680e-01 134 121 113
-6.296353e-01 2.822682e+00 -3.983165e-01 156 153 137
-6.827051e-01 2.825507e+00 -3.899483e-01 123 119 107
-7.167834e-01 2.472399e+00 2.504401e-01 136 132 118
-1.837408e+00 2.672970e+00 1.777816e-01 139 139 126
7.725241e-01 3.678885e+00 -2.053167e+00 200 198 177
9.257555e-01 3.721004e+00 -2.150277e+00 104 108 86
-1.730395e+00 2.687976e+00 1.557625e-01 149 143 129
-3.579152e+00 2.962967e+00 -7.942317e-02 171 172 165
-7.557260e+00 8.025682e+00 -8.051379e+00 87 84 67
4.047913e-02 3.523543e+00 -1.418930e+00 83 81 56
1.420722e-01 3.860688e+00 -1.972000e+00 191 190 168
1.172547e+00 4.511496e+00 -3.306976e+00 86 85 68
1.432344e+00 4.663520e+00 -3.645724e+00 91 93 66
-9.993765e-01 2.998992e+00 -7.292090e-02 157 157 143
-1.217352e+00 3.167333e+00 -3.164776e-01 155 153 138
-2.327521e+00 3.161860e+00 -1.950818e-01 107 107 95
-9.664892e-01 3.283415e+00 -5.353325e-01 167 161 149
-9.596251e-01 3.328448e+00 -5.538468e-01 101 94 84
-6.793981e-01 3.621256e+00 -8.837005e-01 159 157 146
-7.244947e+00 3.688074e+00 -1.839846e-01 148 150 138
-6.029658e+00 3.404121e+00 2.027248e-01 126 128 117
-3.798953e+00 3.243185e+00 3.253554e-01 151 145 131
8.634831e-01 5.156995e+00 -3.438808e+00 133 134 126
1.953719e-01 6.822188e+00 -5.899278e+00 211 212 205
9.292654e-01 5.507863e+00 -3.877947e+00 115 111 111
-4.529296e-01 4.920941e+00 -2.427568e+00 158 159 155
-2.761889e-01 7.391869e+00 -5.923830e+00 139 133 143
-6.937901e-01 5.778830e+00 -3.215393e+00 161 162 154
-6.251049e+00 4.841561e+00 -5.659655e-01 158 155 150
-1.304449e+01 8.130277e+00 -4.150839e+00 113 113 103
-9.459315e+00 8.450445e+00 -4.814400e+00 105 106 100
-8.469864e-01 7.882745e+00 -5.852711e+00 111 110 106
-1.293665e+00 6.531152e+00 -3.633824e+00 88 87 81
-1.078832e+00 8.778111e+00 -6.823793e+00 46 48 42
-1.109755e+00 8.675978e+00 -6.647651e+00 59 65 47
-5.271612e+00 5.778280e+00 -1.277428e+00 96 93 85
-1.589146e+00 7.475092e+00 -4.426646e+00 23 27 19
-1.367149e+01 1.149569e+01 -7.501163e+00 99 97 75
-5.666904e+00 6.353979e+00 -1.731332e+00 112 112 102
-2.810052e+00 6.837340e+00 -2.986044e+00 100 98 83
-4.721157e+00 6.313214e+00 -1.802311e+00 114 116 106
-1.775260e+00 1.682470e+01 -1.808776e+01 58 64 57
-1.723459e+00 1.528772e+01 -1.571702e+01 90 92 81
-4.369246e-01 7.796072e+00 -4.866147e+00 164 164 151
-1.919291e-01 8.082826e+00 -5.372178e+00 144 144 138
-2.263532e+00 8.930570e+00 -5.906977e+00 115 116 100
-3.022569e+00 8.110981e+00 -4.417531e+00 93 92 80
-1.408947e+00 7.074910e+00 -3.362890e+00 75 77 66
-6.117013e+00 7.229120e+00 -2.366706e+00 60 61 55
-3.319361e+00 8.592452e+00 -4.835722e+00 164 165 148
-2.542879e+00 1.535869e+01 -1.486661e+01 72 74 63
-6.780396e+00 7.677393e+00 -2.658289e+00 170 170 157
-2.780882e+00 1.569754e+01 -1.506965e+01 114 116 106
-6.122506e+00 7.667245e+00 -2.722590e+00 142 143 126
-3.624160e+00 8.423887e+00 -4.269778e+00 156 154 142
-1.573083e+00 7.723531e+00 -3.871644e+00 63 57 44
-3.934091e+00 6.966481e+00 -2.140212e+00 175 177 163
-3.030265e+00 1.000141e+01 -6.579895e+00 152 151 132
-6.350522e+00 8.142632e+00 -3.100975e+00 155 156 142
-1.761922e+00 7.912480e+00 -3.913037e+00 150 151 129
-1.496334e+00 8.245469e+00 -4.426293e+00 169 165 166
-3.452700e+00 1.719197e+01 -1.644336e+01 102 115 97
-3.184568e+00 1.077507e+01 -7.400045e+00 63 63 46
-4.050750e+00 9.208192e+00 -4.960236e+00 130 130 119
-1.227812e+00 8.834631e+00 -5.232130e+00 152 151 135
-1.962933e+00 8.155253e+00 -4.012353e+00 144 141 134
-3.418982e+00 1.204010e+01 -8.909016e+00 152 145 136
-3.667081e+00 1.232629e+01 -9.047820e+00 130 132 117
-5.850745e+00 1.023228e+01 -5.218589e+00 246 252 254
-5.850745e+00 1.023228e+01 -5.218589e+00 246 252 254
-2.318111e+00 9.499359e+00 -5.055379e+00 66 67 68
-4.759232e+00 1.314944e+01 -9.159001e+00 56 57 61
-4.881653e+00 1.430339e+01 -1.057361e+01 120 117 101
-2.270384e+00 1.001138e+01 -5.601219e+00 143 141 132
-1.383891e+00 1.138911e+01 -7.810400e+00 138 143 119
-5.040182e+00 1.492715e+01 -1.123319e+01 146 147 133
-5.040182e+00 1.492715e+01 -1.123319e+01 146 147 133
-6.836047e+00 2.194808e+01 -1.845673e+01 23 34 25
2.211499e+00 -3.967145e+00 -9.874516e+00 90 79 59
1.843529e+00 -4.430234e+00 -1.935230e+00 128 122 106
1.856927e+00 -4.404101e+00 -1.848185e+00 75 68 52
1.733470e+00 -4.137070e+00 -2.029626e+00 85 78 60
1.766811e+00 -4.139636e+00 -1.916179e+00 85 78 60
1.830188e+00 -3.892083e+00 -4.606358e+00 122 105 83
-6.370555e-01 -4.663882e+00 9.994156e-01 109 100 83
1.795959e+00 -3.834207e+00 -1.597973e+00 94 88 63
2.631203e+00 -3.343286e+00 -4.789960e+00 125 120 98
2.151962e+00 -3.560581e+00 -3.085343e+00 163 148 128
-6.187179e-01 -4.478198e+00 7.686634e-01 142 132 122
2.052296e+00 -3.748882e+00 -1.222206e+00 75 60 33
1.863116e+00 -3.759001e+00 -1.408573e+00 49 31 17
2.548793e+00 -3.213357e+00 -5.451601e+00 127 112 93
1.792941e+00 -3.760682e+00 -1.395716e+00 149 135 126
1.883253e+00 -3.727726e+00 -1.636491e+00 158 140 116
2.581187e+00 -3.078891e+00 -6.517983e+00 157 143 139
2.485623e+00 -3.280212e+00 -4.132539e+00 121 114 96
-6.656203e-01 -4.415962e+00 1.316417e+00 54 38 22
-8.648911e-01 -4.443697e+00 1.289659e+00 43 28 23
-9.356369e-01 -4.479217e+00 1.445267e+00 152 135 116
2.301673e+00 -3.380895e+00 -2.793708e+00 163 150 128
2.580283e+00 -3.243640e+00 -3.527836e+00 148 135 116
2.182423e+00 -3.536189e+00 -1.416044e+00 175 167 148
1.943767e+00 -3.534754e+00 -1.455972e+00 84 69 45
-8.377722e-01 -4.364726e+00 1.319289e+00 92 80 66
1.723149e+00 -3.610993e+00 -9.703407e-01 174 160 136
2.251437e+00 -3.267378e+00 -3.017502e+00 149 138 119
1.964747e+00 -3.320320e+00 -3.117277e+00 107 94 78
1.972248e+00 -3.375491e+00 -2.576397e+00 167 157 139
1.972248e+00 -3.375491e+00 -2.576397e+00 167 157 139
-1.097780e-01 -4.083024e+00 3.710652e-01 97 89 66
-8.444342e-01 -4.335057e+00 1.624849e+00 152 141 123
1.815947e+00 -2.987894e+00 -5.753869e+00 156 144 126
1.871051e+00 -3.465539e+00 -1.367062e+00 117 101 80
1.812578e+00 -3.493039e+00 -1.074498e+00 159 144 123
-7.883267e-01 -4.273411e+00 1.452934e+00 187 172 143
-3.230062e-01 -4.063622e+00 2.686879e-01 148 135 116
2.531978e+00 -3.388443e+00 -7.604214e-01 124 113 97
1.733298e+00 -2.854847e+00 -6.594822e+00 147 134 115
1.733298e+00 -2.854847e+00 -6.594822e+00 147 134 115
1.902075e+00 -3.378315e+00 -1.834064e+00 93 81 57
3.333969e+00 -3.016796e+00 -2.581684e+00 60 52 34
3.333969e+00 -3.016796e+00 -2.581684e+00 60 52 34
-3.670963e-01 -4.031788e+00 3.037460e-01 109 98 76
-5.286022e-01 -4.078497e+00 3.714513e-01 103 89 76
1.910889e+00 -3.365234e+00 -1.737318e+00 146 134 110
1.992462e+00 -3.214235e+00 -2.789273e+00 146 137 114
1.868123e+00 -3.444345e+00 -9.026304e-01 156 145 125
2.018779e+00 -3.127018e+00 -3.349806e+00 58 42 27
-2.288180e+00 -4.553137e+00 1.864763e+00 153 145 124
-7.683290e-01 -4.116987e+00 5.811911e-01 101 86 63
1.998844e+00 -3.258146e+00 -2.280879e+00 80 68 50
2.038880e+00 -3.177912e+00 -2.833695e+00 75 59 46
-7.558257e-01 -4.142589e+00 9.188987e-01 93 76 51
2.563759e+00 -2.964733e+00 -3.441689e+00 138 125 109
1.930046e+00 -3.343942e+00 -1.491988e+00 150 134 121
1.625171e+00 -2.639055e+00 -7.618502e+00 138 125 106
-8.784085e-01 -4.192443e+00 1.364256e+00 186 178 159
2.479537e+00 -3.039050e+00 -2.941126e+00 145 133 117
-6.525774e-01 -4.215475e+00 2.148250e+00 96 87 69
-9.641091e-01 -4.214413e+00 1.803450e+00 167 156 137
-9.641091e-01 -4.214413e+00 1.803450e+00 167 156 137
-1.068255e+00 -4.175239e+00 1.380551e+00 117 108 87
-9.236184e-01 -4.129531e+00 1.335595e+00 115 102 70
-5.849729e-01 -3.930431e+00 2.374749e-01 158 147 129
1.907250e+00 -3.233675e+00 -1.513925e+00 98 91 73
1.907250e+00 -3.233675e+00 -1.513925e+00 98 91 73
1.778624e+00 -3.326801e+00 -6.842982e-01 166 153 135
-8.363264e-01 -4.043270e+00 1.255537e+00 168 156 142
-2.583349e+00 -4.423233e+00 1.776763e+00 83 72 54
-8.757423e-01 -4.002153e+00 9.639253e-01 52 39 20
-9.367530e+00 -5.030864e+00 -2.541139e+00 150 142 124
-2.444754e+00 -4.396054e+00 1.860450e+00 142 134 113
-1.294048e-01 -3.699089e+00 2.945135e-02 64 53 33
-2.480537e+00 -4.364271e+00 1.902847e+00 159 152 136
-8.868135e-01 -4.027494e+00 1.661786e+00 102 86 67
-8.367902e-01 -3.911048e+00 1.058305e+00 166 151 120
1.974336e+00 -3.340300e+00 6.658897e-01 188 182 170
1.771777e+00 -3.195121e+00 -5.600179e-01 85 72 50
-7.711282e-01 -3.912341e+00 1.352839e+00 97 82 61
1.954995e+00 -3.021675e+00 -1.573823e+00 93 76 57
1.981538e+00 -2.961529e+00 -1.625030e+00 101 87 61
1.903226e+00 -3.104787e+00 -6.485143e-01 159 143 118
-9.981002e-01 -3.917689e+00 1.700695e+00 121 113 100
-7.696305e-01 -3.938035e+00 2.058189e+00 113 109 97
-4.041619e-01 -3.634036e+00 3.615205e-01 107 91 71
-2.666456e+00 -4.191277e+00 1.735334e+00 162 150 128
2.114359e+00 -2.617987e+00 -3.153506e+00 121 105 81
1.842457e+00 -3.038000e+00 -5.738470e-01 120 106 85
-3.630722e-01 -3.548605e+00 3.706559e-01 103 96 81
-5.947682e-01 -3.594340e+00 4.090713e-01 106 92 66
-7.444573e-01 -3.634447e+00 5.327455e-01 149 138 116
1.848225e+00 -3.001382e+00 -5.534784e-01 175 160 139
1.828938e+00 -3.008900e+00 -5.006575e-01 157 141 125
-2.839507e+00 -4.209731e+00 2.359114e+00 139 128 109
-9.289764e-01 -3.654926e+00 8.820810e-01 91 79 55
2.233137e+00 -2.772151e+00 -1.255746e+00 166 151 132
-8.553111e+00 -4.414121e+00 -1.820860e+00 152 140 124
-9.428875e-01 -3.680998e+00 1.316240e+00 92 85 66
2.166694e+00 -2.346903e+00 -3.781417e+00 155 143 116
2.166694e+00 -2.346903e+00 -3.781417e+00 155 143 116
1.995763e+00 -2.749846e+00 -1.544877e+00 111 97 71
2.231672e+00 -2.305754e+00 -3.524037e+00 157 145 121
-9.876930e-01 -3.582142e+00 1.146160e+00 150 140 113
-9.681279e-01 -3.626577e+00 1.550862e+00 95 83 60
3.082673e+00 -1.803413e+00 -5.399329e+00 164 158 146
1.924080e+00 -2.818014e+00 -4.433964e-01 108 96 76
-1.739874e-01 -3.128036e+00 6.343426e-03 150 135 114
-4.535469e-01 -3.192193e+00 1.697283e-01 76 62 45
-4.535469e-01 -3.192193e+00 1.697283e-01 76 62 45
-2.273365e-01 -3.126566e+00 2.031389e-02 72 62 37
-9.829638e-01 -3.436028e+00 1.243064e+00 171 159 135
2.285790e+00 -2.449925e+00 -1.243001e+00 95 80 57
-6.505854e-01 -3.190086e+00 4.534090e-01 146 130 107
2.385995e+00 -1.967119e+00 -3.430063e+00 68 53 32
-2.562589e-01 -3.090962e+00 2.969309e-01 83 70 54
-7.554576e-01 -3.198992e+00 5.596152e-01 151 140 122
2.516746e+00 -1.794793e+00 -3.987405e+00 154 138 113
-1.089464e+00 -3.306954e+00 1.391136e+00 129 114 93
-2.953298e+00 -3.666142e+00 1.914600e+00 55 46 30
-3.909631e+00 -3.473969e+00 5.192667e-01 60 51 37
2.241743e+00 -2.311821e+00 -8.625417e-01 66 53 36
2.150716e+00 -2.248896e+00 -1.174110e+00 123 115 96
2.287887e+00 -2.283068e+00 -8.621427e-01 80 67 50
2.187536e+00 -2.302662e+00 -7.097014e-01 130 118 92
2.451311e+00 -2.113481e+00 -1.283393e+00 119 107 91
2.396303e+00 -2.084647e+00 -1.492121e+00 119 107 91
-1.011154e+00 -3.063992e+00 1.082611e+00 63 52 33
-9.087981e-01 -3.127035e+00 1.513369e+00 121 113 90
2.359229e+00 -1.911341e+00 -2.103780e+00 120 106 93
-5.368325e-01 -2.806352e+00 4.933164e-01 149 138 114
2.545594e+00 -1.888979e+00 -1.716563e+00 91 77 64
-2.275425e+00 -3.331911e+00 2.101905e+00 150 142 129
2.298702e+00 -1.904839e+00 -1.609330e+00 49 35 19
-3.014889e+00 -3.396565e+00 2.266055e+00 64 53 31
2.260373e+00 -2.027252e+00 -7.073520e-01 135 122 106
2.227828e+00 -1.945873e+00 -7.027122e-01 160 147 131
-2.993645e-02 -2.540403e+00 5.742332e-01 137 124 106
5.989938e-01 -2.448008e+00 7.064916e-01 160 153 134
-7.653612e-01 -2.743781e+00 1.432870e+00 92 84 61
2.630087e+00 -1.612193e+00 -1.552941e+00 79 66 49
2.449560e+00 -1.816584e+00 -9.170822e-01 79 67 45
2.266893e+00 -1.868916e+00 -6.810074e-01 67 55 39
2.853319e+00 -1.505391e+00 -1.775311e+00 190 183 167
-2.345307e+00 -3.095695e+00 2.252830e+00 192 181 162
2.256278e+00 -1.817016e+00 -3.387356e-01 191 184 174
2.465942e+00 -1.621088e+00 -9.146432e-01 146 137 120
-4.615081e-01 -2.370154e+00 9.501330e-01 61 50 23
-7.807953e-01 -2.313113e+00 9.600559e-01 80 73 46
3.271260e-01 -2.129739e+00 7.569444e-01 76 59 41
-7.303089e-01 -2.414477e+00 1.455309e+00 163 150 130
-1.456100e-01 -2.109397e+00 7.864164e-01 161 153 134
2.409699e+00 -1.294306e+00 -6.832162e-01 152 141 129
-1.383741e+00 -2.031002e+00 1.054101e+00 144 136 123
-1.707885e+00 -2.244915e+00 1.885694e+00 107 100 91
1.827536e+00 -1.425163e+00 1.741268e-01 142 136 123
-3.496235e-01 -1.842352e+00 9.456442e-01 98 91 83
-8.229013e-01 -1.923730e+00 1.078461e+00 65 59 49
2.900571e+00 -8.877989e-01 -1.407151e+00 144 138 123
-1.859975e+00 -2.213195e+00 1.864243e+00 168 169 158
1.183741e+00 -1.551473e+00 5.506980e-01 150 143 125
2.192786e+00 -1.265566e+00 -9.387270e-02 91 80 68
2.633198e+00 -1.061915e+00 -6.025262e-01 84 78 63
1.781090e+00 -1.361215e+00 1.769313e-01 187 184 178
2.021492e+00 -1.304192e+00 4.910883e-02 192 191 186
1.859706e+00 -1.307350e+00 3.289835e-02 184 184 175
2.820621e+00 -8.861004e-01 -1.249345e+00 91 86 72
2.288540e+00 -1.121462e+00 -5.352607e-01 167 164 157
2.336737e+00 -1.101727e+00 -5.859767e-01 176 171 164
2.776641e+00 -9.789642e-01 -7.407480e-01 179 177 169
2.712895e+00 -1.048524e+00 -5.629677e-01 182 181 172
1.643170e+00 -1.416110e+00 4.030214e-01 165 159 157
2.894521e+00 -9.330059e-01 -8.487731e-01 187 188 181
-4.487938e+00 -1.986529e+00 6.658060e-01 91 85 74
-4.202527e+00 -2.047543e+00 9.370171e-01 192 189 183
-1.237697e+00 -1.897142e+00 1.332683e+00 204 197 190
3.652339e-01 -1.585226e+00 8.102673e-01 42 38 31
-4.102166e-01 -1.728033e+00 1.143968e+00 40 38 40
-1.563642e+00 -1.792995e+00 9.776190e-01 154 146 134
-9.893112e-01 -1.726577e+00 9.813825e-01 167 160 137
2.609672e+00 -3.979238e-01 -2.418897e+00 144 142 130
9.853448e-01 -1.373438e+00 4.766166e-01 176 167 151
2.469299e+00 -8.907037e-01 -6.106628e-01 174 161 160
-2.793339e+00 -2.186856e+00 2.293136e+00 116 105 82
2.943357e+00 3.411472e-01 -4.505339e+00 177 171 165
-3.105793e+00 -2.123087e+00 2.595135e+00 147 141 130
-3.356063e+00 -2.214335e+00 2.907283e+00 160 152 141
-5.724943e+00 -1.515158e+00 7.184918e-01 135 134 110
2.417610e+00 -5.223980e-01 -4.444146e-01 193 187 171
3.062302e+00 4.463234e-01 -3.147495e+00 129 127 117
2.273909e+00 -4.684098e-01 -3.415846e-01 161 154 143
2.828150e+00 -1.967596e-01 -9.532275e-01 129 123 113
1.725839e+00 -4.941753e-01 -1.890253e-01 100 88 66
-3.866559e+00 -1.470565e+00 1.698517e+00 157 151 148
2.642814e+00 -2.750992e-01 -6.384620e-01 97 86 80
3.311291e+00 5.195718e-01 -2.643494e+00 191 189 164
2.415747e+00 -2.124541e-01 -3.653178e-01 157 141 118
2.533123e+00 -1.411409e-01 -4.781840e-01 96 83 64
2.533123e+00 -1.411409e-01 -4.781840e-01 96 83 64
2.801116e+00 -7.009729e-02 -6.149209e-01 102 88 73
2.455128e+00 1.026128e-01 -1.147309e+00 88 75 58
-4.041135e+00 -5.419420e-01 9.181767e-01 72 65 65
-2.599411e+00 -8.339535e-01 1.856224e+00 129 123 102
2.622094e+00 2.965438e+00 -5.779860e+00 188 186 173
-5.082942e-01 9.563997e-01 -8.024036e-01 200 198 186
1.013907e-01 8.045358e-01 5.786852e-02 145 141 123
-4.112295e+00 1.735801e-01 1.464848e+00 134 130 105
9.679236e-01 1.199489e+00 -7.223746e-01 161 155 141
-4.834190e+00 4.537639e-01 9.834437e-01 182 179 166
1.994462e+00 2.219668e+00 -2.841748e+00 143 135 123
1.693748e+00 1.642074e+00 -1.517418e+00 107 103 91
1.629436e+00 1.649408e+00 -1.531241e+00 153 151 136
-1.141933e-01 7.694842e-01 1.008051e+00 148 146 125
1.546764e+00 2.003596e+00 -1.701019e+00 144 131 115
2.248035e+00 2.440276e+00 -2.741091e+00 119 120 102
-5.072763e+00 7.427146e-01 1.280653e+00 132 129 120
-2.700616e+00 2.191771e+00 -1.719266e+00 92 89 63
-1.086232e+00 1.192627e+00 4.389334e-01 188 184 186
-1.933781e+00 5.531063e-01 1.770093e+00 117 115 102
-4.045921e+00 8.468647e-01 1.352072e+00 143 132 114
-3.838226e+00 6.480458e-01 1.799364e+00 146 144 125
1.097320e+00 2.187750e+00 -1.270616e+00 143 141 128
-4.394832e-01 1.122962e+00 1.068384e+00 152 149 117
-3.365357e+00 2.186104e+00 -8.177497e-01 153 144 130
-4.390494e+00 1.380642e+00 9.428229e-01 114 110 98
1.062276e+00 2.333514e+00 -1.261221e+00 133 133 123
-8.936168e-01 5.627854e+00 -7.356711e+00 192 191 179
-8.300642e-01 5.584761e+00 -6.897031e+00 75 70 63
1.106867e+00 2.795853e+00 -1.745987e+00 114 113 94
-4.309941e+00 1.946493e+00 8.419587e-01 99 96 88
-5.473820e+00 2.013461e+00 8.818239e-01 81 84 55
-4.153233e+00 2.122005e+00 7.061778e-01 88 84 72
8.312682e-01 3.182613e+00 -1.757838e+00 71 64 45
-4.856185e-01 2.580822e+00 -3.318830e-01 126 124 112
8.705468e-01 3.302103e+00 -1.877974e+00 82 79 54
1.626558e+00 3.960536e+00 -3.221026e+00 118 118 108
-5.802773e-01 2.699463e+00 -3.548099e-01 174 170 163
-5.808787e-01 2.731248e+00 -3.927973e-01 117 113 104
8.003141e-01 3.406008e+00 -1.863600e+00 125 116 87
1.429703e+00 3.969651e+00 -2.971418e+00 172 168 160
-2.492288e+00 2.045336e+00 1.129675e+00 115 113 100
-4.984092e-01 2.891394e+00 -5.323723e-01 181 179 164
-4.932112e+00 3.598943e+00 -1.162736e+00 161 159 150
1.263258e-01 3.200047e+00 -1.109149e+00 92 87 75
-5.597360e+00 2.539831e+00 7.104261e-01 181 180 176
2.234944e-01 3.469715e+00 -1.534569e+00 168 163 155
-4.545672e+00 3.702110e+00 -1.171463e+00 79 80 70
1.467816e+00 4.219917e+00 -3.019208e+00 180 178 165
-9.576932e-01 3.099195e+00 -5.683573e-01 167 163 152
-4.573691e-01 2.933460e+00 -3.299698e-01 155 155 146
1.291550e-01 3.488173e+00 -1.364774e+00 145 146 116
-3.286106e+00 2.635170e+00 5.984125e-01 140 135 111
2.029203e-01 3.679052e+00 -1.705272e+00 164 164 134
-6.890954e-01 3.142227e+00 -5.869226e-01 84 82 67
-2.877215e+00 2.418041e+00 9.420736e-01 74 72 49
-6.748118e-01 3.200906e+00 -6.326734e-01 144 142 125
1.460587e+00 4.653645e+00 -3.666672e+00 160 163 140
-8.528898e-01 3.152501e+00 -4.926198e-01 154 156 133
-2.822050e+00 2.467253e+00 9.249369e-01 107 103 94
-7.704039e+00 8.600892e+00 -8.588272e+00 106 105 86
-8.118276e-01 3.199536e+00 -5.302045e-01 83 82 63
-7.904789e-01 3.222082e+00 -5.666716e-01 156 155 135
-3.016892e+00 2.614894e+00 8.304299e-01 134 128 116
-1.128858e+00 3.229387e+00 -4.211329e-01 170 164 153
-2.511680e+00 3.084728e+00 4.343508e-01 127 124 115
-3.323672e+00 3.429166e+00 3.059284e-01 113 116 109
-5.359337e-01 4.868599e+00 -2.376127e+00 119 121 108
-1.386036e+00 4.922094e+00 -1.706060e+00 130 130 118
-9.625249e+00 7.451172e+00 -4.023045e+00 159 157 145
-1.200299e+00 6.361748e+00 -3.471555e+00 110 107 102
-1.120847e+00 6.615913e+00 -3.879744e+00 138 145 132
-8.878885e-01 9.277035e+00 -7.791481e+00 139 140 123
-1.512556e+00 7.402555e+00 -4.520436e+00 85 85 77
-1.465363e+01 1.140163e+01 -7.578918e+00 145 142 130
-5.242110e+00 5.858187e+00 -1.353800e+00 138 133 120
-1.628615e+00 7.621921e+00 -4.700513e+00 57 59 57
-1.293600e+01 1.083007e+01 -6.875165e+00 78 77 59
-1.702190e+00 7.659088e+00 -4.650069e+00 92 96 83
-1.154341e+00 6.728323e+00 -3.388781e+00 39 43 37
-1.347128e+00 9.879684e+00 -8.007215e+00 98 100 87
-3.412597e-01 7.740914e+00 -5.099091e+00 27 25 40
-1.440704e+00 9.414573e+00 -7.263185e+00 63 63 60
-2.636147e+00 8.149051e+00 -4.740045e+00 105 101 99
-2.289193e+00 1.027827e+01 -7.618442e+00 148 143 144
-6.231561e-01 7.793890e+00 -4.507245e+00 151 150 147
-3.060877e+00 6.740424e+00 -2.213299e+00 68 65 57
-1.154952e+01 1.226063e+01 -7.853919e+00 130 130 118
-2.899327e+00 1.616277e+01 -1.563390e+01 157 160 147
-3.625132e+00 8.970709e+00 -5.068761e+00 134 138 123
-1.223930e+01 1.286826e+01 -8.423911e+00 123 123 111
-2.687139e+00 1.259300e+01 -1.036269e+01 63 65 44
-5.977967e+00 1.180852e+01 -8.239363e+00 108 104 97
-1.629028e+00 7.977160e+00 -4.085248e+00 80 81 70
-1.941222e+00 8.094505e+00 -3.981340e+00 105 103 90
-1.941222e+00 8.094505e+00 -3.981340e+00 105 103 90
-3.384273e+00 1.089368e+01 -7.408904e+00 94 92 79
-1.187213e+00 8.876268e+00 -5.294305e+00 133 134 118
-3.464291e+00 1.132199e+01 -7.925025e+00 147 145 132
-1.256537e+00 8.875199e+00 -5.233605e+00 99 100 86
-1.256537e+00 8.875199e+00 -5.233605e+00 99 100 86
-4.285118e+00 1.067719e+01 -6.658234e+00 123 125 114
-1.525823e+00 9.011619e+00 -5.148328e+00 137 136 116
1.879104e+00 -4.052603e+00 -1.491592e+00 143 133 121
1.794876e+00 -3.894379e+00 -1.734289e+00 149 138 117
1.756673e+00 -3.895039e+00 -1.572730e+00 146 130 109
1.749043e+00 -3.790472e+00 -1.325705e+00 129 113 97
2.762963e+00 -3.208468e+00 -5.153083e+00 117 104 96
2.566525e+00 -3.138902e+00 -5.949662e+00 135 119 106
1.864330e+00 -3.708673e+00 -1.595926e+00 141 128 112
2.586315e+00 -3.044263e+00 -6.606618e+00 160 150 141
2.573804e+00 -3.071984e+00 -6.088258e+00 168 164 155
3.340438e+00 -3.240436e+00 -2.748604e+00 109 101 88
2.336253e+00 -3.415912e+00 -2.650953e+00 100 82 70
1.944946e+00 -3.409005e+00 -3.631536e+00 65 54 42
-1.954582e+00 -4.694888e+00 1.683565e+00 127 121 97
2.247855e+00 -3.406873e+00 -2.507986e+00 122 110 90
-6.471473e-01 -4.339168e+00 1.423525e+00 119 107 93
-2.047661e-01 -4.138760e+00 3.150513e-01 150 141 122
1.851376e+00 -2.964865e+00 -5.445701e+00 149 136 119
1.842983e+00 -2.936605e+00 -5.647216e+00 144 131 114
-9.434489e+00 -5.341602e+00 -2.792527e+00 141 134 120
-7.389157e-01 -4.201641e+00 1.620254e+00 172 161 139
2.365304e+00 -3.197154e+00 -1.452509e+00 105 93 71
1.891512e+00 -3.227171e+00 -9.600631e-01 121 106 88
1.977273e+00 -3.197052e+00 -9.463994e-01 145 132 106
-6.600189e-01 -4.079049e+00 2.222810e+00 93 85 74
1.893966e+00 -3.088295e+00 -1.426801e+00 146 139 123
2.326182e+00 -2.854002e+00 -2.469198e+00 90 78 54
2.420270e+00 -2.877116e+00 -2.138108e+00 90 78 54
1.976953e+00 -3.016712e+00 -1.728852e+00 132 120 92
-8.037427e-01 -3.845826e+00 7.237221e-01 94 81 54
1.946186e+00 -3.098337e+00 -8.403976e-01 124 108 82
-1.690487e-01 -3.617409e+00 3.112426e-01 110 102 82
-2.829782e+00 -4.337736e+00 2.259848e+00 136 128 105
-7.332491e-01 -3.668609e+00 5.147387e-01 135 127 106
-4.492980e-01 -3.506384e+00 3.293402e-01 113 102 77
2.075351e+00 -2.821675e+00 -8.249422e-01 101 85 70
1.591979e+00 -2.942980e+00 6.643800e-02 90 83 75
-4.718508e-01 -3.254948e+00 3.743990e-01 97 85 61
-2.548539e+00 -3.803178e+00 1.788986e+00 131 118 101
2.152538e+00 -2.561164e+00 -8.152061e-01 99 82 67
-4.113668e-01 -3.075143e+00 3.272860e-01 131 117 99
2.372704e+00 -2.258751e+00 -1.219300e+00 85 73 57
2.191178e+00 -2.139965e+00 -1.855349e+00 128 115 98
-4.422934e-01 -2.938667e+00 4.301288e-01 121 108 91
-4.731793e-01 -2.928163e+00 4.117298e-01 64 50 35
-7.751260e-01 -3.075445e+00 1.340782e+00 154 143 122
-2.405302e+00 -3.421979e+00 2.035140e+00 128 119 104
-7.137634e-01 -2.894521e+00 7.545619e-01 78 61 43
-7.581874e-01 -2.874899e+00 7.290264e-01 76 63 46
-2.473967e+00 -3.351584e+00 2.070513e+00 105 102 85
-4.821145e-01 -2.661442e+00 5.779444e-01 83 69 59
-2.810324e-01 -2.523181e+00 9.450902e-01 159 145 134
2.357159e+00 -1.658344e+00 -9.561581e-01 131 122 105
3.653309e-01 -2.123995e+00 7.917431e-01 173 160 144
2.724980e-01 -2.104030e+00 8.128475e-01 86 70 56
3.115142e-01 -2.100928e+00 8.623131e-01 135 123 111
-1.452794e+00 -2.240224e+00 1.546866e+00 108 101 88
-1.691422e+00 -2.266952e+00 1.840124e+00 141 135 121
5.961501e-02 -1.821653e+00 9.274481e-01 130 115 102
2.101961e+00 -1.210239e+00 -3.604162e-01 130 117 108
2.046789e+00 -1.173140e+00 -3.488348e-01 145 141 141
2.546256e+00 -9.881470e-01 -9.134318e-01 159 157 153
-6.471015e-01 -1.776621e+00 9.560490e-01 151 148 136
-5.047791e-01 -1.725450e+00 9.796246e-01 214 215 211
2.002847e-01 -1.616528e+00 9.375706e-01 166 155 137
-1.356016e+01 -1.353337e+00 -3.732622e+00 123 120 116
1.995006e+00 -9.699192e-01 -5.595716e-01 173 168 147
2.462510e+00 -8.161403e-01 -6.134445e-01 138 128 126
2.690840e+00 -7.319661e-01 -6.760054e-01 167 157 147
2.680815e+00 -6.978880e-01 -6.466227e-01 200 191 182
2.346275e+00 -4.531598e-01 -1.519897e+00 109 105 84
2.763264e+00 7.947642e-01 -4.084754e+00 135 130 109
2.510911e+00 -3.523827e-01 -4.360210e-01 84 75 58
2.510911e+00 -3.523827e-01 -4.360210e-01 84 75 58
2.159684e+00 -2.431214e-01 -2.251442e-01 135 123 108
1.726452e+00 -2.409026e-01 -2.918679e-01 89 75 56
-1.123228e+00 1.253553e-01 2.556934e-01 155 155 143
3.174157e+00 1.791826e+00 -3.888247e+00 189 187 172
-6.911387e-01 1.077924e+00 -1.004555e+00 179 172 164
2.296428e+00 2.776455e+00 -4.774809e+00 193 195 182
1.308751e-01 9.396716e-01 -9.747022e-03 180 171 156
9.417669e-01 1.238262e+00 -1.309113e-01 164 161 147
-1.032903e+01 3.973873e+00 -3.442930e+00 114 112 112
-1.032903e+01 3.973873e+00 -3.442930e+00 114 112 112
-3.353243e+00 1.572335e+00 1.441701e+00 132 130 113
9.210556e-01 3.427182e+00 -2.079428e+00 126 121 101
3.817113e-01 3.229908e+00 -1.352407e+00 138 138 127
-8.312621e-01 4.775620e+00 -3.984354e+00 138 138 127
-3.968150e+00 4.173145e+00 -2.373745e-01 136 137 129
-1.297063e+00 9.422723e+00 -7.450574e+00 66 68 62
-2.323099e+00 9.194122e+00 -6.148923e+00 153 153 141
-5.215078e+00 7.234256e+00 -2.502560e+00 90 91 85
-6.567328e+00 7.376288e+00 -2.438133e+00 139 140 133
-7.395055e-01 8.351248e+00 -5.157978e+00 88 84 91
1.728028e+00 -2.939780e+00 7.469021e-01 203 196 177
3.221199e+00 9.477581e-02 -1.055170e+00 49 42 34
2.785275e+00 -3.536311e+00 -1.793293e+00 8 8 8
-2.053212e+00 -5.114934e+00 1.416073e+00 157 144 127
1.943415e+00 -2.760044e+00 -2.171249e-01 167 156 129
-3.214388e+00 -2.451817e+00 2.043502e+00 104 88 72
3.065847e+00 -1.054090e+00 -5.997947e-01 117 109 88
3.277275e+00 -3.369061e+00 -1.453714e+00 133 118 97
-3.523421e+00 -2.735559e+00 2.396666e+00 174 164 151
-7.896146e-01 -1.929153e+00 1.117963e+00 143 130 112
1.595621e+00 -1.095935e+00 9.755375e-02 142 126 108
3.511232e+00 2.127786e-02 -1.068680e+00 51 44 30
-3.340281e+00 -5.585107e+00 1.741945e+00 140 136 116
9.046134e-02 -4.592461e+00 -1.800263e-01 50 43 31
2.453848e+00 -3.731588e+00 -5.997733e-01 11 10 9
-2.458909e-01 -4.215307e+00 1.756076e-01 24 24 16
-3.515361e+00 -4.624072e+00 2.033897e+00 156 140 114
1.422876e+00 -3.315592e+00 4.840847e-01 169 152 126
1.318434e+00 -3.302794e+00 2.978589e-01 169 152 126
-9.364025e-01 -3.131635e+00 1.293209e+00 167 154 126
-3.438775e+00 -3.142957e+00 2.063895e+00 179 168 146
-6.288925e-01 -2.653480e+00 1.126920e+00 84 67 47
-4.059206e-01 -2.309704e+00 9.017081e-01 87 70 46
-3.425384e+00 -5.667722e+00 2.130208e+00 118 107 87
1.675739e+00 -4.393805e+00 4.402603e-01 152 140 120
-3.343419e+00 -5.410828e+00 1.962932e+00 183 168 149
2.302921e+00 -4.029231e+00 6.495451e-02 181 166 139
1.411397e-01 -4.021099e+00 -2.133799e-01 153 138 117
-3.516345e+00 -4.777614e+00 2.206082e+00 170 155 139
-3.644051e+00 -4.620852e+00 2.123103e+00 164 147 122
5.613173e-01 -3.544812e+00 -1.058370e-01 156 139 108
-3.700400e+00 -4.371921e+00 2.389295e+00 168 154 133
-3.537185e+00 -4.255588e+00 1.929956e+00 135 121 95
-3.587635e+00 -4.287936e+00 2.369871e+00 74 57 39
-3.434900e+00 -4.152413e+00 1.877723e+00 84 70 49
-8.631540e-01 -3.638340e+00 1.272307e+00 174 158 132
-3.686438e+00 -4.173671e+00 2.354374e+00 164 156 135
-3.693013e+00 -4.154299e+00 2.455542e+00 99 84 61
-3.500914e+00 -4.031558e+00 2.328719e+00 86 74 54
-8.811752e-01 -3.400770e+00 1.222100e+00 171 153 129
-3.579684e+00 -3.909099e+00 2.418299e+00 64 48 32
-9.869998e-01 -3.303588e+00 1.213961e+00 122 103 77
-2.371154e+00 -3.524644e+00 1.858243e+00 139 131 112
-9.780272e-01 -3.253219e+00 1.449201e+00 146 126 99
-8.153660e-01 -3.093200e+00 8.458614e-01 87 70 52
-8.153660e-01 -3.093200e+00 8.458614e-01 87 70 52
1.165993e+00 -1.777911e+00 4.383244e-01 157 141 116
-1.716083e-01 -1.978526e+00 9.503328e-01 82 62 38
1.994643e+00 -1.436374e+00 -1.451098e-01 193 185 163
-2.991855e-01 -1.569019e+00 9.273298e-01 185 170 149
-5.028815e+00 -8.146880e-01 1.559420e+00 66 66 64
3.300854e+00 -2.072181e-02 -1.268617e+00 51 38 35
3.504963e+00 -4.248962e+00 -1.634685e+00 106 97 82
3.580147e+00 -4.033341e+00 -1.913634e+00 142 132 120
-3.422355e+00 -5.446064e+00 2.236158e+00 165 158 139
-2.167456e+00 -4.960715e+00 1.433772e+00 139 125 100
1.600079e+00 -4.058026e+00 4.115493e-01 156 147 130
9.262078e-01 -3.998224e+00 -2.746047e-02 35 23 14
4.025453e+00 -3.157637e+00 -1.008841e+00 169 167 157
-3.732784e+00 -4.826646e+00 2.421752e+00 173 159 140
3.965022e-01 -3.572353e+00 -2.082103e-01 128 108 83
4.006095e+00 -2.691606e+00 -1.702791e+00 77 67 52
-1.120807e+00 -3.767420e+00 1.934878e+00 62 49 32
-3.683290e+00 -4.080933e+00 2.435354e+00 93 76 56
-3.683290e+00 -4.080933e+00 2.435354e+00 93 76 56
1.379323e+00 -3.066052e+00 4.620424e-01 126 109 86
-3.620182e+00 -3.996748e+00 2.360541e+00 150 137 118
1.285556e+00 -3.043429e+00 4.646713e-01 169 154 131
1.315468e+00 -3.046310e+00 5.164236e-01 169 154 131
-7.319449e-01 -3.228804e+00 3.718062e-01 90 71 48
-7.319449e-01 -3.228804e+00 3.718062e-01 90 71 48
-3.236186e+00 -3.739470e+00 1.842775e+00 134 122 100
-3.236186e+00 -3.739470e+00 1.842775e+00 134 122 100
-3.215960e+00 -3.641666e+00 1.998259e+00 129 120 105
-3.517718e+00 -3.686085e+00 2.248474e+00 145 134 115
-3.746842e-01 -2.358970e+00 8.174420e-01 127 114 93
-3.507819e-01 -2.278245e+00 8.618245e-01 86 60 43
2.323715e+00 -1.344880e+00 -3.014067e-01 198 190 171
-8.170039e-01 -1.449655e+00 1.025308e+00 102 83 66
-4.463223e+00 -1.820777e+00 2.372944e+00 62 53 38
-4.679824e+00 -1.892956e+00 2.654822e+00 151 148 132
-4.957367e+00 -1.941579e+00 3.010693e+00 48 46 34
8.078622e-02 -7.850775e-01 6.625926e-01 49 36 22
3.231556e+00 1.745872e-01 -1.134476e+00 105 88 62
-7.733103e-01 -5.187959e+00 1.269591e+00 169 155 128
2.205100e+00 -4.202713e+00 -5.137468e-01 165 153 136
3.512041e+00 -3.767162e+00 -1.663402e+00 52 39 30
-3.428522e+00 -5.496011e+00 2.377261e+00 162 151 139
1.876626e+00 -4.108388e+00 6.666103e-01 192 185 167
3.579264e+00 -3.549622e+00 -1.728916e+00 41 30 24
-5.775122e-01 -4.532301e+00 6.221515e-01 165 152 135
3.472075e+00 -3.495808e+00 -1.761687e+00 140 124 103
3.658145e+00 -3.434177e+00 -1.861254e+00 154 146 126
1.590908e+00 -3.968192e+00 5.219948e-01 142 130 114
-6.281488e-01 -4.326270e+00 5.840621e-01 152 137 121
-8.645160e-01 -4.412334e+00 1.321629e+00 196 189 170
-3.896257e+00 -5.036524e+00 2.448830e+00 167 159 139
2.140098e+00 -3.737114e+00 7.853082e-01 92 78 64
-3.638749e+00 -4.923860e+00 2.353151e+00 126 108 88
-3.630474e+00 -4.200136e+00 2.202559e+00 159 151 127
2.007197e+00 -3.057533e+00 3.089919e-01 208 199 182
3.594039e-01 -3.088187e+00 -9.681747e-02 80 63 38
-4.032086e+00 -4.159096e+00 2.799982e+00 154 146 133
2.045894e+00 -2.846293e+00 -5.295674e-02 178 160 136
-8.136961e-01 -3.223683e+00 7.968281e-01 160 145 112
2.459340e+00 -2.364394e+00 -1.509539e+00 70 54 31
-3.493884e+00 -3.780837e+00 2.335721e+00 141 128 106
-6.458576e-01 -2.989500e+00 2.905211e-01 83 65 43
-3.361978e+00 -3.649241e+00 2.209194e+00 66 53 36
-3.383262e+00 -3.647593e+00 2.191130e+00 66 53 36
-3.351319e+00 -3.586221e+00 2.048583e+00 138 127 109
-6.250040e-01 -2.894837e+00 8.451663e-01 95 76 54
1.028504e+00 -2.616205e+00 4.940903e-01 148 131 111
2.148646e+00 -2.214194e+00 -3.785714e-01 164 150 123
3.163047e+00 -1.721662e+00 -6.243255e-01 198 194 179
-1.212883e-01 -1.836241e+00 9.825886e-01 121 105 83
2.739468e+00 -9.136365e-01 -6.100807e-01 157 151 140
1.897725e+00 -9.019250e-01 -9.574985e-02 193 177 159
-4.398396e+00 -1.728162e+00 2.445020e+00 40 30 25
3.354796e+00 -3.224797e-01 -1.121758e+00 157 141 125
-4.147805e+00 -1.230513e+00 2.446632e+00 80 69 51
-3.601763e+00 -1.043303e+00 2.224218e+00 153 141 122
-1.280916e+00 -5.047437e-01 1.075402e+00 87 70 51
-1.267748e+00 -4.591787e-01 1.007140e+00 195 189 173
3.280892e+00 2.202468e-01 -1.155075e+00 60 50 38
2.281157e+00 2.923973e-01 -5.233797e-01 106 93 74
2.951408e+00 -4.252546e+00 -1.139065e+00 66 54 32
1.608662e+00 -4.447043e+00 4.112766e-01 47 38 21
1.608662e+00 -4.447043e+00 4.112766e-01 47 38 21
3.661470e+00 -3.508171e+00 -1.805734e+00 44 35 25
1.915023e+00 -3.774495e+00 8.047093e-01 66 56 46
3.119226e+00 -3.112136e+00 -1.263138e+00 154 141 124
-2.648432e+00 -4.250481e+00 1.424891e+00 167 155 139
-3.712676e+00 -4.490521e+00 2.247461e+00 148 132 109
3.970784e+00 -2.653624e+00 -1.701170e+00 170 165 159
1.537761e+00 -3.053265e+00 6.780927e-01 192 180 164
-3.557634e+00 -3.919516e+00 2.245835e+00 94 77 61
2.021368e+00 -2.517347e+00 -1.565099e+00 103 88 65
-3.480970e+00 -3.842995e+00 2.185907e+00 140 129 107
-3.099068e+00 -3.578027e+00 1.893097e+00 65 49 35
-6.632507e-01 -3.030324e+00 5.553609e-01 93 74 49
-7.171811e-01 -2.984480e+00 4.194262e-01 150 137 112
2.122616e+00 -2.184535e+00 -3.767282e-02 213 200 190
2.284555e+00 -1.984691e+00 -3.202541e-01 79 64 41
-4.739884e+00 -3.243331e+00 2.878542e+00 173 165 154
-4.184938e+00 -2.550177e+00 2.539322e+00 191 182 174
-1.526941e+00 -1.973485e+00 1.498684e+00 185 173 165
6.061780e-01 -1.565224e+00 6.558289e-01 183 182 176
1.536079e+00 -1.244206e+00 7.375771e-02 176 168 154
-2.776513e+00 -1.653046e+00 1.960700e+00 168 153 127
3.674307e+00 -5.021620e-01 -1.337935e+00 154 146 141
-4.645798e+00 -1.756115e+00 2.632989e+00 137 130 112
-2.744675e+00 -1.395379e+00 1.968531e+00 145 128 106
-4.392103e+00 -1.277788e+00 2.538078e+00 83 64 53
-1.999741e+00 -6.724125e-01 1.450151e+00 182 173 154
-3.858789e+00 -1.353681e-01 1.510499e+00 182 176 157
-2.280861e+00 5.134716e-01 1.176824e-01 187 178 167
-2.278717e+00 4.958601e-01 1.286445e-01 187 178 167
-2.133626e+00 4.328237e-01 4.581219e-01 34 34 33
-2.506668e+00 6.615254e-01 1.569568e-01 199 196 183
-2.483571e+00 7.055373e-01 1.091498e-01 24 26 21
8.880658e-01 7.939789e-01 -7.274143e-01 199 188 167
-9.005423e-01 8.476945e-01 -2.394380e-01 74 75 71
-3.678702e+00 -5.913847e+00 2.305833e+00 137 129 123
-3.497047e+00 -5.539985e+00 1.921769e+00 43 33 23
-3.361399e+00 -5.510056e+00 2.221776e+00 146 140 118
4.308983e+00 -3.694993e+00 4.178102e-02 181 181 171
-3.613382e+00 -5.267511e+00 2.493924e+00 152 148 134
-3.380111e+00 -5.115375e+00 1.997247e+00 62 47 28
-3.707449e+00 -5.194393e+00 2.297667e+00 75 55 43
-3.710872e+00 -5.198314e+00 2.344900e+00 170 164 151
2.137726e+00 -3.839751e+00 1.037378e-01 173 158 139
3.312278e+00 -3.434184e+00 -1.354548e+00 135 128 103
-3.647060e+00 -5.123653e+00 2.523082e+00 113 104 86
3.754736e+00 -3.198851e+00 -1.767542e+00 70 55 36
2.026474e+00 -3.689736e+00 3.046688e-02 182 168 148
2.061149e+00 -3.646290e+00 7.745227e-02 136 121 102
-3.691244e+00 -4.874964e+00 2.388370e+00 179 171 154
-3.782732e+00 -4.849117e+00 2.334806e+00 106 97 71
2.360037e+00 -3.365816e+00 -8.142502e-01 76 57 38
9.572320e-01 -3.556813e+00 -7.437393e-02 154 140 113
-8.021432e-01 -3.895487e+00 6.624554e-01 169 158 138
-3.677229e+00 -4.468472e+00 2.164601e+00 81 66 47
-2.646406e+00 -4.130498e+00 1.453749e+00 143 135 120
-3.461511e+00 -4.187900e+00 1.908530e+00 131 122 105
-3.416998e+00 -3.899934e+00 2.004732e+00 127 111 95
1.941127e+00 -2.773500e+00 -2.893914e-01 181 164 138
-2.504481e-01 -2.922794e+00 -9.142089e-02 134 125 110
-7.699319e-01 -3.110511e+00 6.548541e-01 99 79 50
3.244181e+00 -2.259050e+00 -1.288960e+00 91 73 52
-3.359028e+00 -3.640853e+00 2.135588e+00 123 112 90
-6.608945e-01 -3.026071e+00 7.599005e-01 139 123 100
1.932193e+00 -2.496254e+00 -4.580454e-01 161 149 123
-3.166019e+00 -3.435595e+00 2.040811e+00 117 101 78
-3.394951e+00 -3.296134e+00 2.329016e+00 168 152 129
-3.117602e+00 -2.789023e+00 2.259473e+00 112 100 78
-2.184391e-01 -1.973292e+00 1.012724e+00 113 100 81
-3.085982e+00 -2.348053e+00 2.203844e+00 178 170 152
-2.286637e-03 -1.617127e+00 8.955872e-01 86 75 55
3.995580e-01 -1.547861e+00 7.285486e-01 75 61 43
3.995580e-01 -1.547861e+00 7.285486e-01 75 61 43
3.474518e+00 -9.015985e-01 -1.097924e+00 121 105 84
3.066810e+00 -8.476891e-01 -7.654422e-01 201 194 182
3.014054e+00 -8.212170e-01 -7.784080e-01 192 188 170
-4.734342e+00 -1.748232e+00 2.673081e+00 126 114 98
3.034638e+00 -5.293467e-01 -7.992188e-01 191 179 165
3.636247e+00 -2.591301e-01 -1.334605e+00 187 182 170
2.885510e+00 -4.016551e-01 -8.086457e-01 62 48 32
1.798264e+00 -6.356649e-01 -7.947486e-02 147 131 116
2.669252e+00 -4.813189e-01 -5.389080e-01 189 188 176
2.884952e+00 -2.676549e-01 -7.433688e-01 162 151 135
-5.933565e+00 -6.531429e-01 1.421273e+00 133 127 108
-3.863328e+00 -5.871576e-01 2.022836e+00 177 171 159
1.102377e+00 9.898644e-02 1.133950e-01 83 68 51
-3.894100e+00 -3.634472e-01 2.083029e+00 89 79 78
3.662226e+00 -4.087060e+00 -1.916246e+00 53 51 32
-8.188554e-01 -5.163766e+00 1.338673e+00 167 160 141
2.093055e+00 -4.334952e+00 -3.567281e-01 77 64 52
3.494068e+00 -3.633876e+00 -1.661593e+00 156 149 132
2.014426e+00 -4.038295e+00 -2.315927e-01 168 151 133
-3.376282e+00 -5.285909e+00 1.781997e+00 152 137 109
-3.452104e+00 -5.195790e+00 2.323342e+00 73 65 47
2.319815e+00 -3.738212e+00 -8.121349e-01 172 153 133
3.832915e-02 -4.157913e+00 1.695648e-02 165 148 130
-6.867442e-01 -4.389487e+00 8.895034e-01 50 33 19
-6.867442e-01 -4.389487e+00 8.895034e-01 50 33 19
-6.578685e-01 -4.330438e+00 6.167350e-01 101 88 71
-5.739686e-04 -4.139271e+00 8.366093e-02 131 115 99
-3.733451e+00 -5.047006e+00 2.507257e+00 124 113 90
-3.862948e+00 -4.963174e+00 2.448142e+00 192 185 166
2.151495e+00 -3.646282e+00 1.842536e-01 180 165 143
2.054329e+00 -3.638448e+00 4.347444e-01 202 196 181
1.834277e-01 -3.861226e+00 -1.998861e-01 154 140 113
-7.316076e-01 -4.073481e+00 3.343669e-01 130 113 94
-3.456182e+00 -4.717219e+00 2.029711e+00 86 76 55
-9.088963e-01 -4.078300e+00 1.371650e+00 77 61 38
-9.225819e-01 -3.927097e+00 1.017533e+00 129 105 72
-9.683447e-01 -3.955121e+00 1.312643e+00 131 113 86
1.753964e+00 -3.122799e+00 5.331101e-01 63 50 32
-9.470688e-01 -3.552617e+00 1.361420e+00 55 36 19
-3.280168e+00 -3.815737e+00 1.815461e+00 57 43 28
-3.254404e+00 -3.759050e+00 1.823034e+00 140 127 108
7.603168e-01 -2.975404e+00 2.855264e-01 176 160 141
1.914735e+00 -2.548232e+00 -1.046728e+00 158 138 114
1.926890e+00 -2.617062e+00 -3.003555e-01 84 68 45
-3.255772e+00 -3.551125e+00 2.029631e+00 136 128 108
1.950725e+00 -2.390315e+00 -8.607065e-01 161 141 114
-4.168642e-01 -2.686041e+00 1.524945e-01 115 100 77
2.012156e+00 -2.255399e+00 -5.764884e-01 67 54 38
-2.586037e+00 -3.238099e+00 1.997918e+00 161 146 127
-2.879249e+00 -3.220105e+00 1.999087e+00 124 112 96
2.404331e+00 -1.998237e+00 -8.089518e-01 125 111 84
-5.724604e-01 -2.561515e+00 8.681703e-01 144 129 110
2.331185e+00 -2.029720e+00 -3.546142e-01 168 152 126
-2.120277e-01 -2.378920e+00 5.683356e-01 62 45 27
2.324663e+00 -1.783846e+00 -7.894572e-01 145 127 97
-2.819250e-01 -2.245841e+00 9.582437e-01 107 92 65
-1.597057e+00 -2.199518e+00 1.726610e+00 172 165 149
-1.424688e+00 -2.055186e+00 1.582131e+00 162 159 146
-1.867847e+00 -1.524406e+00 1.608765e+00 160 152 133
2.677416e+00 -6.905812e-01 -5.458846e-01 166 166 148
2.363929e+00 -7.175408e-01 -3.395316e-01 84 76 59
3.626457e+00 -2.928043e-01 -1.302941e+00 118 110 103
6.977513e-01 -7.949839e-01 4.070202e-01 42 31 16
3.025067e+00 -4.346667e-01 -7.415010e-01 127 119 106
-5.294043e+00 -1.369074e+00 2.965528e+00 161 160 149
1.244783e+00 -6.103707e-01 3.722982e-01 39 27 18
2.689402e+00 -7.036156e-02 -6.274570e-01 142 126 100
-3.802943e+00 -4.689256e-01 1.571598e+00 194 192 176
-4.059469e+00 -3.541844e-01 1.376539e+00 136 125 107
-3.844439e+00 -6.543583e-01 2.034297e+00 199 193 186
-3.902688e+00 -3.273901e-01 2.101794e+00 202 192 192
-4.193270e+00 -5.810226e-03 1.503858e+00 193 183 166
-4.108061e-01 -5.152524e+00 5.845447e-01 96 77 54
-2.808791e+00 -5.338346e+00 1.694408e+00 163 155 144
3.688473e+00 -3.674467e+00 -2.040081e+00 177 169 156
-7.502856e-01 -4.817470e+00 1.270230e+00 46 35 20
-6.516216e-01 -4.476405e+00 5.751194e-01 131 117 92
-3.740392e+00 -5.162926e+00 2.322359e+00 51 38 28
-7.694138e-01 -4.436018e+00 1.117478e+00 53 38 22
-8.386243e-01 -4.396172e+00 1.259154e+00 93 77 63
1.544590e+00 -3.870797e+00 4.816487e-01 64 48 31
-3.504444e+00 -4.789846e+00 1.815622e+00 59 47 25
3.971737e+00 -2.956411e+00 -2.372939e+00 172 170 157
2.300290e+00 -3.434264e+00 -7.805348e-01 94 78 53
-3.197786e+00 -4.672848e+00 1.769871e+00 152 140 115
3.146166e+00 -3.202109e+00 -1.229223e+00 71 60 33
-9.839128e-01 -4.191978e+00 1.457377e+00 151 135 102
-4.616669e-01 -3.908589e+00 2.112808e-01 110 98 74
-4.035387e-01 -3.876125e+00 1.085148e-01 180 166 147
-9.110402e-01 -4.037370e+00 1.371433e+00 112 93 63
-1.098258e+00 -4.062894e+00 1.746263e+00 182 175 156
-3.462085e+00 -4.207280e+00 1.907270e+00 129 119 102
-7.574441e-01 -3.583325e+00 5.067009e-01 132 115 84
-3.618991e+00 -4.224214e+00 2.317142e+00 163 144 120
3.887572e+00 -2.394598e+00 -2.131548e+00 66 60 41
-7.718778e-01 -3.453260e+00 4.666229e-01 68 52 30
1.759849e+00 -3.108123e+00 5.732664e-01 200 193 183
-3.529859e+00 -4.026967e+00 2.157917e+00 50 38 23
-3.655416e+00 -4.108408e+00 2.495089e+00 168 160 137
-3.726455e+00 -4.072480e+00 2.380935e+00 98 82 59
-3.722885e+00 -4.071506e+00 2.421574e+00 77 64 40
-3.365060e+00 -3.862883e+00 2.140286e+00 169 152 132
-8.799701e-01 -3.300091e+00 9.564709e-01 69 54 32
-7.454209e-01 -3.194833e+00 5.910378e-01 163 151 129
-3.167842e+00 -3.625084e+00 1.955997e+00 130 120 103
-3.379547e+00 -3.618253e+00 2.208553e+00 140 128 111
-3.358355e+00 -3.473862e+00 2.167637e+00 98 85 69
-9.470568e-01 -3.033075e+00 1.461557e+00 202 192 174
-7.455266e-01 -2.910769e+00 1.085561e+00 62 48 27
7.128278e-01 -2.476693e+00 5.793651e-01 59 44 26
2.285590e+00 -1.754590e+00 -6.737851e-01 85 64 41
-4.606392e-01 -1.927685e+00 1.070600e+00 97 89 70
8.167574e-01 -1.665490e+00 4.434615e-01 183 171 155
7.927247e-01 -1.493372e+00 6.023706e-01 204 190 182
7.236069e-03 -1.180769e+00 7.435886e-01 194 178 156
3.088578e+00 -6.099911e-01 -8.975340e-01 53 29 25
-2.445933e+00 -1.464589e+00 1.838444e+00 127 120 99
-4.884899e+00 -1.820633e+00 2.978317e+00 134 118 110
3.239481e+00 -3.986186e-01 -1.014501e+00 106 92 83
2.198960e+00 -6.456232e-01 -2.526384e-01 167 145 134
-5.936013e-01 -8.758311e-01 9.772469e-01 172 155 124
-1.413162e+00 -9.769795e-01 1.325461e+00 95 77 58
-1.333014e+00 -9.627171e-01 1.306714e+00 88 76 60
4.821915e-01 -6.976011e-01 5.302842e-01 51 28 17
3.555802e+00 -8.944299e-02 -1.291478e+00 201 199 193
3.652439e+00 -3.368886e-01 -6.700359e-01 105 97 91
-1.872056e-01 -7.137987e-01 8.149231e-01 76 58 38
-1.381173e+00 -6.709229e-01 1.081288e+00 157 146 128
1.989529e+00 -2.227701e-01 -1.641002e-01 92 76 59
3.075366e+00 5.716502e-01 -1.058321e+00 158 155 140
3.646096e+00 -4.060320e+00 -1.810365e+00 60 44 36
3.593698e+00 -4.026723e+00 -1.750905e+00 131 127 107
1.099598e+00 -4.596301e+00 1.286786e-01 64 51 42
1.275424e+00 -4.506051e+00 2.500934e-01 136 124 110
3.553770e+00 -3.502037e+00 -1.815877e+00 60 46 32
3.535864e+00 -3.467783e+00 -1.846531e+00 77 69 49
-7.171174e-01 -4.496802e+00 7.451638e-01 77 62 40
3.526919e+00 -3.361177e+00 -1.899697e+00 110 96 80
-3.753343e+00 -5.144579e+00 2.310096e+00 185 173 158
9.978799e-01 -3.992247e+00 1.858565e-01 129 112 97
-3.856588e+00 -5.023325e+00 2.447702e+00 170 162 143
-3.111562e+00 -4.690751e+00 1.714160e+00 152 140 111
2.425338e-01 -3.779713e+00 -1.152021e-01 152 138 114
-2.750313e+00 -4.397876e+00 1.560182e+00 148 132 116
-1.238956e+00 -4.091590e+00 1.772268e+00 94 76 66
-1.200889e+00 -4.087616e+00 1.802671e+00 94 76 66
-1.010445e+00 -4.011607e+00 1.504143e+00 180 160 135
-3.525603e+00 -4.329132e+00 2.215197e+00 80 64 41
-3.774413e+00 -4.233192e+00 2.416937e+00 91 74 56
2.036154e+00 -3.001313e+00 7.531663e-01 182 172 154
-3.537029e+00 -3.972961e+00 2.352001e+00 164 154 142
1.925142e+00 -3.013323e+00 8.706927e-01 155 145 133
1.844836e+00 -3.021565e+00 8.489383e-01 161 151 141
1.802257e+00 -3.025840e+00 8.450527e-01 160 150 140
1.973966e+00 -2.556697e+00 -9.685674e-01 109 91 64
-3.508737e+00 -3.622075e+00 2.328757e+00 154 142 126
2.305460e+00 -2.216428e+00 -1.361093e+00 130 118 95
2.305460e+00 -2.216428e+00 -1.361093e+00 130 118 95
8.459839e-01 -2.662244e+00 5.028524e-01 50 33 16
-3.139419e+00 -3.345567e+00 2.072802e+00 54 41 28
3.150660e+00 -1.836397e+00 -1.376264e+00 78 72 46
-4.010816e-01 -2.549607e+00 5.512778e-01 163 147 131
-6.764827e-01 -2.716101e+00 1.213094e+00 183 168 147
-4.053012e-01 -2.497488e+00 7.407199e-01 157 144 124
4.958617e-02 -2.316862e+00 6.175063e-01 138 123 104
2.565515e+00 -1.528201e+00 -8.402585e-01 142 127 104
-7.263686e-01 -2.033886e+00 1.301453e+00 109 97 76
-5.639139e-01 -1.955051e+00 1.349138e+00 80 69 53
-1.588653e+00 -1.979694e+00 1.483502e+00 208 191 180
-1.588758e+00 -1.948989e+00 1.464708e+00 231 217 207
-5.634730e-01 -1.821222e+00 1.126896e+00 156 144 127
6.614645e-01 -1.582275e+00 6.050770e-01 93 89 81
6.222216e-01 -1.560490e+00 6.066452e-01 59 48 43
-1.028950e+00 -1.751903e+00 1.169881e+00 170 155 136
-2.848162e+00 -2.050527e+00 2.071532e+00 180 163 143
2.203933e+00 -1.254241e+00 -1.694093e-01 135 123 97
2.536190e+00 -1.061056e+00 -6.984310e-01 92 79 57
5.025393e-01 -1.549007e+00 7.456336e-01 223 207 194
-2.253427e-01 -1.619596e+00 9.263640e-01 188 180 161
-3.344005e-01 -1.310545e+00 8.755977e-01 178 157 136
1.472122e+00 -1.023793e+00 9.504569e-02 160 154 131
3.686394e+00 -5.033944e-01 -1.354958e+00 183 169 169
-2.644678e+00 -1.354622e+00 1.933634e+00 133 120 104
-2.770063e+00 -1.346821e+00 2.015975e+00 87 69 49
-5.119865e+00 -1.535443e+00 2.932570e+00 192 188 176
