ply
format ascii 1.0
element face 0
property list uchar int vertex_indices
element vertex 926
property float x
property float y
property float z
property uchar diffuse_red
property uchar diffuse_green
property uchar diffuse_blue
end_header
-1.144369e-01 -3.484296e+00 2.827399e+00 144 149 144
5.573246e-01 -3.349520e+00 2.838963e+00 151 162 159
2.541060e+00 -3.653263e+00 2.836793e+00 176 188 201
-6.152802e+00 1.272399e+00 2.960335e+00 149 159 152
-6.782172e+00 1.498309e+00 2.972844e+00 157 161 153
-5.803401e+00 1.269487e+00 2.963863e+00 156 158 155
-6.890035e+00 1.650075e+00 2.984499e+00 79 74 58
-5.298956e+00 1.602146e+00 2.998617e+00 167 173 168
3.030286e+00 2.174810e+00 3.137514e+00 99 99 89
1.961888e+00 -9.605181e-01 3.068821e+00 121 120 107
4.202191e+00 5.206706e-02 3.048217e+00 169 174 167
1.328999e+00 -3.296648e+00 2.847864e+00 168 173 175
-6.732138e+00 6.599667e+00 3.264534e+00 134 146 140
-3.243173e+00 -6.578451e-01 2.952422e+00 145 147 142
3.283894e+00 -7.552934e-01 2.977954e+00 69 66 61
-1.144369e-01 -3.484296e+00 2.827399e+00 144 149 144
-6.787384e+00 1.826805e+00 2.999762e+00 157 159 148
-1.259385e+00 -3.343170e+00 2.824649e+00 164 169 172
4.492110e+00 -7.377055e-02 3.042857e+00 169 172 165
-1.444259e+00 7.625400e-01 2.891653e+00 94 91 82
-1.664335e-01 -3.830138e+00 2.809920e+00 85 83 62
-6.528026e-01 -3.296203e+00 2.832433e+00 166 171 176
1.553601e+00 -3.418498e+00 2.844213e+00 76 68 45
-2.122632e-02 -3.736414e+00 2.815997e+00 80 77 60
-5.223375e-01 -3.187267e+00 2.837802e+00 147 156 154
1.915191e+00 -3.537485e+00 2.839616e+00 93 91 76
-1.735077e+00 -2.989753e+00 2.837823e+00 135 140 130
3.747635e+00 -1.096552e-01 3.042986e+00 107 98 81
1.114739e+00 -3.356746e+00 2.844699e+00 82 76 56
1.788067e+00 -3.388941e+00 2.845926e+00 154 155 155
2.216199e+00 -2.238183e+00 2.904219e+00 159 160 152
1.197731e+00 -3.540524e+00 2.841471e+00 138 140 135
1.824888e+00 -2.159149e+00 2.904869e+00 135 135 130
2.010569e+00 9.229286e-01 3.081936e+00 141 148 140
1.389749e+00 -3.374104e+00 2.845446e+00 76 68 47
9.133054e-01 -3.196094e+00 2.848280e+00 148 151 149
1.281407e+00 -3.173708e+00 2.852069e+00 141 142 132
3.297465e+00 -1.259120e+00 2.948616e+00 150 153 153
3.168908e+00 3.440811e+00 3.210164e+00 135 141 140
2.123192e+00 -4.105656e+00 2.819120e+00 45 43 31
1.833182e+00 -3.520047e+00 2.840783e+00 65 59 44
1.268694e+00 -3.336341e+00 2.847078e+00 83 75 59
-2.767823e+00 2.411732e+00 3.119121e+00 93 95 88
1.548899e+00 -3.373096e+00 2.845943e+00 159 165 161
1.101622e+00 -3.281963e+00 2.847417e+00 73 62 44
-5.240627e+00 1.232967e+00 2.968773e+00 72 68 50
-5.000456e+00 1.471651e+00 2.994928e+00 161 162 153
3.265760e+00 3.238954e+00 3.200132e+00 165 182 189
1.447622e+00 -3.735599e+00 2.832705e+00 131 132 125
1.984341e+00 -3.570272e+00 2.838929e+00 68 64 50
1.222037e+00 -3.141284e+00 2.852844e+00 145 148 139
-2.341854e+00 -1.307471e+00 2.928743e+00 139 139 130
2.031751e+00 -1.209127e-01 3.019801e+00 139 138 127
-5.228529e+00 1.492819e+00 2.992732e+00 88 82 71
2.792899e-01 9.028540e-01 3.149143e+00 71 67 51
1.891638e+00 1.927228e+00 3.122661e+00 56 56 48
-4.941148e+00 3.929580e+00 3.153559e+00 168 173 169
1.670640e+00 -3.485021e+00 2.841878e+00 119 120 108
-1.132819e+00 -3.179694e+00 2.832552e+00 150 156 151
-2.011207e+00 -3.075681e+00 2.828010e+00 53 50 39
-1.513366e+00 -3.081423e+00 2.832774e+00 72 68 56
4.588852e-01 -3.132681e+00 2.847751e+00 143 149 141
-4.310102e-01 -2.528555e+00 2.870576e+00 87 84 74
-3.657409e+00 -1.537462e+00 2.902981e+00 60 59 48
-1.931048e+00 -1.513212e+00 2.915425e+00 136 137 120
-1.391056e+00 -1.504646e+00 2.920262e+00 133 126 110
-2.870482e+00 -1.272033e+00 2.931039e+00 80 72 49
1.427394e+00 -3.404939e-01 3.129567e+00 143 139 119
1.846212e+00 1.844194e+00 3.120617e+00 49 49 42
1.874433e+00 1.865577e+00 3.120959e+00 125 127 119
1.874433e+00 1.865577e+00 3.120959e+00 125 127 119
2.413715e+00 4.340117e+00 3.248392e+00 111 111 110
2.681817e+00 -4.116597e+00 2.815612e+00 76 73 65
1.131223e+00 -3.253549e+00 2.848428e+00 144 147 143
1.343142e+00 -3.085467e+00 2.854210e+00 56 49 41
3.219404e+00 -2.541817e+00 2.891829e+00 59 55 45
2.007108e+00 -1.713432e+00 2.916420e+00 148 134 117
2.007108e+00 -1.713432e+00 2.916420e+00 148 134 117
1.427394e+00 -3.404939e-01 3.129567e+00 143 139 119
1.402080e+00 1.886391e+00 3.119167e+00 166 175 177
-3.987151e+00 3.388006e+00 3.132086e+00 140 143 132
9.139456e-01 2.240418e+00 3.131159e+00 169 181 178
-5.026556e+00 4.193303e+00 3.171170e+00 168 171 165
-5.026556e+00 4.193303e+00 3.171170e+00 168 171 165
5.991305e-01 2.758377e+00 3.154633e+00 176 176 163
2.267869e+00 3.749196e+00 3.219425e+00 130 140 142
-5.366934e-02 -3.850351e+00 2.812106e+00 44 47 35
1.059736e+00 -3.289503e+00 2.846479e+00 130 130 114
1.612866e+00 -2.719356e+00 2.875916e+00 152 151 139
2.701583e+00 -2.753320e+00 2.884121e+00 63 54 47
2.655041e+00 2.400942e-01 3.028155e+00 175 191 194
-3.886025e+00 1.577184e+00 3.010989e+00 53 54 46
2.174609e+00 6.022675e-01 3.069813e+00 76 73 61
3.208249e+00 1.747486e+00 3.120684e+00 112 112 103
-6.136815e+00 4.401739e+00 3.169629e+00 77 78 70
3.642887e+00 1.933776e+00 3.129166e+00 169 171 168
-4.796838e+00 6.765643e+00 3.314779e+00 151 157 151
-4.412694e+00 6.867050e+00 3.330017e+00 68 67 72
-5.491481e+00 3.691654e+00 3.127325e+00 46 52 51
-2.799232e+00 -7.394372e-01 2.948112e+00 156 158 151
-3.152969e+00 -6.993145e-01 2.950597e+00 163 170 163
-6.718822e+00 1.310809e+00 2.960563e+00 83 83 75
6.097417e-01 2.849782e-01 3.238245e+00 104 97 78
-6.152802e+00 1.272399e+00 2.960335e+00 149 159 152
4.386373e+00 -4.483473e-01 3.031080e+00 31 28 24
-6.580147e+00 1.398147e+00 2.966522e+00 87 88 76
-7.112099e+00 1.602455e+00 2.978790e+00 87 82 68
3.943371e+00 -2.160499e-01 3.042200e+00 75 72 63
-5.298946e+00 1.602167e+00 2.998697e+00 167 173 168
3.950934e+00 3.199756e-02 3.048149e+00 167 170 163
-3.679633e+00 -1.495838e+00 2.906887e+00 140 141 135
-3.254025e+00 -1.094135e+00 2.945022e+00 142 145 134
-2.636638e+00 -7.196035e-01 2.950396e+00 143 160 164
2.090386e+00 2.875213e-01 3.070459e+00 95 96 88
-5.710636e+00 2.185714e+00 3.035127e+00 92 92 90
-4.992949e+00 2.059659e+00 3.032941e+00 68 69 64
-5.199424e+00 4.447161e+00 3.186667e+00 63 64 49
2.952389e+00 2.213792e+00 3.138619e+00 90 91 84
-6.802508e+00 6.531719e+00 3.258768e+00 147 157 162
-3.407046e+00 -1.178192e+00 2.932452e+00 84 78 65
4.448841e+00 -1.140254e+00 2.996856e+00 171 176 179
-6.102004e+00 1.829969e+00 3.005444e+00 156 158 145
-6.112262e+00 1.835821e+00 3.006846e+00 156 158 145
-5.994086e+00 1.830031e+00 3.008306e+00 157 155 147
3.592276e+00 1.949749e+00 3.127226e+00 171 173 166
3.383484e+00 2.032702e+00 3.133113e+00 159 163 158
3.674559e+00 1.932156e+00 3.126650e+00 168 170 164
3.827041e+00 1.896710e+00 3.125455e+00 164 169 163
4.073774e+00 1.850277e+00 3.123647e+00 119 120 121
-2.438548e+00 -8.538603e-01 2.935378e+00 154 159 154
-6.320965e+00 9.272456e-01 2.936390e+00 153 160 154
-1.932736e+00 4.625800e-01 2.886918e+00 47 47 39
-4.364904e+00 1.073241e+00 2.971975e+00 97 94 80
-4.656512e+00 4.201051e+00 3.176479e+00 140 139 129
4.112538e+00 1.820769e+00 3.122816e+00 171 179 171
-8.613487e-02 -2.910925e+00 2.850233e+00 61 66 74
2.070745e+00 1.440841e-01 3.064955e+00 156 162 158
9.168570e-01 2.284306e+00 3.133277e+00 116 117 111
-4.680447e+00 4.316644e+00 3.190575e+00 64 61 51
-4.680447e+00 4.316644e+00 3.190575e+00 64 61 51
1.807275e+00 -3.795074e+00 2.831062e+00 122 124 113
2.518831e+00 -3.674832e+00 2.836086e+00 170 186 202
2.579752e+00 -3.346914e+00 2.852438e+00 165 175 177
-2.881417e+00 -1.647066e+00 2.905431e+00 47 38 29
-2.092526e-01 -1.767304e+00 2.901750e+00 119 116 106
2.362922e+00 -1.904037e+00 2.912940e+00 136 139 130
-2.656090e+00 -1.489440e+00 2.918595e+00 111 113 108
-2.656090e+00 -1.489440e+00 2.918595e+00 111 113 108
1.946875e+00 -2.032703e+00 2.908916e+00 45 41 30
2.616915e+00 -3.905850e+00 2.823850e+00 71 72 64
-6.108580e+00 2.106069e+00 3.023472e+00 168 179 174
4.456359e+00 1.364372e+00 3.105006e+00 136 139 132
2.742260e+00 -3.973031e+00 2.821433e+00 88 85 71
2.797420e+00 -3.939756e+00 2.822172e+00 162 164 178
2.949043e+00 -4.040307e+00 2.816222e+00 160 166 177
2.204924e+00 -4.058293e+00 2.820347e+00 143 145 144
2.106424e+00 -3.634921e+00 2.836885e+00 82 77 64
5.202178e-02 -3.633957e+00 2.821552e+00 164 168 169
2.039425e+00 -3.543650e+00 2.840499e+00 168 179 181
1.038205e+00 -3.193712e+00 2.849452e+00 144 146 143
1.038205e+00 -3.193712e+00 2.849452e+00 144 146 143
3.112108e+00 -2.164062e+00 2.911886e+00 57 59 46
-2.959666e+00 -1.669840e+00 2.898577e+00 46 42 31
-2.590003e+00 -8.650206e-01 2.938366e+00 138 140 135
4.265325e+00 -9.776299e-01 3.007004e+00 81 82 71
4.194719e+00 -9.252844e-01 3.009648e+00 80 80 68
1.286023e+00 2.133689e-02 3.136274e+00 151 145 133
1.286023e+00 2.133689e-02 3.136274e+00 151 145 133
-6.185341e+00 1.144148e+00 2.950605e+00 34 32 19
-5.795089e+00 1.253879e+00 2.962105e+00 156 158 155
1.627586e+00 4.365829e-01 3.084149e+00 160 171 164
-4.037656e+00 1.494007e+00 2.999886e+00 157 158 151
8.317122e-01 8.726020e-01 3.113271e+00 163 168 156
6.578171e-01 9.372899e-01 3.119848e+00 168 172 161
-7.362015e+00 4.450208e+00 3.153836e+00 153 162 163
2.842095e+00 -4.022433e+00 2.817317e+00 90 91 78
1.214483e-01 -3.664229e+00 2.820595e+00 83 77 62
-2.675889e+00 -7.581158e-01 2.946326e+00 61 63 51
1.766683e+00 -3.661622e-01 3.093591e+00 156 155 150
-2.579012e+00 1.317086e-01 2.997974e+00 171 173 172
-5.637645e+00 8.196307e-01 2.935755e+00 138 145 140
1.045457e+00 1.552872e-01 3.159887e+00 142 138 126
7.942893e-01 2.837508e-01 3.192915e+00 147 143 130
1.177497e+00 2.771721e-01 3.127150e+00 143 143 133
1.054514e+00 3.527783e-01 3.138992e+00 146 143 131
8.243888e-01 4.620644e-01 3.158014e+00 148 143 129
-5.434568e+00 1.317677e+00 2.971067e+00 68 66 53
1.500293e+00 5.194078e-01 3.086830e+00 177 182 180
-5.496052e+00 1.679100e+00 3.002414e+00 164 165 161
1.341740e+00 6.871685e-01 3.092829e+00 98 99 91
1.199646e+00 7.661073e-01 3.099897e+00 107 106 95
1.055684e+00 8.314770e-01 3.103239e+00 104 104 94
5.263905e-01 9.878040e-01 3.124487e+00 171 175 171
2.510059e+00 1.270074e+00 3.074273e+00 79 73 66
4.370671e+00 1.416150e+00 3.107810e+00 138 139 132
-7.039313e+00 4.615122e+00 3.168951e+00 154 158 157
2.706950e+00 -4.066827e+00 2.817880e+00 67 61 50
1.947826e+00 -3.985661e+00 2.823197e+00 71 68 50
2.256318e+00 -3.751876e+00 2.832219e+00 126 123 108
2.256318e+00 -3.751876e+00 2.832219e+00 126 123 108
1.523745e+00 -3.758376e+00 2.832304e+00 130 134 129
2.227591e+00 -3.674985e+00 2.835027e+00 80 77 68
3.802848e-01 -3.675415e+00 2.825351e+00 61 58 48
1.834847e+00 -3.472881e+00 2.842443e+00 166 171 172
9.225647e-01 -3.421918e+00 2.841509e+00 119 114 97
-1.439371e+00 -3.175009e+00 2.830335e+00 144 145 140
-3.633249e-01 -3.185224e+00 2.839177e+00 150 154 152
1.801688e-01 -3.069986e+00 2.847733e+00 132 134 123
-9.338109e-02 -3.065768e+00 2.845865e+00 128 128 118
-2.399139e-01 -3.063228e+00 2.845183e+00 129 132 124
3.945708e+00 -2.607190e+00 2.886836e+00 146 152 148
2.678119e+00 -2.151190e+00 2.911052e+00 97 91 77
-1.870128e+00 -1.728730e+00 2.902244e+00 122 123 114
2.895167e+00 -1.927793e+00 2.917924e+00 141 144 142
-4.721557e+00 -1.292685e+00 2.898028e+00 71 62 44
-4.926806e+00 -1.274867e+00 2.897351e+00 74 68 49
-1.321981e+00 -1.516357e+00 2.918887e+00 133 129 112
-1.453791e+00 -1.433598e+00 2.921100e+00 82 76 62
-1.802086e+00 -1.397177e+00 2.924013e+00 92 86 70
-3.225963e-01 -1.506500e+00 2.904056e+00 98 94 82
-6.308640e-01 -1.489406e+00 2.908649e+00 80 74 60
-7.922129e-01 -1.476690e+00 2.911150e+00 80 75 55
-1.639229e+00 -1.408972e+00 2.926861e+00 92 86 71
-1.630383e+00 -1.409821e+00 2.923288e+00 92 86 71
1.123724e+00 -1.606376e+00 2.907562e+00 90 85 64
2.621294e-01 -1.541421e+00 2.904385e+00 97 91 75
2.852599e+00 -1.737911e+00 2.923375e+00 104 96 81
2.741380e+00 -1.730035e+00 2.922670e+00 99 92 76
4.441401e+00 -1.854923e+00 2.927029e+00 96 90 74
4.489859e+00 -1.855851e+00 2.926977e+00 145 142 134
3.578020e+00 -1.642747e+00 2.926423e+00 96 92 83
3.474646e+00 -1.633376e+00 2.925803e+00 94 89 70
2.611795e+00 -9.552082e-01 3.018941e+00 156 161 157
2.264757e+00 -3.189182e-01 3.051150e+00 143 144 136
1.965632e+00 -1.109509e-01 3.069650e+00 131 130 125
-6.076294e+00 1.149505e+00 2.952612e+00 129 131 118
-1.370347e+00 3.138781e-01 2.804562e+00 75 75 66
-1.290030e+00 3.533062e-01 2.799964e+00 76 76 66
-1.290030e+00 3.533062e-01 2.799964e+00 76 76 66
1.792593e+00 1.261005e-01 3.077008e+00 69 66 54
1.581216e+00 2.844657e-01 3.089823e+00 70 70 62
1.363826e+00 3.617073e-01 3.104776e+00 137 136 122
-5.547895e+00 1.539417e+00 2.990554e+00 93 88 75
-6.208644e+00 1.675835e+00 2.992689e+00 142 143 128
-5.928378e+00 1.668616e+00 2.994682e+00 143 142 128
-6.779489e+00 1.815941e+00 2.998407e+00 157 159 148
-6.570831e+00 1.917228e+00 3.006999e+00 106 107 96
4.364135e+00 1.633045e-02 3.045448e+00 92 91 82
5.216137e-01 8.629842e-01 3.133364e+00 137 137 128
1.573487e+00 7.853408e-01 3.090458e+00 174 180 177
1.094270e+00 1.093676e+00 3.101173e+00 47 48 41
8.157699e-01 1.169210e+00 3.105523e+00 55 57 46
-7.618112e+00 2.739535e+00 3.050351e+00 82 80 67
-5.623797e+00 2.378148e+00 3.049989e+00 82 82 69
4.752569e+00 5.769706e-01 3.070640e+00 167 179 185
2.794275e+00 1.184833e+00 3.073488e+00 64 63 52
-6.585160e+00 3.775043e+00 3.121151e+00 169 181 177
4.515211e+00 1.185178e+00 3.098600e+00 164 180 184
4.515211e+00 1.185178e+00 3.098600e+00 164 180 184
4.540969e+00 1.336020e+00 3.103973e+00 82 81 86
-7.047994e+00 4.222354e+00 3.143647e+00 160 171 165
4.612335e+00 1.343665e+00 3.105064e+00 151 158 151
1.543089e-01 2.568255e+00 3.138630e+00 38 38 36
-4.281192e+00 3.787305e+00 3.153976e+00 165 171 167
2.872801e+00 2.232765e+00 3.140461e+00 99 103 96
3.252985e+00 2.136729e+00 3.137700e+00 90 92 86
4.149182e+00 1.867225e+00 3.125201e+00 103 108 110
4.149182e+00 1.867225e+00 3.125201e+00 103 108 110
3.238129e+00 3.575734e+00 3.214717e+00 164 166 163
-9.908058e+00 9.773084e+00 3.418146e+00 164 167 172
-6.470479e-01 -4.056750e+00 2.793805e+00 130 137 136
7.619375e-01 -3.896862e+00 2.820777e+00 99 102 85
-7.230612e-02 -3.192047e+00 2.841193e+00 146 148 144
-1.800338e+00 -3.075504e+00 2.830571e+00 66 66 53
-3.595776e+00 -2.995768e+00 2.824930e+00 146 155 150
2.515459e-01 -3.072979e+00 2.847671e+00 129 130 122
2.178575e+00 -3.079340e+00 2.861055e+00 125 126 112
-1.735077e+00 -2.989753e+00 2.837823e+00 135 140 130
-1.176229e+00 -2.960569e+00 2.842626e+00 78 72 56
1.528216e+00 -2.985266e+00 2.856172e+00 87 84 69
-4.194656e-02 -2.950889e+00 2.850014e+00 158 173 173
-4.194656e-02 -2.950889e+00 2.850014e+00 158 173 173
-2.621902e+00 -2.864976e+00 2.841768e+00 128 131 121
2.593662e+00 -2.964571e+00 2.865110e+00 146 150 149
2.593662e+00 -2.964571e+00 2.865110e+00 146 150 149
-3.490951e+00 -2.792597e+00 2.840772e+00 135 140 133
-3.731214e+00 -2.758562e+00 2.844297e+00 81 74 65
3.099253e+00 -2.187634e+00 2.911887e+00 59 60 55
-3.099400e+00 -1.621626e+00 2.905190e+00 88 89 77
4.271087e+00 -1.908953e+00 2.925377e+00 71 64 38
3.716315e+00 -1.831503e+00 2.919873e+00 122 124 111
-4.574533e+00 1.165484e+00 2.975003e+00 92 85 73
-6.647088e+00 1.508588e+00 2.974881e+00 150 152 148
1.616468e+00 3.131899e-01 3.086841e+00 143 144 131
-4.917531e+00 1.299637e+00 2.979026e+00 152 150 136
3.951252e+00 -4.046408e-02 3.045452e+00 87 79 67
-6.878309e+00 1.808494e+00 2.997072e+00 156 158 146
1.909962e+00 6.759863e-01 3.073431e+00 156 160 157
1.638613e+00 9.441253e-01 3.080826e+00 69 69 58
2.010495e+00 8.946727e-01 3.086354e+00 81 85 70
-7.434584e+00 2.748569e+00 3.053603e+00 148 149 144
-5.304115e+00 2.367058e+00 3.052907e+00 159 164 154
-1.105573e+00 2.893077e+00 3.140605e+00 180 193 203
5.436724e-01 2.520758e+00 3.141411e+00 194 205 206
3.998407e+00 1.722648e+00 3.119825e+00 168 181 182
2.763292e+00 2.206536e+00 3.139356e+00 149 150 137
3.532522e+00 2.001414e+00 3.132684e+00 160 163 156
3.986641e+00 1.914830e+00 3.126487e+00 110 112 109
-4.947093e+00 6.308843e+00 3.279708e+00 144 155 151
2.293749e+00 -4.161858e+00 2.814963e+00 60 60 46
2.215372e+00 -3.789188e+00 2.831536e+00 113 116 100
1.392398e+00 -3.775450e+00 2.831598e+00 60 58 46
1.323930e-01 -3.756882e+00 2.817841e+00 114 112 98
2.074952e+00 -3.725912e+00 2.834414e+00 118 119 105
2.074952e+00 -3.725912e+00 2.834414e+00 118 119 105
1.371189e+00 -3.720144e+00 2.834282e+00 62 56 43
2.156424e+00 -3.661715e+00 2.835287e+00 139 145 133
1.787638e+00 -3.502831e+00 2.841072e+00 146 143 133
1.585573e+00 -3.439171e+00 2.843222e+00 135 137 125
1.308251e+00 -3.325368e+00 2.847001e+00 85 79 65
-2.903892e-01 -3.281468e+00 2.835650e+00 163 167 166
-4.210061e-02 -3.259917e+00 2.838771e+00 90 88 77
2.176791e+00 -3.221705e+00 2.855662e+00 145 150 147
-9.032948e-01 -3.184819e+00 2.834776e+00 143 145 141
2.653657e+00 -3.217578e+00 2.858529e+00 147 149 140
1.562881e+00 -3.119915e+00 2.855426e+00 71 64 57
2.190706e+00 -3.113332e+00 2.860218e+00 82 78 67
-1.495541e+00 -3.049114e+00 2.835211e+00 145 147 141
1.641874e+00 -3.093785e+00 2.856601e+00 141 143 130
-2.603332e+00 -2.928513e+00 2.838148e+00 139 150 146
-3.780649e+00 -2.841962e+00 2.834305e+00 78 75 65
3.162914e+00 -2.964448e+00 2.867964e+00 143 148 143
3.806922e+00 -2.606730e+00 2.887686e+00 146 148 145
3.888683e+00 -2.442556e+00 2.893725e+00 151 153 148
8.320301e-01 -2.250996e+00 2.891292e+00 102 95 77
-4.003623e+00 -1.426272e+00 2.890501e+00 67 59 40
2.755344e+00 -1.830991e+00 2.920169e+00 139 140 132
1.096338e-01 -1.605770e+00 2.904440e+00 120 112 102
1.209278e+00 -1.680276e+00 2.908833e+00 73 62 42
1.837371e+00 -1.726357e+00 2.914833e+00 103 90 66
4.388120e+00 -1.910914e+00 2.925381e+00 96 87 67
3.363844e+00 -1.836537e+00 2.916369e+00 173 186 185
3.698950e+00 -1.857115e+00 2.919139e+00 64 62 54
3.508082e+00 -1.750848e+00 2.922856e+00 79 70 57
-7.653394e-01 -9.946603e-01 2.936432e+00 137 142 134
4.181862e+00 -1.226715e+00 3.001960e+00 126 133 128
-5.748033e+00 2.084765e-01 2.904495e+00 161 169 163
-5.948154e+00 3.660294e-01 2.912273e+00 91 91 87
1.085648e+00 -7.928740e-02 3.168695e+00 93 88 72
4.659090e-01 3.749336e-01 3.262793e+00 76 65 53
-1.915695e-01 7.132098e-01 3.534771e+00 72 65 52
1.756696e+00 6.409894e-02 3.081817e+00 158 159 144
2.006470e+00 3.611771e-02 3.066701e+00 95 94 80
5.266043e-01 5.361320e-01 3.204381e+00 71 65 49
1.443793e+00 2.983318e-01 3.098935e+00 156 158 144
1.159460e+00 4.629459e-01 3.112031e+00 154 156 145
-5.912329e+00 1.533604e+00 2.980498e+00 155 158 141
-5.929260e+00 1.606213e+00 2.989467e+00 103 97 79
-5.929260e+00 1.606213e+00 2.989467e+00 103 97 79
-6.338173e+00 1.673372e+00 2.991651e+00 71 68 55
-6.050700e+00 1.653600e+00 2.990357e+00 73 66 51
3.024110e-02 8.915914e-01 3.208102e+00 85 81 70
1.990339e+00 4.632245e-01 3.078387e+00 85 84 79
1.947188e+00 4.857219e-01 3.081171e+00 136 145 139
4.299008e+00 6.148528e-02 3.046126e+00 99 95 84
1.147825e+00 7.306556e-01 3.101284e+00 165 171 161
4.230177e+00 8.984818e-02 3.048127e+00 94 92 79
2.642422e-01 1.000446e+00 3.140772e+00 100 91 81
1.178082e-01 1.029325e+00 3.138518e+00 85 82 77
-5.037624e-01 1.174218e+00 3.113424e+00 173 177 172
-6.534254e+00 2.580914e+00 3.053509e+00 137 141 134
-5.065342e+00 2.315004e+00 3.052150e+00 127 132 123
1.738169e+00 2.009125e+00 3.128269e+00 76 76 65
4.097062e+00 1.469492e+00 3.112275e+00 154 158 160
-6.292663e+00 4.097156e+00 3.144884e+00 142 147 124
3.270855e+00 1.845769e+00 3.126509e+00 136 142 128
4.787859e+00 1.403364e+00 3.105254e+00 79 76 73
3.666578e+00 1.771731e+00 3.123314e+00 166 180 180
-5.359383e+00 4.088838e+00 3.157409e+00 121 127 112
-5.977114e+00 4.525317e+00 3.179605e+00 153 156 145
-5.977114e+00 4.525317e+00 3.179605e+00 153 156 145
7.152277e-01 2.816100e+00 3.158224e+00 88 88 81
-5.341434e+00 4.405789e+00 3.185662e+00 155 158 146
4.906018e+00 1.591067e+00 3.106473e+00 168 176 175
-4.195731e+00 4.252107e+00 3.190668e+00 76 77 71
-4.195731e+00 4.252107e+00 3.190668e+00 76 77 71
-5.563910e+00 4.637911e+00 3.198084e+00 157 160 142
-5.293602e+00 6.400709e+00 3.282055e+00 161 172 167
3.185570e+00 3.797660e+00 3.221795e+00 99 98 100
2.312154e+00 4.154363e+00 3.238370e+00 81 83 81
2.312154e+00 4.154363e+00 3.238370e+00 81 83 81
3.126715e+00 3.876365e+00 3.228273e+00 87 84 87
2.107990e+00 4.298862e+00 3.244468e+00 76 74 73
2.680446e+00 -4.095916e+00 2.816858e+00 121 121 113
1.547831e+00 -3.672573e+00 2.836942e+00 145 147 141
1.950206e+00 -3.547720e+00 2.839534e+00 84 85 78
1.355280e+00 -3.417201e+00 2.844392e+00 117 117 100
-2.176876e+00 -3.081635e+00 2.827931e+00 60 61 55
-1.758270e+00 -3.082966e+00 2.832188e+00 62 60 51
-2.294946e+00 -2.872632e+00 2.841522e+00 100 100 95
2.967877e+00 -2.983736e+00 2.866813e+00 72 71 57
-2.699891e+00 -2.808378e+00 2.845333e+00 146 152 143
-1.312932e+00 -2.753396e+00 2.850691e+00 153 158 150
-2.018303e+00 -2.678299e+00 2.848937e+00 82 78 71
2.899315e-01 -2.742333e+00 2.867635e+00 146 147 141
3.701796e+00 -2.812952e+00 2.869351e+00 163 169 165
2.817147e-01 -2.705834e+00 2.868724e+00 144 145 140
1.655678e+00 -2.684675e+00 2.877672e+00 156 157 149
3.809499e+00 -2.697179e+00 2.885466e+00 129 134 127
-3.099894e+00 -2.430473e+00 2.857498e+00 135 138 132
2.130864e+00 -2.634453e+00 2.883066e+00 55 54 41
3.815761e+00 -2.674039e+00 2.886019e+00 78 68 63
3.815761e+00 -2.674039e+00 2.886019e+00 78 68 63
3.811025e+00 -2.653125e+00 2.886536e+00 132 134 124
3.807560e+00 -2.629351e+00 2.886851e+00 79 78 65
-1.920905e+00 -1.681694e+00 2.904632e+00 62 62 49
-2.769227e+00 -1.577741e+00 2.915118e+00 87 83 66
1.787203e+00 -1.822752e+00 2.910202e+00 85 76 63
9.197387e-01 -1.723512e+00 2.904109e+00 148 151 132
1.923642e+00 -1.799496e+00 2.912985e+00 78 63 42
3.941809e+00 -1.940505e+00 2.916350e+00 146 153 148
-6.862672e-01 -1.555914e+00 2.914166e+00 72 64 38
-3.554871e+00 -1.212603e+00 2.927550e+00 83 75 62
3.765794e+00 -1.727345e+00 2.925468e+00 139 136 120
3.883000e+00 -1.725402e+00 2.926376e+00 81 70 54
3.018974e+00 -1.523370e+00 2.944727e+00 71 73 67
1.838456e+00 -1.323254e+00 2.939376e+00 169 173 179
1.327774e+00 -1.169020e+00 2.938231e+00 50 47 33
2.526955e+00 -1.030516e+00 3.025158e+00 92 89 77
4.368617e+00 -9.969339e-01 3.004325e+00 134 134 136
3.955239e+00 -7.490550e-01 3.017478e+00 175 182 175
1.463591e+00 -1.763334e-01 3.120776e+00 85 79 63
-5.478692e+00 7.588753e-01 2.926299e+00 55 58 53
1.550336e+00 -2.103747e-02 3.105023e+00 86 82 65
-1.318897e+00 2.086455e-01 2.782660e+00 160 165 156
1.388517e+00 9.300572e-02 3.117432e+00 82 78 65
-7.022771e+00 1.416794e+00 2.965478e+00 78 75 68
-7.042841e+00 1.463123e+00 2.968283e+00 156 162 155
1.919253e+00 1.203536e-01 3.069161e+00 103 105 92
-5.451778e+00 1.374245e+00 2.976395e+00 74 68 52
1.190569e+00 4.164888e-01 3.115447e+00 82 75 61
1.213447e+00 4.352377e-01 3.110752e+00 156 160 147
1.056147e+00 5.182919e-01 3.119384e+00 156 154 139
8.514882e-01 6.148305e-01 3.131201e+00 158 157 152
4.793030e-01 7.405871e-01 3.164441e+00 81 78 62
2.786008e-01 8.149423e-01 3.183024e+00 82 80 67
1.413929e+00 5.836441e-01 3.092218e+00 174 179 175
1.219353e+00 6.937325e-01 3.098407e+00 175 176 169
1.003187e+00 8.832646e-01 3.101082e+00 92 90 76
-5.598803e+00 2.011106e+00 3.023326e+00 122 120 106
1.773855e+00 7.702890e-01 3.086553e+00 149 152 140
1.170232e+00 9.358205e-01 3.100704e+00 78 76 72
5.832746e-01 1.066239e+00 3.110513e+00 160 161 155
1.578497e+00 8.224368e-01 3.076902e+00 172 174 166
1.432729e+00 8.994327e-01 3.094482e+00 162 163 158
-4.766758e+00 2.214298e+00 3.047463e+00 83 77 67
2.740591e+00 1.090117e+00 3.070088e+00 141 142 129
-7.740966e+00 3.377530e+00 3.067219e+00 95 92 85
2.316315e+00 1.336654e+00 3.075996e+00 141 143 131
2.316315e+00 1.336654e+00 3.075996e+00 141 143 131
1.895210e+00 1.818306e+00 3.120175e+00 148 154 147
3.643037e+00 1.384356e+00 3.107343e+00 77 80 82
-7.685023e-02 2.639140e+00 3.139362e+00 65 61 55
-4.406748e+00 3.773268e+00 3.151954e+00 149 154 144
-4.406748e+00 3.773268e+00 3.151954e+00 149 154 144
1.536487e+00 2.344539e+00 3.142699e+00 98 100 87
-2.182332e+00 3.349426e+00 3.157417e+00 105 106 91
8.275853e-01 2.618057e+00 3.151559e+00 163 166 161
2.065997e+00 2.303306e+00 3.125939e+00 69 64 57
5.034730e+00 1.487698e+00 3.103298e+00 98 97 94
3.299133e+00 2.072483e+00 3.135012e+00 154 154 142
2.438704e+00 2.429596e+00 3.131958e+00 105 103 98
2.438704e+00 2.429596e+00 3.131958e+00 105 103 98
-3.502107e+00 4.209762e+00 3.218255e+00 81 80 74
2.361679e+00 3.869342e+00 3.225041e+00 159 166 167
2.362560e+00 4.104105e+00 3.235889e+00 79 80 83
2.518925e+00 4.074401e+00 3.231005e+00 104 105 104
3.818380e+00 3.652607e+00 3.210890e+00 168 185 190
3.403751e+00 4.071114e+00 3.233865e+00 108 108 107
-5.939674e+00 7.648505e+00 3.352161e+00 174 185 182
-9.101888e+00 8.808451e+00 3.077989e+00 141 139 134
2.668616e+00 -4.075263e+00 2.818115e+00 51 47 38
2.680322e+00 -4.064310e+00 2.818486e+00 131 132 120
2.435716e+00 -3.953589e+00 2.825025e+00 129 130 116
2.415828e+00 -3.928749e+00 2.826033e+00 60 53 36
2.197695e+00 -3.758424e+00 2.832844e+00 128 125 108
1.794565e+00 -3.665159e+00 2.837827e+00 112 110 95
1.799141e+00 -3.486716e+00 2.841246e+00 85 83 75
1.748295e+00 -3.487563e+00 2.841591e+00 141 144 138
1.413695e+00 -3.479838e+00 2.842831e+00 118 119 107
1.755963e+00 -3.475607e+00 2.842042e+00 87 87 84
1.235671e+00 -3.420403e+00 2.844490e+00 46 35 21
-1.774426e+00 -3.199512e+00 2.823809e+00 82 77 74
-1.055331e+00 -3.210345e+00 2.831314e+00 75 75 66
-1.065741e+00 -3.208369e+00 2.832158e+00 75 75 66
-1.818558e+00 -3.164077e+00 2.826472e+00 144 146 140
6.962758e-01 -3.147762e+00 2.848121e+00 108 104 94
-2.817423e+00 -2.983052e+00 2.832740e+00 149 156 149
3.722444e+00 -3.021022e+00 2.862172e+00 48 48 41
-2.021305e-01 -2.954811e+00 2.847851e+00 90 91 84
-2.968451e+00 -2.848758e+00 2.841513e+00 89 88 79
-2.645490e+00 -2.811550e+00 2.846018e+00 131 133 124
1.640781e+00 -2.477638e+00 2.883324e+00 78 75 62
-2.642221e+00 -1.741255e+00 2.900084e+00 83 79 65
-1.064556e+00 -1.807487e+00 2.901936e+00 127 128 119
3.130718e+00 -1.973253e+00 2.918118e+00 137 140 132
-9.303195e-01 -1.663811e+00 2.909443e+00 137 137 126
-1.229970e+00 -1.588394e+00 2.913793e+00 43 41 25
-1.282690e+00 -1.532202e+00 2.914687e+00 130 129 109
-1.212581e+00 -1.489951e+00 2.920289e+00 129 122 113
1.554040e+00 -1.678509e+00 2.911697e+00 149 144 128
1.077512e+00 -1.630193e+00 2.908043e+00 81 73 61
-5.196147e-01 -1.450205e+00 2.906448e+00 85 76 68
-4.170322e-01 -1.141299e+00 2.933463e+00 72 65 49
-5.631720e+00 3.596575e-01 2.915015e+00 114 119 107
-5.100547e+00 5.043842e-01 2.921586e+00 106 107 94
1.026673e+00 -5.306560e-02 3.177030e+00 152 150 130
4.176181e+00 -6.238151e-01 3.026213e+00 163 176 175
4.198973e+00 -5.951256e-01 3.026034e+00 159 178 175
6.625403e-01 1.378937e-01 3.241468e+00 82 78 73
-4.758912e+00 1.070452e+00 2.955508e+00 72 75 65
4.386577e+00 -2.085452e-01 3.039101e+00 152 157 142
-5.698144e+00 1.459061e+00 2.980386e+00 69 64 49
-5.571210e+00 1.590885e+00 2.995442e+00 83 80 66
1.254383e+00 6.450828e-01 3.097527e+00 123 124 114
-6.599687e+00 1.960036e+00 3.011901e+00 85 81 72
7.839335e-01 8.685207e-01 3.114839e+00 118 118 103
-4.271686e+00 1.677344e+00 3.006756e+00 160 165 151
8.564573e-01 9.506299e-01 3.106992e+00 85 88 79
2.018492e+00 6.683095e-01 3.073117e+00 133 136 126
2.018492e+00 6.683095e-01 3.073117e+00 133 136 126
1.625514e+00 7.519007e-01 3.074712e+00 176 178 171
-1.648840e+00 1.325281e+00 2.983871e+00 157 162 149
1.141931e+00 9.697221e-01 3.100862e+00 168 172 158
1.363427e+00 9.196702e-01 3.095479e+00 159 168 163
-4.805592e+00 2.020802e+00 3.031763e+00 95 97 91
1.428443e+00 1.047539e+00 3.093673e+00 149 158 149
1.434286e+00 1.010595e+00 3.081004e+00 149 158 149
3.684694e-01 1.309731e+00 3.106413e+00 85 86 80
-2.840829e+00 2.700469e+00 3.160031e+00 143 149 142
1.798611e+00 1.926229e+00 3.124668e+00 80 82 70
-5.732057e+00 3.694988e+00 3.125842e+00 66 66 58
6.556537e-01 2.245999e+00 3.129137e+00 93 94 86
-7.178012e+00 4.104075e+00 3.133665e+00 78 78 69
-6.543995e+00 3.975114e+00 3.136884e+00 77 79 68
1.364048e+00 2.126534e+00 3.128824e+00 156 158 153
-4.629592e+00 3.677064e+00 3.147850e+00 93 92 87
3.816727e+00 1.631260e+00 3.118242e+00 183 190 186
4.094762e+00 1.552911e+00 3.111948e+00 149 162 165
-4.249466e+00 3.890482e+00 3.162585e+00 70 69 57
-9.379358e-01 3.089387e+00 3.154893e+00 94 93 88
-1.359359e+00 3.204931e+00 3.155982e+00 88 89 88
-6.549196e+00 4.523597e+00 3.173945e+00 149 154 131
-6.115691e+00 4.424337e+00 3.173350e+00 133 137 122
3.648593e+00 1.890770e+00 3.128551e+00 172 175 174
3.648593e+00 1.890770e+00 3.128551e+00 172 175 174
-5.950502e+00 4.512180e+00 3.179238e+00 164 169 159
-5.950502e+00 4.512180e+00 3.179238e+00 164 169 159
-7.107405e+00 4.887724e+00 3.190557e+00 85 86 71
-7.107405e+00 4.887724e+00 3.190557e+00 85 86 71
-6.695839e+00 4.790327e+00 3.190905e+00 91 89 76
-6.655512e+00 4.756729e+00 3.185070e+00 91 89 76
-7.506858e+00 5.050506e+00 3.195867e+00 155 160 153
-7.454608e+00 5.009996e+00 3.189157e+00 155 160 153
2.748938e+00 2.301424e+00 3.142712e+00 95 92 88
-6.058824e+00 4.666609e+00 3.189739e+00 152 153 130
3.660191e+00 2.020940e+00 3.129778e+00 95 94 89
3.218367e+00 2.169927e+00 3.135279e+00 165 168 157
1.946734e+00 2.537410e+00 3.135611e+00 163 166 149
5.019815e+00 1.798583e+00 3.117461e+00 128 127 127
-3.539027e+00 4.687195e+00 3.257136e+00 111 111 101
-3.878813e+00 5.367964e+00 3.299418e+00 90 91 85
2.313181e+00 3.645472e+00 3.216600e+00 124 125 121
2.431128e+00 3.636289e+00 3.214497e+00 89 90 95
2.408457e+00 3.988105e+00 3.230734e+00 160 171 167
2.408457e+00 3.988105e+00 3.230734e+00 160 171 167
-5.178611e+00 6.917483e+00 3.317446e+00 151 157 152
-2.666525e+00 -2.819640e+00 2.845393e+00 67 73 65
-2.674625e+00 -1.617109e+00 2.913119e+00 123 124 119
1.285365e+00 -1.657448e+00 2.909431e+00 136 130 111
2.729416e+00 -7.996912e-01 3.016096e+00 68 70 65
2.732423e+00 -8.263453e-01 3.013234e+00 68 70 65
1.836515e+00 -5.156721e-01 3.087899e+00 103 101 92
-4.760254e+00 5.424243e-01 2.924726e+00 187 192 186
1.517156e+00 1.970959e-01 3.099439e+00 136 130 114
1.209582e+00 3.858079e-01 3.116798e+00 141 139 126
-5.006733e+00 1.315039e+00 2.974184e+00 73 68 49
-6.148050e+00 1.758106e+00 3.000863e+00 149 147 135
-7.650972e+00 2.801580e+00 3.056115e+00 86 91 84
2.385077e+00 1.653269e+00 3.097366e+00 130 133 130
3.303161e+00 1.663103e+00 3.116732e+00 113 116 111
-5.952586e+00 3.962415e+00 3.148731e+00 100 100 90
-4.970359e+00 4.036908e+00 3.164798e+00 102 100 93
-3.969955e+00 3.896119e+00 3.167193e+00 84 86 78
-4.016246e+00 3.916698e+00 3.167551e+00 83 84 77
-5.194552e+00 4.240101e+00 3.175615e+00 110 107 96
-3.949699e+00 3.976874e+00 3.174242e+00 156 157 148
-3.949699e+00 3.976874e+00 3.174242e+00 156 157 148
-5.192683e+00 4.353343e+00 3.184398e+00 160 163 152
5.016144e+00 1.526305e+00 3.105127e+00 97 100 99
3.470078e+00 2.017479e+00 3.130326e+00 98 94 83
-4.430562e+00 4.255321e+00 3.189975e+00 71 71 59
-4.656408e+00 4.286496e+00 3.184873e+00 64 61 51
-4.507038e+00 4.368296e+00 3.199441e+00 75 76 70
2.050705e+00 2.714864e+00 3.145626e+00 177 182 176
-3.453108e+00 4.855056e+00 3.272283e+00 88 84 73
3.078758e+00 -8.043655e-01 3.053979e+00 175 174 181
-1.843200e+00 -2.268129e+00 2.780524e+00 18 19 21
3.184392e+00 -1.396870e+00 2.972234e+00 138 140 138
-1.368134e+00 2.745411e-01 2.384890e+00 127 123 114
1.987482e+00 2.651361e-01 2.801241e+00 141 140 136
1.987482e+00 2.651361e-01 2.801241e+00 141 140 136
1.626493e+00 2.024024e+00 3.075615e+00 139 138 136
-2.404717e+00 -1.869965e+00 2.968855e+00 37 30 25
-4.310053e+00 1.416898e+00 2.695127e+00 148 150 149
1.859005e+00 3.346737e-01 2.848596e+00 132 133 128
-1.007227e+00 1.130073e+00 2.920704e+00 150 148 141
1.914034e+00 3.664541e-01 2.882603e+00 72 67 63
2.719597e+00 3.075771e-02 3.101496e+00 172 173 177
-5.173678e+00 1.889248e+00 2.655028e+00 49 45 41
1.565570e+00 6.029831e-01 2.907905e+00 91 88 81
-1.025560e+00 1.306220e+00 2.874294e+00 93 86 83
7.415789e-01 -3.169724e+00 2.915590e+00 137 137 133
-8.413958e-01 -2.861232e+00 2.869603e+00 134 137 142
1.365499e-01 -2.391091e+00 2.953570e+00 53 49 46
3.007953e+00 -2.018448e+00 2.947476e+00 136 121 113
1.578505e+00 -1.780688e+00 3.117504e+00 94 81 72
-6.331154e+00 1.467781e+00 1.704578e+00 112 105 89
2.365126e+00 -6.110605e-02 2.805454e+00 72 67 63
2.320625e-01 1.267872e+00 3.027973e+00 68 66 64
-1.048342e+00 1.523391e+00 3.046968e+00 44 42 39
2.048468e+00 9.829879e-01 3.011629e+00 64 62 61
2.347818e-01 -2.065115e+00 3.000066e+00 66 59 49
-3.768227e+00 -1.642184e+00 3.066522e+00 85 79 67
1.199169e+00 -8.394738e-02 2.482404e+00 134 131 126
-5.459848e-01 7.228041e-01 2.519040e+00 63 56 48
2.651827e+00 1.355555e-01 3.113994e+00 112 117 120
2.651854e+00 2.141913e-01 3.144963e+00 166 168 168
1.570527e+00 8.524580e-01 2.942520e+00 159 155 152
8.315395e-01 -2.408782e+00 2.917339e+00 117 116 112
3.100343e+00 -2.233470e+00 2.874899e+00 70 72 71
2.937971e-01 -2.075674e+00 2.987716e+00 53 45 40
1.106392e+00 -2.100959e+00 3.000896e+00 81 71 61
2.449884e+00 -7.018307e-01 2.612992e+00 70 64 54
1.619983e+00 -6.780646e-02 2.573396e+00 144 140 136
-1.174561e+00 6.354480e-01 2.462782e+00 63 56 51
1.321261e+00 6.953098e-01 2.900265e+00 161 158 154
9.370981e-01 9.286779e-01 2.955284e+00 75 72 64
1.437011e+00 1.954953e+00 3.089322e+00 166 161 161
-3.497291e-01 2.663593e+00 3.176340e+00 65 61 64
1.566018e+00 2.250939e+00 3.127758e+00 71 63 62
-4.538295e-01 -2.163089e+00 2.823312e+00 134 133 124
-2.359521e-01 -1.931715e+00 3.113151e+00 70 61 54
-1.825101e+00 -1.666808e+00 3.080634e+00 75 62 56
-3.319398e+00 -1.590149e+00 3.371187e+00 48 43 39
1.880870e+00 -1.448362e+00 3.030616e+00 113 109 102
-9.180649e-01 1.007464e+00 2.759657e+00 149 142 135
-4.302308e+00 1.470792e+00 2.933881e+00 130 129 125
-7.276900e-01 1.303858e+00 2.862798e+00 80 77 69
-1.966369e+00 1.621039e+00 2.968890e+00 130 125 121
1.480416e+00 2.022550e+00 3.114768e+00 81 76 72
7.241556e-01 2.370107e+00 3.177185e+00 142 141 137
-4.942330e-02 2.730835e+00 3.199958e+00 156 158 157
1.482239e+00 2.084314e+00 3.144592e+00 101 98 93
1.180211e+00 2.228773e+00 3.128532e+00 65 63 64
-1.716465e+00 2.715169e+00 3.158817e+00 31 30 35
1.545550e+00 4.681558e+00 3.744538e+00 239 255 255
3.400657e+00 3.325402e+00 3.345793e+00 69 65 66
3.540056e+00 3.621630e+00 3.510853e+00 154 154 163
3.177373e+00 3.903619e+00 3.590636e+00 123 120 128
-7.211291e+00 7.957978e+00 3.846070e+00 87 90 95
1.210805e+00 3.708553e-01 2.658114e+00 93 83 74
1.210805e+00 3.708553e-01 2.658114e+00 93 83 74
-1.130119e+00 7.211807e-01 2.637678e+00 103 92 80
2.105392e+00 1.435864e-01 2.815146e+00 144 143 139
2.105392e+00 1.435864e-01 2.815146e+00 144 143 139
8.029004e-01 5.480311e-01 2.689045e+00 89 76 67
-3.944163e-01 1.137994e+00 2.952084e+00 160 157 152
-1.432871e+00 1.349283e+00 3.006942e+00 162 162 161
-6.965578e+00 3.462362e+00 3.041515e+00 110 110 108
3.552663e+00 3.688467e+00 3.643135e+00 152 152 154
2.866201e+00 4.234101e+00 3.568898e+00 249 255 250
1.321870e+00 4.800415e+00 3.742956e+00 100 101 113
-4.809983e+00 6.389496e-01 2.563974e+00 119 113 101
3.687588e+00 2.819672e+00 3.180609e+00 104 104 106
2.343849e+00 3.966510e+00 3.436263e+00 161 161 161
2.535023e+00 4.218615e+00 3.581103e+00 101 100 114
-3.838178e+00 6.870850e+00 3.737215e+00 209 231 255
-2.660981e+00 6.131849e+00 3.937997e+00 216 234 254
-3.051687e+00 -8.928278e-01 3.122037e+00 91 82 74
2.361955e+00 -5.620161e-02 2.816379e+00 72 67 63
-2.767045e+00 3.309049e-01 3.351713e+00 75 76 71
-5.950453e+00 1.743731e+00 2.901220e+00 78 74 62
-6.238768e+00 1.808882e+00 2.893923e+00 59 52 44
2.820566e+00 2.088099e+00 3.172639e+00 96 89 83
3.576665e+00 3.009093e+00 3.263874e+00 119 118 116
1.985855e+00 4.155068e+00 3.388172e+00 75 72 71
-3.890929e+00 6.916267e+00 3.955115e+00 83 83 99
1.532679e+00 -1.967085e+00 3.091933e+00 131 130 125
2.344925e+00 -6.367969e-01 2.616318e+00 68 63 59
-2.228402e+00 -1.901449e-02 2.570073e+00 62 58 49
-4.204793e+00 9.779169e-01 2.826917e+00 57 50 42
-4.603010e+00 1.403029e+00 2.966813e+00 37 33 32
-1.572733e+00 9.883888e-01 2.907329e+00 156 154 145
-2.411767e+00 1.814858e+00 3.469406e+00 83 79 70
-4.823085e+00 3.345056e+00 2.797090e+00 82 78 75
2.272956e+00 2.038087e+00 3.334328e+00 171 167 166
3.758050e+00 2.757569e+00 3.198211e+00 155 154 156
1.289287e+00 4.805453e+00 3.783459e+00 237 253 253
2.989450e+00 4.319485e+00 3.631305e+00 78 89 120
1.771995e+00 4.764189e+00 3.719888e+00 77 93 118
3.558262e+00 -2.146279e+00 3.223645e+00 88 78 70
3.582697e+00 -2.134714e+00 3.241237e+00 153 143 142
1.782010e-02 -1.215386e+00 3.100719e+00 119 113 101
1.782010e-02 -1.215386e+00 3.100719e+00 119 113 101
-5.567119e+00 5.888491e-01 2.346733e+00 125 118 110
2.024103e+00 3.023866e-01 2.867740e+00 40 34 35
-6.878902e+00 1.814691e+00 2.779471e+00 129 125 116
-2.056144e+00 2.733717e+00 3.199368e+00 76 69 61
-5.385825e+00 3.541197e+00 3.305460e+00 47 47 47
-4.717502e+00 3.961283e+00 3.242481e+00 77 76 74
3.762552e+00 1.835359e+00 3.236112e+00 144 136 125
-5.192062e+00 5.323918e+00 3.317378e+00 147 152 153
-4.817902e+00 6.315887e+00 3.211031e+00 120 120 120
-6.284247e+00 6.653569e+00 3.360967e+00 107 104 101
-4.279070e+00 6.109783e+00 3.316070e+00 104 98 92
8.515212e-01 4.370233e+00 3.437112e+00 143 137 139
3.031388e+00 3.720429e+00 3.391647e+00 69 63 66
2.897344e+00 3.768750e+00 3.406623e+00 71 66 70
-6.281853e+00 6.969411e+00 3.640274e+00 160 160 158
8.063923e-01 4.652863e+00 3.496389e+00 237 251 254
3.457488e+00 3.849577e+00 3.472760e+00 149 149 151
1.481087e+00 4.471727e+00 3.748926e+00 160 155 154
-3.050368e+00 6.199523e+00 3.946796e+00 209 234 254
-2.554918e+00 6.080570e+00 3.925470e+00 111 123 140
-2.554918e+00 6.080570e+00 3.925470e+00 111 123 140
1.371624e+00 4.789965e+00 3.764489e+00 232 252 251
1.345724e+00 4.798213e+00 3.801259e+00 97 106 134
1.345724e+00 4.798213e+00 3.801259e+00 97 106 134
-5.458913e+00 2.110344e+00 2.672336e+00 79 75 76
3.643296e+00 1.900573e+00 3.188666e+00 156 148 137
-2.234525e+00 3.494317e+00 3.772747e+00 139 132 126
-7.832886e+00 5.708884e+00 3.768644e+00 139 145 147
2.765434e+00 3.600814e+00 3.313567e+00 92 87 91
1.166953e+00 4.235271e+00 3.405896e+00 157 151 151
-2.267451e+00 5.745829e+00 3.517222e+00 219 236 251
-2.313128e+00 5.800922e+00 3.545873e+00 223 235 242
-2.313128e+00 5.800922e+00 3.545873e+00 223 235 242
-2.900928e+00 6.308171e+00 3.964276e+00 78 98 124
-2.900928e+00 6.308171e+00 3.964276e+00 78 98 124
-5.952799e+00 7.463707e+00 4.042372e+00 197 222 246
2.916850e+00 3.871723e+00 3.318940e+00 54 54 52
-7.451241e-01 1.169666e+00 2.916312e+00 162 159 150
5.057297e-01 1.003882e+00 2.934532e+00 174 171 166
1.914085e+00 4.367106e+00 3.326114e+00 144 144 140
1.743145e+00 8.615223e-01 2.955639e+00 128 124 114
2.899936e+00 3.873948e+00 3.343933e+00 67 67 65
1.312295e+00 -2.015308e+00 3.080503e+00 144 134 122
2.859035e+00 2.000020e+00 3.165040e+00 151 148 143
-6.581102e+00 6.665637e+00 3.262479e+00 19 24 18
2.679833e+00 -2.009401e+00 3.099638e+00 142 134 125
1.064722e-01 2.789201e+00 3.250585e+00 82 78 76
-3.575725e+00 -1.738555e+00 2.728843e+00 55 52 36
-1.787908e+00 -1.787422e+00 2.926762e+00 84 76 63
-4.589315e+00 7.475823e-01 2.583361e+00 113 114 108
-1.183610e+00 3.061864e+00 3.283801e+00 136 135 134
1.214222e+00 -2.735062e+00 2.855355e+00 55 54 50
-2.678399e-01 -3.104137e+00 2.908611e+00 110 110 100
1.343228e+00 -3.107049e+00 2.908794e+00 121 113 106
2.176221e+00 -3.231822e+00 2.914579e+00 136 134 133
2.076597e+00 -3.224221e+00 2.915104e+00 64 50 51
9.787304e-01 -3.226422e+00 2.870143e+00 131 126 125
1.279811e-01 -2.710687e+00 2.797771e+00 123 120 119
-3.686083e-01 -3.218332e+00 2.870856e+00 62 58 57
-1.439650e+00 -2.089199e+00 2.825113e+00 75 66 59
-1.166868e+00 -5.519476e+00 2.759999e+00 180 173 151
-8.509422e-01 -4.547491e+00 2.779669e+00 92 81 61
6.485363e-01 -3.875044e+00 2.668993e+00 82 70 54
7.213429e-01 -3.646859e+00 2.748469e+00 126 120 111
-1.922204e+00 -5.183792e+00 2.912862e+00 230 225 217
6.871709e-01 -3.441724e+00 2.767407e+00 112 100 77
-1.551684e+00 -1.849410e+00 2.866688e+00 59 52 46
7.432183e-01 -3.056417e+00 2.905150e+00 99 87 73
-1.229412e+00 -5.767906e+00 2.729472e+00 195 188 169
-1.006969e+00 -5.210950e+00 2.763685e+00 177 174 159
-1.217916e+00 -5.045998e+00 2.793589e+00 122 115 97
-1.062843e+00 -4.668454e+00 2.827644e+00 196 191 185
2.353196e+00 -4.122999e+00 2.742106e+00 117 117 104
-7.255506e-01 -4.237482e+00 2.819771e+00 215 216 211
1.082163e+00 -3.577544e+00 2.726556e+00 93 84 68
1.090161e+00 -2.099244e+00 2.859173e+00 39 36 33
9.622297e-01 -2.018054e+00 2.908242e+00 40 36 32
-1.232908e+00 -5.180258e+00 2.760699e+00 148 132 119
-1.223822e+00 -4.865675e+00 2.816857e+00 207 206 202
-5.235293e-01 -4.209228e+00 2.772394e+00 83 67 49
2.714901e+00 -3.980972e+00 2.809418e+00 97 88 75
-1.990691e+00 -3.211314e+00 2.934636e+00 151 154 144
-1.635069e+00 -6.120177e+00 2.653746e+00 80 65 59
-1.662067e+00 -6.049060e+00 2.663941e+00 83 68 65
-1.534669e+00 -5.907848e+00 2.717647e+00 103 91 75
-1.283378e+00 -5.855701e+00 2.685909e+00 186 185 159
-1.573343e+00 -5.836262e+00 2.741520e+00 73 59 58
-9.920989e-01 -5.640729e+00 2.701063e+00 81 68 62
-1.306046e+00 -5.240547e+00 2.786889e+00 96 82 71
-1.306046e+00 -5.240547e+00 2.786889e+00 96 82 71
-8.542637e-01 -5.108414e+00 2.708596e+00 219 214 192
1.278501e-01 -3.676215e+00 2.823040e+00 100 88 86
9.726349e-01 -3.061966e+00 2.925281e+00 106 96 89
-1.095706e+00 -5.505349e+00 2.719115e+00 108 100 89
-9.208412e-01 -5.394915e+00 2.716295e+00 139 129 109
-8.462416e-01 -5.176050e+00 2.734420e+00 213 205 192
3.088478e+00 -4.677948e+00 2.700377e+00 47 44 39
-9.753728e-01 -4.714781e+00 2.795146e+00 101 87 81
-1.000604e+00 -4.647516e+00 2.812785e+00 119 110 103
-1.658543e+00 -4.582573e+00 2.850617e+00 64 59 66
-7.846513e-01 -4.367401e+00 2.801821e+00 102 90 84
-6.118954e-01 -4.184728e+00 2.799467e+00 111 100 98
1.774927e-01 -3.695543e+00 2.798907e+00 138 130 107
2.047440e+00 -3.663168e+00 2.821949e+00 125 114 96
-2.015362e+00 -2.371178e+00 2.950148e+00 207 201 189
-1.597143e+00 -6.163522e+00 2.651582e+00 98 90 71
-1.634192e+00 -6.086912e+00 2.671221e+00 183 178 152
-1.616530e+00 -6.061612e+00 2.688454e+00 83 72 65
-1.612683e+00 -6.035458e+00 2.688950e+00 202 194 176
-1.561437e+00 -6.009570e+00 2.697582e+00 181 175 152
-1.636630e+00 -6.005812e+00 2.699285e+00 211 205 186
-1.494494e+00 -5.579156e+00 2.793082e+00 100 89 85
-9.169999e-01 -5.346403e+00 2.715502e+00 90 80 52
-1.285406e+00 -5.363129e+00 2.767721e+00 118 106 82
-9.034252e-01 -5.186294e+00 2.726207e+00 71 63 58
-3.130944e-01 -4.473591e+00 2.720765e+00 221 219 198
-8.730114e-01 -4.533687e+00 2.785874e+00 94 78 61
-4.402375e-01 -2.502295e+00 2.863300e+00 108 99 99
3.716703e-01 -2.307669e+00 2.870689e+00 51 39 43
-1.523602e+00 -5.691487e+00 2.770545e+00 199 187 167
-1.545572e+00 -5.687951e+00 2.777151e+00 111 103 94
-1.545572e+00 -5.687951e+00 2.777151e+00 111 103 94
-1.441914e+00 -5.569464e+00 2.776945e+00 109 99 82
-1.465130e+00 -5.575816e+00 2.787504e+00 217 205 194
-8.610599e-01 -5.207078e+00 2.727960e+00 98 81 74
-1.235373e+00 -5.223485e+00 2.767080e+00 205 200 171
-1.263519e+00 -5.182345e+00 2.805330e+00 219 212 184
-1.326738e+00 -5.156795e+00 2.807113e+00 99 86 86
-6.591721e-01 -4.789030e+00 2.719378e+00 114 105 98
-6.591721e-01 -4.789030e+00 2.719378e+00 114 105 98
-5.459983e-01 -4.196176e+00 2.802516e+00 84 72 55
2.889301e+00 -4.016302e+00 2.822742e+00 161 156 154
1.746457e+00 -3.826035e+00 2.734734e+00 146 140 129
-2.801568e-01 -3.204284e+00 2.866248e+00 172 171 167
9.880388e-01 -3.161455e+00 2.888074e+00 138 131 123
-1.663670e-01 -3.108426e+00 2.888885e+00 74 65 58
-4.786607e-01 -3.064242e+00 2.920227e+00 91 84 74
1.731399e+00 -2.616491e+00 2.910445e+00 213 201 179
-1.592687e+00 -6.096730e+00 2.672160e+00 182 182 162
-1.108281e+00 -5.838103e+00 2.691343e+00 156 149 133
-1.580056e+00 -5.899273e+00 2.726257e+00 202 197 177
-1.071576e+00 -5.633153e+00 2.729394e+00 115 107 101
-9.127077e-01 -5.318454e+00 2.719446e+00 100 92 73
-9.398555e-01 -5.320708e+00 2.720147e+00 133 122 102
-1.243984e+00 -5.273681e+00 2.772409e+00 121 109 94
-1.334400e+00 -5.282424e+00 2.809493e+00 125 113 94
-1.301316e+00 -5.209840e+00 2.806192e+00 187 177 162
-1.283869e+00 -5.132340e+00 2.812904e+00 107 99 89
-1.185778e+00 -5.030870e+00 2.797634e+00 203 190 180
-1.064691e+00 -4.852030e+00 2.792670e+00 96 88 65
-9.510531e-01 -4.692669e+00 2.786443e+00 220 212 193
-2.736054e-01 -4.445160e+00 2.702454e+00 180 168 157
2.927484e+00 -4.266416e+00 2.744873e+00 122 116 104
-5.699057e-01 -4.286100e+00 2.752728e+00 151 140 120
-6.767802e-01 -4.284205e+00 2.812765e+00 188 180 169
-5.866916e-01 -4.224972e+00 2.797826e+00 102 90 78
2.467627e+00 -4.078277e+00 2.741875e+00 107 101 85
-6.158524e-01 -4.077259e+00 2.812149e+00 177 177 177
1.962445e+00 -3.943385e+00 2.742556e+00 89 83 67
1.813747e+00 -3.560185e+00 2.830501e+00 107 96 74
5.320452e-01 -3.508169e+00 2.826714e+00 98 81 66
1.277041e+00 -3.140321e+00 2.897943e+00 86 80 68
2.841727e-01 -3.106307e+00 2.897760e+00 143 134 124
2.935913e-01 -2.398614e+00 2.888677e+00 150 139 136
2.935913e-01 -2.398614e+00 2.888677e+00 150 139 136
-1.560062e+00 -6.066280e+00 2.683452e+00 170 159 139
-1.575707e+00 -5.893625e+00 2.712679e+00 181 176 156
-1.489693e+00 -5.542891e+00 2.798383e+00 140 127 117
-9.359544e-01 -5.384012e+00 2.718308e+00 161 150 128
-1.265054e+00 -5.127694e+00 2.808765e+00 212 203 191
-6.314497e-01 -4.775762e+00 2.719173e+00 209 205 196
-1.048854e+00 -4.758580e+00 2.816157e+00 212 206 187
-1.046688e+00 -4.714249e+00 2.818978e+00 200 192 179
-8.162933e-01 -4.300263e+00 2.822448e+00 160 156 152
-2.258913e-01 -3.952532e+00 2.777392e+00 74 66 49
-2.258913e-01 -3.952532e+00 2.777392e+00 74 66 49
2.015299e+00 -3.822317e+00 2.760669e+00 146 140 127
-1.410978e-01 -3.754276e+00 2.820593e+00 216 215 210
-3.795406e-01 -3.702312e+00 2.817035e+00 175 168 162
4.810492e-01 -3.568408e+00 2.800159e+00 55 42 25
5.437574e-01 -3.487037e+00 2.837288e+00 150 136 127
9.435923e-01 -3.295350e+00 2.867231e+00 149 140 131
1.640728e+00 -3.220654e+00 2.885380e+00 157 153 142
-1.827646e+00 -3.088850e+00 2.978128e+00 157 150 137
-1.872278e+00 -3.091752e+00 2.981516e+00 141 135 123
-1.694283e-01 -3.072601e+00 2.909394e+00 85 78 62
-5.324656e-01 -3.064618e+00 2.929271e+00 160 153 143
2.322016e+00 -3.039636e+00 2.957486e+00 133 133 133
-1.240031e+00 -2.723229e+00 2.850247e+00 100 93 85
2.643461e-01 -2.652493e+00 2.860785e+00 100 91 84
1.623315e+00 -2.339969e+00 2.952129e+00 198 194 182
-1.348483e+00 -1.795569e+00 2.962557e+00 155 148 138
-1.348483e+00 -1.795569e+00 2.962557e+00 155 148 138
7.654335e-01 -1.748321e+00 3.052029e+00 88 86 81
-5.053859e-01 -1.555326e+00 2.803538e+00 84 83 78
2.067077e+00 -2.120594e+00 3.395921e+00 104 113 117
9.490923e-01 -1.687311e+00 3.060547e+00 43 42 40
-1.258500e+00 -1.730103e+00 2.558428e+00 86 88 86
1.430069e+00 -1.776931e+00 3.176964e+00 46 45 43
4.343284e+00 -6.541809e+00 -4.544338e+00 0 255 0
4.362149e+00 -6.570588e+00 -4.580613e+00 255 255 0
-4.906149e-01 -1.784469e-01 2.444471e+00 255 0 0
-4.896415e-01 -1.771704e-01 2.394496e+00 255 255 0
4.062479e+00 -7.519481e+00 9.944163e+00 0 255 0
4.044049e+00 -7.484366e+00 9.913711e+00 255 255 0
2.505369e+00 -6.970379e+00 9.022284e+00 255 0 0
2.491437e+00 -6.940254e+00 8.984888e+00 255 255 0
8.286585e+00 -6.775086e+00 1.172092e+01 0 255 0
8.258732e+00 -6.745668e+00 1.169161e+01 255 255 0
7.524898e+00 -6.625503e+00 1.264169e+01 255 0 0
7.497906e+00 -6.618421e+00 1.260020e+01 255 255 0
