ply
format ascii 1.0
element face 0
property list uchar int vertex_indices
element vertex 934
property float x
property float y
property float z
property uchar diffuse_red
property uchar diffuse_green
property uchar diffuse_blue
end_header
1.251918e-02 2.839294e+00 -3.036055e+00 42 36 31
-6.018140e+00 1.615742e+00 8.812718e-01 105 109 108
1.227871e+00 2.689627e+00 -2.496004e+00 127 131 131
-5.729037e+00 1.758323e+00 9.045522e-01 28 28 25
-4.475568e+00 1.767855e+00 7.439382e-01 130 129 127
-5.829148e+00 1.650354e+00 1.314582e+00 56 57 52
-4.763498e+00 1.979753e+00 9.634643e-01 31 32 37
6.181533e-01 3.555054e+00 -2.615058e+00 35 27 23
-3.800656e+00 2.797496e+00 1.040135e+00 60 60 62
-6.501774e+00 4.639961e+00 -6.251185e-02 123 125 121
-5.049532e+00 5.341830e+00 -1.572060e-01 124 126 123
-7.165960e+00 5.664860e+00 7.978642e-02 78 79 74
-6.269582e+00 6.085369e+00 -7.895493e-02 60 56 53
-1.738681e+00 8.241816e+00 -4.161580e+00 100 96 87
5.806558e+00 -4.232083e+00 1.116327e+01 125 135 137
5.811274e+00 -4.225198e+00 1.115333e+01 118 123 127
-1.019387e+01 1.008778e+01 -1.459812e+00 126 137 138
5.808483e+00 -4.232967e+00 1.116505e+01 125 136 138
5.808447e+00 -4.232875e+00 1.116504e+01 119 133 136
5.812176e+00 -4.232791e+00 1.116478e+01 68 77 102
5.813102e+00 -4.231813e+00 1.116355e+01 134 134 134
5.810439e+00 -4.234505e+00 1.116758e+01 51 64 70
5.811852e+00 -4.231909e+00 1.116438e+01 71 90 106
5.810673e+00 -4.234088e+00 1.116717e+01 56 66 68
5.810728e+00 -4.233841e+00 1.116698e+01 56 66 68
5.810681e+00 -4.234134e+00 1.116731e+01 121 129 131
5.814100e+00 -4.232456e+00 1.116443e+01 48 58 59
5.814147e+00 -4.232242e+00 1.116418e+01 15 23 25
5.814888e+00 -4.233226e+00 1.116551e+01 33 61 75
-9.695844e-01 -3.328540e+00 7.616270e-01 55 56 48
-1.078860e+00 -3.328374e+00 9.207805e-01 23 23 22
-8.762446e-01 -3.089102e+00 7.195670e-01 19 14 18
-1.037031e+00 -2.879746e+00 1.223767e+00 29 29 34
4.376738e-01 -2.273790e+00 8.315603e-01 50 53 49
-3.783985e+00 -2.664489e+00 1.658641e+00 37 36 42
-4.222130e+00 -2.542140e+00 1.491333e+00 105 111 106
-3.725494e+00 -2.237429e+00 1.421059e+00 96 106 115
-1.952012e+00 1.481390e+00 -5.505096e-01 108 100 94
1.232014e+00 2.752257e+00 -3.210935e+00 47 43 37
-5.555935e+00 2.003431e+00 6.669162e-01 97 94 89
-6.274652e+00 1.797412e+00 1.577348e+00 114 119 123
-1.897760e-02 4.175214e+00 -4.055464e+00 64 65 59
1.077468e-01 4.055663e+00 -3.823253e+00 64 65 59
1.091057e+00 3.848392e+00 -2.916613e+00 126 121 116
7.134067e-03 4.793638e+00 -4.240288e+00 76 69 59
-6.588877e+00 2.459805e+00 1.525782e+00 86 88 87
-1.614340e+00 3.076874e+00 -3.861382e-01 47 46 44
4.332427e-01 5.796116e+00 -5.569462e+00 61 56 50
-2.997992e-01 3.673979e+00 -6.567394e-01 108 110 104
-5.208885e+00 7.722191e+00 -3.912599e+00 38 37 53
-5.212667e+00 5.368865e+00 -7.679979e-03 118 118 117
5.803363e+00 -4.230616e+00 1.116157e+01 109 108 109
-2.315066e+00 1.233342e+01 -9.303923e+00 64 58 53
5.802666e+00 -4.226997e+00 1.115776e+01 40 47 49
5.812204e+00 -4.224864e+00 1.115278e+01 249 253 254
5.810287e+00 -4.233478e+00 1.116594e+01 111 111 112
5.809277e+00 -4.233721e+00 1.116666e+01 46 51 55
5.810536e+00 -4.232709e+00 1.116588e+01 70 74 75
5.810313e+00 -4.233890e+00 1.116724e+01 108 116 116
5.810866e+00 -4.233538e+00 1.116669e+01 120 122 131
5.814111e+00 -4.232404e+00 1.116428e+01 49 59 60
5.811751e+00 -4.234272e+00 1.116749e+01 226 232 246
-7.307521e+00 6.445504e+00 1.216152e+00 5 3 4
-4.759232e+00 2.544808e+00 1.258164e+00 68 53 35
5.813066e+00 -4.227615e+00 1.115314e+01 255 255 255
-5.893274e+00 -2.479814e+00 1.872299e+00 91 74 55
-2.427530e+00 1.944795e+00 -8.382553e-01 13 12 10
-2.427530e+00 1.944797e+00 -8.382555e-01 13 12 10
-3.019162e+00 1.695232e+00 -3.733475e-01 14 13 11
-1.967113e+00 1.933157e+00 -6.150487e-01 8 9 4
1.244421e+00 -1.387259e+00 5.523595e-01 99 84 55
2.280172e+00 -3.306618e-01 -4.401755e-01 19 16 11
5.801777e+00 -4.229063e+00 1.115839e+01 6 7 7
5.814552e+00 -4.232378e+00 1.116355e+01 106 92 65
5.810082e+00 -4.234209e+00 1.116695e+01 4 4 4
-2.553099e+00 1.492014e+00 -5.312731e-01 120 103 66
-1.371897e+01 1.505190e+01 -2.817086e+00 3 2 2
5.814142e+00 -4.232533e+00 1.116424e+01 46 37 27
-3.204072e+00 -2.039320e+00 1.465805e+00 27 22 17
2.424825e+00 -4.353181e-01 -4.544499e-01 100 85 52
-1.903097e+00 1.741948e+00 -8.870644e-01 7 6 2
2.020629e+00 4.072882e+00 -3.990596e+00 141 119 78
2.662225e+00 3.411696e+00 -2.666505e+00 67 52 37
-6.586700e+00 1.765916e+00 1.483180e+00 44 35 23
-2.657698e+00 2.997022e+00 -3.066805e-01 128 107 72
5.813851e+00 -4.232669e+00 1.116421e+01 4 4 4
-1.762204e+00 -2.436403e+00 1.939387e+00 109 93 59
-4.456363e+00 -2.458849e+00 2.500769e+00 60 53 34
3.173142e+00 7.928480e-01 -1.380738e+00 30 23 15
-2.357219e+00 3.853172e-01 -5.685127e-02 6 6 6
-2.561655e+00 5.078059e-01 -2.289376e-01 108 94 66
-2.894554e+00 9.967017e-01 -1.868975e-01 2 2 1
-2.041952e+00 1.434995e+00 -4.306872e-01 5 5 3
-3.301813e+00 1.507050e+00 -5.898915e-01 1 2 2
-4.655223e+00 1.131756e+00 4.947677e-01 93 74 44
-2.557217e+00 1.753741e+00 -6.057902e-01 124 104 71
1.716721e+00 3.400189e+00 -3.716423e+00 49 38 20
6.269426e-01 3.127005e+00 -2.221197e+00 42 33 22
6.857537e-01 3.282120e+00 -2.240045e+00 29 21 16
5.811431e+00 -4.230582e+00 1.115559e+01 6 4 5
-6.977869e+00 3.692360e+00 8.428819e-01 104 91 57
-5.526985e+00 4.103784e+00 3.990142e-01 107 92 59
5.814790e+00 -4.232915e+00 1.116427e+01 98 83 63
5.810875e+00 -4.234741e+00 1.116794e+01 54 41 32
-5.053913e+00 -2.458235e+00 1.835709e+00 77 65 43
-1.143757e+00 9.468453e-01 -1.509105e+00 93 76 48
-2.489127e+00 4.789189e-01 -6.307293e-03 12 7 4
2.014394e+00 2.929502e+00 -2.997222e+00 54 41 26
-5.147906e+00 1.078341e+00 8.299650e-01 127 106 67
-5.147906e+00 1.078341e+00 8.299650e-01 127 106 67
-1.841833e+00 2.208097e+00 -1.256640e+00 11 7 6
7.721842e-01 2.773731e+00 -2.179917e+00 58 47 32
-2.757482e+00 2.533372e+00 5.619995e-01 38 26 12
5.809976e+00 -4.233787e+00 1.116650e+01 39 26 16
5.810496e+00 -4.233152e+00 1.116604e+01 47 37 26
5.813812e+00 -4.232824e+00 1.116493e+01 75 62 45
5.810760e+00 -4.233809e+00 1.116684e+01 157 134 87
6.256394e-01 -2.406737e+00 8.285991e-01 59 47 31
-9.351656e-01 7.103579e-01 -1.130668e+00 6 3 1
3.235422e+00 3.262891e+00 -4.653892e+00 252 252 240
-2.516599e+00 1.679381e+00 -1.077164e+00 11 9 7
-1.814401e+00 1.538452e+00 -6.899649e-01 5 3 1
-2.634141e+00 1.629680e+00 -7.211529e-01 15 16 13
9.632005e-01 3.074993e+00 -2.459684e+00 113 98 59
-5.341982e+00 1.147121e+00 1.427828e+00 110 92 59
1.382658e+00 3.599759e+00 -2.698588e+00 63 49 32
-3.114955e+00 2.106874e+00 3.210399e-01 41 32 20
-1.875786e+00 3.427072e+00 -1.237317e+00 134 110 74
-1.957793e+00 3.756853e+00 -1.121282e+00 49 38 29
5.813199e+00 -4.228085e+00 1.115473e+01 250 254 248
-3.672312e+00 7.135453e+00 -2.323518e+00 36 27 20
5.802903e+00 -4.230365e+00 1.116119e+01 128 109 74
5.813840e+00 -4.232594e+00 1.116406e+01 102 89 57
5.810803e+00 -4.232974e+00 1.116536e+01 255 251 244
5.810514e+00 -4.232702e+00 1.116533e+01 55 45 26
5.813672e+00 -4.232686e+00 1.116478e+01 73 61 38
-1.012459e+00 1.359610e+00 -1.352841e+00 10 6 6
-1.848199e+00 1.206030e+00 -5.054912e-01 82 71 49
6.983906e-01 1.247498e+00 -2.133251e-01 63 51 31
-1.874392e+00 1.482501e+00 -5.479974e-01 65 53 33
-3.668327e+00 1.287583e+00 1.111224e+00 54 41 23
7.629014e-01 4.436569e+00 -4.101770e+00 67 52 25
-2.599660e+00 2.867804e+00 -5.729905e-01 107 89 58
-4.212222e+00 2.085783e+00 9.089131e-01 56 44 29
1.418335e-01 3.547856e+00 -1.638961e+00 59 47 30
-7.577464e-01 3.204746e+00 -7.506354e-01 43 33 21
-2.706544e+00 3.102299e+00 -4.370328e-01 137 114 74
-2.189129e+00 3.528485e+00 -8.570099e-01 73 58 40
-6.343261e+00 2.298344e+00 2.324995e+00 106 90 65
5.800364e+00 -4.230432e+00 1.115985e+01 89 77 52
-1.051471e+00 7.403342e+00 -3.495296e+00 18 11 4
-3.420091e+00 5.803077e+00 -4.752745e-01 131 112 80
-6.205044e+00 5.384615e+00 5.200027e-01 135 112 71
-5.966613e-01 7.947962e+00 -3.850771e+00 124 105 62
-4.961658e+00 5.691003e+00 3.833324e-01 142 119 79
5.803680e+00 -4.229038e+00 1.115938e+01 121 106 74
-5.605899e+00 5.809814e+00 8.940242e-01 145 125 84
5.803495e+00 -4.230661e+00 1.116146e+01 114 97 65
5.803082e+00 -4.230590e+00 1.116154e+01 20 16 9
5.802910e+00 -4.229825e+00 1.116067e+01 142 118 80
5.802598e+00 -4.230639e+00 1.116213e+01 105 86 58
-8.788679e+00 8.543680e+00 -6.626702e-01 123 107 74
-8.919089e+00 8.829037e+00 -8.364222e-01 62 49 32
5.807343e+00 -4.233111e+00 1.116495e+01 47 37 23
5.808347e+00 -4.232069e+00 1.116390e+01 58 45 28
-1.074965e+01 9.636823e+00 -3.756283e-01 111 96 65
5.814351e+00 -4.231777e+00 1.116222e+01 255 251 234
-7.819721e+00 1.098854e+01 -2.433936e+00 81 64 40
5.808456e+00 -4.232972e+00 1.116514e+01 42 31 19
5.808456e+00 -4.232972e+00 1.116514e+01 42 31 19
5.808693e+00 -4.233075e+00 1.116536e+01 55 43 21
5.808668e+00 -4.232968e+00 1.116530e+01 45 33 18
5.809727e+00 -4.232058e+00 1.116434e+01 87 72 48
5.809727e+00 -4.232058e+00 1.116434e+01 87 72 48
-1.210531e+01 1.171793e+01 -7.496811e-01 50 42 24
-1.294273e+01 1.550587e+01 -3.479848e+00 129 115 81
5.810619e+00 -4.232797e+00 1.116559e+01 73 58 41
5.810264e+00 -4.234334e+00 1.116724e+01 48 40 26
5.810792e+00 -4.233698e+00 1.116668e+01 58 50 28
5.810582e+00 -4.233412e+00 1.116657e+01 137 116 77
5.810746e+00 -4.234278e+00 1.116734e+01 69 55 29
5.810765e+00 -4.234337e+00 1.116746e+01 139 120 78
5.810865e+00 -4.234471e+00 1.116759e+01 64 51 28
5.810885e+00 -4.233314e+00 1.116654e+01 136 117 76
5.810784e+00 -4.233336e+00 1.116659e+01 129 111 73
5.810464e+00 -4.233684e+00 1.116701e+01 115 99 65
3.461139e+00 2.232130e+00 -4.139534e+00 80 65 40
-2.137489e+00 1.365493e+00 -6.676012e-01 129 111 76
-2.387631e+00 1.918095e+00 -1.272990e+00 118 101 74
2.921409e+00 3.468897e+00 -4.386556e+00 80 63 40
2.534635e+00 3.194106e+00 -3.601571e+00 70 57 35
-2.512443e+00 1.677057e+00 -3.744652e-01 17 14 9
-1.608046e+00 2.635126e+00 -1.531494e+00 87 69 49
-9.398888e-01 2.984538e+00 -1.189795e+00 63 47 31
-1.082256e+00 3.239446e+00 -1.601993e+00 57 45 23
8.433760e-01 5.449708e+00 -5.097814e+00 112 92 61
2.376417e+00 4.149994e+00 -2.862862e+00 74 54 26
-5.176871e+00 2.267254e+00 1.229314e+00 93 72 45
-2.251451e+00 3.492993e+00 -9.612149e-01 62 47 29
4.673089e-01 9.660760e+00 -7.325079e+00 146 127 87
-5.730610e-01 7.878028e+00 -4.241403e+00 19 11 1
2.147742e-01 1.024175e+01 -7.611336e+00 57 43 26
-2.999459e+00 7.522725e+00 -3.229518e+00 147 122 84
-2.342702e+00 6.698879e+00 -2.165884e+00 98 79 50
1.166294e+00 8.262288e+00 -4.676281e+00 65 46 30
-4.325262e+00 6.010192e+00 7.200664e-01 52 39 26
5.810269e+00 -4.233013e+00 1.116575e+01 51 35 19
5.814078e+00 -4.232795e+00 1.116460e+01 47 36 23
5.813427e+00 -4.232651e+00 1.116473e+01 70 62 36
-1.364253e+01 1.700636e+01 -3.726095e+00 61 51 26
5.811112e+00 -4.233780e+00 1.116691e+01 141 122 86
-1.165237e+00 1.239135e+00 -1.749118e+00 44 33 20
-1.868785e+00 1.609316e+00 -6.766842e-01 67 53 32
3.313863e-01 2.456612e+00 -7.608970e-01 69 54 27
1.213271e+00 4.189872e+00 -3.016790e+00 121 101 68
-6.942927e-01 6.329287e+00 -3.539993e+00 77 65 50
-4.337541e+00 4.924879e+00 -2.149395e-01 71 58 33
-2.734210e+00 7.284783e+00 -3.174827e+00 81 70 45
-3.661209e+00 6.505445e+00 -1.879273e+00 92 74 38
-3.661915e+00 6.504439e+00 -1.879523e+00 92 74 38
-3.957244e+00 5.754789e+00 -7.482500e-01 27 13 4
-9.126414e-01 1.047123e+01 -7.611005e+00 40 30 20
-2.276209e+00 6.651381e+00 -2.151628e+00 78 61 33
2.095539e-02 7.342633e+00 -3.250051e+00 119 99 69
-1.069245e+00 7.867735e+00 -3.753792e+00 117 97 68
-6.999179e-02 8.178981e+00 -4.279312e+00 106 91 60
-1.434306e+00 1.007142e+01 -6.598767e+00 125 109 71
-2.846895e+00 6.735111e+00 -1.862728e+00 133 114 82
-2.419245e+00 6.967326e+00 -2.245398e+00 69 56 28
-4.605970e+00 6.431681e+00 -1.083420e+00 135 115 79
-1.081338e+00 6.410283e+00 -1.400434e+00 136 113 73
-2.464643e+00 7.982037e+00 -2.574201e+00 146 131 92
-3.921767e+00 1.805881e+01 -1.354762e+01 80 64 38
-1.347670e+01 1.383608e+01 -2.030128e+00 58 52 38
5.813278e+00 -4.232210e+00 1.116402e+01 138 120 81
-1.345199e+01 1.620886e+01 -3.251377e+00 81 67 40
-1.350258e+01 1.802662e+01 -4.532152e+00 112 89 55
5.810769e+00 -4.233757e+00 1.116676e+01 115 99 70
3.952207e+00 -1.971829e+00 -2.035586e-01 157 166 183
-1.191470e+00 -3.976324e+00 1.773042e+00 207 216 231
2.006186e+00 -3.809425e+00 5.876660e-01 206 213 223
-4.275212e+00 -2.392087e+00 2.253346e+00 104 112 125
4.623069e+00 -4.769771e+00 8.369025e+00 76 122 72
2.401119e+00 -4.362370e+00 1.121563e-01 203 204 209
-6.661410e-01 -4.573050e+00 4.861595e-01 183 186 193
4.009117e+00 -3.381523e+00 -3.922664e-01 176 180 192
1.257471e+00 -3.938244e+00 1.760278e-01 40 41 45
2.677692e+00 -1.872406e+00 -4.336934e-01 138 137 142
3.800855e+00 -1.375631e+00 -3.564525e-01 146 153 169
-4.960620e+00 -2.395691e+00 1.947328e+00 112 121 136
4.714054e+00 -4.787340e+00 8.479221e+00 115 160 95
-2.637270e+00 -5.868653e+00 4.168404e+00 176 191 212
1.566783e+00 -4.190906e+00 4.659081e-01 97 98 103
4.586953e+00 -4.778341e+00 8.294884e+00 2 35 12
-1.754188e+00 -4.892224e+00 1.539695e+00 176 177 182
-1.251817e+00 -4.505416e+00 1.728084e+00 126 132 144
-1.740336e+00 -2.066913e+00 1.774271e+00 188 195 211
-2.777455e-01 -1.700732e+00 9.299280e-01 190 197 213
-1.147738e+00 -1.882336e+00 1.373845e+00 103 109 123
-2.206602e-01 -1.654924e+00 8.715982e-01 48 46 78
-8.623658e-01 -1.804709e+00 1.225759e+00 74 76 93
-1.832316e+00 -2.003982e+00 1.654805e+00 75 81 95
-1.557421e+00 -4.637125e+00 1.591951e+00 154 161 169
2.015611e+00 -3.735660e+00 6.012272e-01 113 119 131
2.493465e+00 -3.357282e+00 -8.968956e-01 198 197 203
-4.197819e-02 -3.951817e+00 4.061172e-02 123 124 128
-9.305419e-01 -4.050371e+00 1.102038e+00 88 87 92
-1.011569e+00 -4.039361e+00 1.650982e+00 158 166 177
-3.549448e+00 -4.445234e+00 1.470541e+00 195 194 202
-8.268215e-01 -3.881891e+00 8.043211e-01 128 124 124
-9.131647e-01 -3.598580e+00 9.624727e-01 210 209 215
-2.457296e+00 -3.196230e+00 1.755485e+00 213 219 231
2.225950e+00 -1.283601e+00 3.747047e-02 117 118 135
-1.088781e+00 -1.879514e+00 1.332293e+00 49 56 74
6.294791e-01 -1.476854e+00 5.007233e-01 198 205 223
9.839476e-01 -1.410070e+00 4.195808e-01 179 186 203
1.576432e+00 -1.253819e+00 6.571773e-02 186 192 208
2.992952e+00 -1.009941e+00 -2.903473e-01 68 76 105
4.659526e+00 -4.754381e+00 8.515535e+00 65 118 63
2.961564e-01 -4.873473e+00 2.923377e-01 111 114 121
-3.666596e-01 -3.879892e+00 7.742967e-02 129 130 135
-3.234861e-01 -3.884377e+00 1.451048e-01 129 130 135
-9.898528e-01 -4.051360e+00 2.029007e+00 128 136 154
-1.083282e+00 -3.976376e+00 1.777483e+00 212 220 231
-1.025097e+00 -3.810403e+00 1.531064e+00 103 106 113
-7.756613e-01 -3.486263e+00 3.889130e-01 102 101 99
-7.640987e-01 -3.501964e+00 4.927564e-01 86 85 81
-7.523421e-01 -3.473962e+00 4.685220e-01 173 172 168
-1.177630e+00 -3.744101e+00 2.008672e+00 210 217 233
2.249289e+00 -2.651364e+00 -8.616596e-01 131 130 129
-7.680909e-01 -3.287887e+00 3.838478e-01 101 97 94
-9.209938e-01 -3.419464e+00 1.280184e+00 94 95 99
-7.487140e-01 -3.285997e+00 7.677005e-01 84 83 82
4.759961e-01 -2.138670e+00 7.304930e-01 208 217 226
-3.727266e+00 -2.556875e+00 1.718425e+00 212 218 230
-1.983349e-01 -2.024176e+00 1.139240e+00 202 205 214
-2.552572e-01 -1.935458e+00 1.052254e+00 195 201 213
2.103749e+00 -1.283421e+00 5.737821e-02 202 214 222
1.199258e+00 -1.521748e+00 6.421617e-01 175 182 199
-1.103584e+00 -1.889430e+00 1.358779e+00 211 218 232
7.868716e-02 -1.606908e+00 7.718532e-01 217 225 238
2.364305e+00 -4.432149e+00 2.812097e-01 187 188 194
5.102310e-02 -4.168923e+00 -1.299296e-02 100 101 105
2.163140e+00 -3.637508e+00 1.841055e-01 184 185 190
-4.661386e-01 -4.148711e+00 1.881305e-01 116 117 121
-4.661386e-01 -4.148711e+00 1.881305e-01 116 117 121
2.036947e+00 -3.640905e+00 5.793600e-01 168 175 185
-3.822756e-01 -4.066655e+00 1.812693e-01 178 182 183
-7.810789e-01 -4.073084e+00 3.861257e-01 117 115 120
1.288469e-01 -3.646479e+00 -5.948180e-01 187 187 189
-8.780347e-01 -3.953659e+00 1.395764e+00 142 142 144
-9.539855e-01 -3.781314e+00 8.945516e-01 175 173 174
-8.503097e-01 -3.651577e+00 2.120987e-01 140 136 135
-1.113088e+00 -3.859844e+00 1.788511e+00 204 210 222
-8.643197e-01 -3.627917e+00 8.422390e-01 123 123 123
-9.767311e-01 -3.691527e+00 1.313584e+00 210 211 216
-9.762440e-01 -3.675746e+00 1.276983e+00 119 120 125
1.743994e+00 -3.098511e+00 5.359360e-01 217 220 230
-3.402740e+00 -4.355916e+00 3.487823e+00 197 204 223
-9.187511e-01 -3.572418e+00 1.331802e+00 195 196 201
-6.155339e-01 -3.301874e+00 1.905731e-01 173 169 168
-1.034480e+00 -3.623787e+00 1.771314e+00 129 140 158
-4.215755e+00 -3.596289e+00 2.106055e+00 155 163 174
-8.623020e-01 -2.964898e+00 1.430150e+00 104 103 107
1.988971e-01 -2.511128e+00 5.287561e-01 155 156 158
6.164931e-01 -2.157391e+00 9.374770e-01 168 176 187
3.238048e-01 -2.107218e+00 7.386687e-01 186 186 196
-1.108646e-01 -1.965789e+00 9.246176e-01 83 82 90
-6.850382e-01 -1.976814e+00 1.363984e+00 97 103 121
1.429259e+00 -1.507698e+00 4.254463e-01 190 194 206
-9.028678e-01 -2.004346e+00 1.435545e+00 193 202 217
-9.617680e-01 -2.019897e+00 1.473115e+00 194 200 214
8.376034e-02 -1.782358e+00 9.602165e-01 102 106 117
-1.859129e+00 -2.203335e+00 1.850604e+00 183 192 207
-6.606528e-01 -1.945171e+00 1.315458e+00 189 199 211
2.643542e-01 -1.728953e+00 8.475408e-01 103 106 120
4.862318e-01 -1.602430e+00 6.626293e-01 186 199 218
4.862318e-01 -1.602430e+00 6.626293e-01 186 199 218
3.987645e+00 -8.856408e-01 -5.466154e-01 135 142 158
-4.514976e+00 -2.630668e+00 3.082718e+00 171 179 198
4.237833e-01 -1.622255e+00 8.722636e-01 205 212 231
3.239891e-01 -1.553733e+00 6.988411e-01 211 213 233
2.925884e+00 -9.634318e-01 -3.942388e-01 193 202 224
-9.833367e-01 -4.656466e+00 1.035503e+00 129 134 140
2.390615e+00 -3.582311e+00 -7.687086e-01 173 172 177
-6.641813e-01 -4.183450e+00 2.393141e-01 135 136 138
-6.967571e-01 -4.135382e+00 2.017156e-01 142 143 145
-6.542139e-01 -4.114202e+00 2.430599e-01 190 191 193
-7.003804e-01 -4.067315e+00 1.983705e-01 117 118 120
2.188573e+00 -3.383586e+00 -7.626671e-01 103 103 105
2.564883e+00 -3.261544e+00 -1.080473e+00 97 94 101
-9.000914e-01 -4.206819e+00 1.305432e+00 110 109 117
-8.861498e-01 -4.076499e+00 1.340361e+00 108 105 112
-7.960641e-01 -3.937717e+00 6.526061e-01 171 169 170
-1.032890e+00 -4.070175e+00 1.477790e+00 190 193 198
-9.605137e-01 -3.910872e+00 1.328812e+00 152 151 156
-8.691920e-01 -3.740989e+00 8.065981e-01 83 82 80
-1.228085e+00 -3.850066e+00 2.015969e+00 202 212 222
-4.413093e+00 -4.399803e+00 2.852043e+00 152 164 180
-8.953367e-01 -3.730807e+00 2.042729e+00 147 156 171
-1.153039e+00 -3.743134e+00 1.996277e+00 148 155 170
1.741338e+00 -3.034538e+00 6.660047e-01 205 216 228
1.838190e+00 -2.960609e+00 6.116105e-01 142 152 169
-7.928297e-01 -3.339641e+00 5.537280e-01 143 142 140
-9.163318e-01 -3.449741e+00 1.342532e+00 202 203 207
-7.522665e-01 -3.287907e+00 6.485550e-01 117 115 116
-9.055090e-01 -2.982176e+00 1.459395e+00 146 149 154
2.423444e+00 -1.345511e+00 -1.011495e-01 145 149 161
-3.591651e-01 -1.866325e+00 1.141134e+00 179 192 201
2.236022e+00 -1.227809e+00 -2.092675e-02 128 132 151
2.999755e+00 -1.066788e+00 -3.075904e-01 186 198 210
3.419509e+00 -9.553592e-01 -4.696977e-01 114 122 141
3.419509e+00 -9.553592e-01 -4.696977e-01 114 122 141
3.227621e+00 -9.024791e-01 -5.035490e-01 111 121 136
2.244520e+00 -3.795242e+00 9.836754e-02 133 134 139
-8.272229e-01 -4.426066e+00 1.345928e+00 216 219 231
-1.032775e+00 -4.440016e+00 1.706729e+00 136 142 154
-9.135156e-01 -3.889387e+00 1.158939e+00 188 188 190
-1.000860e+00 -3.847100e+00 1.760893e+00 161 169 182
2.032758e+00 -3.132214e+00 5.476031e-01 122 126 137
-9.481456e-01 -3.675238e+00 1.347364e+00 145 146 151
-2.537631e-01 -3.129433e+00 3.368746e-02 137 136 142
-1.552827e-01 -2.253764e+00 7.945600e-01 120 118 123
2.103104e+00 -2.050296e+00 8.190105e-02 215 215 215
2.084717e+00 -4.636980e+00 8.405399e-01 68 67 83
2.058568e+00 -3.174897e+00 3.758074e-01 200 200 200
-8.571544e-01 -4.597589e+00 6.497097e-01 145 147 146
2.958841e+00 -3.613936e+00 -4.478204e-01 133 130 124
2.122975e+00 -3.694352e+00 3.487259e-01 146 142 141
2.122975e+00 -3.694352e+00 3.487259e-01 146 142 141
-7.715261e-01 -3.784819e+00 2.077627e+00 175 186 192
-8.654465e-01 -4.085303e+00 6.190970e-01 167 165 152
-8.819956e-01 -3.823818e+00 2.287415e+00 172 177 173
-8.244767e-01 -2.922432e+00 1.541479e+00 198 199 197
-6.959586e-01 -2.582869e+00 1.410945e+00 200 204 202
2.030363e+00 -1.236167e+00 3.027231e-02 106 111 117
8.737525e-01 -1.348660e+00 4.992057e-01 74 81 90
2.330153e+00 -3.705949e+00 -8.344347e-01 51 55 64
1.989486e+00 -3.336669e+00 4.569475e-01 191 195 196
5.377973e-01 -3.068385e+00 -1.764013e-01 89 86 78
-7.032308e-01 -3.581640e+00 1.638853e+00 100 97 90
2.315683e+00 -2.076534e+00 -1.119323e-01 123 114 104
2.399566e+00 -1.960168e+00 -1.477142e-01 123 113 102
2.534775e+00 -1.777976e+00 -2.608095e-01 131 119 108
7.216369e-01 -2.242428e+00 7.066211e-01 204 203 201
1.207115e-01 -1.611032e+00 8.007500e-01 187 188 183
2.548613e+00 -1.048251e+00 -2.302627e-01 141 132 123
-1.952685e-01 -1.605913e+00 9.237908e-01 154 149 137
2.412778e+00 -1.043578e+00 -2.220252e-01 202 199 204
2.296736e+00 -4.750048e+00 8.367099e-01 100 70 86
2.182426e+00 -3.828931e+00 1.692631e-01 163 161 153
-4.644187e-01 -4.393587e+00 1.707758e+00 95 95 95
2.171318e+00 -3.711902e+00 2.036493e-01 175 168 159
-7.994292e-01 -4.197649e+00 3.098682e-01 112 105 95
-1.059416e+00 -4.451754e+00 1.986244e+00 105 112 124
1.503272e+00 -3.668861e+00 4.715894e-01 113 111 112
8.536622e-01 -3.260947e+00 -8.626840e-02 88 85 75
2.104915e+00 -2.790540e+00 1.847600e-02 112 107 101
2.169449e+00 -2.393873e+00 -7.619434e-04 141 131 116
2.216159e+00 -2.339130e+00 -9.900270e-02 114 116 103
2.287698e+00 -2.142324e+00 -1.442939e-01 183 171 155
-1.634597e+00 -1.531604e+00 1.551783e+00 116 111 105
1.848968e+00 -3.674144e+00 4.657766e-01 176 180 181
2.106685e+00 -2.820948e+00 -1.981635e-01 114 110 98
-9.917626e-01 -3.722985e+00 2.028992e+00 132 141 148
-9.917626e-01 -3.722985e+00 2.028992e+00 132 141 148
2.106943e+00 -2.592421e+00 3.389275e-02 125 114 106
2.130915e+00 -2.540690e+00 -8.245208e-02 127 123 112
-6.784531e-01 -3.102168e+00 1.478876e+00 97 97 87
-6.784531e-01 -3.102168e+00 1.478876e+00 97 97 87
2.193552e+00 -2.366083e+00 -1.133501e-01 132 122 113
9.005955e-01 -9.302778e-01 3.301716e-01 136 133 129
5.419611e-01 -8.380807e-01 4.604412e-01 127 121 122
5.419611e-01 -8.380807e-01 4.604412e-01 127 121 122
-6.111953e-01 -4.405249e+00 2.044035e+00 180 185 189
2.185807e+00 -3.562473e+00 3.673498e-02 176 170 163
-5.590698e-01 -3.445382e+00 -4.306830e-01 104 101 96
-1.144694e+00 -3.768694e+00 2.097422e+00 174 180 183
-1.158361e+00 -3.757603e+00 2.105081e+00 135 140 147
1.748531e+00 -3.041814e+00 6.061654e-01 145 143 145
-8.326133e-01 -1.752101e+00 1.221499e+00 173 173 162
-1.022850e+00 -1.383507e+00 1.216851e+00 134 134 132
1.394956e+00 -3.612808e+00 2.915718e-01 171 170 168
-5.368594e-01 -3.569945e+00 -3.068376e-01 167 165 152
-1.129304e+00 -3.781785e+00 2.086681e+00 110 117 127
7.900242e-01 4.148471e+00 -4.663378e-01 159 157 170
3.687274e+00 1.596905e-01 -1.188354e+00 48 44 45
-7.867075e+00 6.275362e+00 1.360773e+00 147 151 162
-2.932195e+00 -5.365899e+00 1.378338e+00 161 156 160
-8.027363e+00 3.065879e+00 1.972413e+00 165 167 180
2.564432e+00 7.390435e+00 -3.233104e+00 137 134 148
1.641860e+00 1.190972e+01 -2.685409e+00 115 111 128
-1.254219e+01 1.203464e+01 1.163270e+00 179 213 246
2.678944e+00 -1.177996e+00 -2.770025e-01 121 116 122
-7.187615e+00 4.573775e+00 8.223022e-01 21 13 28
1.320640e+00 6.798439e+00 -2.338827e+00 132 127 131
2.529267e+00 7.870828e+00 -3.189475e+00 89 95 117
1.840604e+00 -6.526138e-01 -1.628785e-02 139 134 138
-4.924646e+00 -7.328163e-01 1.600513e+00 60 63 78
3.016605e+00 4.200047e+00 -2.677452e+00 183 182 190
2.814696e+00 4.113822e+00 -1.366980e+00 149 152 163
2.885142e+00 5.244433e+00 -2.798767e+00 145 148 164
-5.748436e+00 4.829222e+00 5.288208e-01 123 124 129
-3.981329e+00 5.344845e+00 -3.726186e-01 146 146 156
-1.774433e+01 2.301453e+01 -1.340433e+01 214 237 253
-4.300081e-01 1.348352e+01 -3.009067e+00 125 128 137
-1.363680e+00 -2.230865e+00 1.316920e+00 178 172 176
-9.333325e-01 -1.747729e+00 9.067425e-01 166 164 172
-5.233630e-01 -1.484901e+00 6.106124e-01 168 162 166
3.193560e+00 -7.193925e-01 -4.429530e-01 176 171 177
-4.835960e-01 1.066340e+00 -8.666340e-01 158 153 163
-1.616576e+00 2.000195e+00 -2.534071e-01 69 70 83
1.448563e+00 2.705589e+00 -1.703842e+00 159 154 158
-3.388899e+00 3.509923e+00 1.913457e-02 31 31 43
-3.388896e+00 3.509917e+00 1.912910e-02 31 31 43
-3.139172e+00 5.915644e+00 -7.914094e-01 35 32 41
-2.488509e+00 6.019543e+00 -1.049246e+00 27 23 37
-1.375551e+01 1.401648e+01 -1.235386e+00 163 163 175
-1.005157e+01 1.405358e+01 -2.171068e+00 155 157 169
-1.005159e+01 1.405354e+01 -2.171090e+00 155 157 169
-1.272172e+01 1.562884e+01 -1.532255e+00 138 140 155
-1.367839e+00 1.372164e+01 -3.456584e+00 167 168 183
-1.211054e+00 1.378754e+01 -3.360471e+00 188 190 199
3.815376e+00 -1.464116e+00 -3.757983e-01 133 132 140
6.722687e-01 -1.446660e+00 7.631980e-01 63 56 64
-4.939528e+00 -1.768681e+00 2.413033e+00 36 31 38
-1.484539e+00 -1.240141e+00 1.652093e+00 38 28 33
-6.626117e-01 -1.069771e+00 1.311490e+00 66 55 61
-6.626760e-01 -1.069189e+00 1.311662e+00 66 55 61
1.739749e+00 -3.642731e-01 -2.564257e-01 33 27 27
1.038948e+00 -5.662940e-01 7.586441e-01 70 65 71
-5.377124e+00 1.567701e+00 6.410807e-01 174 172 177
7.562272e-01 2.731533e+00 -6.508178e-01 85 84 89
5.326928e-02 3.475678e+00 -1.240381e+00 173 167 167
-8.582342e-01 5.605033e+00 -1.181146e+00 106 106 114
-3.778744e+00 5.938982e+00 -4.440669e-01 169 166 175
-5.311337e+00 6.186133e+00 6.148795e-01 163 165 180
-3.796517e+00 1.524857e+01 -5.325507e+00 153 152 160
-1.591048e+00 1.420445e+01 -4.744791e+00 12 7 14
-1.628497e+00 1.339154e+01 -3.704991e+00 144 144 154
3.792052e+00 -1.050371e+00 -3.556260e-01 138 133 139
2.161043e+00 -1.063542e+00 -2.350604e-02 53 48 55
2.345798e+00 -9.939164e-01 -1.534645e-01 67 65 69
-8.040938e+00 -1.427804e+00 8.363601e-01 34 31 36
-3.564389e+00 -1.312673e+00 1.473701e+00 39 30 31
-1.724017e-01 -8.716740e-01 8.668023e-01 50 44 46
-1.125246e+00 7.918670e-01 -4.889271e-01 175 175 185
-1.544601e+00 1.434621e+00 -6.207858e-01 186 187 198
2.279502e+00 2.172788e+00 -2.456668e+00 165 164 170
1.594410e+00 2.005543e+00 -1.775269e+00 151 145 145
3.704988e+00 2.576507e+00 -2.883090e+00 77 105 142
-1.433430e+01 1.795529e+01 -1.009024e+01 116 120 131
-1.153623e+01 1.292987e+01 -1.815752e+00 158 164 178
-3.480447e+00 1.505040e+01 -2.565869e+00 140 139 160
-3.745687e+00 -5.615185e+00 2.017084e+00 64 62 67
1.629068e+00 -3.679199e+00 4.749123e-01 88 81 89
2.924088e+00 -2.970078e+00 -1.158783e+00 164 150 149
5.668855e-01 -3.470724e+00 -1.812170e-01 86 76 75
3.521410e+00 -5.578131e-01 -1.591373e+00 81 85 95
8.794602e-01 -1.291801e+00 5.399024e-01 70 62 73
5.084167e-01 -1.005008e+00 6.866923e-01 85 80 84
-2.586822e-01 -9.278767e-01 1.069542e+00 50 39 45
-4.750431e+00 -1.149742e+00 2.145032e+00 96 93 100
-4.287971e+00 -1.044862e+00 2.114580e+00 159 158 166
2.896348e+00 6.817323e-01 -1.313771e+00 175 172 179
-2.264848e+00 2.924716e-01 -3.529389e-01 62 62 72
-1.098552e+00 6.047295e-01 -4.199800e-01 25 23 36
-1.070615e+00 9.779963e-01 -5.861392e-01 177 177 185
-1.044797e+00 1.128005e+00 -6.419785e-01 183 183 193
-5.671737e+00 9.159135e-01 8.366395e-01 79 76 85
-1.413363e+00 1.832286e+00 -9.055824e-01 29 28 36
-4.942760e+00 1.338508e+00 1.208195e+00 161 158 165
1.925556e+00 3.074109e+00 -3.055342e+00 79 75 80
1.270639e+00 2.671916e+00 -1.663705e+00 168 166 169
1.078452e+00 2.842703e+00 -2.048655e+00 168 166 169
1.559721e+00 2.755629e+00 -1.793887e+00 64 63 69
1.586745e+00 2.822465e+00 -1.867767e+00 173 170 177
1.145461e+00 2.740541e+00 -1.197182e+00 60 54 58
-4.847067e+00 2.291284e+00 5.294468e-01 128 127 133
1.320359e+00 2.877777e+00 -1.256614e+00 154 148 152
-3.174795e+00 2.463570e+00 4.773633e-01 168 163 169
1.719014e+00 3.991230e+00 -1.743077e+00 76 73 79
4.392377e-01 4.018582e+00 -1.437316e+00 180 182 194
-4.489686e+00 6.054699e+00 -6.544408e-01 152 151 157
-9.685897e-02 7.028712e+00 -2.917554e+00 189 188 194
-5.194315e-01 6.462170e+00 -1.780057e+00 125 120 126
-6.294352e+00 6.359130e+00 1.347095e-01 13 17 29
-6.761171e-01 6.543700e+00 -1.138129e+00 128 121 128
1.904412e+00 6.952058e+00 -2.074487e+00 119 118 126
-5.471708e+00 1.447508e+01 -4.423263e+00 67 86 119
-1.643498e+00 1.320541e+01 -3.883828e+00 163 161 172
-1.646289e+00 1.357930e+01 -3.721861e+00 74 75 83
-1.702783e+00 1.389125e+01 -3.455591e+00 160 162 174
-2.131237e+00 1.421637e+01 -3.557539e+00 155 155 167
-6.007310e-01 1.369993e+01 -3.206111e+00 145 148 157
1.329702e+00 -4.188763e+00 2.666732e-01 85 83 87
2.595459e+00 -3.294023e+00 -9.950700e-01 91 82 81
6.976030e-01 -1.967799e+00 6.981570e-01 196 191 197
3.305918e+00 -9.396045e-01 -4.623156e-01 63 67 76
1.930599e-01 -1.521168e+00 8.416212e-01 51 49 54
9.743973e-01 -1.386698e+00 6.798401e-01 61 58 67
-4.191701e+00 -2.048881e+00 2.295177e+00 91 89 94
-4.568125e+00 -2.099333e+00 2.383986e+00 105 103 109
2.269116e+00 -5.074058e-01 -3.957061e-01 78 73 77
-5.100212e+00 -1.482975e+00 2.404683e+00 128 130 142
2.495861e+00 -1.677997e-01 -2.413984e-01 103 97 99
2.547083e+00 -1.449520e-01 -2.873572e-01 88 81 85
7.874643e-01 2.592896e-02 2.547987e-01 66 64 71
-1.115059e+00 5.280933e-01 -8.601434e-01 176 175 190
-1.115059e+00 5.280933e-01 -8.601434e-01 176 175 190
-2.504012e+00 -3.520086e-01 1.693072e+00 198 195 206
6.011207e-01 1.084902e+00 -1.011535e+00 184 179 185
-2.877546e+00 1.129309e+00 -2.036884e-01 28 27 35
-9.828792e-01 1.653537e+00 -1.392322e+00 28 26 39
3.650865e+00 2.565949e+00 -2.994961e+00 172 195 229
-1.224292e-01 1.735393e+00 -3.209588e-01 83 78 85
1.474208e+00 2.434418e+00 -1.749537e+00 167 167 175
-5.540564e+00 1.651198e+00 6.106655e-01 108 107 113
1.179122e+00 2.319360e+00 -1.251917e+00 94 92 97
-4.939637e+00 2.006825e+00 6.793208e-01 160 157 164
-5.665100e+00 1.883357e+00 1.462904e+00 187 184 193
9.074272e-01 3.004191e+00 -1.610578e+00 166 157 160
1.445163e+00 3.103506e+00 -1.818957e+00 130 123 130
-5.454138e+00 2.274928e+00 8.566703e-01 194 195 200
2.038166e+00 3.075516e+00 -1.667317e+00 187 186 194
1.857686e+00 3.090010e+00 -1.639196e+00 169 164 170
1.621429e+00 3.038216e+00 -1.061285e+00 80 79 84
-2.217147e+00 2.779161e+00 3.280481e-01 191 188 195
1.901869e+00 3.695637e+00 -1.734724e+00 183 181 184
-1.527533e+00 3.831307e+00 -1.283954e+00 55 53 58
-9.296563e-01 3.605959e+00 -9.288651e-01 72 66 72
6.275789e-01 3.149684e+00 1.737160e-01 55 54 60
3.077135e+00 3.907801e+00 -1.285778e+00 76 76 88
-8.841966e+00 4.225061e+00 2.010369e+00 129 145 161
-2.104953e+00 5.908340e+00 -9.081771e-01 67 66 76
-2.060200e+00 6.108968e+00 -1.186501e+00 68 65 76
-3.090963e+00 6.127139e+00 -6.777234e-01 71 69 74
-3.090963e+00 6.127139e+00 -6.777234e-01 71 69 74
-2.477069e+00 6.239381e+00 -9.345597e-01 70 68 73
-9.115036e-02 6.584468e+00 -1.841119e+00 161 159 164
2.543841e+00 7.945118e+00 -4.180294e+00 91 117 153
1.680569e+00 5.125626e+00 -2.579114e-02 55 52 59
7.910354e-01 7.434647e+00 -2.395423e+00 177 174 184
7.910354e-01 7.434647e+00 -2.395423e+00 177 174 184
-1.415277e+01 1.441319e+01 -2.408961e+00 11 9 20
-1.552427e+00 1.386941e+01 -4.438742e+00 153 148 155
-2.388075e+00 1.459418e+01 -2.487983e+00 132 134 146
1.071936e+00 -2.570881e+00 6.701388e-01 85 78 81
-6.405865e+00 -2.331027e+00 1.022523e+00 187 187 197
9.678850e-01 -1.609889e+00 7.231368e-01 78 74 83
-4.629146e+00 -2.390441e+00 1.953841e+00 181 177 191
1.419555e+00 -1.342632e+00 4.645903e-01 182 179 186
-1.101354e+00 -1.447022e+00 1.168317e+00 172 166 172
-5.062356e+00 -1.883414e+00 2.275580e+00 71 66 73
3.554072e+00 -4.463613e-01 -5.147342e-01 151 149 154
3.170724e+00 -1.652471e-01 -1.459826e+00 110 109 115
-8.612760e-01 -9.584963e-01 1.344932e+00 96 90 92
-8.612760e-01 -9.584963e-01 1.344932e+00 96 90 92
3.925827e+00 3.151099e-02 -6.015762e-01 135 127 128
-5.311312e+00 -7.260978e-01 1.156029e+00 64 63 69
-2.281729e+00 2.790075e-01 -1.365621e-01 52 51 57
-2.123566e+00 2.164102e-01 4.063561e-02 52 51 57
3.623553e+00 6.217426e-01 -7.160675e-01 175 179 193
-9.958723e-01 7.303947e-01 -9.424236e-01 53 53 65
-1.512848e+00 1.222756e+00 -5.502884e-01 191 191 199
-5.032371e+00 1.047995e+00 3.493049e-01 139 130 131
-2.893508e+00 1.230988e+00 -1.412215e-01 195 195 203
-5.978013e+00 5.940161e-01 1.689136e+00 179 178 184
-1.785485e+00 1.490040e+00 -5.043393e-01 29 28 34
-1.910015e+00 1.543281e+00 -6.359056e-01 140 138 145
1.560585e+00 1.952961e+00 -1.679772e+00 79 73 77
1.562591e+00 1.953307e+00 -1.680474e+00 79 73 77
8.114664e-01 2.011052e+00 -1.577961e+00 130 121 124
1.533576e+00 2.305555e+00 -1.590131e+00 108 108 116
-1.979491e+00 2.174364e+00 -8.348188e-01 71 71 80
-2.670565e+00 2.072062e+00 -2.291959e-01 37 34 41
-5.820186e+00 1.263307e+00 1.727315e+00 85 83 94
-5.667989e+00 1.617861e+00 1.548540e+00 86 84 89
-4.375046e-01 2.693333e+00 2.179810e-01 95 89 95
1.057312e+00 4.999393e+00 -3.072192e+00 135 142 152
1.056146e+00 4.996440e+00 -3.073182e+00 135 142 152
1.933287e+00 4.315278e+00 -1.949786e+00 182 184 196
-4.191870e+00 5.872628e+00 -1.008841e+00 61 61 73
2.123610e+00 8.584138e+00 -5.855821e+00 86 111 144
2.527322e+00 7.402093e+00 -4.274673e+00 86 111 144
3.881229e-01 7.481573e+00 -3.829536e+00 55 54 60
2.771915e+00 4.930714e+00 -5.233774e-01 105 105 115
-4.763356e-01 6.500713e+00 -1.673287e+00 142 135 142
-8.022262e+00 6.444303e+00 4.474878e-01 168 170 185
1.784446e+00 5.190138e+00 -3.477982e-01 50 45 52
-1.311709e+01 1.615590e+01 -9.407939e+00 68 70 83
-1.352576e+01 1.611293e+01 -9.197084e+00 64 68 79
-5.718250e+00 9.638372e+00 8.887142e-01 94 100 114
-1.680239e+00 1.369551e+01 -4.672457e+00 177 174 183
-7.681632e+00 1.180261e+01 2.294668e-01 151 153 166
-4.350465e+00 1.409238e+01 -3.346973e+00 166 164 177
-3.785767e+00 1.444333e+01 -3.626251e+00 80 80 92
-1.367987e+01 1.481673e+01 7.922823e-01 78 112 150
5.758725e+00 -3.855918e+00 2.243360e+00 147 147 159
5.679383e+00 -3.743227e+00 2.256417e+00 157 163 175
4.450359e+00 -3.120963e+00 -3.663121e-01 95 95 103
-9.017414e-01 -3.831343e+00 2.222269e+00 170 163 170
2.328686e+00 -2.689191e+00 -1.100368e+00 110 98 100
-3.205367e-01 -2.566772e+00 3.876243e-01 138 128 127
-1.340579e+00 -2.063702e+00 1.454962e+00 88 90 97
-6.356837e-01 -1.835661e+00 8.762862e-01 83 82 87
-5.004068e+00 -2.537259e+00 2.282653e+00 204 203 211
-6.266057e+00 -2.324162e+00 1.092063e+00 73 74 86
-5.206114e+00 -2.278440e+00 1.271389e+00 95 92 103
6.032808e-03 -1.718630e+00 8.900156e-01 77 74 81
3.248865e+00 -1.108079e+00 -3.673223e-01 156 154 157
-6.382880e-01 -1.754245e+00 8.560419e-01 60 60 68
-1.117511e-01 -1.587114e+00 8.129681e-01 176 173 180
2.210242e+00 -1.065257e+00 -3.732145e-01 168 168 176
3.014975e+00 -9.817635e-01 -3.570323e-01 197 196 212
2.672996e+00 -1.011266e+00 -2.614907e-01 64 67 74
2.694497e+00 -8.884481e-01 -7.269700e-01 176 175 182
-5.803434e+00 -1.652083e+00 1.078936e+00 93 89 95
6.869633e-01 -1.111564e+00 8.381081e-01 106 104 110
1.769976e+00 -7.688330e-01 -1.089062e-01 182 177 184
2.531896e+00 -5.898244e-01 -2.777549e-01 116 114 119
-5.310429e+00 -1.782201e+00 2.726912e+00 129 126 135
2.237969e+00 -2.685707e-01 -2.267533e-01 163 155 153
-2.015433e+00 -6.905318e-01 1.558334e+00 107 102 108
-1.952074e+00 -6.526170e-01 1.501995e+00 98 96 102
1.354807e+00 1.036392e-01 -1.141265e-02 181 179 184
1.041296e+00 3.524257e-02 4.677478e-01 167 164 173
-9.892204e-01 6.258386e-01 -3.670236e-01 64 66 78
-4.289763e+00 -2.157858e-01 1.709909e+00 192 195 206
-4.023667e+00 5.387133e-01 5.716650e-01 120 119 129
1.594596e+00 1.717705e+00 -1.888744e+00 98 97 102
-1.675950e+00 1.460721e+00 -5.878828e-01 116 115 123
1.565943e+00 2.024118e+00 -1.533792e+00 197 193 200
1.221868e+00 2.029447e+00 -1.160471e+00 189 185 192
1.046217e+00 2.364411e+00 -1.518059e+00 145 146 151
-5.182480e+00 1.791367e+00 6.083435e-01 92 91 94
5.391078e-01 2.647279e+00 -1.746717e+00 105 104 112
1.462225e+00 2.948180e+00 -1.780657e+00 141 136 142
8.599829e-01 3.030390e+00 -1.607068e+00 145 134 138
2.826602e+00 2.760840e+00 -1.197617e+00 191 193 206
-4.059904e+00 2.277806e+00 1.021540e+00 92 90 93
1.458484e+00 3.083860e+00 -1.011082e+00 98 95 102
-2.934302e+00 3.072446e+00 -1.799715e-01 169 170 174
-9.268111e-01 2.542950e+00 5.424471e-01 92 91 96
1.692864e+00 4.429885e+00 -3.421004e+00 78 76 81
-6.338359e+00 2.220097e+00 2.234387e+00 138 138 148
1.905016e+00 3.710186e+00 -1.827611e+00 85 83 86
-4.513867e+00 2.803500e+00 1.172232e+00 115 117 129
2.067364e+00 4.019156e+00 -1.926543e+00 101 96 102
1.115036e+00 4.514977e+00 -2.278004e+00 144 153 163
-7.468283e+00 4.330648e+00 3.596258e-01 181 178 191
1.089649e+00 5.819625e+00 -2.401874e+00 65 68 77
-3.658000e+00 5.517508e+00 -4.693786e-01 180 180 190
-1.647997e+00 5.621939e+00 -1.065062e+00 77 75 86
-7.772684e+00 5.631886e+00 4.717996e-01 163 162 167
-6.790117e+00 5.595298e+00 3.026231e-01 160 157 166
-3.330218e+00 5.297253e+00 1.951821e-02 35 31 46
-4.152483e-01 5.913723e+00 -1.629011e+00 83 81 86
-9.106613e-01 5.444998e+00 -7.854396e-01 173 174 180
-3.681757e+00 5.381809e+00 3.558099e-01 158 157 163
-2.304964e+00 5.938436e+00 -8.082768e-01 55 53 64
-2.583788e+00 6.189527e+00 -9.682152e-01 158 155 162
2.173711e+00 6.135576e+00 -2.091900e+00 94 94 104
-4.922999e-01 6.377427e+00 -1.704366e+00 150 145 151
1.110087e-01 6.571625e+00 -1.949794e+00 173 168 174
2.400832e+00 6.322332e+00 -2.172599e+00 162 162 172
2.799761e-01 6.637581e+00 -2.065501e+00 145 143 148
-7.154035e+00 6.423187e+00 2.815992e-01 59 60 70
-6.961022e+00 6.419865e+00 2.615142e-01 63 62 70
6.362600e-01 7.933487e+00 -3.939549e+00 148 143 147
-1.863048e-01 2.945164e+00 3.506820e+00 128 141 160
2.135743e+00 6.636788e+00 -2.290073e+00 73 75 88
-1.789992e+00 7.573939e+00 -1.733291e+00 164 163 177
-8.048595e+00 9.586656e+00 -1.354377e+00 87 89 101
-1.291450e+01 1.425843e+01 -2.293017e+00 129 129 139
-1.613378e+01 2.293142e+01 -1.080379e+01 213 236 251
-9.270369e+00 1.005186e+01 2.258849e+00 72 78 89
-7.999950e+00 1.163394e+01 4.671793e-01 66 66 74
-1.248252e+01 1.547995e+01 -1.397977e+00 78 80 95
-5.582454e+00 1.603893e+01 -4.317983e+00 97 116 167
-5.582454e+00 1.603893e+01 -4.317983e+00 97 116 167
5.733888e+00 -3.901478e+00 2.288294e+00 144 146 159
-3.620032e+00 -5.779458e+00 2.111519e+00 143 141 146
7.542880e-01 -4.012934e+00 -1.571456e-02 105 99 103
1.480486e+00 -3.875368e+00 3.157598e-01 147 142 146
4.479110e+00 -2.564329e+00 -3.646620e-01 177 175 188
9.858793e-01 -1.679041e+00 6.959629e-01 163 157 161
7.203927e-01 -1.710479e+00 7.580894e-01 105 100 104
1.332191e+00 -1.560238e+00 7.988524e-01 96 96 104
-9.793816e-01 -1.947950e+00 1.570339e+00 173 172 180
-9.793816e-01 -1.947950e+00 1.570339e+00 173 172 180
3.129287e+00 -1.077516e+00 -2.851517e-01 182 181 189
9.153739e-01 -1.441495e+00 5.320229e-01 161 159 170
1.538424e+00 -1.347378e+00 4.791005e-01 180 180 187
2.770004e+00 -8.365710e-01 -9.382435e-01 167 167 179
1.404942e+00 -1.285742e+00 3.021544e-01 185 182 189
1.169616e+00 -1.301630e+00 4.343343e-01 127 124 131
2.739223e+00 -7.427883e-01 -9.758452e-01 159 158 162
-3.478215e-02 -1.353991e+00 9.112106e-01 146 141 145
2.072561e+00 -7.721422e-01 -2.917934e-01 108 103 109
-7.121774e+00 -1.537044e+00 1.203093e+00 177 175 180
-1.752244e+00 -1.356662e+00 1.786835e+00 160 154 156
1.093857e+00 -7.155183e-01 6.325191e-01 106 97 100
3.241137e+00 -1.869160e-01 -5.034910e-01 107 97 98
3.665457e+00 -1.498518e-01 -4.994279e-01 130 119 125
1.364757e+00 -3.291041e-01 2.022774e-01 75 74 80
-2.547787e+00 -7.107715e-01 1.598215e+00 142 140 145
7.298758e-01 -7.756924e-02 5.045179e-01 153 152 160
-1.936367e+00 1.016979e-01 3.286179e-02 171 171 179
-8.538831e-01 3.713370e-01 -4.362165e-01 64 65 78
-5.191930e+00 5.225217e-01 9.082028e-01 181 180 186
-5.966447e+00 1.020544e+00 8.552197e-01 139 134 138
-1.856975e+00 1.542393e+00 -4.753439e-01 184 182 193
-2.404151e+00 1.656350e+00 -4.785888e-01 161 161 173
-2.308662e+00 2.126515e+00 -7.072369e-01 67 67 79
-3.928800e+00 1.846957e+00 8.910061e-01 106 106 114
1.231387e+00 2.832726e+00 -1.759276e+00 86 85 90
1.446856e+00 3.168283e+00 -1.719856e+00 76 70 72
-7.796494e-01 2.374623e+00 2.772450e-01 146 143 149
6.748940e-01 2.920657e+00 -8.653293e-01 89 88 93
-1.729262e-01 2.536236e+00 4.430553e-02 170 169 174
-4.271375e-01 2.714658e+00 -1.661612e-01 168 166 171
-1.946461e+00 3.032415e+00 -5.788491e-01 140 138 143
1.909643e+00 3.351771e+00 -1.722321e+00 123 120 127
1.952526e+00 3.456221e+00 -1.768052e+00 187 182 186
-1.409294e+00 2.492181e+00 6.325205e-01 125 123 128
5.519929e-01 3.446796e+00 -1.337258e+00 193 191 196
-5.629846e+00 3.166689e+00 6.196191e-01 194 200 213
-5.641012e+00 3.196747e+00 6.220432e-01 121 125 137
7.009716e-01 4.081889e+00 -1.480590e+00 141 143 158
-3.895359e+00 4.121709e+00 1.351583e+00 189 187 198
-6.134941e+00 5.109153e+00 3.136571e-01 162 163 168
-7.187323e+00 5.176293e+00 4.745485e-01 109 112 117
-3.579765e+00 5.329772e+00 -4.974125e-01 138 142 154
-7.754332e+00 5.375845e+00 4.503239e-01 157 156 162
-6.872379e+00 5.394379e+00 2.855680e-01 165 164 169
8.474761e-01 6.070607e+00 -2.585254e+00 133 129 137
-3.269178e+00 5.065661e+00 1.430845e-01 124 122 133
-3.843049e+00 4.430741e+00 1.279753e+00 117 120 127
-8.064560e+00 5.645033e+00 5.123838e-01 154 153 159
-2.616780e+00 5.434018e+00 -3.847072e-01 124 122 133
-4.026537e+00 4.884804e+00 1.077147e+00 85 84 91
-3.388607e+00 5.355163e+00 1.663548e-01 173 172 180
-4.701243e+00 5.426203e+00 4.777730e-01 84 83 89
-4.701243e+00 5.426203e+00 4.777730e-01 84 83 89
-9.280877e-01 5.702727e+00 -8.401369e-01 194 194 201
-3.933379e+00 4.923532e+00 1.258248e+00 130 129 137
-1.874336e+00 6.249980e+00 -1.206565e+00 99 96 103
2.242915e+00 6.311934e+00 -2.243120e+00 136 136 144
-5.795949e-01 5.909171e+00 -9.245113e-01 193 193 201
1.803849e+00 9.021145e+00 -6.109622e+00 200 217 244
-8.118029e+00 6.367762e+00 4.591471e-01 165 167 179
-8.350526e-01 6.096410e+00 -8.829655e-01 125 124 129
-8.091703e-01 6.197136e+00 -9.414128e-01 97 95 100
-5.285709e+00 6.283750e+00 4.849853e-01 72 71 85
4.061849e-01 6.969480e+00 -1.980196e+00 146 146 154
7.424124e-01 7.488346e+00 -2.365299e+00 81 80 88
2.427785e+00 8.239900e+00 -3.445575e+00 168 183 209
1.821546e+00 8.269499e+00 -3.328847e+00 155 157 172
-1.497066e+01 1.903952e+01 -1.075597e+01 122 124 136
-6.044191e+00 1.052937e+01 6.453333e-01 96 98 110
-7.594306e+00 1.179093e+01 2.194438e-01 91 93 106
-1.406953e-01 1.304972e+01 -3.692631e+00 137 139 151
-7.792320e+00 1.196221e+01 1.998399e-01 91 93 106
5.742206e+00 -3.895972e+00 2.240201e+00 91 94 106
5.702499e+00 -3.856984e+00 2.270051e+00 147 146 160
1.744481e+00 -3.781733e+00 5.849961e-01 103 100 109
-6.036217e-01 -1.770572e+00 8.643973e-01 160 158 168
-1.484467e+00 -1.942021e+00 1.393777e+00 79 81 89
-4.862064e+00 -1.886786e+00 1.948497e+00 184 181 190
1.917937e+00 -4.622455e-01 -2.029552e-02 102 94 93
-2.190420e+00 2.275064e-01 3.725591e-02 177 176 184
-9.922613e-01 1.246791e-01 1.046216e+00 97 96 110
-2.757901e+00 1.110223e+00 -1.169118e-01 164 163 171
-2.944717e+00 1.272459e+00 -3.390682e-01 69 69 77
-1.937731e+00 1.475710e+00 -4.958893e-01 106 105 111
2.115321e+00 2.572161e+00 -2.491156e+00 96 91 97
1.215784e+00 2.825976e+00 -1.728193e+00 137 136 141
-2.607197e+00 2.648249e+00 -8.700464e-01 137 127 136
3.178805e-01 2.918914e+00 -1.203866e+00 188 186 191
-2.024763e+00 2.492076e+00 6.827214e-01 98 97 103
2.750737e+00 3.947036e+00 -1.661241e+00 121 118 127
-8.592266e+00 4.581578e+00 8.635387e-01 161 160 166
-6.376783e+00 4.878639e+00 3.962365e-01 99 98 104
-1.496031e+00 5.347965e+00 -1.149761e+00 86 85 93
-3.919296e+00 4.135954e+00 1.364075e+00 119 117 130
-6.738447e+00 5.621125e+00 2.809190e-01 100 98 109
-9.739043e+00 5.741124e+00 1.262542e+00 70 70 78
-9.739043e+00 5.741124e+00 1.262542e+00 70 70 78
-2.592699e+00 6.197321e+00 -1.029736e+00 96 93 100
2.201429e+00 6.342236e+00 -2.227761e+00 164 164 174
-2.590822e+00 6.677667e+00 -1.013507e+00 125 138 157
-5.364916e+00 6.278295e+00 5.367592e-01 159 161 176
2.268769e+00 7.548366e+00 -2.323674e+00 116 118 133
-1.543676e+01 1.375333e+01 -4.678909e-01 110 135 166
1.572454e+00 1.130434e+01 -1.670705e+00 137 135 149
1.758684e+00 1.118341e+01 -1.030673e+00 139 139 153
1.085588e+00 1.531280e+01 -3.077935e+00 177 210 245
5.811074e+00 -4.235127e+00 1.116710e+01 65 63 65
5.813607e+00 -4.232599e+00 1.116478e+01 102 102 104
5.812475e+00 -4.232339e+00 1.116495e+01 45 40 46
5.813483e+00 -4.232344e+00 1.116408e+01 80 78 79
5.809790e+00 -4.234488e+00 1.116662e+01 10 11 15
5.815006e+00 -4.233912e+00 1.116597e+01 30 37 52
3.209446e+00 -3.757876e-02 -1.069703e+00 84 84 84
3.208525e+00 -3.857133e-02 -1.069574e+00 84 84 84
-1.399443e+00 1.827776e+00 -5.801552e-01 102 100 103
5.810086e+00 -4.233764e+00 1.116626e+01 80 78 79
5.814904e+00 -4.232919e+00 1.116440e+01 72 79 97
5.813404e+00 -4.232200e+00 1.116428e+01 42 41 46
-1.804725e+00 1.262611e+00 -1.924859e-01 96 95 93
5.810486e+00 -4.233641e+00 1.116624e+01 10 11 16
5.810326e+00 -4.233755e+00 1.116640e+01 8 11 18
5.809655e+00 -4.233849e+00 1.116618e+01 90 88 91
5.815112e+00 -4.234122e+00 1.116621e+01 141 176 212
2.229723e+00 -3.590231e+00 -1.245596e+00 14 9 9
1.071837e+00 2.515769e+00 -1.307304e+00 51 45 45
5.813903e+00 -4.232875e+00 1.116503e+01 96 95 96
9.912197e-01 5.215272e-03 2.755203e-01 90 89 87
8.533637e-01 -1.404475e+00 4.810618e-01 90 95 97
5.812639e+00 -4.234144e+00 1.116515e+01 166 197 227
5.812428e+00 -4.234053e+00 1.116485e+01 62 69 77
5.812752e+00 -4.234467e+00 1.116538e+01 172 196 226
5.812423e+00 -4.234350e+00 1.116488e+01 173 202 232
-1.630820e+00 1.841466e+00 -2.921013e-01 23 19 23
5.811433e+00 -4.234008e+00 1.116718e+01 33 32 41
-3.833337e+00 1.388515e+00 1.370745e+00 55 51 50
-4.662472e+00 -2.434350e+00 1.953932e+00 45 45 46
5.814184e+00 -4.232834e+00 1.116480e+01 47 47 51
7.827804e-01 1.938312e+00 -1.165880e+00 44 36 34
5.812432e+00 -4.234410e+00 1.116488e+01 69 79 100
5.812432e+00 -4.234410e+00 1.116488e+01 69 79 100
5.810416e+00 -4.233510e+00 1.116613e+01 75 73 76
5.811094e+00 -4.234389e+00 1.116730e+01 52 50 53
5.811031e+00 -4.234427e+00 1.116733e+01 100 104 109
5.810733e+00 -4.234336e+00 1.116729e+01 91 92 91
5.812157e+00 -4.231635e+00 1.116406e+01 87 87 89
5.812835e+00 -4.234492e+00 1.116548e+01 75 94 123
5.812891e+00 -4.234591e+00 1.116557e+01 75 94 123
-1.482819e+00 2.707721e+00 5.708270e-01 85 84 82
5.811047e+00 -4.233728e+00 1.116667e+01 48 47 50
5.810051e+00 -4.233076e+00 1.116561e+01 53 53 55
5.809653e+00 -4.233051e+00 1.116530e+01 90 86 90
5.804330e+00 -4.231298e+00 1.116205e+01 87 87 90
5.813583e+00 -4.232404e+00 1.116438e+01 48 47 47
5.812101e+00 -4.232145e+00 1.116456e+01 52 55 62
5.812031e+00 -4.232094e+00 1.116448e+01 41 44 51
5.812636e+00 -4.234072e+00 1.116510e+01 69 87 114
5.812858e+00 -4.234526e+00 1.116544e+01 166 188 216
-1.105506e+00 2.526180e+00 1.758112e-01 81 73 71
-2.828808e+00 1.267119e+00 1.840291e+00 42 40 45
5.810969e+00 -4.233919e+00 1.116678e+01 78 78 80
5.810942e+00 -4.234068e+00 1.116696e+01 85 83 86
3.114023e+00 -6.159807e-02 -9.856512e-01 73 74 76
5.813228e+00 -4.231923e+00 1.116374e+01 52 52 54
8.679302e-01 2.329147e+00 -1.068776e+00 65 61 60
-5.794010e-01 2.761660e+00 2.036309e-02 60 56 55
-2.572595e+00 9.212847e-01 2.105198e-01 84 83 83
5.810960e+00 -4.234462e+00 1.116735e+01 57 52 55
5.812971e+00 -4.234996e+00 1.116564e+01 212 227 248
-6.597016e+00 5.550706e+00 2.920932e-01 82 76 76
-3.360987e+00 6.455098e+00 -1.446272e+00 143 143 143
5.813086e+00 -4.235309e+00 1.116579e+01 93 105 119
5.810388e+00 -4.234472e+00 1.116752e+01 31 35 36
5.810564e+00 -4.234209e+00 1.116721e+01 54 58 57
5.810818e+00 -4.233690e+00 1.116679e+01 61 63 65
4.309053e+00 -2.562235e+00 -1.000771e+00 68 57 61
-4.419929e+00 -2.836070e+00 3.019357e+00 81 71 69
-4.780919e+00 -2.903230e+00 3.114860e+00 74 68 70
7.686801e-01 -1.515462e-01 2.283612e-01 107 109 115
-4.867054e+00 -2.415522e+00 3.053992e+00 94 79 88
1.369739e+00 -1.882186e+00 6.083069e-01 190 178 178
-4.582288e+00 -2.572015e+00 3.057788e+00 194 178 165
2.976464e+00 -1.378519e-01 -9.562480e-01 59 54 58
