ply
format ascii 1.0
element face 0
property list uchar int vertex_indices
element vertex 939
property float x
property float y
property float z
property uchar diffuse_red
property uchar diffuse_green
property uchar diffuse_blue
end_header
3.710094e+00 9.454665e-01 3.109454e+00 101 102 95
4.039124e+00 9.871551e-01 3.073946e+00 201 205 183
1.850391e+00 9.906091e-01 3.171185e+00 175 173 160
-2.538302e+00 1.191685e+00 2.692075e+00 85 79 63
-2.688398e+00 1.196762e+00 2.763553e+00 158 155 136
-2.604244e+00 1.302156e+00 2.737863e+00 80 73 55
-1.877174e+00 1.343815e+00 2.629001e+00 93 85 72
-1.112236e+00 1.377343e+00 2.594865e+00 178 170 157
-1.188938e+00 1.391025e+00 2.633450e+00 178 172 160
2.354760e-01 1.190598e+00 3.164638e+00 186 185 186
-8.996446e-01 1.495510e+00 2.360203e+00 37 36 32
-1.118501e+00 1.439348e+00 2.569913e+00 154 149 130
6.642249e-01 1.203193e+00 3.248625e+00 59 56 67
-1.053504e+00 1.465817e+00 2.616525e+00 112 107 91
1.859462e+00 1.254853e+00 3.171240e+00 159 152 136
2.081181e-01 1.299011e+00 3.116259e+00 136 128 109
-2.847569e+00 1.471883e+00 2.754310e+00 73 70 54
2.756368e-01 1.305849e+00 3.118153e+00 192 192 184
-8.048768e-01 1.638594e+00 2.539819e+00 171 162 153
-2.359324e+00 1.602709e+00 2.723143e+00 134 122 107
-2.019879e+00 1.664159e+00 2.729341e+00 176 172 155
-3.866659e-01 1.680640e+00 2.671573e+00 63 55 75
3.123123e+00 1.478943e+00 3.121291e+00 181 176 157
5.927073e-01 1.477190e+00 3.175393e+00 67 65 76
2.316774e+00 1.485908e+00 3.145557e+00 154 150 138
-2.887284e+00 1.761221e+00 2.784961e+00 194 197 188
2.345042e+00 1.547832e+00 3.151393e+00 189 189 181
-2.297668e+00 1.848090e+00 2.780106e+00 194 191 184
-3.367105e+00 1.831397e+00 2.839481e+00 163 161 140
-2.827286e+00 1.902136e+00 2.769007e+00 175 176 162
2.188618e+00 1.666599e+00 3.167963e+00 108 110 97
-2.380559e+00 1.932662e+00 2.746476e+00 177 175 161
-3.725139e+00 1.953527e+00 2.965482e+00 88 88 78
-1.178085e+00 1.921125e+00 3.043130e+00 75 77 75
-3.375914e+00 2.066612e+00 2.841170e+00 128 130 123
2.189852e+00 1.910024e+00 3.164531e+00 91 88 71
-3.468548e+00 2.185251e+00 2.853860e+00 95 97 79
1.053545e+00 1.943280e+00 3.205343e+00 176 174 160
-2.680181e+00 2.264601e+00 2.820538e+00 134 130 111
1.750795e+00 2.067945e+00 3.187688e+00 76 77 63
-3.332432e+00 2.338354e+00 2.858219e+00 172 172 160
1.794410e+00 2.118957e+00 3.182221e+00 154 156 141
-8.164833e-01 2.311354e+00 2.945840e+00 78 79 66
6.441198e-01 2.203093e+00 3.164510e+00 136 132 118
-8.542576e-01 2.420830e+00 2.950314e+00 171 172 165
1.724856e+00 2.277935e+00 3.196524e+00 83 81 56
1.962805e+00 2.309457e+00 3.176370e+00 191 190 168
2.931506e+00 2.316729e+00 3.158995e+00 86 85 68
6.520089e-01 2.411289e+00 3.170087e+00 157 157 143
6.249916e-01 2.416317e+00 3.161009e+00 155 153 138
-5.401291e-02 2.476978e+00 3.088900e+00 107 107 95
-2.587408e+00 2.778960e+00 2.884001e+00 148 150 138
-2.227936e+00 2.791574e+00 2.876329e+00 126 128 117
-1.068076e+00 2.681201e+00 3.072081e+00 151 145 131
1.848994e+00 2.748287e+00 3.147348e+00 158 159 155
-1.752908e+00 3.301161e+00 2.898704e+00 158 155 150
2.177633e+00 -3.393395e+00 2.958184e+00 85 78 60
3.571267e+00 -3.067542e+00 2.937591e+00 125 120 98
-2.399721e+00 -3.185172e+00 3.015366e+00 142 132 129
2.149425e+00 -3.040715e+00 2.964203e+00 49 31 17
-3.701660e+00 -3.104428e+00 3.032220e+00 88 79 63
-8.752270e-01 -2.992040e+00 3.029462e+00 129 119 106
-1.211218e+00 -2.991985e+00 3.042878e+00 138 121 111
3.298278e+00 -2.884093e+00 2.953655e+00 148 135 116
-1.261514e+00 -2.897963e+00 3.046222e+00 126 118 99
-1.364810e+00 -2.763557e+00 3.052382e+00 97 89 76
-7.176691e-01 -2.386068e+00 3.040972e+00 82 66 43
-6.118991e-01 -2.254198e+00 3.052438e+00 95 87 68
-1.125143e+00 -2.246468e+00 3.046551e+00 92 85 66
-5.370864e-01 -2.224970e+00 3.045884e+00 116 101 82
-1.528698e+00 -2.204943e+00 3.070748e+00 194 191 186
-1.258561e+00 -2.155942e+00 3.049826e+00 95 83 60
1.554997e+00 -2.126433e+00 2.951882e+00 180 175 169
4.080558e+00 -2.048193e+00 2.974984e+00 164 158 146
2.029704e+00 -2.099020e+00 2.969476e+00 108 96 76
-2.369525e+00 -2.082646e+00 3.037164e+00 86 75 53
2.602508e+00 -1.929486e+00 2.985648e+00 95 80 57
-1.198925e+00 -1.906835e+00 3.040371e+00 82 75 49
-1.181584e+00 -1.869204e+00 3.049360e+00 129 114 93
2.796799e+00 -1.676361e+00 2.979543e+00 119 107 91
-9.066671e-01 -1.712784e+00 3.038353e+00 63 52 33
2.475509e+00 -1.412846e+00 2.982068e+00 160 147 131
-9.811141e-02 -1.440237e+00 3.042284e+00 71 57 40
-6.731759e-01 -1.398969e+00 3.021116e+00 110 103 82
-1.304717e-01 -1.221779e+00 3.021612e+00 148 135 118
-3.092100e-01 -1.191035e+00 3.000259e+00 61 50 23
-7.597141e-01 -1.103618e+00 3.006883e+00 163 150 130
-2.598195e+00 -8.830480e-01 3.032995e+00 112 112 102
-2.009349e-01 -7.369379e-01 2.908288e+00 193 189 178
1.282463e+00 -7.121971e-01 2.953215e+00 150 143 125
-4.021662e+00 -7.254856e-01 3.040523e+00 182 179 187
3.244306e+00 -6.408271e-01 3.013776e+00 177 175 165
6.801302e-01 -6.350239e-01 2.952709e+00 196 197 191
-3.894981e+00 -6.582054e-01 3.041078e+00 194 191 174
5.258727e-01 -6.133739e-01 2.952775e+00 42 38 31
-4.256925e+00 -6.419771e-01 3.056020e+00 188 184 173
6.695656e-01 -6.023423e-01 2.966915e+00 55 51 41
-2.518565e-01 -6.113856e-01 2.920121e+00 40 38 40
1.594920e+00 -5.754431e-01 2.987174e+00 86 86 78
-4.006066e-01 -5.872469e-01 2.945650e+00 229 222 215
1.203069e+00 -5.614161e-01 2.991775e+00 160 151 134
3.326394e+00 -5.404146e-01 3.022875e+00 144 142 130
1.171041e+00 -5.555797e-01 3.014352e+00 176 167 151
-5.522081e-01 -5.756299e-01 2.945948e+00 125 118 98
1.452552e+00 -5.433740e-01 2.998408e+00 109 101 90
3.969777e+00 -4.644128e-01 3.030413e+00 177 171 165
-3.922426e+00 -3.723332e-01 3.030867e+00 117 114 109
-3.252527e+00 -3.605727e-01 3.021888e+00 110 104 90
6.349172e-01 -2.426690e-01 2.978809e+00 108 104 87
-3.221555e+00 -2.396918e-01 3.009140e+00 135 134 110
-3.654214e+00 -2.395253e-01 3.017165e+00 102 93 94
3.827095e+00 -1.100783e-01 3.054083e+00 129 127 117
-7.979810e-01 -1.060539e-01 2.874450e+00 134 125 110
-7.583984e-01 -4.666684e-02 2.823063e+00 133 120 98
-2.752846e+00 -5.351250e-02 3.007195e+00 157 151 148
1.285132e+00 -2.386446e-02 3.047481e+00 97 86 65
-1.124806e+00 3.422263e-02 2.898198e+00 149 140 118
-3.359628e+00 6.712709e-02 3.009719e+00 127 121 109
-9.670118e-01 1.166823e-01 2.878097e+00 89 72 54
1.313333e+00 4.353872e-01 3.159530e+00 149 140 123
1.823345e+00 4.756028e-01 3.180540e+00 93 83 71
4.085852e+00 8.340404e-01 3.066180e+00 188 186 173
3.171720e+00 1.122674e+00 3.102834e+00 143 135 123
2.631647e+00 1.120783e+00 3.123597e+00 107 103 91
2.582270e+00 1.120367e+00 3.129111e+00 153 151 136
5.037008e-01 1.276931e+00 3.206146e+00 148 146 125
-3.638857e-01 1.554131e+00 2.666674e+00 194 195 192
-1.210322e+00 1.577373e+00 2.719072e+00 117 115 102
-2.290265e+00 1.635651e+00 2.715137e+00 143 132 114
-2.440981e+00 1.641533e+00 2.773265e+00 146 144 125
3.217608e-01 1.601045e+00 3.095189e+00 152 149 117
-2.123814e+00 1.846271e+00 2.768835e+00 114 110 98
2.204245e+00 1.634132e+00 3.164345e+00 133 133 123
-1.886226e+00 2.166217e+00 2.826948e+00 99 96 88
-3.550378e+00 2.286825e+00 2.872259e+00 155 155 151
-9.028799e-01 2.335000e+00 2.932851e+00 115 113 100
-3.235081e+00 2.439044e+00 2.857211e+00 189 191 175
1.663389e+00 2.196136e+00 3.186868e+00 92 87 75
-2.430962e+00 2.487071e+00 2.834984e+00 181 180 176
1.859872e+00 2.218088e+00 3.188521e+00 168 163 155
1.053948e+00 2.287571e+00 3.180581e+00 155 155 146
1.917758e+00 2.294979e+00 3.171700e+00 164 164 134
-9.819491e-01 2.496223e+00 2.949042e+00 74 72 49
8.908301e-01 2.345105e+00 3.181415e+00 154 156 133
-9.337005e-01 2.527298e+00 2.943457e+00 107 103 94
9.396671e-01 2.362900e+00 3.179843e+00 83 82 63
9.610934e-01 2.366480e+00 3.176968e+00 156 155 135
-9.818838e-01 2.584530e+00 2.940269e+00 134 128 116
-4.208776e-01 2.693262e+00 3.031067e+00 127 124 115
-7.868696e-01 2.857771e+00 2.989746e+00 113 116 109
1.773729e+00 2.715398e+00 3.175887e+00 119 121 108
1.155327e+00 2.953709e+00 3.150564e+00 130 130 118
3.732797e+00 -2.996792e+00 2.951799e+00 117 104 96
2.902264e+00 -2.921847e+00 2.952350e+00 100 82 70
2.177651e+00 -2.514115e+00 2.967892e+00 145 132 106
-4.420311e-01 -1.918299e+00 3.052528e+00 106 93 76
-3.898807e+00 -1.947957e+00 3.056689e+00 126 120 105
-1.528826e-01 -1.756118e+00 3.064668e+00 121 108 91
-1.929623e-01 -1.337119e+00 3.043286e+00 159 145 134
-1.355475e+00 -7.585295e-01 3.024573e+00 115 113 101
1.665073e+00 -6.835433e-01 2.973937e+00 149 144 133
2.325270e+00 -6.633767e-01 3.002937e+00 145 141 141
2.353192e+00 -5.343006e-01 3.020041e+00 173 168 147
2.926793e+00 -3.699323e-01 3.029686e+00 109 105 84
3.804515e+00 -7.986040e-02 3.050982e+00 135 130 109
-4.134857e+00 -6.086220e-02 3.038000e+00 136 125 134
4.639967e-01 8.735261e-01 3.348829e+00 129 123 97
3.714146e+00 9.620444e-01 3.102111e+00 193 195 182
1.677915e+00 1.248948e+00 3.190342e+00 164 161 147
-1.717731e+00 2.164496e+00 2.825112e+00 132 130 113
2.421109e+00 2.054152e+00 3.164054e+00 126 121 101
-3.255583e+00 2.411941e+00 2.862851e+00 146 149 127
-7.953015e-01 3.033334e+00 3.041705e+00 136 137 129
-2.527975e+00 3.241289e+00 2.841489e+00 161 162 156
-2.636699e+00 2.147855e+00 2.855488e+00 122 118 107
-2.636699e+00 2.147855e+00 2.855488e+00 122 118 107
-1.042232e+00 2.796673e+00 2.551762e+00 131 127 118
1.115891e+00 1.905770e+00 1.739513e+00 155 141 128
-1.995692e+00 -4.591055e-01 3.034151e+00 160 151 135
2.395273e+00 7.931142e-02 2.900881e+00 51 42 32
1.764352e+00 7.173593e-02 2.941249e+00 63 46 35
-1.360857e+00 4.617539e-01 3.022209e+00 126 117 107
-1.090177e+00 1.330365e+00 3.083353e+00 138 132 117
-3.149824e+00 2.620694e+00 2.974805e+00 104 100 88
4.176176e+00 2.620793e+00 3.034115e+00 96 95 77
-2.992862e+00 3.409292e+00 2.978308e+00 153 155 145
-1.823167e+00 3.499816e+00 2.820314e+00 142 140 128
2.258401e+00 4.129260e+00 2.916700e+00 132 131 114
-2.161204e+00 5.126430e+00 2.619985e+00 20 19 27
-2.857188e-01 -7.366880e-01 3.001819e+00 75 67 57
2.478441e+00 1.809716e+00 3.067676e+00 152 152 132
4.131021e+00 2.855675e+00 3.011781e+00 163 163 153
3.397920e+00 2.794618e+00 3.211599e+00 182 183 177
2.877475e+00 3.669972e+00 2.960347e+00 20 22 26
1.810966e+00 3.597511e+00 3.187991e+00 93 95 82
1.815542e+00 3.775886e+00 3.142666e+00 45 45 36
-1.396387e+00 4.055578e+00 3.064300e+00 169 169 157
2.381419e+00 4.414477e+00 2.991789e+00 141 141 125
-2.886124e+00 -1.066786e+00 3.109798e+00 135 124 104
1.130412e+00 -1.765134e-01 2.988764e+00 178 170 159
3.003231e+00 -1.439417e-01 2.926953e+00 177 171 159
-5.952647e-01 9.105393e-01 2.629743e+00 62 60 68
-2.625823e+00 1.155236e+00 2.649835e+00 93 87 73
-3.986636e+00 1.497182e+00 3.057586e+00 121 123 122
1.963904e+00 2.740116e+00 3.000689e+00 147 149 136
3.686187e+00 4.640180e+00 2.827911e+00 154 159 153
8.579822e-02 -8.429288e-01 3.007281e+00 170 163 152
-9.088177e-01 -6.742076e-01 3.068843e+00 156 152 140
-2.752979e+00 -1.410901e-01 3.094396e+00 55 49 43
-1.045378e+00 -5.183486e-02 2.907727e+00 165 152 132
-7.485872e-01 -2.793548e-02 3.074060e+00 164 153 134
1.930869e+00 1.203681e-02 2.923349e+00 175 155 144
2.855936e+00 2.825137e-02 2.911018e+00 165 158 141
-1.045480e+00 7.796737e-02 2.878526e+00 102 93 76
2.222206e+00 1.485256e-01 2.903038e+00 151 142 127
2.828998e+00 1.631112e-01 2.902943e+00 110 102 81
1.940759e+00 7.185791e-01 3.061947e+00 169 162 146
-2.641390e+00 1.247815e+00 2.920495e+00 168 166 153
-3.236637e+00 2.281396e+00 2.973456e+00 174 171 161
-1.743880e+00 2.372223e+00 2.793381e+00 162 156 144
-1.891285e+00 3.845087e+00 2.803536e+00 42 41 37
-1.412662e+00 3.917635e+00 2.706956e+00 133 133 121
-2.585790e+00 4.092629e+00 2.880176e+00 151 153 142
2.961965e+00 3.952601e+00 3.003542e+00 37 39 29
3.677558e+00 4.063726e+00 2.907720e+00 172 174 168
-3.367119e+00 4.188911e+00 3.110132e+00 57 50 47
-9.926617e-01 4.259227e+00 3.072801e+00 74 66 55
-1.357064e+00 4.407829e+00 3.018532e+00 141 139 128
2.026080e+00 4.242884e+00 3.044986e+00 117 120 108
-1.201859e+00 4.380059e+00 3.051789e+00 137 139 126
1.685097e+00 4.218376e+00 3.101094e+00 71 66 49
-1.877714e+00 5.722319e+00 2.457062e+00 21 20 26
-3.407895e+00 -3.472605e+00 3.138786e+00 138 128 101
-1.639213e+00 -5.933374e-01 3.082276e+00 117 108 93
-1.510660e+00 -5.673176e-01 3.006536e+00 165 155 135
-5.463612e-02 -1.593670e-01 3.028181e+00 161 155 143
-1.232601e-02 -3.403976e-02 3.069482e+00 151 142 121
3.256841e-03 -3.513142e-02 2.985516e+00 151 142 121
-8.977221e-01 -1.467383e-02 2.902525e+00 42 35 27
-5.905798e-01 1.449325e-02 3.071572e+00 44 37 29
-3.122450e+00 6.206074e-02 3.086200e+00 103 92 86
-1.626012e+00 4.677854e-01 2.783800e+00 68 62 49
-2.702854e+00 7.095600e-01 2.999428e+00 154 147 141
2.776783e+00 1.132975e+00 3.041815e+00 70 74 76
-2.470418e+00 1.852327e+00 2.842942e+00 165 164 146
1.076187e+00 1.863745e+00 3.099542e+00 156 152 143
-1.905224e+00 2.059869e+00 2.810383e+00 174 175 168
1.005847e+00 2.233144e+00 3.057550e+00 85 79 63
-2.234571e+00 2.537501e+00 2.861738e+00 181 181 173
5.728259e-01 2.479671e+00 2.965762e+00 177 176 168
-1.908536e+00 3.475175e+00 2.780630e+00 154 152 139
2.784945e+00 3.142119e+00 3.163093e+00 136 138 128
2.787247e+00 3.280740e+00 3.152953e+00 148 144 134
2.955022e+00 3.570046e+00 2.983948e+00 181 181 177
4.109244e+00 3.941460e+00 2.830244e+00 82 82 70
4.109244e+00 3.941460e+00 2.830244e+00 82 82 70
3.502579e+00 4.013747e+00 2.894332e+00 58 57 39
1.382282e+00 3.846745e+00 3.195550e+00 99 95 74
-2.939982e+00 4.243716e+00 3.010457e+00 55 55 43
2.138708e+00 4.063442e+00 2.951014e+00 128 126 113
-1.522243e+00 4.336157e+00 3.012170e+00 57 57 48
-1.028074e+00 4.493592e+00 3.009627e+00 161 161 155
1.674410e+00 4.421945e+00 3.058839e+00 163 165 162
-1.620177e+00 -2.649498e+00 2.251795e+00 160 158 141
-2.817958e+00 -2.168252e+00 3.245719e+00 154 147 129
-1.606722e+00 -2.389500e+00 1.580062e+00 148 135 109
1.729990e+00 -7.350825e-01 3.094186e+00 83 74 64
1.835902e+00 -1.939317e-01 2.940416e+00 192 189 182
-2.061009e+00 -1.169529e-01 3.034013e+00 66 61 55
3.732780e+00 -5.937777e-02 3.031316e+00 182 178 174
1.073059e+00 -6.041042e-02 2.965028e+00 79 66 62
4.296160e-01 -1.792357e-03 3.092107e+00 165 152 133
4.296160e-01 -1.792357e-03 3.092107e+00 165 152 133
2.160343e+00 3.200465e-02 2.912550e+00 44 40 28
2.160343e+00 3.200465e-02 2.912550e+00 44 40 28
2.630196e+00 3.769446e-02 2.911730e+00 42 35 28
1.156428e+00 5.057559e-02 3.011004e+00 42 35 29
2.929019e+00 4.741496e-02 2.911741e+00 50 42 31
-3.109670e+00 3.906485e-01 3.070494e+00 177 171 150
-8.531545e-01 4.055500e-01 2.958176e+00 180 176 166
-9.627003e-01 4.843191e-01 2.962582e+00 56 50 35
2.712035e+00 1.207409e+00 3.044638e+00 152 145 134
-1.444797e-01 1.666125e+00 2.085617e+00 183 182 178
2.725810e+00 1.416370e+00 3.032872e+00 136 128 109
-3.402308e+00 1.745697e+00 2.985638e+00 166 164 150
-3.192454e+00 1.875487e+00 3.017447e+00 101 99 82
-2.980131e+00 1.963412e+00 3.100100e+00 112 114 93
9.344113e-01 2.212339e+00 3.043981e+00 186 183 174
-4.551820e-02 2.663080e+00 2.103903e+00 116 113 98
6.174306e-01 2.271301e+00 3.000293e+00 99 97 72
-1.088843e+00 2.666100e+00 2.567705e+00 76 66 54
2.861810e+00 3.200484e+00 3.139540e+00 27 30 29
-4.013174e+00 3.942598e+00 2.770239e+00 160 161 154
-3.749458e+00 3.852065e+00 2.875998e+00 158 158 149
2.889759e+00 3.527538e+00 2.998095e+00 29 30 26
-1.343514e+00 3.885828e+00 2.698252e+00 166 168 155
-1.343514e+00 3.885828e+00 2.698252e+00 166 168 155
-1.478374e+00 3.862801e+00 2.727179e+00 166 164 153
-1.478374e+00 3.862801e+00 2.727179e+00 166 164 153
1.446454e+00 4.207743e+00 2.228085e+00 159 160 155
1.446454e+00 4.207743e+00 2.228085e+00 159 160 155
-2.508187e+00 4.011180e+00 2.906571e+00 167 169 157
2.672282e+00 3.864540e+00 2.968765e+00 126 127 124
2.047196e-01 3.840885e+00 3.106741e+00 153 154 150
-1.923316e+00 4.109668e+00 2.951862e+00 147 144 128
1.935050e+00 3.830147e+00 3.136301e+00 159 160 146
2.420519e+00 3.977661e+00 2.957698e+00 170 170 167
2.901983e+00 4.033717e+00 2.931479e+00 167 167 155
-2.816339e+00 4.539658e+00 2.580213e+00 134 134 124
3.076785e+00 3.984043e+00 2.985765e+00 161 160 144
2.301034e+00 4.066352e+00 2.924491e+00 133 132 119
-3.686175e+00 4.206566e+00 3.182974e+00 123 125 120
2.039766e+00 4.186101e+00 2.940128e+00 117 117 108
-3.872810e+00 4.786906e+00 2.630231e+00 169 171 159
3.002271e+00 4.260368e+00 2.918250e+00 128 125 120
6.635235e-01 4.561677e+00 2.664491e+00 254 255 245
-1.017580e+00 4.343107e+00 3.057518e+00 164 167 157
-2.760530e+00 5.703801e+00 2.402916e+00 150 156 151
2.191583e+00 -3.286208e+00 3.041113e+00 119 108 95
-2.911508e+00 -3.021187e+00 3.022791e+00 140 128 105
-1.690763e+00 -3.144015e+00 2.517249e+00 83 73 69
-1.553714e+00 -3.013154e+00 2.487650e+00 84 68 52
-1.080141e+00 -2.700110e+00 2.002227e+00 161 145 119
-4.858213e-01 -2.170376e+00 1.786361e+00 73 57 41
4.699172e-01 -1.869468e+00 2.806790e+00 85 73 54
4.699172e-01 -1.869468e+00 2.806790e+00 85 73 54
4.699172e-01 -1.869468e+00 2.806790e+00 85 73 54
-2.158593e+00 -1.860135e+00 3.033374e+00 200 197 188
-3.843089e-01 -2.058608e+00 1.924592e+00 79 67 41
-3.772622e-01 -1.845072e+00 2.936977e+00 92 78 52
-3.129817e-01 -1.768922e+00 2.943639e+00 81 66 45
-2.668722e+00 -1.322344e+00 3.433106e+00 170 161 144
7.401689e-02 -7.569605e-01 2.998830e+00 112 104 93
-1.419292e+00 -5.815068e-01 3.076724e+00 87 79 71
-2.221846e+00 -5.645775e-01 2.976202e+00 181 173 155
-1.979355e+00 -2.031651e-01 3.033217e+00 162 154 135
2.336455e+00 1.116786e-01 2.932159e+00 148 140 121
-2.946752e+00 2.697295e-01 2.987039e+00 134 129 107
-6.910347e-01 3.851531e-01 2.865898e+00 105 99 89
-2.339296e+00 3.942078e-01 3.026216e+00 88 86 78
-2.801823e+00 3.995793e-01 3.053291e+00 152 144 123
-4.598918e-01 6.935122e-01 2.683824e+00 54 57 61
6.562187e-01 6.484754e-01 3.143665e+00 51 55 63
7.113416e-01 7.132799e-01 3.259838e+00 182 179 176
4.867322e-01 1.362331e+00 1.915029e+00 51 55 53
9.372070e-01 1.058262e+00 3.380785e+00 163 152 129
3.339947e+00 1.271211e+00 3.355353e+00 101 99 86
-2.101957e+00 1.563046e+00 2.614526e+00 146 139 121
5.437098e-01 1.966956e+00 1.582215e+00 182 175 158
8.897006e-01 1.372353e+00 3.305775e+00 164 148 124
2.905658e+00 1.509757e+00 3.050923e+00 136 130 116
2.640805e+00 1.568415e+00 3.041511e+00 180 176 167
-2.875392e+00 1.840988e+00 2.909638e+00 173 175 153
6.997765e-01 1.730982e+00 3.149363e+00 130 125 101
3.152903e+00 1.744620e+00 3.157887e+00 90 88 66
7.049845e-01 1.817884e+00 3.127355e+00 146 131 103
-5.351859e-01 2.233421e+00 2.184376e+00 20 21 14
6.629906e-01 1.843372e+00 3.124845e+00 23 25 16
-3.811766e-01 2.372132e+00 2.104851e+00 136 131 102
-2.470275e+00 2.113328e+00 2.840762e+00 143 141 127
2.362032e+00 2.055095e+00 3.058148e+00 138 135 119
2.538806e+00 2.078979e+00 3.050692e+00 56 49 29
2.005031e+00 1.891163e+00 3.573098e+00 175 164 145
-2.507592e+00 2.488585e+00 2.868626e+00 117 116 104
7.116826e-01 2.941202e+00 1.826707e+00 175 176 159
5.387424e-01 2.440327e+00 2.963812e+00 87 85 66
2.120287e+00 3.367239e+00 3.171845e+00 111 107 93
2.798615e+00 3.446318e+00 3.108459e+00 117 117 119
2.837631e+00 3.485183e+00 3.092958e+00 24 23 32
2.998016e+00 3.628675e+00 2.978257e+00 68 68 56
-6.207541e-01 3.845207e+00 3.037981e+00 23 25 26
3.736695e+00 3.840552e+00 2.943030e+00 150 152 146
1.300071e+00 3.659483e+00 3.219013e+00 155 156 150
5.879993e-01 3.803376e+00 3.139728e+00 37 35 34
2.424826e+00 4.018360e+00 3.061408e+00 133 130 121
2.524926e+00 4.105125e+00 2.951472e+00 134 131 123
2.848695e+00 4.157204e+00 2.922384e+00 128 126 113
2.876019e+00 3.897469e+00 3.315862e+00 129 128 115
2.025645e+00 4.154255e+00 3.007231e+00 130 130 120
1.645608e+00 4.018232e+00 3.160587e+00 158 156 148
-1.128324e+00 4.215871e+00 3.075556e+00 135 134 128
3.794390e+00 4.320750e+00 2.847859e+00 171 173 171
-2.565440e+00 5.351575e+00 2.539895e+00 162 169 160
-3.031158e+00 -3.529076e+00 3.052626e+00 18 9 23
-1.569689e+00 -3.103916e+00 2.567519e+00 161 157 146
-7.236389e-01 -2.822937e+00 2.287968e+00 87 72 53
-3.102308e+00 -2.499102e+00 3.254519e+00 148 139 121
-1.633751e+00 -2.610526e+00 2.101440e+00 168 161 146
4.151585e+00 -2.150142e+00 3.005286e+00 199 197 181
-2.279175e+00 -2.157937e+00 2.838876e+00 159 147 125
2.867364e-01 -2.025505e+00 2.957509e+00 71 57 44
-4.663172e-01 -1.963539e+00 2.946118e+00 139 127 110
-2.300337e+00 -1.906116e+00 3.068355e+00 144 138 115
4.195287e-01 -1.833084e+00 2.814161e+00 130 117 98
2.576226e+00 -1.680202e+00 3.045262e+00 133 120 103
2.141205e+00 -1.499559e+00 3.017358e+00 202 193 184
2.705157e+00 -1.246237e+00 3.009016e+00 123 111 94
-5.503305e-01 -1.097811e+00 3.037485e+00 202 195 178
2.515829e+00 -8.597499e-01 2.920192e+00 191 184 173
8.998678e-01 -7.343465e-01 2.979293e+00 87 77 61
4.879274e-01 -6.536338e-01 2.994667e+00 27 24 21
-1.258690e+00 -6.566166e-01 3.014144e+00 192 193 188
3.470909e-01 -6.497060e-01 3.412195e+00 201 192 185
1.836659e+00 -6.249926e-01 2.923795e+00 182 179 174
-2.745382e+00 -6.278453e-01 3.081947e+00 173 166 147
1.565600e+00 -5.779352e-01 2.974556e+00 198 194 186
-1.170151e+00 -5.888623e-01 3.047758e+00 166 156 135
2.905804e-01 -9.637897e-02 3.077273e+00 147 140 115
-2.843186e+00 3.842800e-01 3.064106e+00 70 68 65
-4.675027e-01 3.854654e-01 2.881276e+00 75 71 62
-2.704869e+00 4.084882e-01 3.043264e+00 141 135 110
-2.001723e-01 4.356064e-01 2.917297e+00 52 44 26
1.738284e+00 6.198047e-01 3.018309e+00 185 180 174
5.931527e-01 6.163384e-01 3.070013e+00 186 189 184
-4.439871e-01 6.602148e-01 2.569798e+00 212 204 201
5.439799e-01 6.579871e-01 3.017545e+00 192 183 180
-2.803870e+00 7.173760e-01 3.009880e+00 61 63 75
-1.564019e+00 1.045459e+00 3.023672e+00 167 162 156
-8.170346e-01 1.213273e+00 2.369408e+00 20 21 13
-7.715919e-01 1.240404e+00 2.357406e+00 22 22 11
-3.492446e-01 1.402657e+00 2.256511e+00 22 23 11
-3.782091e-01 1.413018e+00 2.310370e+00 194 189 188
9.033453e-01 1.077321e+00 3.399934e+00 26 28 18
-1.244853e-01 1.467553e+00 2.106528e+00 200 198 184
-2.455413e+00 1.435175e+00 2.618562e+00 140 132 111
-3.504645e+00 1.434944e+00 3.005407e+00 90 86 75
2.665668e+00 1.413756e+00 3.034236e+00 68 59 39
1.966577e+00 1.487972e+00 2.846166e+00 80 67 46
2.117017e+00 1.444179e+00 3.070656e+00 78 70 47
2.262328e+00 1.487137e+00 3.061612e+00 71 60 42
2.766563e+00 1.509608e+00 3.035854e+00 76 65 45
2.189308e+00 1.510590e+00 3.066105e+00 80 69 51
-3.394457e+00 1.589077e+00 3.059282e+00 91 92 74
3.299872e-01 2.072385e+00 1.636702e+00 26 27 23
2.706646e+00 1.577857e+00 3.152442e+00 186 181 172
2.754866e+00 1.644539e+00 3.022097e+00 186 181 172
3.294907e+00 1.698293e+00 3.066129e+00 177 168 151
-9.993101e-01 1.946313e+00 2.628292e+00 93 90 75
4.020637e+00 1.620613e+00 3.469215e+00 109 114 100
3.248248e+00 1.759879e+00 3.083125e+00 174 168 154
-3.220534e+00 1.922115e+00 3.082241e+00 90 94 73
-2.687390e+00 2.016738e+00 2.865666e+00 112 113 97
2.460551e+00 1.758322e+00 3.328177e+00 173 174 160
-2.194696e+00 2.181550e+00 2.630743e+00 90 84 67
-1.677116e-01 2.466641e+00 1.918508e+00 23 20 10
1.883301e+00 1.819228e+00 3.458798e+00 177 170 151
-2.049962e+00 2.157967e+00 2.817588e+00 184 185 171
-9.467619e-01 2.231956e+00 2.598021e+00 180 173 166
-2.237629e+00 2.260749e+00 2.639547e+00 168 162 146
-3.050659e+00 2.153258e+00 2.941902e+00 91 94 78
1.913827e+00 1.841336e+00 3.494710e+00 181 174 156
2.285086e+00 2.071781e+00 3.051025e+00 88 79 64
1.967951e+00 1.887294e+00 3.499550e+00 175 167 148
5.986573e-01 2.098160e+00 3.028008e+00 95 82 63
9.611704e-01 2.069376e+00 3.069629e+00 169 165 156
-2.796283e+00 2.259612e+00 2.900838e+00 162 155 141
-3.536997e+00 2.251847e+00 3.004291e+00 151 152 147
-2.713427e+00 2.207770e+00 3.102089e+00 94 93 70
-2.638675e+00 2.322719e+00 2.872941e+00 165 160 143
6.671862e-01 2.218055e+00 3.019899e+00 86 78 67
-2.466844e+00 2.363563e+00 2.872144e+00 192 193 177
-3.291489e+00 2.298654e+00 3.132815e+00 87 87 76
-8.299662e-01 2.515554e+00 2.584743e+00 135 135 128
8.032193e-01 2.270411e+00 3.021657e+00 81 82 69
9.149554e-01 2.461930e+00 3.018065e+00 177 174 159
-1.625451e+00 2.782760e+00 2.673025e+00 181 179 174
-9.560201e-02 2.922837e+00 2.371525e+00 53 50 35
5.100852e-01 3.128366e+00 1.979540e+00 66 66 50
4.248202e+00 2.695855e+00 3.017840e+00 52 75 53
3.911129e+00 2.679464e+00 3.088543e+00 59 68 43
2.653789e+00 3.178190e+00 3.159371e+00 22 26 27
-3.446765e+00 3.881817e+00 2.558612e+00 176 178 166
-2.982730e+00 3.856098e+00 2.590139e+00 99 96 104
2.654305e+00 3.251843e+00 3.155277e+00 19 27 16
-3.184924e+00 3.558137e+00 3.001364e+00 76 76 61
-2.310408e+00 3.620744e+00 2.859893e+00 86 86 83
2.635016e+00 3.390995e+00 3.137350e+00 16 19 14
4.717800e-01 3.646797e+00 3.052854e+00 246 252 255
-2.108330e+00 3.928233e+00 2.835599e+00 173 172 155
-3.152667e+00 4.048161e+00 2.830265e+00 151 149 137
-2.008800e+00 3.909075e+00 2.956796e+00 95 96 85
-3.595685e+00 4.324391e+00 2.528698e+00 71 75 60
2.470325e+00 3.621209e+00 3.135880e+00 177 178 165
-3.165298e+00 4.114773e+00 2.803482e+00 95 97 84
-3.495079e+00 4.177955e+00 2.762608e+00 142 144 130
-3.374893e+00 4.183471e+00 2.815546e+00 146 148 134
2.896262e+00 3.751376e+00 3.064366e+00 62 64 52
2.053977e+00 3.699802e+00 3.151356e+00 166 168 160
1.189824e-01 4.210759e+00 2.539131e+00 82 83 68
-4.108248e-01 3.872631e+00 3.051271e+00 168 164 160
-3.864334e+00 3.996528e+00 3.204987e+00 167 167 167
2.159516e+00 3.755052e+00 3.132456e+00 157 154 151
2.650140e+00 3.893538e+00 2.966698e+00 150 146 148
-5.615098e-01 3.932091e+00 3.055271e+00 59 61 50
-3.561106e+00 4.555120e+00 2.516531e+00 70 70 60
-2.591400e+00 4.453142e+00 2.602018e+00 97 93 85
-2.555646e+00 4.239337e+00 2.872202e+00 73 75 52
3.185303e-01 3.976464e+00 3.117492e+00 66 70 49
2.895264e+00 4.023681e+00 3.002047e+00 141 137 125
3.113153e+00 4.179283e+00 2.936314e+00 73 73 64
3.655445e+00 4.312116e+00 2.853960e+00 175 177 175
2.065415e+00 4.407410e+00 2.918185e+00 157 154 147
2.065415e+00 4.407410e+00 2.918185e+00 157 154 147
2.755126e+00 4.452709e+00 2.907988e+00 137 132 128
2.763887e+00 4.447518e+00 2.907971e+00 137 132 128
-1.234719e+00 5.063204e+00 2.862994e+00 179 182 175
3.696237e+00 -3.846287e+00 2.874590e+00 135 122 109
2.259163e+00 -3.315346e+00 3.038990e+00 106 97 80
3.709199e+00 -2.952539e+00 3.043365e+00 159 149 138
-2.890814e+00 -3.090168e+00 3.029585e+00 167 154 129
-2.992133e+00 -3.020517e+00 3.079172e+00 61 51 41
-3.472321e+00 -2.909632e+00 3.211360e+00 92 77 57
-1.597957e+00 -3.052070e+00 2.485166e+00 178 171 152
-2.668479e+00 -2.843843e+00 2.988093e+00 152 140 118
-5.392941e-01 -2.941761e+00 2.393986e+00 146 134 118
2.295263e+00 -2.610114e+00 3.007871e+00 161 153 136
-3.847605e-01 -2.850838e+00 2.388167e+00 156 144 125
-2.223562e+00 -2.546016e+00 2.572611e+00 85 70 64
-2.384149e+00 -2.212061e+00 3.013485e+00 49 40 24
-3.216190e-01 -2.292821e+00 1.952032e+00 131 115 89
-5.416635e-01 -1.979730e+00 2.886607e+00 64 52 33
-2.650679e+00 -1.839101e+00 3.348294e+00 126 115 90
-5.538979e-01 -1.808667e+00 2.896956e+00 46 37 21
-2.564676e+00 -1.806773e+00 3.068228e+00 138 126 110
3.036964e-01 -1.692374e+00 2.948685e+00 148 131 111
1.220094e+00 -1.655048e+00 2.918897e+00 203 196 186
-2.613434e+00 -1.615807e+00 3.131403e+00 52 41 34
-2.908317e+00 -1.558257e+00 3.151504e+00 140 130 112
-2.661805e+00 -1.478952e+00 3.382043e+00 57 46 38
6.391918e-01 -1.441439e+00 2.929057e+00 162 151 133
2.390972e+00 -1.394294e+00 3.014639e+00 74 62 41
-6.448333e-01 -1.435791e+00 3.039996e+00 178 174 150
2.631166e+00 -1.160108e+00 2.842885e+00 100 87 79
2.677083e+00 -1.105260e+00 2.832504e+00 208 198 189
-4.758831e-01 -1.033831e+00 2.967794e+00 162 155 137
-9.745042e-01 -9.122610e-01 2.955255e+00 193 186 176
3.381658e-01 -6.997306e-01 2.941962e+00 19 21 11
-1.969730e+00 -6.469520e-01 3.042432e+00 192 186 170
-9.240122e-01 -6.277301e-01 3.018788e+00 78 69 54
-1.432045e+00 -6.674109e-01 2.909873e+00 204 202 196
7.948417e-01 -6.235887e-01 3.253885e+00 16 13 8
7.948417e-01 -6.235887e-01 3.253885e+00 16 13 8
-1.032685e+00 -6.146551e-01 3.004937e+00 190 189 170
-9.992921e-01 -6.013154e-01 3.020317e+00 51 45 31
6.307983e-01 -5.721781e-01 3.012408e+00 176 165 147
-1.581885e+00 -5.888670e-01 3.082492e+00 167 161 143
3.670513e+00 -5.232837e-01 3.031447e+00 38 28 28
2.279690e-01 -3.320928e-01 3.038850e+00 206 200 186
-2.204745e+00 -3.228406e-01 3.038381e+00 62 58 52
-3.507467e+00 -3.315905e-01 3.131435e+00 181 176 152
-3.035767e+00 -3.078027e-01 3.091483e+00 104 101 86
-6.241614e-01 -1.459103e-01 3.049827e+00 157 154 140
1.655424e-01 -1.174092e-01 3.056576e+00 76 66 47
-1.458688e+00 -9.801787e-02 2.864534e+00 62 52 48
-2.155905e+00 -6.195565e-02 3.049087e+00 34 27 34
-1.115298e+00 -4.350987e-02 2.886932e+00 40 37 32
-2.652013e+00 2.023667e-02 3.076830e+00 148 139 122
-2.710113e+00 2.287614e-02 3.073958e+00 143 136 115
-1.547819e+00 5.727573e-02 3.067101e+00 146 135 116
-8.542175e-01 8.340991e-02 3.093938e+00 85 74 56
1.495825e+00 1.087631e-01 2.915925e+00 141 124 104
1.572768e+00 1.283517e-01 2.909477e+00 99 87 65
-3.016655e+00 2.999565e-01 3.060059e+00 140 126 121
3.202838e+00 3.472323e-01 2.928817e+00 80 82 86
-3.209339e+00 4.009357e-01 3.063429e+00 124 117 98
-1.271391e+00 4.049254e-01 3.029726e+00 171 168 153
1.419230e+00 5.668312e-01 2.916422e+00 175 169 147
1.881194e+00 6.752278e-01 3.043336e+00 130 121 104
1.881194e+00 6.752278e-01 3.043336e+00 130 121 104
-2.541592e+00 7.140592e-01 2.845016e+00 195 193 181
1.817860e+00 7.382163e-01 3.043874e+00 133 121 109
1.872128e+00 7.732016e-01 3.055599e+00 116 109 92
1.832241e+00 8.712126e-01 3.060043e+00 180 173 157
1.832241e+00 8.712126e-01 3.060043e+00 180 173 157
-2.529277e+00 9.424430e-01 2.843013e+00 191 188 172
1.804326e+00 8.941402e-01 3.063440e+00 127 118 100
-2.592067e+00 1.020561e+00 2.864957e+00 187 184 169
1.852167e+00 9.988947e-01 3.077460e+00 120 115 96
-4.931937e-01 1.373462e+00 2.349203e+00 206 201 198
-1.148796e+00 1.384593e+00 2.623914e+00 102 94 81
-3.007247e+00 1.358453e+00 2.904180e+00 27 27 17
1.225735e+00 1.526526e+00 2.252948e+00 154 142 126
-2.175535e+00 1.421307e+00 2.729183e+00 35 32 24
1.278912e+00 1.499870e+00 2.420243e+00 156 149 130
2.036760e+00 1.400471e+00 2.803889e+00 144 138 122
2.494300e-01 1.836094e+00 1.778126e+00 26 29 13
-2.122548e+00 1.586321e+00 2.766809e+00 94 88 66
1.014086e+00 2.195275e+00 1.249869e+00 155 146 128
2.716995e+00 1.677376e+00 3.030993e+00 190 190 179
-1.936790e+00 1.896816e+00 2.627366e+00 94 93 81
-1.871274e+00 1.938944e+00 2.797848e+00 85 82 68
-1.871274e+00 1.938944e+00 2.797848e+00 85 82 68
-1.907686e+00 1.986776e+00 2.802921e+00 91 89 77
-9.881376e-01 2.167416e+00 2.614308e+00 176 172 161
-3.649789e+00 2.201049e+00 3.036205e+00 127 131 119
2.015830e+00 1.881043e+00 3.507453e+00 99 94 65
2.397811e+00 2.082872e+00 3.077870e+00 134 128 110
-1.810956e+00 2.372813e+00 2.642500e+00 82 80 65
2.188167e+00 1.992924e+00 3.465417e+00 94 87 53
2.595022e+00 2.231496e+00 3.040830e+00 115 108 89
1.122339e+00 2.224033e+00 3.068555e+00 91 89 74
2.809580e-01 2.369584e+00 2.920320e+00 131 125 112
-2.572219e-01 2.535198e+00 2.797722e+00 162 159 153
1.930316e+00 2.377518e+00 3.047339e+00 84 82 58
-2.859058e+00 2.612812e+00 2.912229e+00 143 141 129
-2.808295e+00 2.619355e+00 2.908926e+00 143 142 130
1.434574e-01 2.960277e+00 2.225641e+00 141 138 132
4.064111e+00 2.516781e+00 3.071571e+00 114 114 105
4.219151e+00 2.663605e+00 3.023953e+00 155 156 148
3.665398e+00 2.894692e+00 2.961057e+00 220 227 209
-1.888314e+00 3.208955e+00 2.749027e+00 163 163 161
2.873564e+00 3.228145e+00 3.138612e+00 9 16 8
3.011376e+00 3.247610e+00 3.120783e+00 157 161 144
-3.457299e-01 3.937591e+00 2.589544e+00 46 67 72
4.179517e+00 3.715157e+00 2.856824e+00 64 62 62
-4.126734e+00 4.140182e+00 2.717332e+00 112 114 96
-1.971076e+00 3.825955e+00 2.970297e+00 89 90 79
-2.279537e+00 3.903527e+00 2.918248e+00 175 176 163
1.960452e+00 3.563116e+00 3.171968e+00 15 17 2
4.305390e+00 3.834361e+00 2.834450e+00 102 125 109
-2.363192e+00 4.237907e+00 2.629271e+00 117 121 97
-3.074107e+00 4.125737e+00 2.845620e+00 43 46 31
-2.793935e+00 4.342146e+00 2.589362e+00 98 101 84
-2.592108e+00 4.344091e+00 2.616433e+00 75 77 55
2.454452e+00 3.864203e+00 2.971547e+00 52 65 41
2.884242e+00 3.827845e+00 3.043273e+00 58 61 42
3.784526e+00 3.972420e+00 2.909346e+00 70 70 67
3.784526e+00 3.972420e+00 2.909346e+00 70 70 67
7.825966e-01 3.869486e+00 3.140584e+00 167 171 165
-3.565870e+00 4.133535e+00 3.140102e+00 147 147 147
-3.653467e+00 4.511162e+00 2.698066e+00 133 138 123
2.303919e+00 4.006331e+00 2.959735e+00 60 62 48
6.126792e-01 3.920112e+00 3.128551e+00 154 154 144
2.964043e+00 3.993379e+00 2.998198e+00 100 99 72
1.339083e+00 3.885027e+00 3.189218e+00 175 176 160
4.856007e-01 3.958387e+00 3.122022e+00 77 76 71
2.652816e+00 4.049192e+00 3.022228e+00 148 149 134
2.612300e+00 4.112058e+00 2.943859e+00 154 149 141
1.369294e+00 3.999388e+00 3.148357e+00 161 161 152
3.648847e+00 4.391450e+00 2.870866e+00 67 62 59
-4.093768e+00 6.033316e+00 2.236929e+00 103 113 101
2.187511e+00 -3.198410e+00 3.025316e+00 74 67 51
-1.396196e+00 -3.177861e+00 2.568291e+00 50 40 39
2.739603e+00 -2.881145e+00 3.046654e+00 145 137 119
-4.644525e-01 -2.991960e+00 2.489309e+00 153 137 119
-4.528696e+00 -2.897103e+00 3.151966e+00 90 83 77
-2.750028e+00 -2.866359e+00 3.031008e+00 149 134 115
-7.990957e-01 -2.941834e+00 2.384907e+00 175 161 134
-1.046105e+00 -2.916580e+00 2.337505e+00 99 81 51
3.824559e+00 -2.558203e+00 3.043939e+00 65 57 38
-3.000871e+00 -2.672745e+00 3.163646e+00 66 56 31
2.758602e+00 -2.410329e+00 3.031541e+00 100 84 61
4.434385e+00 -2.190143e+00 3.115544e+00 146 144 131
-7.601046e-01 -2.614756e+00 1.883612e+00 82 67 47
-3.174458e+00 -2.300692e+00 3.271566e+00 76 64 48
4.296760e+00 -2.182634e+00 3.014213e+00 198 202 182
-3.789026e+00 -2.312995e+00 3.215920e+00 79 66 56
4.202628e+00 -2.170722e+00 3.013794e+00 55 50 46
1.544131e+00 -2.242360e+00 2.947276e+00 196 186 183
-3.586716e+00 -2.239379e+00 3.240306e+00 60 50 26
-1.452546e+00 -2.533043e+00 1.744817e+00 173 162 142
-3.883996e+00 -2.228034e+00 3.248319e+00 118 111 86
2.559660e+00 -2.127736e+00 3.026929e+00 105 90 68
-2.153598e+00 -2.173925e+00 2.985179e+00 68 55 38
-3.796265e+00 -2.149724e+00 3.271844e+00 119 112 87
-1.983934e-01 -2.127419e+00 2.944816e+00 57 45 28
2.433294e+00 -2.052055e+00 3.015823e+00 95 84 64
2.433294e+00 -2.052055e+00 3.015823e+00 95 84 64
2.482581e+00 -2.047736e+00 3.024193e+00 107 92 71
2.482581e+00 -2.047736e+00 3.024193e+00 107 92 71
-8.804201e-01 -2.425349e+00 1.445933e+00 133 119 93
9.532148e-01 -2.038520e+00 2.893684e+00 102 94 81
-1.109168e-01 -2.050670e+00 2.943858e+00 142 128 112
-1.000698e+00 -2.442128e+00 1.275319e+00 161 153 134
-2.365043e+00 -2.087371e+00 3.012306e+00 143 136 117
-7.711969e-01 -2.006272e+00 2.941815e+00 67 51 33
2.393252e+00 -1.929926e+00 3.026932e+00 136 127 110
-6.804510e-01 -1.990230e+00 2.918955e+00 50 38 22
-7.127491e-01 -2.304706e+00 1.536133e+00 139 126 110
-6.791934e-01 -2.283786e+00 1.557518e+00 93 80 61
-2.493415e+00 -1.969141e+00 3.186364e+00 82 70 56
-2.831613e+00 -1.808515e+00 3.390355e+00 70 58 41
-2.585324e-01 -1.944920e+00 2.106449e+00 110 95 76
-2.753003e-01 -1.916728e+00 2.099674e+00 55 40 17
-5.568039e-01 -1.699398e+00 2.910332e+00 71 56 38
-4.370717e-01 -1.702148e+00 2.878222e+00 155 144 128
-7.012603e-01 -1.690811e+00 2.952588e+00 84 71 54
6.898586e-01 -1.644937e+00 2.889979e+00 162 151 133
2.134986e-01 -1.638249e+00 2.817730e+00 138 127 109
9.930181e-01 -1.587762e+00 2.941371e+00 201 195 181
-2.846150e-01 -1.547444e+00 2.859766e+00 145 133 117
-2.331843e-01 -1.558645e+00 2.916295e+00 144 134 124
-2.688677e+00 -1.487744e+00 3.385589e+00 143 132 110
-2.924182e+00 -1.489917e+00 3.104652e+00 65 57 44
2.744898e-03 -1.430717e+00 2.835635e+00 57 42 22
-2.274129e-01 -1.389069e+00 2.893848e+00 144 132 117
-3.016931e+00 -1.392990e+00 2.948967e+00 62 50 28
-1.326162e-01 -1.327739e+00 2.966711e+00 140 133 116
-1.326162e-01 -1.327739e+00 2.966711e+00 140 133 116
2.439286e+00 -1.265009e+00 2.854564e+00 198 190 182
-2.705962e-01 -1.254467e+00 2.926926e+00 142 130 115
-2.116389e-01 -1.231190e+00 2.925628e+00 141 128 112
2.574254e+00 -1.195623e+00 2.840990e+00 103 90 81
1.942762e-01 -1.210407e+00 2.975321e+00 44 32 18
2.422622e-01 -1.103775e+00 2.945032e+00 103 94 77
4.535370e-01 -1.084671e+00 2.989804e+00 200 191 171
-2.885360e-01 -1.019333e+00 3.875940e+00 81 64 44
-3.797747e-01 -9.934243e-01 3.042078e+00 200 189 171
-8.110011e-02 -8.626232e-01 3.015869e+00 88 79 64
3.014240e+00 -8.074865e-01 2.817904e+00 192 181 166
8.565092e-01 -7.960308e-01 2.931220e+00 155 147 136
2.432567e+00 -6.895108e-01 2.871179e+00 80 73 62
1.849646e+00 -7.054967e-01 3.079369e+00 194 192 189
-1.962167e+00 -6.911875e-01 3.058970e+00 199 194 174
4.752783e-01 -6.433120e-01 2.827428e+00 215 212 197
1.104867e+00 -6.359771e-01 2.967031e+00 29 26 22
-1.176611e+00 -6.937076e-01 2.892907e+00 209 207 191
1.885659e+00 -6.359581e-01 2.932083e+00 229 229 219
2.512882e+00 -6.289056e-01 2.920633e+00 212 215 198
-2.651386e-01 -6.093127e-01 3.003139e+00 187 182 170
6.641239e-01 -5.879782e-01 3.000341e+00 196 193 187
1.404701e+00 -5.892157e-01 2.950473e+00 81 74 63
2.108398e+00 -5.236314e-01 2.910418e+00 168 162 143
-3.200174e+00 -3.829584e-01 3.104400e+00 145 138 112
-2.412349e+00 -3.595732e-01 3.082264e+00 171 164 144
-2.412349e+00 -3.595732e-01 3.082264e+00 171 164 144
-2.884771e+00 -3.490611e-01 3.085470e+00 45 38 45
-2.344096e-01 -1.359291e-01 3.002454e+00 87 80 68
-9.357945e-01 -1.196335e-01 3.041552e+00 90 81 72
-1.638119e+00 -8.213420e-02 3.097553e+00 152 139 120
-1.680921e+00 -8.062427e-02 3.095498e+00 159 152 133
5.836725e-01 -6.653454e-02 3.061692e+00 185 172 155
-2.135917e+00 -4.113129e-02 3.049628e+00 165 160 156
-2.139707e+00 -3.956603e-02 3.040644e+00 165 160 156
-9.188406e-01 1.110595e-01 3.100693e+00 140 129 111
-1.631335e+00 1.110136e-01 3.114344e+00 141 135 123
-4.145449e-02 1.185481e-01 3.134751e+00 138 126 109
3.400427e+00 1.357736e-01 2.914263e+00 88 75 60
3.316690e+00 1.379360e-01 2.911933e+00 132 121 101
2.045045e+00 1.282991e-01 2.904957e+00 94 82 68
2.555762e+00 1.960622e-01 2.906563e+00 142 139 124
1.379477e+00 4.751625e-01 3.173561e+00 91 80 62
1.398570e+00 4.881295e-01 3.188061e+00 161 149 135
-2.543248e+00 7.572127e-01 2.836064e+00 176 171 153
1.875159e+00 7.339896e-01 3.052267e+00 126 119 100
-1.824137e+00 8.696017e-01 2.746105e+00 126 118 100
-1.844392e+00 8.977209e-01 2.751956e+00 175 167 146
-1.844392e+00 8.977209e-01 2.751956e+00 175 167 146
-1.872417e+00 9.162046e-01 2.738072e+00 129 123 109
-2.414942e+00 1.118227e+00 2.991135e+00 85 79 63
-8.524647e-01 1.289609e+00 2.493808e+00 188 186 186
2.465889e+00 1.146111e+00 2.943068e+00 74 67 51
2.507276e+00 1.302360e+00 3.030041e+00 207 201 185
-2.856394e+00 1.518713e+00 2.633169e+00 151 151 143
3.019005e+00 1.429403e+00 3.038524e+00 131 124 99
-2.116305e+00 1.641489e+00 2.623398e+00 141 136 113
-2.272758e+00 1.652730e+00 2.618401e+00 81 73 55
-2.151762e+00 1.661517e+00 2.627977e+00 83 76 57
1.444845e+00 1.567806e+00 2.978485e+00 196 192 180
-1.305143e-01 1.828482e+00 2.633035e+00 15 16 6
2.954912e+00 1.673196e+00 3.026276e+00 133 130 114
8.578808e-01 2.420004e+00 1.047666e+00 35 35 27
2.454059e+00 1.858114e+00 3.050993e+00 178 178 165
2.454059e+00 1.858114e+00 3.050993e+00 178 178 165
2.291497e+00 1.952933e+00 3.059681e+00 174 171 154
-2.296284e+00 2.222055e+00 2.628671e+00 100 95 73
8.949507e-01 1.999462e+00 3.075673e+00 156 150 135
8.949507e-01 1.999462e+00 3.075673e+00 156 150 135
9.924178e-01 2.035683e+00 3.068430e+00 171 166 160
-2.687803e+00 2.237234e+00 2.895282e+00 134 130 111
6.327967e-01 2.101048e+00 3.034273e+00 140 133 115
-2.510858e+00 2.256549e+00 2.860106e+00 135 132 117
-1.952275e+00 2.378948e+00 2.642205e+00 83 78 55
7.960014e-01 2.125581e+00 3.047580e+00 87 81 66
2.393230e+00 2.133571e+00 3.047459e+00 138 134 114
1.755670e+00 2.186271e+00 3.059291e+00 125 125 115
-1.864896e+00 2.497906e+00 2.641191e+00 144 144 130
-1.537102e-01 2.419415e+00 2.805036e+00 134 121 113
9.845250e-01 2.254769e+00 3.039573e+00 156 153 137
9.504364e-01 2.255627e+00 3.042705e+00 123 119 107
2.402812e+00 2.314638e+00 3.037425e+00 200 198 177
2.533666e+00 2.323503e+00 3.029499e+00 104 108 86
8.951092e-01 2.508884e+00 3.015014e+00 167 161 149
9.110244e-01 2.534641e+00 3.010695e+00 101 94 84
1.212936e+00 2.610039e+00 3.019346e+00 159 157 146
-3.910148e+00 3.522636e+00 2.866077e+00 112 114 109
2.597288e+00 3.186420e+00 3.162933e+00 111 110 106
2.718427e+00 3.312131e+00 3.139940e+00 46 48 42
2.667452e+00 3.311969e+00 3.145310e+00 59 65 47
-3.940645e+00 3.829180e+00 2.802402e+00 108 109 103
-4.073836e+00 3.890452e+00 2.779916e+00 114 115 109
-3.005222e+00 3.782681e+00 2.889392e+00 162 164 153
-2.154536e+00 3.755217e+00 2.949454e+00 159 162 144
-3.862125e+00 3.995246e+00 2.781363e+00 92 94 82
-3.713953e+00 3.960083e+00 2.829679e+00 190 192 184
-4.119839e+00 4.051479e+00 2.747455e+00 108 112 98
-4.106609e+00 4.086294e+00 2.728691e+00 164 166 153
-1.925498e+00 3.782793e+00 2.974419e+00 172 170 157
-2.861224e+00 3.909231e+00 2.873407e+00 123 125 97
4.230880e+00 3.733855e+00 2.853514e+00 58 64 57
-3.934973e+00 4.085595e+00 2.763498e+00 169 171 158
-2.727230e+00 4.140169e+00 2.604576e+00 92 94 73
3.964163e+00 3.710252e+00 2.897793e+00 90 92 81
-2.831991e+00 3.946384e+00 2.878015e+00 179 180 164
2.743944e+00 3.682514e+00 2.983369e+00 164 164 151
2.994582e+00 3.699801e+00 2.972567e+00 144 144 138
2.022142e+00 3.551233e+00 3.184057e+00 115 116 100
-3.101492e+00 4.045112e+00 2.835896e+00 101 104 97
-2.850483e+00 4.276908e+00 2.590454e+00 127 129 105
-3.563304e+00 4.358037e+00 2.530990e+00 150 154 131
2.780959e+00 3.828236e+00 2.939305e+00 83 85 74
-2.177213e+00 3.994781e+00 2.931089e+00 125 127 101
-3.276513e+00 4.183958e+00 2.788374e+00 128 132 115
-3.249642e+00 4.189787e+00 2.791211e+00 68 72 55
-2.862011e+00 4.129362e+00 2.848182e+00 168 169 160
3.539105e+00 3.814226e+00 2.978828e+00 72 74 63
-1.757696e+00 3.969304e+00 2.977777e+00 129 132 110
-8.447429e-01 3.899631e+00 3.048782e+00 170 170 157
-3.871450e+00 4.346548e+00 2.721993e+00 177 180 169
3.490140e+00 3.868948e+00 2.978360e+00 114 116 106
-2.898415e+00 4.412829e+00 2.581600e+00 108 112 92
-2.674085e+00 4.396818e+00 2.599064e+00 107 108 93
-2.674085e+00 4.396818e+00 2.599064e+00 107 108 93
-2.968808e+00 4.245466e+00 2.815032e+00 147 144 137
-5.314413e-01 3.916677e+00 3.052734e+00 142 143 126
-3.502003e+00 3.866067e+00 3.390583e+00 167 170 163
1.056733e+00 3.792347e+00 3.149923e+00 156 154 142
-2.400951e+00 4.168595e+00 2.896773e+00 160 160 150
-3.918145e-01 3.930954e+00 3.066075e+00 78 76 58
1.906989e+00 3.801992e+00 3.144505e+00 152 151 132
7.311565e-01 3.877541e+00 3.132404e+00 166 167 157
-4.623279e-01 3.988294e+00 3.064493e+00 155 156 142
3.475584e+00 4.028629e+00 2.951804e+00 102 115 97
2.051017e+00 3.903398e+00 3.110176e+00 63 63 46
1.094923e+00 3.897922e+00 3.148975e+00 130 130 119
2.614521e+00 4.096870e+00 2.927986e+00 148 148 130
2.522496e+00 4.057407e+00 2.953792e+00 152 151 135
2.288392e+00 3.982408e+00 3.085092e+00 152 145 136
-3.065834e+00 4.562153e+00 2.756990e+00 90 96 86
2.235792e+00 4.051204e+00 3.073337e+00 130 132 117
1.587831e+00 4.025416e+00 3.143894e+00 101 100 95
3.637146e+00 4.243830e+00 2.881077e+00 127 129 124
5.046913e-01 4.217109e+00 3.087183e+00 246 252 254
5.046913e-01 4.217109e+00 3.087183e+00 246 252 254
3.546187e+00 4.424142e+00 2.861703e+00 138 140 129
2.038435e+00 4.365693e+00 2.920060e+00 168 167 161
1.909364e+00 4.308212e+00 3.033097e+00 56 57 61
2.157345e+00 4.359649e+00 3.006144e+00 120 117 101
2.220391e+00 4.478349e+00 2.909123e+00 143 141 132
2.239756e+00 4.421611e+00 2.980475e+00 146 147 133
2.239756e+00 4.421611e+00 2.980475e+00 146 147 133
-4.013199e+00 5.630462e+00 2.355777e+00 90 97 87
3.927721e+00 -3.582342e+00 3.069464e+00 90 79 59
-3.460273e+00 -3.617971e+00 3.175400e+00 141 130 117
2.171218e+00 -3.359666e+00 3.041885e+00 85 78 60
-1.031661e+00 -3.419511e+00 2.660141e+00 109 100 83
2.135463e+00 -3.092353e+00 3.024764e+00 94 88 63
-8.542236e-01 -3.269846e+00 2.605577e+00 142 132 122
3.584796e+00 -2.968071e+00 3.066660e+00 127 112 93
2.083651e+00 -3.014081e+00 3.020672e+00 149 135 126
3.781517e+00 -2.955230e+00 3.053938e+00 157 143 139
-2.461761e+00 -3.177360e+00 2.907550e+00 66 58 39
3.305404e+00 -2.916147e+00 3.068606e+00 121 114 96
-2.864056e+00 -3.070250e+00 3.029520e+00 82 71 53
2.885674e+00 -2.873044e+00 3.051347e+00 163 150 128
2.251498e+00 -2.846006e+00 3.018541e+00 84 69 45
1.919722e+00 -2.842147e+00 3.000349e+00 174 160 136
-1.560717e-01 -2.994175e+00 2.612941e+00 97 89 66
2.039952e+00 -2.762083e+00 3.001467e+00 159 144 123
-2.849607e-01 -2.990504e+00 2.485900e+00 148 135 116
-5.116887e-01 -2.983274e+00 2.423843e+00 103 89 76
-2.682198e+00 -2.852330e+00 3.011781e+00 72 64 43
-8.274019e-01 -2.977994e+00 2.385496e+00 101 86 63
-1.013207e+00 -2.968734e+00 2.393202e+00 93 76 51
3.259063e+00 -2.636262e+00 3.066816e+00 138 125 109
-1.385526e+00 -2.954024e+00 2.413485e+00 186 178 159
-3.062736e+00 -2.771933e+00 3.158621e+00 93 80 63
3.087321e+00 -2.638442e+00 3.059093e+00 145 133 117
-1.705896e+00 -2.909560e+00 2.490829e+00 96 87 69
-1.744704e+00 -2.917413e+00 2.406657e+00 167 156 137
-1.744704e+00 -2.917413e+00 2.406657e+00 167 156 137
-1.385419e+00 -2.691083e+00 3.019064e+00 117 108 87
-1.401954e+00 -2.899646e+00 2.363839e+00 115 102 70
-4.601104e-01 -2.866276e+00 2.351418e+00 158 147 129
1.911378e+00 -2.569420e+00 3.006790e+00 166 153 135
-3.822143e+00 -2.665658e+00 3.183578e+00 80 67 49
-1.129217e+00 -2.843280e+00 2.274593e+00 52 39 20
-4.102225e+00 -2.705049e+00 2.962744e+00 150 142 124
7.716099e-02 -2.646075e+00 2.672262e+00 64 53 33
-1.360242e+00 -2.542125e+00 3.033638e+00 102 86 67
-3.090866e+00 -2.550663e+00 3.202540e+00 99 86 63
-3.057674e+00 -2.512635e+00 3.215753e+00 97 88 77
1.884502e+00 -2.438943e+00 3.002077e+00 85 72 50
-1.277587e+00 -2.743299e+00 2.184374e+00 97 82 61
-1.735824e+00 -2.663528e+00 2.248528e+00 113 109 97
-3.340785e-01 -2.618445e+00 2.256770e+00 107 91 71
-2.185106e+00 -2.549585e+00 2.602593e+00 175 163 138
1.969980e+00 -2.310729e+00 2.999284e+00 120 106 85
-3.359135e+00 -2.355728e+00 3.276052e+00 43 32 15
-2.876794e-01 -2.541038e+00 2.252919e+00 103 96 81
-5.350141e-01 -2.602336e+00 2.036398e+00 106 92 66
-7.495632e-01 -2.628709e+00 1.945350e+00 149 138 116
1.973582e+00 -2.276240e+00 2.998463e+00 175 160 139
1.938688e+00 -2.273437e+00 3.003471e+00 157 141 125
-1.134884e+00 -2.606697e+00 1.825402e+00 91 79 55
-3.147999e+00 -2.279098e+00 3.277492e+00 79 67 51
2.524090e+00 -2.210928e+00 3.021471e+00 166 151 132
-3.974763e+00 -2.341891e+00 2.962090e+00 152 140 124
-3.119123e+00 -2.202839e+00 3.317325e+00 139 129 117
-3.555418e+00 -2.206064e+00 3.258678e+00 140 130 103
-1.354583e+00 -2.509951e+00 1.719218e+00 150 140 113
-3.722994e+00 -2.204395e+00 3.244222e+00 133 122 103
-3.649899e+00 -2.144988e+00 3.261092e+00 81 72 61
-3.309687e+00 -2.113873e+00 3.302026e+00 120 111 96
1.544198e-01 -2.158587e+00 2.520201e+00 150 135 114
-5.428808e-01 -2.059227e+00 2.941696e+00 154 141 127
-1.848596e-01 -2.229643e+00 2.194632e+00 76 62 45
-1.848596e-01 -2.229643e+00 2.194632e+00 76 62 45
1.025851e-01 -2.165125e+00 2.439689e+00 72 62 37
-1.465361e+00 -2.423005e+00 1.339440e+00 171 159 135
-2.940518e+00 -2.006240e+00 3.341664e+00 126 117 100
-5.671837e-01 -2.266833e+00 1.669864e+00 146 130 107
-6.849557e-02 -2.124957e+00 2.250052e+00 83 70 54
-3.537903e+00 -1.971234e+00 3.269430e+00 63 55 36
-7.582113e-01 -2.296569e+00 1.422486e+00 151 140 122
-2.588387e+00 -1.911845e+00 3.313527e+00 66 54 42
-2.505166e+00 -1.917216e+00 3.237041e+00 135 122 113
-3.251470e-01 -1.911995e+00 2.944262e+00 63 47 23
-2.815156e+00 -1.891788e+00 3.333631e+00 127 116 99
-5.646141e-01 -1.882649e+00 2.947105e+00 162 153 136
6.684618e-01 -1.836807e+00 2.858376e+00 82 69 46
2.480011e+00 -1.763350e+00 3.024710e+00 66 53 36
2.518780e+00 -1.741552e+00 3.040298e+00 80 67 50
7.688016e-01 -1.758788e+00 2.895549e+00 170 157 140
2.393008e+00 -1.724940e+00 3.024480e+00 130 118 92
-3.107395e+00 -1.741286e+00 3.328145e+00 62 50 25
-1.160924e+00 -1.790671e+00 2.714763e+00 121 113 90
-3.097716e+00 -1.696623e+00 3.342304e+00 72 59 47
-2.197558e-01 -1.658670e+00 2.952394e+00 149 138 114
