ply
format ascii 1.0
element face 0
property list uchar int vertex_indices
element vertex 929
property float x
property float y
property float z
property uchar diffuse_red
property uchar diffuse_green
property uchar diffuse_blue
end_header
-5.012769e-01 -4.292194e+00 2.609255e-01 172 161 139
-7.272540e-01 -4.410131e+00 1.044540e+00 62 55 36
1.149285e-01 -4.162688e+00 2.565527e-01 184 173 151
1.249184e-01 -4.073118e+00 8.169019e-02 133 123 98
3.161749e-01 -3.989240e+00 -1.958977e-02 125 113 87
2.503305e-01 -3.986691e+00 -1.104692e-01 125 113 87
1.537590e-01 -3.957604e+00 9.535155e-02 96 84 59
-8.944968e-01 -4.249003e+00 1.182433e+00 207 192 160
9.763371e-01 -3.825704e+00 1.777552e-01 191 174 146
1.588670e-01 -3.890539e+00 4.630083e-02 132 120 89
-5.490011e-01 -3.973852e+00 2.634085e-01 101 89 65
2.982184e-01 -3.829020e+00 -1.660676e-03 194 181 155
2.979249e-01 -3.744683e+00 -3.033600e-02 198 187 165
-9.700995e-01 -4.078427e+00 1.323993e+00 83 67 44
-9.452740e-01 -4.079413e+00 1.343582e+00 83 67 44
1.161392e+00 -3.659355e+00 2.393128e-01 81 67 40
-2.044840e-01 -3.677217e+00 3.471903e-02 73 59 30
4.483920e-01 -3.572706e+00 -9.512118e-02 67 53 18
4.483920e-01 -3.572706e+00 -9.512118e-02 67 53 18
4.224755e-01 -3.578993e+00 -8.140229e-02 189 172 138
-4.112741e-01 -3.695104e+00 1.995405e-01 148 134 105
7.889288e-01 -3.547361e+00 1.029724e-01 179 163 138
-8.078891e-01 -3.717468e+00 4.926752e-01 92 74 43
-4.704395e-01 -3.568489e+00 2.218688e-01 189 178 157
-4.704395e-01 -3.568489e+00 2.218688e-01 189 178 157
-4.704395e-01 -3.568489e+00 2.218688e-01 189 178 157
7.394169e-01 -3.442503e+00 1.139411e-01 179 165 139
-4.025763e-01 -3.527469e+00 1.715105e-01 171 159 134
8.786143e-01 -3.415294e+00 1.519218e-01 177 170 150
5.129446e-01 -3.384285e+00 -1.202573e-02 59 44 18
1.217001e+00 -3.349031e+00 3.399414e-01 123 112 89
1.501582e+00 -3.315155e+00 4.461227e-01 104 85 58
-8.835181e-01 -3.493315e+00 7.907581e-01 66 50 23
-8.835181e-01 -3.493315e+00 7.907581e-01 66 50 23
-7.998580e-01 -3.417135e+00 5.863211e-01 166 153 127
-7.927199e-01 -3.416363e+00 5.927714e-01 166 153 127
-7.998580e-01 -3.417135e+00 5.863211e-01 166 153 127
-5.616358e-01 -3.309087e+00 2.561948e-01 171 156 122
-5.491596e-01 -3.229283e+00 2.184512e-01 165 151 119
-7.473634e-01 -3.274738e+00 3.777394e-01 138 120 87
-1.078092e+00 -3.519294e+00 1.429354e+00 179 166 134
4.724546e-02 -3.063775e+00 -6.937864e-02 106 99 73
1.102243e+00 -3.140564e+00 3.785992e-01 192 181 168
-9.220184e-01 -3.388584e+00 1.119199e+00 189 178 156
-6.733892e-01 -3.181796e+00 4.194525e-01 164 149 117
-8.754985e-01 -3.303035e+00 9.267962e-01 62 47 18
-8.754985e-01 -3.303035e+00 9.267962e-01 62 47 18
6.526323e-01 -3.072260e+00 2.384392e-01 70 58 24
-8.980944e-01 -3.291837e+00 9.373786e-01 78 68 39
-8.875202e-01 -3.293361e+00 9.484269e-01 78 68 39
-5.113323e-01 -3.060360e+00 1.623461e-01 157 140 110
-8.888751e-01 -3.224900e+00 9.188275e-01 121 107 82
1.186716e+00 -3.041587e+00 4.756511e-01 71 55 34
-6.246404e-01 -3.053349e+00 3.770155e-01 158 143 115
-1.020047e+00 -3.289166e+00 1.249390e+00 79 65 36
1.166506e+00 -3.013977e+00 4.975647e-01 109 96 67
-5.507444e-01 -2.937065e+00 2.760027e-01 84 68 35
-5.507444e-01 -2.937065e+00 2.760027e-01 84 68 35
3.508430e-01 -2.908146e+00 2.242957e-01 164 150 124
3.508430e-01 -2.908146e+00 2.242957e-01 164 150 124
-5.588177e-01 -2.961110e+00 3.666400e-01 154 140 109
-5.588177e-01 -2.961110e+00 3.666400e-01 154 140 109
1.178119e+00 -2.959945e+00 4.780802e-01 144 129 98
-8.889818e-01 -3.107087e+00 1.053246e+00 59 46 22
-7.661828e-01 -3.038236e+00 8.681277e-01 133 117 87
-6.681404e-01 -2.939561e+00 5.366421e-01 145 133 101
-1.013928e+00 -3.087303e+00 1.349334e+00 169 153 127
1.858974e-01 -2.767457e+00 2.791731e-01 172 160 135
-6.067492e-01 -2.863733e+00 6.624069e-01 166 154 130
1.080359e+00 -2.817100e+00 4.920597e-01 64 57 31
-9.505911e-01 -2.918594e+00 1.376767e+00 121 107 79
-1.003438e+00 -2.908936e+00 1.364224e+00 228 223 193
9.186697e-01 -2.679845e+00 5.812242e-01 200 187 173
4.178119e-01 -2.622874e+00 4.543881e-01 58 47 29
-3.667783e-01 -2.584516e+00 4.060021e-01 84 69 39
1.178073e-01 -2.559842e+00 4.034224e-01 71 59 36
-4.527452e-01 -2.559184e+00 5.720176e-01 92 80 62
-8.860968e-01 -2.768090e+00 1.311835e+00 96 81 53
-3.950949e-01 -2.535009e+00 5.612033e-01 161 149 127
-3.454902e-01 -2.514436e+00 5.677467e-01 149 137 122
-2.057787e-01 -2.458953e+00 4.758567e-01 83 71 55
-4.775112e-01 -2.523365e+00 7.274472e-01 172 159 139
-4.303342e-01 -2.511623e+00 7.152643e-01 162 147 120
-8.951322e-01 -2.687386e+00 1.315238e+00 229 222 195
5.095397e-01 -2.479095e+00 5.614870e-01 113 102 78
-3.494084e-01 -2.470440e+00 6.773232e-01 127 112 81
4.577497e-01 -2.443639e+00 5.636402e-01 71 62 36
6.349931e-01 -2.434126e+00 6.557210e-01 183 174 152
-7.409914e-01 -2.499644e+00 1.257810e+00 106 91 60
-4.344530e-01 -2.378896e+00 9.939563e-01 172 161 139
-4.405368e-01 -2.270953e+00 9.912705e-01 111 97 79
5.973505e-01 -2.241615e+00 7.265341e-01 136 118 94
1.020689e-01 -2.176453e+00 8.270836e-01 168 156 135
-1.375820e+00 -2.123294e+00 1.504952e+00 172 163 151
-5.248364e-01 -4.683045e+00 3.475077e-01 171 155 122
-5.798335e-01 -4.664968e+00 6.218627e-01 67 59 42
-5.659802e-01 -4.654735e+00 6.121722e-01 181 173 151
6.676428e-02 -4.509735e+00 3.094253e-01 145 135 110
9.242385e-02 -4.359707e+00 2.374789e-01 92 85 66
-5.808126e-01 -4.475027e+00 3.354266e-01 160 141 109
-6.696233e-01 -4.497042e+00 7.130017e-01 171 160 137
-6.418410e-01 -4.378494e+00 7.118405e-01 60 44 23
7.905471e-02 -4.204785e+00 2.729237e-01 52 47 27
4.559544e-02 -4.205049e+00 2.311502e-01 52 47 27
-8.169676e-01 -4.437272e+00 1.222918e+00 77 64 50
1.698593e-02 -4.119638e+00 1.071910e-01 212 205 185
-3.608124e-01 -4.184179e+00 2.239058e-01 101 92 63
-3.608124e-01 -4.184179e+00 2.239058e-01 101 92 63
-8.412919e-01 -4.396435e+00 1.367449e+00 134 124 113
-4.143526e-01 -4.158404e+00 2.904907e-01 181 171 141
3.094339e-01 -3.970914e+00 -8.646129e-03 206 200 176
-4.347759e-01 -4.080291e+00 2.935645e-01 116 105 76
2.531202e-01 -3.942728e+00 2.639969e-02 127 117 86
-8.647792e-01 -4.213830e+00 1.156553e+00 71 60 37
-7.160596e-01 -4.081392e+00 4.803810e-01 63 47 21
3.694943e-03 -3.919322e+00 4.529916e-02 103 91 64
-2.368847e-01 -3.964759e+00 2.348469e-01 182 169 139
-2.684386e-01 -3.913366e+00 2.057738e-01 182 175 150
-9.247714e-01 -4.137968e+00 1.158777e+00 186 171 138
8.651754e-01 -3.749533e+00 6.723670e-02 57 47 19
8.651754e-01 -3.749533e+00 6.723670e-02 57 47 19
3.287415e-01 -3.789028e+00 -6.480733e-03 174 164 139
3.590779e-01 -3.762584e+00 -5.622766e-02 106 96 70
3.615160e-02 -3.822696e+00 9.279198e-02 112 103 75
-6.479283e-03 -3.816627e+00 1.202901e-01 190 183 155
-6.479283e-03 -3.816627e+00 1.202901e-01 190 183 155
-7.789953e-01 -3.961843e+00 5.316612e-01 155 135 100
6.716090e-01 -3.685770e+00 -7.270207e-03 76 64 39
1.240169e+00 -3.588935e+00 3.218099e-01 176 162 133
-1.186775e-01 -3.665706e+00 1.445302e-01 185 174 146
-8.172417e-01 -3.823021e+00 6.344286e-01 180 164 129
7.998315e-01 -3.568489e+00 9.021189e-02 68 56 25
1.443637e+00 -3.572593e+00 4.598265e-01 184 170 145
1.479551e-01 -3.587993e+00 2.372868e-03 189 175 146
1.507940e-02 -3.582606e+00 5.682693e-02 123 109 85
4.535230e-01 -3.509839e+00 -1.078373e-01 92 83 55
-7.536348e-01 -3.657066e+00 2.842660e-01 102 87 54
1.082240e+00 -3.499102e+00 2.689628e-01 166 148 112
-7.820798e-01 -3.670433e+00 4.506318e-01 169 154 126
-9.241912e-01 -3.768561e+00 1.008607e+00 78 61 30
-2.566454e-01 -3.520037e+00 1.364069e-01 69 58 30
-1.113873e+00 -3.807644e+00 1.447861e+00 84 69 49
1.018043e+00 -3.361584e+00 2.838773e-01 177 157 124
1.025804e+00 -3.350353e+00 2.518801e-01 102 90 63
-9.545598e-01 -3.653899e+00 1.120078e+00 199 185 151
-9.779444e-01 -3.621072e+00 1.104074e+00 190 174 133
1.030317e+00 -3.306792e+00 2.522256e-01 68 58 28
1.481483e+00 -3.319356e+00 4.373733e-01 176 158 136
-2.329443e-01 -3.351113e+00 1.594571e-01 137 116 73
-8.429032e-01 -3.500613e+00 7.696366e-01 69 53 27
1.536650e+00 -3.284895e+00 4.963042e-01 63 53 28
1.536650e+00 -3.284895e+00 4.963042e-01 63 53 28
4.453716e-01 -3.205590e+00 3.001140e-02 90 77 47
3.317590e-01 -3.099504e+00 4.700514e-02 116 96 63
-8.516821e-01 -3.319522e+00 7.757696e-01 125 110 81
-9.254238e-01 -3.349890e+00 9.371002e-01 134 119 96
3.330247e-01 -3.064444e+00 1.078887e-01 44 35 11
-1.109536e+00 -3.407501e+00 1.377353e+00 116 95 67
-1.682010e-01 -2.975836e+00 -2.388421e-02 157 146 128
-7.493743e-01 -3.176725e+00 7.135242e-01 174 158 132
-7.594285e-01 -3.160457e+00 7.601849e-01 180 170 143
-9.451020e-01 -3.297944e+00 1.271583e+00 57 41 17
-7.590930e-01 -3.130721e+00 7.533039e-01 187 179 153
-9.813565e-02 -2.909967e+00 3.326589e-02 121 104 76
-8.300938e-01 -3.150552e+00 8.709983e-01 155 139 113
7.426624e-01 -2.933723e+00 3.374094e-01 65 49 32
-5.196191e-01 -2.916677e+00 2.741957e-01 67 50 18
-9.381585e-01 -3.167137e+00 1.239535e+00 205 194 160
-8.991203e-01 -3.065577e+00 1.055917e+00 119 107 80
-8.991203e-01 -3.065577e+00 1.055917e+00 119 107 80
-7.343053e-01 -3.010203e+00 8.731772e-01 99 87 59
-9.722058e-01 -3.103064e+00 1.223844e+00 127 112 86
1.091064e+00 -2.886188e+00 4.961344e-01 185 178 152
-7.636391e-01 -2.991564e+00 8.755571e-01 186 176 151
-1.070799e+00 -3.149698e+00 1.409984e+00 222 214 185
-8.192665e-01 -3.025656e+00 1.025659e+00 108 92 70
-8.192665e-01 -3.025656e+00 1.025659e+00 108 92 70
-4.196608e-01 -2.794246e+00 2.810638e-01 122 103 72
-9.243464e-01 -3.053412e+00 1.211900e+00 57 41 24
-5.263600e-01 -2.828733e+00 4.842991e-01 99 83 49
-1.004603e+00 -3.001064e+00 1.308284e+00 96 80 48
-2.467498e-01 -2.685713e+00 2.802975e-01 116 103 87
-4.363716e-01 -2.727600e+00 4.204274e-01 158 143 117
-7.801882e-01 -2.905357e+00 1.008707e+00 57 45 24
-1.058859e-01 -2.655180e+00 3.179390e-01 129 113 90
-5.195134e-01 -2.742452e+00 6.121927e-01 183 167 135
-3.549307e-01 -2.662734e+00 4.128427e-01 151 141 117
2.000053e-01 -2.638839e+00 3.738784e-01 47 35 18
-5.233045e-01 -2.680843e+00 6.040946e-01 166 153 130
-5.656215e-01 -2.678115e+00 6.116309e-01 104 89 67
1.222933e+00 -2.713579e+00 6.049630e-01 90 83 52
9.164916e-01 -2.660701e+00 5.324973e-01 120 105 84
-2.355343e-01 -2.572713e+00 3.830297e-01 58 46 30
-2.919403e-01 -2.546489e+00 3.683296e-01 67 55 32
-3.701703e-01 -2.583369e+00 5.458412e-01 150 133 103
-3.701703e-01 -2.583369e+00 5.458412e-01 150 133 103
6.206300e-01 -2.604147e+00 5.350809e-01 59 44 22
-5.010987e-01 -2.600452e+00 7.476687e-01 111 96 68
5.524459e-01 -2.557829e+00 5.638356e-01 180 173 151
-4.941681e-02 -2.481976e+00 4.542941e-01 83 73 45
-5.991314e-01 -2.635080e+00 9.619486e-01 180 169 149
2.858883e-01 -2.493128e+00 4.893495e-01 96 84 64
-2.293814e-01 -2.455962e+00 5.045031e-01 48 36 16
-5.857818e-01 -2.572471e+00 9.004235e-01 177 166 140
7.874959e-01 -2.511556e+00 5.965063e-01 121 106 86
2.926453e-02 -2.434542e+00 5.679652e-01 154 142 116
-8.422087e-01 -2.627944e+00 1.288079e+00 106 88 63
1.009035e+00 -2.487138e+00 6.656993e-01 104 96 66
9.608321e-01 -2.471235e+00 6.602198e-01 93 83 56
2.517425e-01 -2.347261e+00 6.529231e-01 151 138 111
-2.518879e-01 -2.296826e+00 6.345045e-01 79 67 43
-7.107079e-01 -2.461530e+00 1.167518e+00 108 90 66
4.121362e-01 -2.337745e+00 7.213191e-01 87 77 44
4.078524e-01 -2.291598e+00 7.272335e-01 149 141 123
-3.517972e-01 -2.267207e+00 9.746320e-01 54 39 16
-1.329933e+00 -2.146451e+00 1.492134e+00 185 178 159
2.023132e-01 -2.046035e+00 9.232764e-01 103 87 53
9.664975e-01 -2.024199e+00 7.030935e-01 231 227 213
-1.241515e+00 -2.095822e+00 1.454169e+00 162 153 136
-2.211830e-01 -2.027251e+00 1.029938e+00 124 107 81
-8.347439e-01 -2.049364e+00 1.304851e+00 197 190 178
-8.347439e-01 -2.049364e+00 1.304851e+00 197 190 178
-1.429141e+00 -2.090925e+00 1.635666e+00 173 168 150
-7.535828e-01 -1.992538e+00 1.256180e+00 161 151 137
-5.687393e-01 -4.677996e+00 5.315083e-01 86 75 53
-7.741387e-01 -4.541898e+00 8.630506e-01 146 135 110
-5.309030e-01 -4.297836e+00 2.650364e-01 68 59 36
1.200657e-01 -4.196247e+00 2.319016e-01 52 47 28
-7.430520e-01 -4.413579e+00 1.091780e+00 86 72 54
-6.336075e-01 -4.341567e+00 7.510167e-01 168 158 133
-7.414503e-01 -4.237771e+00 5.211754e-01 127 111 75
-2.040075e-01 -4.080089e+00 2.081538e-01 199 188 160
-9.112962e-02 -4.016060e+00 1.906616e-01 105 93 65
1.812480e-01 -3.947209e+00 6.159150e-02 73 64 37
1.812480e-01 -3.947209e+00 6.159150e-02 73 64 37
4.778035e-02 -3.953723e+00 1.356045e-01 90 76 45
4.778035e-02 -3.953723e+00 1.356045e-01 90 76 45
-7.302729e-01 -4.075653e+00 4.914076e-01 166 154 124
-7.579188e-01 -4.059138e+00 5.229262e-01 173 159 125
-9.614097e-01 -4.217152e+00 1.338781e+00 81 70 46
7.933364e-01 -3.755524e+00 5.419900e-02 119 110 81
4.918863e-01 -3.753502e+00 -1.207665e-01 114 102 75
-6.975787e-02 -3.856988e+00 1.219986e-01 112 100 75
-8.529308e-01 -4.054754e+00 8.295591e-01 98 78 39
-7.459243e-01 -3.900464e+00 4.716080e-01 69 57 33
6.432357e-01 -3.578530e+00 2.529973e-02 134 119 87
-6.589484e-02 -3.645828e+00 9.937472e-02 35 25 1
9.879004e-01 -3.569263e+00 1.960248e-01 140 125 94
3.876693e-01 -3.561191e+00 -8.347004e-02 82 66 32
7.563347e-01 -3.535656e+00 8.443008e-02 96 83 57
-1.084199e+00 -3.949481e+00 1.430417e+00 115 95 67
-3.128272e-01 -3.625628e+00 1.708305e-01 187 173 145
-1.099875e+00 -3.941369e+00 1.453359e+00 203 187 161
-7.192195e-01 -3.638967e+00 2.971333e-01 180 164 130
7.033648e-01 -3.477534e+00 8.720881e-02 106 86 55
-2.286588e-01 -3.534334e+00 1.487393e-01 172 159 140
3.865597e-01 -3.414581e+00 -7.120049e-02 155 141 113
8.650784e-01 -3.428310e+00 1.643368e-01 103 90 60
-8.556689e-01 -3.667244e+00 7.773418e-01 183 168 136
-3.499982e-02 -3.443420e+00 5.270296e-02 100 90 63
-3.499982e-02 -3.443420e+00 5.270296e-02 100 90 63
8.941157e-01 -3.391960e+00 1.493474e-01 129 120 90
5.710886e-01 -3.383085e+00 1.903010e-02 82 72 37
-7.005083e-02 -3.446927e+00 1.085653e-01 108 89 58
-1.841257e-02 -3.429325e+00 7.011239e-02 193 181 157
-6.026979e-01 -3.491037e+00 2.745919e-01 81 63 33
1.409254e+00 -3.390634e+00 4.338049e-01 138 125 91
-1.007156e+00 -3.672295e+00 1.295838e+00 108 95 69
-1.002365e+00 -3.657975e+00 1.289075e+00 216 206 183
-8.070076e-01 -3.476521e+00 5.668575e-01 96 80 46
8.400480e-01 -3.264977e+00 2.226713e-01 176 161 132
-9.660011e-01 -3.565394e+00 1.107272e+00 64 51 32
4.157718e-01 -3.222285e+00 3.780100e-02 142 122 95
9.463868e-01 -3.235573e+00 3.049296e-01 185 174 146
-5.948263e-01 -3.289020e+00 2.427864e-01 179 161 129
-7.088529e-01 -3.287236e+00 3.406409e-01 159 140 101
-7.472856e-01 -3.295899e+00 3.705050e-01 98 83 54
6.082763e-01 -3.179223e+00 1.508278e-01 145 131 104
-7.771833e-01 -3.342324e+00 5.830718e-01 145 126 93
6.042044e-01 -3.163118e+00 1.255313e-01 98 90 58
8.940889e-01 -3.166800e+00 2.879687e-01 115 102 75
7.350725e-01 -3.137991e+00 1.791889e-01 131 123 102
-7.082573e-01 -3.245870e+00 3.915338e-01 117 101 67
-6.940435e-01 -3.231685e+00 3.714960e-01 158 146 114
1.283691e+00 -3.169818e+00 4.368320e-01 177 165 141
-6.770705e-01 -3.209284e+00 3.726347e-01 139 123 88
-7.486540e-01 -3.237583e+00 5.597164e-01 93 77 52
4.662118e-02 -3.053146e+00 4.128075e-03 160 148 131
-4.171854e-01 -3.095266e+00 1.096316e-01 115 103 76
-7.803880e-01 -3.197897e+00 6.002134e-01 154 140 106
-6.326542e-01 -3.093980e+00 3.566719e-01 115 98 70
6.314225e-01 -2.985730e+00 2.514531e-01 179 167 152
-3.153174e-01 -2.952471e+00 8.920831e-02 95 81 47
-6.832550e-01 -3.080511e+00 5.269356e-01 156 142 115
-6.832550e-01 -3.080511e+00 5.269356e-01 156 142 115
5.662903e-01 -2.960112e+00 2.782870e-01 61 45 19
-6.608652e-01 -3.024110e+00 5.213286e-01 137 120 90
-1.079592e+00 -3.266426e+00 1.384737e+00 171 155 129
-7.441260e-01 -3.055401e+00 7.185505e-01 90 75 55
-1.068202e+00 -3.225610e+00 1.339171e+00 177 161 127
-5.277017e-01 -2.905182e+00 3.108143e-01 77 59 31
3.479218e-01 -2.868617e+00 2.231319e-01 102 90 64
-9.399436e-01 -3.122129e+00 1.209634e+00 173 157 126
-1.060224e+00 -3.155275e+00 1.397576e+00 114 98 68
8.821695e-01 -2.863287e+00 4.535148e-01 158 141 119
1.265588e-01 -2.769497e+00 2.495591e-01 177 168 147
-4.696952e-01 -2.760618e+00 4.366891e-01 127 110 78
-8.007264e-01 -2.937882e+00 1.021213e+00 182 174 148
2.856983e-01 -2.722341e+00 3.400621e-01 178 161 131
1.601507e-02 -2.655922e+00 2.962225e-01 78 71 44
-6.153123e-01 -2.795953e+00 7.785462e-01 113 100 70
-6.382841e-01 -2.798363e+00 8.208810e-01 126 113 86
1.232933e+00 -2.734280e+00 5.814769e-01 137 132 106
-9.795733e-01 -2.880394e+00 1.312025e+00 90 73 47
-5.864102e-01 -2.683612e+00 7.761849e-01 168 153 133
-9.458253e-01 -2.824160e+00 1.261963e+00 93 76 51
1.161667e-01 -2.547644e+00 4.364588e-01 97 84 58
-2.991645e-02 -2.551872e+00 4.598217e-01 75 62 29
-8.008407e-02 -2.526036e+00 4.877152e-01 107 95 61
-1.077186e-01 -2.520913e+00 4.820711e-01 162 147 117
-8.492154e-02 -2.507996e+00 4.812949e-01 164 152 126
5.813849e-01 -2.539262e+00 5.520424e-01 152 137 118
-5.224873e-01 -2.549138e+00 7.586442e-01 108 97 79
-4.973986e-01 -2.536206e+00 7.446113e-01 165 158 137
4.598950e-01 -2.511356e+00 5.674883e-01 157 141 108
4.629334e-01 -2.457174e+00 5.534561e-01 121 115 92
2.202431e-02 -2.385087e+00 5.422511e-01 116 108 87
3.663935e-01 -2.429547e+00 6.170059e-01 177 162 146
-3.415201e-01 -2.407628e+00 7.042625e-01 156 143 125
-5.910798e-01 -2.502939e+00 1.072219e+00 182 169 134
-6.661389e-01 -2.412903e+00 1.191134e+00 149 133 107
-3.004289e-01 -2.284954e+00 8.383738e-01 166 154 130
-1.374513e+00 -2.085097e+00 1.555657e+00 172 163 141
1.167289e-01 -2.008818e+00 9.588447e-01 191 177 151
-1.738286e-01 -1.413534e+00 8.017828e-01 156 140 121
8.314292e-01 -2.551681e+00 5.462504e-01 148 136 109
1.822256e-01 -2.175436e+00 7.170260e-01 135 124 103
9.130957e-02 -1.773742e+00 9.419831e-01 91 77 68
9.130957e-02 -1.773742e+00 9.419831e-01 91 77 68
5.488940e-01 -1.498544e+00 6.498551e-01 188 185 180
-7.047195e-01 -2.545966e+00 1.152483e+00 152 141 121
1.410997e-02 -2.328496e+00 6.647399e-01 72 60 36
2.443216e-01 -2.292192e+00 7.297853e-01 78 67 46
5.071796e-01 -1.699300e+00 8.525964e-01 92 83 71
3.977839e-01 -1.584647e+00 7.449496e-01 154 152 144
-4.756329e-01 -1.082924e+00 8.939878e-01 161 155 143
-4.536766e-01 -9.247168e-01 9.033814e-01 151 142 121
-7.574786e-01 -3.534720e+00 4.817445e-01 54 38 22
1.142131e+00 -2.683327e+00 5.696433e-01 137 125 104
1.090977e+00 -2.482665e+00 7.474171e-01 196 191 172
-3.585080e-01 -2.398749e+00 6.348750e-01 129 115 98
-4.529738e-01 -2.218760e+00 1.156621e+00 93 83 58
-1.741754e-01 -1.878013e+00 9.585155e-01 163 156 138
-2.297467e-01 -1.835035e+00 9.973369e-01 106 100 86
-2.123905e-02 -7.621174e-01 6.328970e-01 165 152 133
-6.367730e-01 -3.097287e+00 3.972622e-01 73 57 41
1.614044e-01 -2.780259e+00 1.580356e-01 74 62 47
5.367603e-01 -2.278663e+00 6.560094e-01 153 143 117
4.957347e-01 -2.253201e+00 7.059998e-01 152 137 116
4.096243e-01 -2.212520e+00 7.168163e-01 144 129 106
-6.174393e-01 -2.366781e+00 1.050341e+00 157 144 127
1.216970e-01 -1.030720e+00 6.848321e-01 54 49 30
-8.107338e-01 -3.676870e+00 6.377347e-01 159 152 134
-7.778871e-01 -3.350804e+00 6.306147e-01 62 46 30
-7.863700e-01 -3.293775e+00 5.589529e-01 141 130 112
-7.568286e-01 -3.187764e+00 5.309800e-01 139 127 110
1.020328e+00 -2.807386e+00 4.894295e-01 153 137 121
-7.770746e-01 -3.046904e+00 8.939475e-01 140 126 106
-8.542516e-01 -2.905200e+00 1.186101e+00 157 145 125
3.434503e-01 -2.572345e+00 4.850429e-01 139 127 111
-6.117828e-01 -2.480176e+00 1.044747e+00 165 152 135
1.862351e-01 -2.204393e+00 7.543049e-01 160 149 131
-5.826481e-01 -2.327795e+00 1.277878e+00 202 195 178
2.510335e-02 -2.066227e+00 8.255370e-01 142 131 111
1.003512e+00 -1.714581e+00 5.412109e-01 183 175 156
-2.446385e-01 -1.922799e+00 1.040075e+00 160 153 142
-9.675647e-02 -1.854611e+00 9.588114e-01 150 140 130
3.727236e-02 -1.633270e+00 8.975050e-01 193 191 180
-1.892501e-01 -1.670136e+00 9.653034e-01 209 204 197
-5.737320e-01 -1.764366e+00 1.170054e+00 186 182 171
6.820138e-01 -1.429791e+00 5.604002e-01 82 74 60
-1.982207e-01 -8.835906e-01 6.129873e-01 147 140 115
-8.872114e-01 -3.540474e+00 1.011649e+00 52 41 21
-8.872114e-01 -3.540474e+00 1.011649e+00 52 41 21
9.782191e-01 -3.023331e+00 3.610900e-01 155 143 125
-1.536765e-01 -3.093817e+00 4.739805e-02 147 132 113
5.676247e-01 -2.926450e+00 2.716825e-01 148 140 118
-1.389638e-01 -2.632389e+00 3.384606e-01 146 135 115
7.624171e-01 -2.532900e+00 5.710012e-01 177 167 148
2.337947e-02 -2.574580e+00 4.018843e-01 58 43 22
-7.669470e-01 -2.743505e+00 1.139077e+00 179 166 147
-7.669470e-01 -2.743505e+00 1.139077e+00 179 166 147
8.689118e-01 -2.511007e+00 1.090153e+00 162 151 133
-1.757154e-01 -2.474502e+00 4.710691e-01 118 107 87
-8.283886e-01 -2.660639e+00 9.910542e-01 178 174 150
9.559418e-03 -2.443731e+00 5.154536e-01 60 43 28
-6.773056e-01 -2.628691e+00 1.148143e+00 55 42 25
-5.569127e-01 -2.495030e+00 1.051550e+00 65 50 23
1.342979e-01 -2.289822e+00 6.452437e-01 77 68 52
-2.975826e-01 -2.329129e+00 6.301319e-01 50 35 26
-4.655951e-01 -2.388244e+00 8.278885e-01 141 129 114
5.202157e-01 -1.505133e+00 8.455157e-01 176 165 147
1.464255e-02 -1.296928e+00 9.823304e-01 206 200 186
-3.255016e-01 -9.421206e-01 6.761101e-01 76 66 47
-8.628636e-02 -3.535310e+00 9.201030e-02 148 140 118
-4.512024e-01 -3.556434e+00 1.204674e-01 86 77 55
-4.565347e-01 -3.572544e+00 1.978927e-01 94 86 68
-9.236876e-02 -3.466547e+00 1.054916e-01 156 143 126
-2.521475e-01 -3.480258e+00 1.744501e-01 87 74 57
-7.755635e-01 -3.501827e+00 4.831528e-01 57 41 27
-8.141627e-01 -3.509999e+00 6.634958e-01 77 64 35
-7.631175e-01 -3.348794e+00 4.167115e-01 59 43 28
-7.507249e-01 -3.318991e+00 4.211425e-01 147 134 116
-8.625575e-01 -3.373809e+00 9.731402e-01 163 151 134
7.533860e-01 -2.984665e+00 3.044990e-01 100 87 69
5.920426e-01 -3.003227e+00 2.413123e-01 95 85 58
-4.122040e-01 -3.028723e+00 1.069131e-01 84 73 52
1.866307e-01 -2.765340e+00 2.777280e-01 148 136 122
-9.087417e-02 -2.777590e+00 2.001696e-01 136 127 114
-7.388779e-02 -2.782059e+00 2.224698e-01 136 127 114
-8.279437e-01 -2.914079e+00 6.549735e-01 71 56 38
-8.201603e-01 -2.865957e+00 4.148098e-01 155 144 128
8.134599e-01 -2.637033e+00 5.088491e-01 95 79 60
4.303835e-01 -2.664842e+00 3.928614e-01 53 40 24
4.262865e-01 -2.638515e+00 4.327216e-01 137 125 111
-3.526893e-01 -2.593059e+00 -2.422754e-01 138 127 109
1.036892e+00 -2.550860e+00 5.764917e-01 62 54 41
-6.971664e-01 -2.792397e+00 8.249153e-01 90 81 64
-6.312887e-01 -2.763171e+00 7.334429e-01 152 137 117
9.684703e-02 -2.587476e+00 3.713310e-01 137 126 106
6.782552e-01 -2.523641e+00 5.876025e-01 91 79 58
-5.588560e-01 -2.657059e+00 4.851866e-01 144 134 124
-6.483850e-01 -2.711262e+00 7.523201e-01 153 145 129
5.389309e-01 -2.405338e+00 6.328243e-01 68 54 38
-4.927282e-01 -2.520345e+00 7.084777e-01 150 139 121
2.591861e-02 -2.410799e+00 5.062678e-01 154 146 133
-5.315037e-01 -2.495483e+00 5.706496e-01 144 132 117
2.673606e-01 -2.375273e+00 5.670281e-01 150 137 123
-3.999582e-01 -2.461853e+00 7.060374e-01 143 130 115
2.554958e-01 -2.277258e+00 6.870988e-01 66 53 37
-4.560440e-01 -2.394069e+00 8.437175e-01 142 130 115
3.463324e-01 -2.237039e+00 6.886351e-01 96 88 69
-3.660500e-01 -2.364402e+00 8.727954e-01 141 128 112
4.065822e-01 -2.108398e+00 7.747139e-01 77 67 47
2.428346e-01 -2.180651e+00 9.750776e-01 103 94 77
-2.500355e-01 -2.240918e+00 1.505961e+00 200 189 171
-3.761465e-01 -2.072638e+00 9.553336e-01 74 58 43
-2.573378e-02 -1.941946e+00 9.372259e-01 182 172 155
-3.254026e-02 -2.020027e+00 1.307759e+00 88 79 64
1.016942e+00 -1.485904e+00 6.488886e-01 29 26 22
-6.821831e-01 -1.753948e+00 1.090318e+00 69 66 54
-3.470671e-01 -1.755347e+00 1.298880e+00 187 182 170
6.601626e-02 -1.538976e+00 7.846598e-01 175 169 143
-3.500446e-01 -1.611833e+00 9.204344e-01 182 175 161
-6.474247e-01 -1.645136e+00 1.046586e+00 80 70 52
-6.373119e-01 -1.113762e+00 1.029623e+00 87 80 68
5.840411e-02 -7.518815e-01 3.739465e-01 185 172 155
-6.322479e-01 -3.606101e+00 2.951729e-01 141 125 99
-7.973652e-01 -3.564701e+00 6.317287e-01 171 164 150
-7.854077e-01 -3.250746e+00 7.421660e-01 133 118 93
1.934435e-01 -2.949404e+00 1.503355e-01 142 131 113
-5.327941e-01 -3.041783e+00 1.753088e-01 70 54 35
1.209138e+00 -2.812273e+00 4.762998e-01 70 59 41
8.452191e-01 -2.855234e+00 4.398948e-01 164 148 132
2.884320e-01 -2.890462e+00 1.999521e-01 61 48 31
4.438283e-01 -2.837580e+00 2.770403e-01 140 125 102
6.091648e-01 -2.788580e+00 3.914099e-01 141 125 107
-5.020406e-01 -2.851693e+00 3.187682e-01 138 122 107
-8.391049e-01 -2.968773e+00 1.219264e+00 181 166 145
-3.657943e-01 -2.686324e+00 2.671417e-01 55 36 19
-8.545870e-01 -2.927957e+00 1.218336e+00 179 166 147
-8.545870e-01 -2.927957e+00 1.218336e+00 179 166 147
4.956702e-01 -2.581088e+00 5.016109e-01 150 141 123
2.220491e-01 -2.531846e+00 4.469747e-01 56 39 22
-7.026862e-01 -2.729074e+00 9.318287e-01 153 141 128
2.144688e-01 -2.488100e+00 5.018680e-01 44 31 12
-4.092753e-01 -2.556143e+00 5.100085e-01 71 57 40
-3.323541e-01 -2.488363e+00 4.871123e-01 132 120 106
2.449482e-01 -2.395895e+00 5.698164e-01 58 43 21
7.106865e-01 -2.280715e+00 6.490850e-01 105 93 79
-5.184771e-01 -2.476092e+00 8.853711e-01 135 128 109
-3.536929e-01 -2.328143e+00 8.359679e-01 133 124 109
-2.364521e-01 -2.134861e+00 8.582692e-01 160 146 125
-2.969644e-01 -2.116913e+00 8.852262e-01 89 80 63
-6.131607e-01 -2.182464e+00 1.155453e+00 201 196 176
9.496909e-01 -1.664489e+00 6.047889e-01 166 159 144
4.114557e-03 -1.809873e+00 8.983611e-01 154 147 133
4.154323e-01 -1.735850e+00 7.739082e-01 148 138 126
-6.350811e-02 -1.812978e+00 1.033493e+00 92 84 73
-7.629179e-01 -1.936518e+00 1.278295e+00 67 60 51
5.774305e-02 -1.907344e+00 1.474986e+00 172 165 156
-1.360484e-01 -1.796050e+00 1.048589e+00 178 173 165
5.936539e-01 -1.598411e+00 7.470636e-01 180 179 176
-6.335342e-01 -1.785707e+00 1.083792e+00 74 71 60
8.927285e-01 -3.123301e+00 2.346024e-01 129 117 101
-5.521821e-01 -3.165120e+00 1.582254e-01 141 125 100
5.279684e-01 -2.573789e+00 5.165121e-01 116 103 86
-7.536086e-01 -2.714084e+00 1.129165e+00 103 92 72
-3.029674e-01 -2.499324e+00 4.882091e-01 64 50 30
1.659392e-01 -2.297810e+00 6.032658e-01 74 65 48
-4.450754e-01 -2.330831e+00 9.987090e-01 96 84 60
-2.971216e-01 -2.144546e+00 8.970864e-01 162 153 136
-1.156094e-01 -1.939606e+00 9.123513e-01 72 59 45
9.837913e-01 -1.672937e+00 5.666397e-01 174 167 151
9.615116e-01 -2.556322e+00 6.272339e-01 170 150 115
3.887316e-01 -2.295014e+00 6.863489e-01 174 160 146
-7.348929e-03 -1.538599e+00 8.209675e-01 170 155 134
-3.326544e-01 -1.744428e+00 9.611184e-01 89 83 72
-9.182765e-01 -3.254292e+00 8.290274e-01 144 134 122
-1.297224e+00 -1.136371e+00 1.285661e+00 139 130 121
-9.092436e-01 -3.281931e+00 8.286701e-01 130 125 105
1.156635e+00 -1.030006e+00 1.094380e+00 115 108 99
-1.086975e+00 -9.578008e-01 1.276288e+00 69 60 45
-4.100092e-01 -8.535046e-01 8.506656e-01 19 18 18
-2.994295e+00 1.182607e+00 4.880677e-01 128 139 145
1.888102e+00 2.882270e+00 -1.069389e+00 128 129 123
-2.957944e+00 1.035054e+00 -1.575383e-01 132 150 159
-1.060966e-01 1.130795e+00 -3.366858e-01 55 57 53
-1.816108e+00 2.287334e+00 -1.056586e+00 137 152 159
2.056253e+00 3.125755e+00 -1.127824e+00 131 134 131
1.220498e+00 -6.405961e-01 2.967614e-01 15 13 14
-2.301552e+00 -5.195395e-01 1.096030e+00 116 131 138
-5.039668e-01 1.032740e+00 -6.435442e-01 115 122 121
1.343884e+00 1.275144e+00 -1.072493e+00 37 39 35
-3.304453e+00 2.036139e+00 -1.338102e+00 16 19 22
-5.285642e-01 1.194082e+00 -6.429652e-01 117 124 122
-5.848589e-01 1.359612e+00 -7.013234e-01 119 125 126
-8.290217e-01 1.804791e+00 -7.969824e-01 8 9 9
-3.130616e+00 2.837000e+00 -1.343827e+00 15 17 24
9.096676e-01 3.006618e+00 -1.154328e+00 133 132 126
-5.412677e+00 2.344525e+00 1.052418e+00 153 162 168
-8.598468e+00 1.088504e+01 1.281300e+00 167 204 247
-1.551228e+00 -1.237590e+00 1.339700e+00 69 70 67
1.109743e+00 -5.479695e-01 4.121723e-01 21 23 21
-5.153438e-01 -7.550503e-01 8.508538e-01 98 99 93
2.176306e+00 -2.002386e-01 -1.377711e-01 100 105 102
-9.038316e-01 7.912763e-02 5.860719e-01 114 135 151
-3.842863e+00 1.985995e+00 -1.393947e+00 109 127 144
2.234982e+00 1.741101e+00 -1.181485e+00 33 30 25
-1.335656e+00 2.233936e+00 -9.352577e-01 10 10 7
-2.661514e+00 2.924292e+00 -1.363926e+00 21 34 45
-4.294529e-01 2.373896e+00 -7.601013e-01 45 50 51
2.236416e+00 2.246066e+00 -1.080854e+00 115 123 124
2.164381e+00 2.398933e+00 -1.172864e+00 124 129 132
-5.994721e+00 1.485744e+00 1.282487e+00 124 126 121
1.952626e+00 2.413369e+00 -1.064425e+00 112 114 110
-2.944546e+00 2.713033e+00 -8.262293e-03 68 68 65
2.187615e+00 3.345953e+00 -1.150923e+00 25 25 25
1.558295e+00 4.981953e+00 -1.441124e+00 141 148 151
1.212283e+00 -8.525032e-01 3.843736e-01 59 61 62
1.213422e+00 -8.559247e-01 3.929696e-01 59 61 62
3.292507e-01 -5.979969e-01 4.975127e-01 108 109 104
-6.176616e-01 1.032035e+00 -6.795105e-01 102 115 124
-5.333280e-01 1.287955e+00 -6.999577e-01 18 19 20
-1.060824e+00 1.413064e+00 -4.869731e-01 13 17 23
2.207432e+00 1.630276e+00 -1.216210e+00 104 106 101
-1.473829e+00 1.913052e+00 -9.620006e-01 20 21 23
-1.434755e+00 2.355627e+00 -1.017467e+00 116 123 126
-6.223156e+00 9.141442e-01 1.474598e+00 67 69 66
2.118674e+00 2.617484e+00 -1.429785e+00 60 60 55
2.157989e+00 2.747949e+00 -1.126301e+00 45 51 55
-6.097631e+00 2.709168e+00 1.074657e+00 55 56 56
-2.244908e-01 3.080132e+00 -2.703638e-01 159 168 177
-7.636833e-01 1.199777e+00 -8.350075e-01 113 132 145
-1.081518e+00 1.488837e+00 -8.104462e-01 13 29 48
-1.208352e+00 3.057961e-01 6.516876e-01 123 142 153
1.428668e+00 1.475992e+00 -1.009175e+00 25 34 33
-1.718892e-01 1.395520e+00 -6.903111e-01 66 69 69
2.095073e+00 1.713809e+00 -1.192571e+00 103 104 99
-8.841727e-01 1.873727e+00 -8.009705e-01 104 103 98
-5.710589e-02 1.308407e+00 -2.841245e-01 59 67 69
-2.819905e+00 2.640464e+00 -1.273200e+00 106 103 97
1.154712e+00 1.863199e+00 -9.190877e-01 132 136 139
8.436748e-02 1.398907e+00 -2.313969e-01 46 54 61
-1.549602e-01 1.569722e+00 -3.473140e-01 116 125 130
7.781122e-01 2.310339e+00 -1.070958e+00 49 50 55
-5.503883e-01 2.442391e+00 -6.644088e-01 126 133 136
-7.218273e+00 2.074973e+00 1.460108e+00 112 131 139
-1.391220e+00 2.863050e+00 -3.679458e-01 130 134 137
-3.427862e+00 2.873475e+00 2.312142e-01 69 72 69
8.195409e-01 3.264951e+00 -9.622765e-01 95 96 91
1.206067e+00 5.169679e+00 -1.267496e+00 50 54 53
1.228157e-01 5.513741e+00 -1.088531e+00 146 151 153
-5.684078e+00 4.980933e+00 8.879588e-01 130 129 124
-5.125361e-01 -4.541772e+00 1.850034e+00 97 85 62
-8.154627e-01 -4.675609e+00 1.352320e+00 230 223 217
1.621366e+00 -4.064979e+00 4.168881e-01 139 140 134
7.532165e-01 -4.034330e+00 -1.212370e-01 51 49 38
3.445919e-01 -3.990768e+00 -3.657676e-02 157 158 144
1.692897e+00 -3.780545e+00 5.364302e-01 116 107 92
6.276052e-02 -3.179172e+00 -2.415408e-01 158 156 139
-1.481375e+00 -1.744396e+00 1.577134e+00 203 197 196
-5.784614e-01 -5.130465e+00 1.356661e+00 107 99 80
1.397889e+00 -4.444706e+00 3.526605e-01 140 141 127
1.693928e+00 -4.383734e+00 4.509712e-01 103 104 100
1.658264e+00 -4.217868e+00 4.411479e-01 137 134 119
1.457543e+00 -4.088438e+00 3.579731e-01 140 143 133
1.457543e+00 -4.088438e+00 3.579731e-01 140 143 133
-6.291550e-01 -4.266806e+00 2.135527e-01 173 167 150
1.469616e+00 -3.912364e+00 3.124884e-01 63 60 45
-4.219062e-01 -3.989590e+00 1.990846e-01 147 142 123
-9.460116e-01 -4.088238e+00 1.340955e+00 97 91 55
1.191334e+00 -2.747956e+00 4.805365e-01 55 52 40
9.196863e-01 -2.573539e+00 5.614012e-01 177 167 142
5.272190e-01 -7.426841e-01 3.490859e-01 51 45 38
-1.775188e-01 -9.762554e-01 8.371126e-01 86 77 59
1.033732e+00 -6.156783e-01 2.293583e-01 52 43 40
1.559167e+00 -4.408929e+00 4.392281e-01 139 138 115
1.348588e+00 -4.267561e+00 3.575241e-01 153 147 133
-8.067002e-01 -4.597176e+00 7.116985e-01 229 221 209
9.897760e-01 -4.180989e+00 1.283122e-01 140 143 132
1.127054e+00 -4.148448e+00 1.593271e-01 139 144 138
-3.892813e-01 -4.074018e+00 1.872029e-01 143 140 123
-5.586285e-01 -4.023703e+00 2.133695e-01 153 153 129
1.233765e+00 -3.524295e+00 2.947858e-01 109 101 95
1.237954e+00 -3.525893e+00 3.077175e-01 109 101 95
6.955413e-01 -3.482556e+00 1.515233e-02 108 93 62
-1.067439e+00 -4.131399e+00 2.000383e+00 110 104 88
-8.352831e-01 -3.516980e+00 3.874941e-01 94 82 59
-8.079979e-01 -3.526933e+00 4.207995e-01 94 82 59
-1.638172e-01 -3.029482e+00 -6.197956e-02 148 146 130
1.915412e+00 -2.950531e+00 5.325841e-01 134 128 126
1.729125e+00 -2.987285e+00 5.935090e-01 152 153 148
-7.271792e-01 -3.109065e+00 8.217935e-01 139 136 124
-4.432632e-01 -1.627009e+00 1.119729e+00 32 32 27
-1.299879e+00 -1.857442e+00 1.592315e+00 26 24 25
-1.667498e+00 -1.943138e+00 1.803392e+00 190 184 190
-2.255988e+00 -1.826638e+00 1.877954e+00 75 71 60
-1.765474e+00 -1.568064e+00 1.687517e+00 78 78 65
6.347484e-01 -4.426235e+00 -1.114125e-01 131 126 113
1.254138e+00 -4.297075e+00 2.883938e-01 44 43 36
1.208125e+00 -4.257987e+00 3.542951e-01 147 151 131
1.185726e+00 -4.087790e+00 2.000149e-01 52 51 43
1.637284e+00 -3.981785e+00 3.574478e-01 81 78 65
1.577947e+00 -3.965949e+00 4.479498e-01 134 135 121
1.235725e+00 -3.965348e+00 2.823183e-01 34 33 31
4.940661e-01 -3.866391e+00 -1.079577e-01 144 142 127
2.064631e+00 -3.727212e+00 5.868865e-01 123 123 110
-8.424130e-01 -3.955113e+00 6.350758e-01 103 93 80
-2.476254e-01 -3.552662e+00 7.853148e-02 161 157 145
-8.510657e-01 -3.727824e+00 6.059556e-01 75 65 41
-8.643211e-01 -3.724772e+00 5.905722e-01 75 65 41
4.719830e-01 -3.378188e+00 -9.150985e-02 104 96 73
6.557558e-01 -3.367916e+00 1.380791e-02 94 82 58
-8.396853e-01 -3.674207e+00 5.284486e-01 157 148 127
-8.629423e-01 -3.662479e+00 7.023790e-01 161 152 123
-8.448131e-01 -3.619663e+00 6.189355e-01 104 91 59
-8.112465e-01 -3.478312e+00 6.360394e-01 138 124 104
1.863104e+00 -3.119969e+00 5.800771e-01 157 162 176
4.935067e-01 -3.102645e+00 1.106405e-01 104 94 65
1.830793e+00 -3.049078e+00 5.324368e-01 87 78 64
1.901716e+00 -3.026015e+00 5.455511e-01 207 207 205
-1.238188e+00 -3.727328e+00 2.021948e+00 138 143 135
-6.916090e-01 -3.078806e+00 3.395125e-01 116 103 77
-7.671531e-01 -3.123360e+00 4.931459e-01 88 74 52
-7.671531e-01 -3.123360e+00 4.931459e-01 88 74 52
-1.419651e+00 -1.449111e+00 1.363211e+00 80 78 66
6.744817e-01 -5.974825e-01 3.229167e-01 67 60 52
6.890325e-01 -6.169259e-01 3.609717e-01 67 60 52
4.122652e-01 -6.048166e-01 4.154346e-01 71 63 53
-4.018566e-01 -8.011241e-01 9.183226e-01 134 128 112
1.740215e+00 -4.213014e+00 4.391345e-01 96 90 77
1.740215e+00 -4.213014e+00 4.391345e-01 96 90 77
-8.676087e-01 -4.539323e+00 1.996402e-01 152 152 140
8.111981e-01 -4.183996e+00 -2.315601e-02 131 131 121
4.939753e-02 -4.209129e+00 1.003546e-02 139 138 131
-7.039534e-01 -4.544363e+00 1.512311e+00 150 148 127
-3.759108e-01 -4.143083e+00 2.141960e-01 182 185 166
6.636668e-01 -3.648963e+00 -5.429724e-02 143 138 119
3.311691e-01 -3.683769e+00 -1.334238e-01 149 148 130
7.874113e-01 -3.464972e+00 9.017101e-02 147 144 130
-8.666405e-01 -3.767932e+00 7.033275e-01 169 160 131
-9.098397e-01 -3.775690e+00 8.479037e-01 195 189 164
1.799426e+00 -3.326656e+00 5.026529e-01 169 169 166
-8.203409e-01 -3.413128e+00 6.951561e-01 157 148 122
1.756808e+00 -3.098051e+00 6.112017e-01 100 88 74
-7.967342e-01 -3.342939e+00 6.148834e-01 99 83 58
1.791647e+00 -3.056247e+00 6.082314e-01 212 211 208
1.396846e+00 -2.949252e+00 4.367164e-01 168 170 163
1.891727e+00 -2.901027e+00 5.351555e-01 244 244 244
-2.336766e+00 -1.650624e+00 1.957077e+00 168 167 151
7.179483e-01 -8.009793e-01 2.997265e-01 155 161 161
-2.587735e+00 -1.416017e+00 1.935353e+00 67 62 51
-2.585424e+00 -1.415343e+00 1.935437e+00 67 62 51
-3.009662e+00 -8.321645e-01 1.821734e+00 76 76 74
-3.009662e+00 -8.321645e-01 1.821734e+00 76 76 74
-1.571256e+00 -5.444805e-01 1.195551e+00 224 222 210
8.871128e-01 1.162320e-01 7.055172e-02 173 176 169
-7.396200e-01 -4.712552e+00 1.570389e+00 79 71 58
1.704634e+00 -4.052151e+00 4.366686e-01 89 87 75
-7.270217e-01 -4.551635e+00 1.348407e+00 138 133 114
3.394138e-02 -4.250323e+00 2.777270e-01 20 20 16
-1.578973e-01 -4.122556e+00 1.018125e-01 129 126 104
2.068114e-01 -4.034729e+00 -7.243099e-03 106 103 82
-6.715009e-01 -4.203898e+00 1.628671e-01 139 132 113
-6.347723e-01 -4.167849e+00 2.435743e-01 169 173 156
8.524306e-01 -3.880414e+00 1.049861e-01 102 99 90
-1.482710e-01 -4.008788e+00 1.896052e-01 122 116 97
2.112087e+00 -3.707395e+00 5.439924e-01 87 83 74
5.042186e-01 -3.803904e+00 -1.446654e-01 107 102 83
-5.682904e-01 -3.945835e+00 1.320258e-01 82 79 63
-1.045949e+00 -4.241722e+00 1.508487e+00 242 241 236
1.871014e+00 -3.592316e+00 6.162629e-01 183 183 177
-3.251675e-02 -3.726365e+00 9.900505e-02 108 107 102
1.169541e+00 -3.585559e+00 2.660023e-01 156 151 131
-8.547559e-01 -3.962291e+00 7.118400e-01 174 168 137
-8.696970e-01 -3.858855e+00 6.930722e-01 178 172 147
-5.665841e-02 -3.569096e+00 1.149682e-02 106 99 80
-4.961727e-01 -3.590168e+00 8.362643e-02 166 164 151
-8.496145e-01 -3.729201e+00 4.995790e-01 159 152 130
7.402096e-01 -3.389869e+00 6.080491e-02 131 133 112
-8.440453e-01 -3.653808e+00 4.269283e-01 95 88 66
-8.379833e-01 -3.673503e+00 6.074281e-01 158 160 147
-8.663444e-01 -3.487894e+00 6.524009e-01 160 154 129
-1.290468e+00 -3.831494e+00 1.854644e+00 75 68 61
-8.278790e-01 -3.670501e+00 1.515425e+00 230 218 204
-5.023823e-01 -3.180582e+00 -1.698533e-03 69 74 69
-5.023823e-01 -3.180582e+00 -1.698533e-03 69 74 69
-2.200983e-01 -3.171120e+00 7.358500e-02 163 165 152
-2.745171e-01 -3.102827e+00 -1.023872e-01 92 90 78
-1.950882e+00 -3.614613e+00 1.749926e+00 182 187 183
-7.231531e-01 -3.035168e+00 7.529606e-01 60 57 42
-7.218467e-01 -3.035286e+00 7.550077e-01 60 57 42
3.990496e-01 -2.660599e+00 3.641162e-01 87 76 56
-5.043821e-02 -2.605052e+00 3.311323e-01 136 131 106
-2.376987e-01 -2.144389e+00 9.257165e-01 165 161 135
-2.805106e-01 -2.071101e+00 1.131002e+00 99 94 75
-1.000179e+00 -1.450956e+00 1.278908e+00 217 217 214
-6.200837e-01 -1.326979e+00 1.087494e+00 233 224 218
7.128725e-01 -7.385665e-01 2.909469e-01 71 68 76
-2.037642e+00 -6.380229e-01 1.423130e+00 185 187 184
-2.813271e+00 1.904103e-01 1.531608e+00 159 164 163
-1.202193e+00 2.178574e+00 -7.163246e-01 141 140 119
1.808074e+00 -4.529099e+00 5.123819e-01 114 116 110
1.086778e+00 -4.597275e+00 1.502762e-01 131 135 121
1.609426e+00 -4.147104e+00 4.827396e-01 145 142 127
8.488322e-02 -4.173688e+00 -4.048907e-02 125 127 113
-3.914574e-01 -4.201421e+00 2.039069e-01 167 168 150
1.150130e+00 -3.924820e+00 2.897406e-01 86 80 73
-1.420264e-01 -4.078232e+00 1.340948e-01 140 134 110
5.534137e-02 -4.005477e+00 9.168147e-03 118 112 93
9.728239e-02 -4.015169e+00 7.891653e-02 118 112 93
-1.221828e-01 -4.051881e+00 1.472069e-01 181 181 156
1.036920e-01 -3.979745e+00 5.378375e-02 168 167 153
2.848967e-01 -3.913098e+00 -7.963633e-02 167 165 144
-7.554965e-01 -4.073412e+00 3.068632e-01 105 98 70
7.750876e-01 -3.742654e+00 3.781655e-02 122 116 100
3.206264e-01 -3.773185e+00 -1.792961e-01 92 82 57
1.436194e+00 -3.703875e+00 4.388061e-01 102 95 77
2.055554e+00 -3.586772e+00 5.440225e-01 106 95 84
1.673737e+00 -3.632846e+00 5.339333e-01 171 176 172
1.230177e+00 -3.604265e+00 2.816846e-01 101 94 80
9.781235e-01 -3.618702e+00 2.092915e-01 75 69 53
1.129329e+00 -3.532831e+00 1.948322e-01 155 151 126
1.144672e+00 -3.540372e+00 2.396398e-01 155 151 126
-8.833170e-01 -3.845829e+00 5.365690e-01 92 81 59
6.837605e-01 -3.493901e+00 1.880537e-02 88 77 53
-8.188705e-01 -3.675239e+00 2.216161e-01 173 165 132
-5.388181e-01 -3.595962e+00 1.260815e-01 161 163 147
-6.169908e-01 -3.600818e+00 1.762884e-01 92 82 52
-6.512856e-01 -3.591182e+00 1.969381e-01 168 161 142
-8.606295e-01 -3.638070e+00 6.818129e-01 181 176 147
-5.668045e-01 -3.326200e+00 7.097881e-02 90 85 62
-8.350972e-01 -3.607561e+00 1.072246e+00 207 208 204
-6.126001e-01 -3.310494e+00 1.560739e-01 73 67 53
6.989431e-01 -3.118650e+00 1.403899e-01 47 41 29
1.204569e+00 -3.046230e+00 4.880264e-01 68 58 46
-7.629391e-01 -3.245124e+00 5.169593e-01 70 54 39
1.821265e+00 -2.977644e+00 4.601757e-01 158 160 155
-8.192149e-01 -3.385979e+00 1.034765e+00 193 189 177
-1.169429e+00 -3.637288e+00 1.775564e+00 104 103 104
1.024786e+00 -2.996446e+00 3.927706e-01 119 112 101
-7.965433e-01 -3.267209e+00 8.171532e-01 71 60 47
5.775215e-01 -2.813665e+00 3.116120e-01 100 88 72
1.945276e-01 -2.531926e+00 4.242838e-01 96 88 66
1.161524e+00 -2.518436e+00 5.722384e-01 205 205 205
-3.840981e-01 -2.364452e+00 8.844073e-01 82 80 63
-1.888788e+00 -2.340511e+00 1.922321e+00 90 78 80
-1.636802e+00 -1.530846e+00 1.574747e+00 98 87 89
6.687313e-01 -7.408334e-01 2.835635e-01 148 149 133
1.125978e+00 -4.578395e+00 1.827040e-01 123 124 116
-6.327829e-01 -5.038563e+00 1.295294e+00 50 43 40
-8.063685e-01 -4.516991e+00 5.268934e-01 85 82 69
-8.063685e-01 -4.516991e+00 5.268934e-01 85 82 69
1.170021e-01 -4.210414e+00 8.036076e-02 129 130 124
5.200552e-01 -4.103214e+00 -1.494803e-01 152 151 132
1.249025e-01 -4.163230e+00 -1.798970e-02 21 18 19
-7.194449e-01 -4.387936e+00 6.471725e-01 61 52 50
-2.233805e-01 -4.184367e+00 1.295061e-01 58 51 52
-2.603228e-01 -4.166791e+00 1.280005e-01 167 165 148
6.662022e-02 -4.069740e+00 1.156666e-02 113 113 95
7.025454e-02 -4.044946e+00 4.424704e-02 169 169 152
-1.012740e+00 -4.471223e+00 1.673019e+00 96 90 76
-5.381172e-01 -4.131810e+00 2.412598e-01 156 155 128
-7.421525e-01 -4.172041e+00 2.881519e-01 105 100 76
-7.526375e-01 -4.170939e+00 2.738570e-01 105 100 76
-6.273311e-01 -4.120024e+00 2.874749e-01 175 176 155
-7.634111e-01 -4.396342e+00 1.662109e+00 252 246 231
4.239951e-01 -3.860906e+00 -1.901220e-01 165 168 151
3.965941e-01 -3.871596e+00 -1.422043e-01 157 159 148
-1.043178e-01 -3.997315e+00 2.176695e-01 169 166 139
1.543900e+00 -3.750892e+00 4.784822e-01 162 157 140
-8.351263e-01 -4.069762e+00 3.702075e-01 88 83 63
8.772018e-01 -3.750258e+00 7.190157e-02 148 143 124
-7.824613e-01 -4.082617e+00 5.404705e-01 193 187 165
1.458004e+00 -3.731984e+00 4.538633e-01 149 151 137
-7.744384e-01 -4.004067e+00 3.159903e-01 110 102 86
3.452534e-01 -3.737643e+00 -1.124065e-01 152 151 137
1.493878e+00 -3.656850e+00 3.921946e-01 89 83 70
1.519383e+00 -3.668492e+00 4.792650e-01 89 83 70
-7.959302e-01 -3.954818e+00 2.874201e-01 91 85 67
-7.750001e-01 -3.932289e+00 3.028577e-01 176 171 150
-7.670427e-01 -4.110962e+00 1.378313e+00 236 228 205
1.287637e+00 -3.593479e+00 3.451182e-01 55 51 39
-1.239173e-01 -3.724684e+00 7.204674e-02 164 159 140
-6.600489e-03 -3.688892e+00 -2.295368e-03 154 156 135
3.820368e-01 -3.562685e+00 -1.607507e-01 73 63 49
1.277529e+00 -3.533678e+00 3.175287e-01 93 81 60
1.448363e+00 -3.537024e+00 4.458220e-01 149 144 127
1.457420e+00 -3.540712e+00 4.755239e-01 149 144 127
-1.596683e-01 -3.631759e+00 -1.882131e-02 42 34 33
7.599143e-01 -3.506057e+00 5.118998e-02 84 78 57
1.851740e+00 -3.439309e+00 4.860179e-01 121 118 109
-8.043275e-01 -3.845236e+00 8.423172e-01 151 139 111
-9.235822e-01 -4.103281e+00 2.094201e+00 202 205 210
-5.738515e-01 -3.578469e+00 1.343640e-01 82 71 57
-5.199575e-01 -3.559136e+00 1.770018e-01 165 166 155
-4.925010e-01 -3.539576e+00 1.283185e-01 159 157 136
8.126757e-01 -3.367422e+00 1.187921e-01 144 143 131
-3.850551e-01 -3.512650e+00 1.011690e-01 158 152 135
-8.182782e-01 -3.652237e+00 4.460206e-01 87 75 57
-2.771377e-01 -3.478941e+00 9.188188e-02 161 154 131
1.183916e+00 -3.283507e+00 3.302712e-01 72 69 53
-8.747281e-01 -3.625840e+00 8.427038e-01 94 78 55
-1.820362e+00 -3.899333e+00 1.881439e+00 86 74 73
1.726532e+00 -3.123594e+00 5.628664e-01 218 218 221
1.957890e+00 -3.060224e+00 4.227866e-01 214 211 202
-7.953775e-01 -3.454205e+00 8.131613e-01 84 74 61
6.968873e-01 -3.120426e+00 1.964154e-01 140 134 116
1.823059e+00 -3.080173e+00 4.733881e-01 243 244 238
-7.832044e-01 -3.405934e+00 8.386190e-01 177 173 149
-8.032950e-01 -3.400663e+00 8.085177e-01 177 173 149
-5.593142e-02 -3.054973e+00 -8.245009e-02 56 50 42
-7.674018e-01 -3.347948e+00 8.521940e-01 185 184 169
-7.196676e-01 -3.138807e+00 3.662905e-01 68 56 38
-8.326169e-01 -3.304754e+00 1.030106e+00 75 61 50
-8.443983e-01 -3.237566e+00 1.193302e+00 102 90 72
7.484066e-01 -2.784692e+00 3.750078e-01 72 63 45
-6.342262e-01 -2.902146e+00 6.484792e-01 68 63 44
9.007459e-01 -2.637085e+00 5.230789e-01 60 53 36
9.161680e-01 -1.052514e+00 2.315530e-01 154 156 156
-3.485065e-01 -1.019210e+00 8.615548e-01 152 152 141
6.774604e-01 -7.541362e-01 3.053558e-01 149 149 133
-1.776882e-01 -7.007047e-01 8.128382e-01 106 100 76
1.570555e+00 -4.691784e+00 3.276267e-01 87 79 66
1.654410e+00 -4.676256e+00 4.139342e-01 97 94 78
1.424607e+00 -4.536958e+00 3.639201e-01 86 81 76
1.294406e+00 -4.545637e+00 2.550894e-01 116 117 107
1.705431e+00 -4.424089e+00 5.002958e-01 138 139 131
-7.897700e-01 -4.759388e+00 2.238433e-01 151 155 135
1.264267e+00 -4.090271e+00 2.743640e-01 78 73 57
4.132577e-01 -4.060915e+00 -2.086957e-01 62 59 49
-5.584841e-01 -4.288524e+00 1.926099e-01 156 151 126
9.677261e-01 -4.001604e+00 2.006916e-01 131 128 114
1.253044e-01 -4.066609e+00 -8.232170e-03 126 128 106
-7.682163e-01 -4.426645e+00 1.594384e+00 247 243 225
1.686281e-01 -3.979461e+00 -1.229419e-02 94 92 79
6.904712e-01 -3.883498e+00 -1.152311e-02 170 161 132
1.661814e+00 -3.750199e+00 4.055622e-01 108 103 84
-7.937704e-01 -4.054599e+00 5.775847e-02 91 84 72
4.221605e-01 -3.835369e+00 -9.415664e-02 151 155 139
-4.653464e-01 -3.982682e+00 2.515311e-01 180 184 162
-7.952136e-01 -4.150302e+00 8.826528e-01 111 92 69
-7.523281e-01 -3.951741e+00 1.984594e-01 166 168 146
-8.848243e-01 -4.023048e+00 5.511712e-01 92 83 60
-7.860144e-02 -3.790522e+00 1.223719e-01 173 174 161
-8.481516e-01 -3.915657e+00 4.616313e-01 127 112 91
-1.191337e-01 -3.696867e+00 7.594062e-04 164 160 138
3.888153e-01 -3.560779e+00 -2.099719e-01 138 132 110
4.135576e-01 -3.567973e+00 -1.551123e-01 138 132 110
3.596404e-01 -3.568578e+00 -1.468468e-01 157 146 124
-1.182331e-01 -3.645246e+00 1.220407e-02 159 153 128
1.401277e+00 -3.531918e+00 4.473530e-01 47 41 34
1.278251e+00 -3.529743e+00 3.740802e-01 134 131 115
-1.792196e-01 -3.655505e+00 6.937316e-02 170 168 146
-8.686077e-01 -3.833718e+00 8.391869e-01 184 182 162
-7.308260e-01 -3.623885e+00 2.335514e-01 168 152 128
-7.216789e-01 -3.627215e+00 2.460339e-01 168 152 128
-5.173556e-01 -3.534548e+00 1.384867e-01 99 99 89
-2.444383e-01 -3.454823e+00 8.799863e-02 114 102 85
-2.423445e-01 -3.436872e+00 1.057531e-01 162 159 140
1.003875e+00 -3.311524e+00 2.897813e-01 137 131 115
1.143183e+00 -3.285794e+00 3.191947e-01 80 71 60
-8.683908e-01 -3.650573e+00 9.781499e-01 96 83 62
1.340052e+00 -3.239532e+00 4.151760e-01 50 47 34
1.347651e+00 -3.244484e+00 4.375118e-01 50 47 34
-4.711387e-01 -3.311649e+00 1.077912e-01 87 70 40
-7.624485e-01 -3.447468e+00 4.890130e-01 76 62 51
-8.000143e-01 -3.521115e+00 8.509197e-01 168 161 135
-1.348983e+00 -3.756824e+00 1.832540e+00 226 229 215
-1.357980e+00 -3.769547e+00 1.863619e+00 217 219 214
-1.182732e+00 -3.723707e+00 1.777073e+00 235 236 223
-1.177675e+00 -3.706082e+00 1.770063e+00 83 87 99
-7.049958e-01 -3.172087e+00 3.927079e-01 151 145 123
-7.660639e-01 -3.277672e+00 7.604024e-01 77 65 47
-1.426304e-01 -2.993707e+00 5.015569e-02 151 149 128
7.807935e-01 -2.736734e+00 4.808892e-01 142 140 120
-5.891623e-01 -2.866091e+00 7.000078e-01 160 162 149
1.531923e+00 -1.546362e+00 3.290880e-01 181 183 176
-1.699180e+00 -1.277144e+00 1.720693e+00 231 234 217
-9.197087e-01 -9.643960e-01 1.184949e+00 166 160 144
9.844077e-01 2.054083e+00 -1.122706e+00 207 215 199
1.576043e+00 -4.436280e+00 4.385454e-01 149 143 133
8.561573e-01 -4.297455e+00 1.049942e-01 72 70 54
8.561573e-01 -4.297455e+00 1.049942e-01 72 70 54
1.017378e+00 -4.240163e+00 1.734410e-01 91 87 76
6.418333e-01 -4.192009e+00 -8.583295e-02 92 89 72
9.930829e-02 -4.143306e+00 2.185475e-03 33 31 23
-6.983799e-01 -4.397298e+00 9.298141e-01 65 52 58
-2.714021e-01 -4.152009e+00 2.153743e-01 174 172 150
-3.936418e-01 -4.162699e+00 1.980918e-01 173 175 160
-9.516183e-01 -4.395599e+00 1.371500e+00 97 84 72
1.610784e+00 -3.829346e+00 5.461318e-01 159 165 163
8.890582e-01 -3.843686e+00 8.823741e-02 68 59 51
1.053651e+00 -3.829054e+00 1.775335e-01 52 50 34
1.068826e+00 -3.832678e+00 2.185763e-01 52 50 34
1.762570e-02 -3.950999e+00 1.140215e-01 88 83 58
1.504545e+00 -3.767284e+00 5.163008e-01 175 170 154
6.701653e-01 -3.746093e+00 4.105173e-02 35 35 26
