ply
format ascii 1.0
element face 0
property list uchar int vertex_indices
element vertex 640
property float x
property float y
property float z
property uchar diffuse_red
property uchar diffuse_green
property uchar diffuse_blue
end_header
-9.421714e-02 -3.396741e+00 2.999959e+00 144 149 144
5.916364e-01 -3.263496e+00 2.997205e+00 151 162 159
1.732184e+00 7.458895e-01 3.032326e+00 163 164 163
2.657356e+00 -3.577524e+00 2.982988e+00 176 188 201
-5.936684e+00 1.244867e+00 2.968634e+00 149 159 152
-6.523101e+00 1.446306e+00 2.975812e+00 157 161 153
-5.606554e+00 1.244425e+00 2.968307e+00 156 158 155
-6.619150e+00 1.590820e+00 2.980583e+00 79 74 58
-5.142037e+00 1.581942e+00 2.982032e+00 167 173 168
2.947731e+00 2.286841e+00 2.988109e+00 99 99 89
1.978912e+00 -8.029992e-01 3.088504e+00 121 120 107
4.207178e+00 2.185449e-01 2.989616e+00 169 174 167
1.387362e+00 -3.205721e+00 2.993620e+00 168 173 175
-6.301215e+00 6.056238e+00 2.997755e+00 134 146 140
-3.273120e+00 -5.286143e-01 3.039668e+00 145 147 142
3.318144e+00 -5.841730e-01 2.974839e+00 69 66 61
-9.421714e-02 -3.396741e+00 2.999959e+00 144 149 144
-6.525969e+00 1.765556e+00 2.986508e+00 157 159 148
-1.256782e+00 -3.250381e+00 3.004715e+00 164 169 172
4.506576e+00 9.238844e-02 2.985898e+00 169 172 165
-1.503256e+00 9.039426e-01 2.904158e+00 94 91 82
-1.422370e-01 -3.757663e+00 3.000094e+00 85 83 62
-6.429807e-01 -3.206834e+00 3.002968e+00 166 171 176
1.623442e+00 -3.332379e+00 2.993083e+00 76 68 45
5.646953e-03 -3.662225e+00 2.999968e+00 80 77 60
-5.120781e-01 -3.097879e+00 3.001778e+00 147 156 154
2.000644e+00 -3.456661e+00 2.989396e+00 93 91 76
-1.737428e+00 -2.894666e+00 3.007772e+00 135 140 130
3.753564e+00 7.142957e-02 2.999995e+00 107 98 81
1.163126e+00 -3.274310e+00 2.996643e+00 82 76 56
1.863381e+00 -3.301504e+00 2.990292e+00 154 155 155
2.274027e+00 -2.110945e+00 2.987549e+00 159 160 152
1.476999e+00 8.810426e-01 3.033339e+00 175 181 177
1.256091e+00 -3.455901e+00 3.000318e+00 138 140 135
1.869592e+00 -2.030253e+00 2.988960e+00 135 135 130
1.977485e+00 1.088623e+00 3.014296e+00 141 148 140
1.452666e+00 -3.287814e+00 2.994395e+00 76 68 47
9.568863e-01 -3.106060e+00 2.994741e+00 148 151 149
1.337496e+00 -3.075768e+00 2.992302e+00 141 142 132
3.344763e+00 -1.104524e+00 2.969153e+00 150 153 153
3.023244e+00 3.492605e+00 2.993096e+00 135 141 140
2.237364e+00 -4.047187e+00 2.991863e+00 45 43 31
1.916657e+00 -3.439003e+00 2.990953e+00 65 59 44
1.327432e+00 -3.248865e+00 2.995760e+00 83 75 59
-2.800674e+00 2.494921e+00 3.051926e+00 93 95 88
1.618050e+00 -3.284827e+00 2.992655e+00 159 165 161
1.152877e+00 -3.192688e+00 2.995536e+00 73 62 44
-5.078188e+00 1.227732e+00 2.969085e+00 72 68 50
-4.859375e+00 1.467731e+00 2.981368e+00 161 162 153
8.661526e-01 1.033057e+00 3.047674e+00 94 94 84
3.126365e+00 3.318522e+00 2.993545e+00 165 182 189
1.521827e+00 -3.661901e+00 2.997928e+00 131 132 125
2.075126e+00 -3.491632e+00 2.989434e+00 68 64 50
1.273876e+00 -3.046762e+00 2.992669e+00 145 148 139
-2.370504e+00 -1.179719e+00 3.031560e+00 139 139 130
-4.300723e+00 2.253018e-01 2.945582e+00 139 137 125
2.033500e+00 4.242942e-02 3.002560e+00 139 138 127
1.925994e+00 2.058661e-01 3.041174e+00 138 138 131
-5.075514e+00 1.483810e+00 2.980933e+00 88 82 71
2.439459e-01 1.023552e+00 3.088437e+00 71 67 51
1.820982e+00 2.067531e+00 3.005871e+00 56 56 48
-4.788815e+00 3.788899e+00 3.016299e+00 168 173 169
1.746523e+00 -3.402767e+00 2.992516e+00 119 120 108
-1.131853e+00 -3.089309e+00 3.004080e+00 150 156 151
-2.027722e+00 -2.980962e+00 3.007353e+00 53 50 39
-1.524645e+00 -2.987701e+00 3.005548e+00 72 68 56
4.895140e-01 -3.038436e+00 2.996479e+00 143 149 141
-4.306408e-01 -2.418645e+00 3.000695e+00 87 84 74
-3.667984e+00 -1.437157e+00 3.031789e+00 60 59 48
-1.944570e+00 -1.405962e+00 3.017930e+00 136 137 120
-1.395148e+00 -1.387080e+00 3.009823e+00 133 126 110
-2.892051e+00 -1.166388e+00 3.038357e+00 80 72 49
1.420267e+00 -1.849596e-01 3.121817e+00 143 139 119
1.778021e+00 1.996415e+00 3.010615e+00 49 49 42
1.803621e+00 2.011889e+00 3.008352e+00 125 127 119
1.803621e+00 2.011889e+00 3.008352e+00 125 127 119
2.262549e+00 4.286585e+00 2.991572e+00 111 111 110
2.824428e+00 -4.061321e+00 2.979500e+00 76 73 65
1.184350e+00 -3.163449e+00 2.994791e+00 144 147 143
1.398740e+00 -2.989927e+00 2.989995e+00 56 49 41
3.315903e+00 -2.418994e+00 2.975735e+00 59 55 45
2.047463e+00 -1.583781e+00 2.976934e+00 148 134 117
2.047463e+00 -1.583781e+00 2.976934e+00 148 134 117
1.420267e+00 -1.849596e-01 3.121817e+00 143 139 119
1.898677e+00 3.845713e-01 3.034174e+00 167 173 169
1.945847e+00 4.273755e-01 3.029359e+00 31 31 23
1.945847e+00 4.273755e-01 3.029359e+00 31 31 23
1.966099e+00 6.214800e-01 3.029206e+00 85 84 79
2.795140e+00 1.367239e+00 2.977857e+00 155 159 153
1.332607e+00 2.037308e+00 3.015145e+00 166 175 177
-3.904929e+00 3.316595e+00 3.012879e+00 140 143 132
8.387251e-01 2.368038e+00 3.015494e+00 169 181 178
-4.870735e+00 4.037813e+00 3.022147e+00 168 171 165
-4.870735e+00 4.037813e+00 3.022147e+00 168 171 165
5.243180e-01 2.831109e+00 3.010174e+00 176 176 163
1.917595e+00 2.961057e+00 2.984657e+00 82 81 70
2.039529e+00 2.973321e+00 2.982538e+00 74 74 67
2.128130e+00 3.789599e+00 3.001326e+00 130 140 142
-2.627184e-02 -3.779751e+00 3.001843e+00 44 47 35
1.109470e+00 -3.201383e+00 2.995537e+00 130 130 114
1.665550e+00 -2.609738e+00 2.990465e+00 152 151 139
2.790566e+00 -2.637820e+00 2.985814e+00 63 54 47
2.642622e+00 3.836673e-01 2.981227e+00 175 191 194
-3.794638e+00 1.580332e+00 2.977198e+00 53 54 46
2.146341e+00 7.983685e-01 3.019656e+00 76 73 61
3.137470e+00 1.894395e+00 2.992356e+00 112 112 103
-5.871212e+00 4.176879e+00 3.018312e+00 77 78 70
3.556799e+00 2.068694e+00 2.983776e+00 169 171 168
1.915947e+00 2.916681e+00 2.985261e+00 157 156 143
-4.563956e+00 6.296334e+00 3.021039e+00 151 157 151
-4.212430e+00 6.400085e+00 3.026393e+00 68 67 72
-5.289662e+00 3.549355e+00 3.006877e+00 46 52 51
-2.828599e+00 -6.028400e-01 3.033376e+00 156 158 151
-3.182551e+00 -5.694263e-01 3.038459e+00 163 170 163
-6.468987e+00 1.268147e+00 2.972503e+00 83 83 75
5.860992e-01 4.240509e-01 3.199507e+00 104 97 78
-5.936684e+00 1.244867e+00 2.968634e+00 149 159 152
4.419160e+00 -2.642518e-01 2.994901e+00 31 28 24
-6.337255e+00 1.354186e+00 2.972776e+00 87 88 76
-6.822864e+00 1.538939e+00 2.978888e+00 87 82 68
3.953009e+00 -3.233759e-02 3.001286e+00 75 72 63
-5.142171e+00 1.582096e+00 2.982127e+00 167 173 168
3.952356e+00 2.101025e-01 2.994789e+00 167 170 163
-3.696690e+00 -1.383340e+00 3.035217e+00 140 141 135
-3.274831e+00 -9.848647e-01 3.049537e+00 142 145 134
-2.670770e+00 -5.811067e-01 3.034375e+00 143 160 164
2.064082e+00 4.464657e-01 3.028207e+00 95 96 88
-5.521372e+00 2.133173e+00 2.993632e+00 92 92 90
-4.849710e+00 2.025456e+00 2.989909e+00 68 69 64
-5.034488e+00 4.294919e+00 3.028490e+00 63 64 49
2.869477e+00 2.323262e+00 2.988266e+00 90 91 84
-6.366577e+00 5.990223e+00 2.996137e+00 147 157 162
-3.427389e+00 -1.046105e+00 3.043006e+00 84 78 65
4.516242e+00 -9.631624e-01 2.993433e+00 171 176 179
-5.192895e+00 1.664053e-01 2.956023e+00 84 76 56
-5.898403e+00 1.787747e+00 2.986732e+00 156 158 145
-5.898403e+00 1.787747e+00 2.986732e+00 156 158 145
-5.787578e+00 1.786378e+00 2.987228e+00 157 155 147
3.513996e+00 2.093941e+00 2.983545e+00 171 173 166
3.301468e+00 2.152106e+00 2.985848e+00 159 163 158
3.596568e+00 2.077434e+00 2.982631e+00 168 170 164
3.750131e+00 2.043837e+00 2.980938e+00 164 169 163
3.998725e+00 1.999789e+00 2.977732e+00 119 120 121
-2.468389e+00 -7.227358e-01 3.021100e+00 154 159 154
-6.112097e+00 9.065695e-01 2.964774e+00 153 160 154
-1.977690e+00 5.829983e-01 2.911950e+00 47 47 39
-4.258936e+00 1.089517e+00 2.970565e+00 97 94 80
-4.529709e+00 4.078602e+00 3.024926e+00 140 139 129
4.038304e+00 1.971392e+00 2.977749e+00 171 179 171
-6.358066e-02 -2.814197e+00 2.994837e+00 61 66 74
2.056761e+00 3.058075e-01 3.030676e+00 156 162 158
8.413995e-01 2.406449e+00 3.014319e+00 116 117 111
-4.523340e+00 4.139402e+00 3.027085e+00 64 61 51
-4.523340e+00 4.139402e+00 3.027085e+00 64 61 51
1.895140e+00 -3.725446e+00 2.994290e+00 122 124 113
2.631043e+00 -3.597847e+00 2.983280e+00 170 186 202
2.684504e+00 -3.255069e+00 2.983783e+00 165 175 177
-2.884150e+00 -1.538307e+00 3.026039e+00 47 38 29
-2.019367e-01 -1.644093e+00 2.987697e+00 119 116 106
2.417602e+00 -1.769130e+00 2.978521e+00 136 139 130
-2.663514e+00 -1.378694e+00 3.029410e+00 111 113 108
-2.663514e+00 -1.378694e+00 3.029410e+00 111 113 108
1.993207e+00 -1.901324e+00 2.985661e+00 45 41 30
2.739914e+00 -3.839459e+00 2.979503e+00 71 72 64
-5.894988e+00 2.046709e+00 2.990262e+00 168 179 174
4.396081e+00 1.530237e+00 2.977015e+00 136 139 132
2.872398e+00 -3.909453e+00 2.977670e+00 88 85 71
2.928826e+00 -3.874437e+00 2.975938e+00 162 164 178
3.089956e+00 -3.979711e+00 2.970808e+00 160 166 177
2.315348e+00 -3.999939e+00 2.989589e+00 143 145 144
2.201605e+00 -3.557649e+00 2.988495e+00 82 77 64
8.078635e-02 -3.558176e+00 2.999849e+00 164 168 169
2.129642e+00 -3.462654e+00 2.988834e+00 168 179 181
1.085797e+00 -3.101572e+00 2.994127e+00 144 146 143
1.085797e+00 -3.101572e+00 2.994127e+00 144 146 143
3.190858e+00 -2.029867e+00 2.979303e+00 57 59 46
-2.973789e+00 -1.561138e+00 3.024262e+00 46 42 31
-2.609223e+00 -7.484573e-01 3.022789e+00 138 140 135
4.322482e+00 -7.995000e-01 2.998822e+00 81 82 71
4.248509e+00 -7.470368e-01 3.000075e+00 80 80 68
1.268691e+00 1.738450e-01 3.111801e+00 151 145 133
1.268691e+00 1.738450e-01 3.111801e+00 151 145 133
-5.978746e+00 1.137411e+00 2.966796e+00 34 32 19
-5.606554e+00 1.244425e+00 2.968307e+00 156 158 155
1.601679e+00 5.902107e-01 3.039731e+00 160 171 164
-3.944472e+00 1.499005e+00 2.973334e+00 157 158 151
7.936098e-01 1.006750e+00 3.054057e+00 163 168 156
6.189597e-01 1.066730e+00 3.058544e+00 168 172 161
-6.983113e+00 4.174734e+00 3.010716e+00 153 162 163
2.977971e+00 -3.961193e+00 2.973492e+00 90 91 78
1.523721e-01 -3.589609e+00 2.999470e+00 83 77 62
-2.701060e+00 -6.402791e-01 3.028972e+00 61 63 51
-4.503277e+00 1.215958e-01 2.944926e+00 136 135 121
-4.776790e+00 2.167895e-01 2.950744e+00 65 57 41
1.764040e+00 -2.068458e-01 3.085491e+00 156 155 150
-2.623371e+00 2.639642e-01 3.046315e+00 171 173 172
-5.471954e+00 8.404047e-01 2.962979e+00 138 145 140
1.023828e+00 3.032365e-01 3.129485e+00 142 138 126
7.697248e-01 4.261257e-01 3.155929e+00 147 143 130
1.153248e+00 4.258742e-01 3.091760e+00 143 143 133
1.028160e+00 4.987034e-01 3.100264e+00 146 143 131
7.954830e-01 6.024689e-01 3.114358e+00 148 143 129
-5.263806e+00 1.309808e+00 2.969765e+00 68 66 53
1.471490e+00 6.702491e-01 3.039648e+00 177 182 180
-5.327889e+00 1.655573e+00 2.984347e+00 164 165 161
1.308104e+00 8.333194e-01 3.039028e+00 98 99 91
1.163823e+00 9.087238e-01 3.043344e+00 107 106 95
1.018240e+00 9.705215e-01 3.044758e+00 104 104 94
4.872360e-01 1.113492e+00 3.061539e+00 171 175 171
2.461704e+00 1.421670e+00 2.980834e+00 79 73 66
4.308327e+00 1.580135e+00 2.978597e+00 138 139 132
-6.686791e+00 4.336729e+00 3.014596e+00 154 158 157
2.838449e+00 -4.007932e+00 2.978696e+00 67 61 50
2.045988e+00 -3.924338e+00 2.993124e+00 71 68 50
2.360467e+00 -3.679328e+00 2.986963e+00 126 123 108
2.360467e+00 -3.679328e+00 2.986963e+00 126 123 108
1.600141e+00 -3.687531e+00 2.997677e+00 130 134 129
2.328517e+00 -3.599112e+00 2.986702e+00 80 77 68
4.180523e-01 -3.601314e+00 3.001418e+00 61 58 48
1.915686e+00 -3.389570e+00 2.990283e+00 166 171 172
9.713266e-01 -3.338317e+00 2.998605e+00 119 114 97
-1.438899e+00 -3.084055e+00 3.005333e+00 144 145 140
-3.498510e-01 -3.094721e+00 3.000890e+00 150 154 152
2.033051e-01 -2.974185e+00 2.996850e+00 132 134 123
-7.646264e-02 -2.970601e+00 2.998252e+00 128 128 118
-2.258614e-01 -2.969079e+00 2.999386e+00 129 132 124
4.069731e+00 -2.476342e+00 2.960683e+00 146 152 148
2.749095e+00 -2.018980e+00 2.984349e+00 97 91 77
-1.881558e+00 -1.616136e+00 3.014030e+00 122 123 114
2.964696e+00 -1.793535e+00 2.977579e+00 141 144 142
-4.664723e+00 -1.195610e+00 3.020463e+00 71 62 44
-4.859695e+00 -1.179353e+00 3.020695e+00 74 68 49
-1.324444e+00 -1.399013e+00 3.008075e+00 133 129 112
-1.467484e+00 -1.315787e+00 3.012780e+00 82 76 62
-1.816459e+00 -1.281341e+00 3.019510e+00 92 86 70
-3.293241e-01 -1.379435e+00 2.980236e+00 98 94 82
-6.397530e-01 -1.365264e+00 2.988851e+00 80 74 60
-8.022193e-01 -1.353990e+00 2.993506e+00 80 75 55
-1.644676e+00 -1.292983e+00 3.016751e+00 92 86 71
-1.644676e+00 -1.292983e+00 3.016751e+00 92 86 71
1.149334e+00 -1.477519e+00 2.973045e+00 90 85 64
2.770627e-01 -1.415855e+00 2.972982e+00 97 91 75
2.914162e+00 -1.588859e+00 2.974340e+00 104 96 81
2.799815e+00 -1.581774e+00 2.974763e+00 99 92 76
4.544091e+00 -1.695511e+00 2.956811e+00 96 90 74
4.593528e+00 -1.696162e+00 2.955708e+00 145 142 134
3.653634e+00 -1.485095e+00 2.962182e+00 96 92 83
3.547565e+00 -1.476433e+00 2.962756e+00 94 89 70
2.640865e+00 -7.919275e-01 3.032836e+00 156 161 157
2.267369e+00 -1.542787e-01 3.037383e+00 143 144 136
1.958090e+00 5.044485e-02 3.048390e+00 131 130 125
-5.872220e+00 1.143617e+00 2.966983e+00 129 131 118
-1.431172e+00 4.512942e-01 2.841665e+00 75 75 66
-1.356119e+00 4.984905e-01 2.838084e+00 76 76 66
-1.356119e+00 4.984905e-01 2.838084e+00 76 76 66
1.776463e+00 2.844963e-01 3.045939e+00 69 66 54
1.559042e+00 4.389413e-01 3.052688e+00 70 70 62
1.338344e+00 5.123492e-01 3.065184e+00 137 136 122
-5.378964e+00 1.523893e+00 2.980363e+00 93 88 75
-5.989654e+00 1.638392e+00 2.981715e+00 142 143 128
-5.730941e+00 1.636903e+00 2.981592e+00 143 142 128
-6.525969e+00 1.765556e+00 2.986508e+00 157 159 148
-6.333883e+00 1.866907e+00 2.988508e+00 106 107 96
4.373860e+00 2.008213e-01 2.986769e+00 92 91 82
4.849755e-01 9.906925e-01 3.074997e+00 137 137 128
1.538108e+00 9.335408e-01 3.029947e+00 174 180 177
1.050971e+00 1.228430e+00 3.030598e+00 47 48 41
7.715985e-01 1.297330e+00 3.033903e+00 55 57 46
-7.246165e+00 2.595716e+00 2.995643e+00 82 80 67
-5.440735e+00 2.316333e+00 2.998083e+00 82 82 69
4.733188e+00 7.597965e-01 2.977257e+00 167 179 185
2.748910e+00 1.341522e+00 2.980408e+00 64 63 52
-6.282822e+00 3.579837e+00 3.005351e+00 169 181 177
4.464007e+00 1.355799e+00 2.978670e+00 164 180 184
4.464007e+00 1.355799e+00 2.978670e+00 164 180 184
4.481552e+00 1.503123e+00 2.975987e+00 82 81 86
-6.679068e+00 3.964019e+00 3.007225e+00 160 171 165
4.551889e+00 1.510931e+00 2.975441e+00 151 158 151
8.359795e-02 2.664943e+00 3.015963e+00 38 38 36
-4.173420e+00 3.678087e+00 3.016867e+00 165 171 167
2.789699e+00 2.336159e+00 2.989763e+00 99 103 96
3.166621e+00 2.243740e+00 2.986178e+00 90 92 86
4.065610e+00 2.015718e+00 2.976649e+00 103 108 110
4.065610e+00 2.015718e+00 2.976649e+00 103 108 110
3.089898e+00 3.609069e+00 2.988874e+00 164 166 163
-8.693276e+00 8.346352e+00 2.915364e+00 164 167 172
-6.269505e-01 -3.993346e+00 3.000902e+00 130 137 136
8.151091e-01 -3.831652e+00 3.002532e+00 99 102 85
-5.319263e-02 -3.101539e+00 2.999557e+00 146 148 144
-1.813919e+00 -2.980901e+00 3.006895e+00 66 66 53
-3.589346e+00 -2.896119e+00 3.017652e+00 146 155 150
2.768830e-01 -2.978059e+00 2.996128e+00 129 130 122
2.263906e+00 -2.981353e+00 2.985902e+00 125 126 112
-1.737428e+00 -2.894666e+00 3.007772e+00 135 140 130
-1.175634e+00 -2.866159e+00 3.004158e+00 78 72 56
1.586481e+00 -2.884190e+00 2.984763e+00 87 84 69
-1.985992e-02 -2.844196e+00 2.994557e+00 158 173 173
-1.985992e-02 -2.844196e+00 2.994557e+00 158 173 173
-2.622387e+00 -2.774753e+00 3.017203e+00 128 131 121
2.687372e+00 -2.860064e+00 2.978571e+00 146 150 149
2.687372e+00 -2.860064e+00 2.978571e+00 146 150 149
-3.484858e+00 -2.697857e+00 3.023007e+00 135 140 133
-3.712707e+00 -2.655518e+00 3.025852e+00 81 74 65
3.181084e+00 -2.051034e+00 2.980773e+00 59 60 55
-3.098252e+00 -1.513694e+00 3.027060e+00 88 89 77
4.372794e+00 -1.752169e+00 2.961283e+00 71 64 38
3.802706e+00 -1.677439e+00 2.962326e+00 122 124 111
-4.271713e+00 8.032479e-02 2.941519e+00 148 146 133
-5.034516e+00 2.356972e-01 2.955291e+00 77 69 48
-4.461574e+00 1.180760e+00 2.972353e+00 92 85 73
-6.414845e+00 1.479749e+00 2.978075e+00 150 152 148
1.593773e+00 4.678845e-01 3.048166e+00 143 144 131
-4.783143e+00 1.302262e+00 2.973395e+00 152 150 136
3.955812e+00 1.506354e-01 2.995999e+00 87 79 67
-6.615504e+00 1.755600e+00 2.986176e+00 156 158 146
1.875778e+00 8.669802e-01 3.023488e+00 156 160 157
1.594496e+00 1.124935e+00 3.021592e+00 69 69 58
1.973426e+00 1.047229e+00 3.016144e+00 81 85 70
-7.082612e+00 2.610681e+00 2.997376e+00 148 149 144
-5.145505e+00 2.315188e+00 2.998654e+00 159 164 154
-1.152555e+00 2.941579e+00 3.016162e+00 180 193 203
4.715862e-01 2.617110e+00 3.013214e+00 194 205 206
3.923561e+00 1.875026e+00 2.980998e+00 168 181 182
2.680523e+00 2.313090e+00 2.991625e+00 149 150 137
3.448119e+00 2.116291e+00 2.984215e+00 160 163 156
3.902430e+00 2.060550e+00 2.978096e+00 110 112 109
1.979064e+00 2.987239e+00 2.983862e+00 88 82 82
1.979064e+00 2.987239e+00 2.983862e+00 88 82 82
-4.703849e+00 5.886265e+00 3.011943e+00 144 155 151
2.410701e+00 -4.108390e+00 2.987227e+00 60 60 46
2.318909e+00 -3.718387e+00 2.988596e+00 113 116 100
1.464427e+00 -3.705408e+00 2.999500e+00 60 58 46
1.650734e-01 -3.685502e+00 3.000963e+00 114 112 98
2.171313e+00 -3.652647e+00 2.990663e+00 118 119 105
2.171313e+00 -3.652647e+00 2.990663e+00 118 119 105
1.441196e+00 -3.647784e+00 2.999855e+00 62 56 43
2.254253e+00 -3.585496e+00 2.987404e+00 139 145 133
1.867523e+00 -3.420897e+00 2.990957e+00 146 143 133
1.656675e+00 -3.355144e+00 2.992768e+00 135 137 125
1.367252e+00 -3.237492e+00 2.994646e+00 85 79 65
-2.742814e-01 -3.193805e+00 3.001122e+00 163 167 166
-2.133924e-02 -3.171504e+00 3.000063e+00 90 88 77
2.263269e+00 -3.126710e+00 2.986984e+00 145 150 147
-8.978203e-01 -3.094441e+00 3.003395e+00 143 145 141
2.757176e+00 -3.119862e+00 2.982781e+00 147 149 140
1.626090e+00 -3.023198e+00 2.989994e+00 71 64 57
2.276335e+00 -3.014501e+00 2.986342e+00 82 78 67
-1.504521e+00 -2.955047e+00 3.005961e+00 145 147 141
1.707554e+00 -2.996907e+00 2.989005e+00 141 143 130
-2.602762e+00 -2.836587e+00 3.016040e+00 139 150 146
-3.773160e+00 -2.742977e+00 3.022281e+00 78 75 65
1.976153e+00 -2.875238e+00 2.983647e+00 103 102 85
3.276098e+00 -2.853259e+00 2.972453e+00 143 148 143
3.926937e+00 -2.476779e+00 2.964381e+00 146 148 145
4.004402e+00 -2.306134e+00 2.961381e+00 151 153 148
8.567432e-01 -2.127295e+00 2.991419e+00 102 95 77
-3.997767e+00 -1.318599e+00 3.016480e+00 67 59 40
2.817138e+00 -1.694602e+00 2.976970e+00 139 140 132
1.214982e-01 -1.479540e+00 2.977915e+00 120 112 102
1.233726e+00 -1.550832e+00 2.977130e+00 73 62 42
1.872067e+00 -1.585541e+00 2.977882e+00 103 90 66
4.492311e+00 -1.753368e+00 2.958911e+00 96 87 67
3.442002e+00 -1.685736e+00 2.964760e+00 173 186 185
3.785968e+00 -1.703872e+00 2.963095e+00 64 62 54
3.586356e+00 -1.596448e+00 2.964878e+00 79 70 57
-7.784602e-01 -8.687072e-01 2.991996e+00 137 142 134
-5.733716e+00 -1.269356e-01 2.963450e+00 69 70 57
4.249251e+00 -1.052953e+00 3.007218e+00 126 133 128
-5.616685e+00 2.567422e-01 2.966192e+00 161 169 163
-4.284773e+00 1.728899e-01 2.943591e+00 103 101 85
-5.799580e+00 4.053332e-01 2.967699e+00 91 91 87
1.069688e+00 7.115508e-02 3.149091e+00 93 88 72
4.416126e-01 5.095909e-01 3.218375e+00 76 65 53
-2.040798e-01 8.207669e-01 3.452404e+00 72 65 52
1.741948e+00 2.223925e-01 3.053787e+00 158 159 144
1.995058e+00 1.975655e-01 3.038159e+00 95 94 80
4.977367e-01 6.691263e-01 3.155288e+00 71 65 49
1.420341e+00 4.507557e-01 3.061921e+00 156 158 144
1.130631e+00 6.092064e-01 3.068973e+00 154 156 145
-5.742993e+00 1.523731e+00 2.977441e+00 155 158 141
-5.730040e+00 1.576223e+00 2.979275e+00 103 97 79
-5.730040e+00 1.576223e+00 2.979275e+00 103 97 79
-6.111276e+00 1.633370e+00 2.982114e+00 71 68 55
-5.866875e+00 1.633650e+00 2.981980e+00 73 66 51
3.253972e-04 1.002957e+00 3.141139e+00 85 81 70
-3.310937e-01 1.080090e+00 3.143919e+00 153 154 141
1.966099e+00 6.214800e-01 3.029206e+00 85 84 79
1.921975e+00 6.431720e-01 3.031241e+00 136 145 139
4.306259e+00 2.453642e-01 2.986312e+00 99 95 84
1.112725e+00 8.729472e-01 3.046702e+00 165 171 161
4.235719e+00 2.731294e-01 2.988008e+00 94 92 79
2.270613e-01 1.119343e+00 3.077096e+00 100 91 81
8.153110e-02 1.143972e+00 3.074411e+00 85 82 77
-5.348300e-01 1.272282e+00 3.050533e+00 173 177 172
-6.284336e+00 2.487215e+00 3.000508e+00 137 141 134
-4.922899e+00 2.270315e+00 2.997964e+00 127 132 123
1.664876e+00 2.147848e+00 3.009944e+00 76 76 65
4.026110e+00 1.614729e+00 2.982789e+00 154 158 160
-6.022197e+00 3.890318e+00 3.011129e+00 142 147 124
3.196073e+00 1.978934e+00 2.991090e+00 136 142 128
4.722628e+00 1.569930e+00 2.969543e+00 79 76 73
3.590685e+00 1.902323e+00 2.985224e+00 166 180 180
-5.165172e+00 3.916507e+00 3.015114e+00 121 127 112
-5.730619e+00 4.301614e+00 3.021341e+00 153 156 145
-5.730619e+00 4.301614e+00 3.021341e+00 153 156 145
6.404666e-01 2.885106e+00 3.008790e+00 88 88 81
-5.129085e+00 4.195943e+00 3.024115e+00 155 158 146
4.829153e+00 1.752736e+00 2.959114e+00 168 176 175
-4.091526e+00 4.124892e+00 3.029669e+00 76 77 71
-4.091526e+00 4.124892e+00 3.029669e+00 76 77 71
-5.356273e+00 4.433615e+00 3.031028e+00 157 160 142
2.139631e+00 2.942830e+00 2.981674e+00 72 71 64
-5.038411e+00 5.977759e+00 3.015689e+00 161 172 167
3.027734e+00 3.832731e+00 2.987058e+00 99 98 100
2.169875e+00 4.134326e+00 2.995057e+00 81 83 81
2.169875e+00 4.134326e+00 2.995057e+00 81 83 81
2.970663e+00 3.877338e+00 2.987396e+00 87 84 87
1.967086e+00 4.264908e+00 2.996341e+00 76 74 73
2.811703e+00 -4.038513e+00 2.979391e+00 121 121 113
1.623064e+00 -3.598030e+00 2.997961e+00 145 147 141
2.037218e+00 -3.467210e+00 2.989306e+00 84 85 78
1.417914e+00 -3.332751e+00 2.995828e+00 117 117 100
-2.178385e+00 -2.987634e+00 3.007664e+00 60 61 55
-1.759917e+00 -2.989686e+00 3.006832e+00 62 60 51
-2.300038e+00 -2.780325e+00 3.013694e+00 100 100 95
3.075075e+00 -2.874646e+00 2.975371e+00 72 71 57
-2.698899e+00 -2.717525e+00 3.018831e+00 146 152 143
-1.327482e+00 -2.649492e+00 3.005128e+00 153 158 150
-2.023437e+00 -2.572655e+00 3.007109e+00 82 78 71
3.050509e-01 -2.633567e+00 2.998835e+00 146 147 141
3.827121e+00 -2.692380e+00 2.956938e+00 163 169 165
2.967732e-01 -2.595819e+00 2.998182e+00 144 145 140
1.710193e+00 -2.571873e+00 2.989830e+00 156 157 149
3.933122e+00 -2.570500e+00 2.966214e+00 129 134 127
-3.108683e+00 -2.329936e+00 3.019739e+00 135 138 132
2.198614e+00 -2.518039e+00 2.986840e+00 55 54 41
3.938667e+00 -2.546467e+00 2.965593e+00 78 68 63
3.938667e+00 -2.546467e+00 2.965593e+00 78 68 63
3.932974e+00 -2.524822e+00 2.965257e+00 132 134 124
3.928489e+00 -2.500230e+00 2.964552e+00 79 78 65
-1.933590e+00 -1.570649e+00 3.015271e+00 62 62 49
-2.774449e+00 -1.467766e+00 3.031216e+00 87 83 66
1.823203e+00 -1.684554e+00 2.978575e+00 85 76 63
9.417388e-01 -1.597072e+00 2.977527e+00 148 151 132
1.959613e+00 -1.658410e+00 2.978406e+00 78 63 42
4.037933e+00 -1.787571e+00 2.959953e+00 146 153 148
-6.827161e-01 -1.432886e+00 2.993785e+00 72 64 38
-3.565693e+00 -1.106957e+00 3.039756e+00 83 75 62
3.848992e+00 -1.570085e+00 2.962150e+00 139 136 120
3.968664e+00 -1.567081e+00 2.960947e+00 81 70 54
3.074829e+00 -1.373244e+00 2.982499e+00 71 73 67
1.864590e+00 -1.180204e+00 2.982329e+00 169 173 179
1.336628e+00 -1.022525e+00 2.978836e+00 50 47 33
2.556846e+00 -8.688825e-01 3.043468e+00 92 89 77
4.428051e+00 -8.182908e-01 2.995351e+00 134 134 136
2.671690e+00 -5.813860e-01 3.026264e+00 139 142 136
3.997908e+00 -5.708139e-01 3.003073e+00 175 182 175
1.452592e+00 -2.064340e-02 3.105115e+00 85 79 63
-5.358379e+00 7.932088e-01 2.959545e+00 55 58 53
1.536027e+00 1.351278e-01 3.081871e+00 86 82 65
-1.375827e+00 3.407738e-01 2.823104e+00 160 165 156
1.369996e+00 2.463900e-01 3.089634e+00 82 78 65
-6.757392e+00 1.382639e+00 2.975594e+00 78 75 68
-6.774186e+00 1.425767e+00 2.976173e+00 156 162 155
1.904489e+00 2.803438e-01 3.037439e+00 103 105 92
-5.287020e+00 1.364741e+00 2.973236e+00 74 68 52
1.162990e+00 5.638394e-01 3.074111e+00 82 75 61
1.185474e+00 5.827166e-01 3.068631e+00 156 160 147
1.025815e+00 6.621094e-01 3.074110e+00 156 154 139
8.189448e-01 7.535309e-01 3.082122e+00 158 157 152
4.458662e-01 8.690320e-01 3.108919e+00 81 78 62
2.458377e-01 9.364839e-01 3.122820e+00 82 80 67
1.383105e+00 7.323689e-01 3.042550e+00 174 179 175
1.185240e+00 8.377993e-01 3.045073e+00 175 176 169
9.645902e-01 1.020493e+00 3.040877e+00 92 90 76
-5.422505e+00 1.969165e+00 2.989908e+00 122 120 106
1.739582e+00 9.216258e-01 3.024837e+00 149 152 140
1.130460e+00 1.074974e+00 3.036603e+00 78 76 72
5.421397e-01 1.191866e+00 3.044984e+00 160 161 155
1.535159e+00 1.011733e+00 3.026631e+00 172 174 166
1.394070e+00 1.043531e+00 3.029864e+00 162 163 158
-4.640341e+00 2.180557e+00 2.994771e+00 83 77 67
2.698756e+00 1.248168e+00 2.982429e+00 141 142 129
-7.329653e+00 3.172733e+00 2.980729e+00 95 92 85
2.265814e+00 1.484341e+00 2.981792e+00 141 143 131
2.265814e+00 1.484341e+00 2.981792e+00 141 143 131
1.827561e+00 1.964605e+00 3.009157e+00 148 154 147
3.582762e+00 1.540051e+00 2.990251e+00 77 80 82
-1.457845e-01 2.728805e+00 3.016417e+00 65 61 55
-4.291437e+00 3.662577e+00 3.017043e+00 149 154 144
-4.291437e+00 3.662577e+00 3.017043e+00 149 154 144
1.459672e+00 2.445915e+00 3.005848e+00 98 100 87
-2.184772e+00 3.328099e+00 3.018167e+00 105 106 91
7.538741e-01 2.695119e+00 3.009692e+00 163 166 161
1.984951e+00 2.415086e+00 2.985721e+00 69 64 57
4.962234e+00 1.652835e+00 2.958695e+00 98 97 94
3.215656e+00 2.184567e+00 2.986444e+00 154 154 142
2.349363e+00 2.540556e+00 2.980400e+00 105 103 98
2.349363e+00 2.540556e+00 2.980400e+00 105 103 98
-3.461557e+00 4.155165e+00 3.057766e+00 81 80 74
2.224906e+00 3.885389e+00 2.997490e+00 159 166 167
2.218962e+00 4.090713e+00 2.994724e+00 79 80 83
2.367938e+00 4.081351e+00 2.991283e+00 104 105 104
3.651097e+00 3.703853e+00 2.974602e+00 168 185 190
3.227996e+00 4.087375e+00 2.981594e+00 108 108 107
-5.582700e+00 7.044057e+00 3.024227e+00 174 185 182
-8.472811e+00 8.043974e+00 2.888514e+00 141 139 134
2.798742e+00 -4.016831e+00 2.980043e+00 51 47 38
2.810616e+00 -4.005313e+00 2.979735e+00 131 132 120
3.508821e-01 -3.999801e+00 3.002323e+00 130 130 118
2.552627e+00 -3.889753e+00 2.985938e+00 129 130 116
2.531230e+00 -3.863798e+00 2.986185e+00 60 53 36
2.299702e+00 -3.686285e+00 2.988773e+00 128 125 108
1.878688e+00 -3.589858e+00 2.995191e+00 112 110 95
1.879048e+00 -3.404109e+00 2.990224e+00 85 83 75
1.826375e+00 -3.405103e+00 2.991285e+00 141 144 138
1.479732e+00 -3.397721e+00 2.996495e+00 118 119 107
1.835948e+00 -3.389072e+00 2.990837e+00 87 87 84
1.294362e+00 -3.336259e+00 2.997572e+00 46 35 21
-1.789603e+00 -3.105656e+00 3.005710e+00 82 77 74
-1.061853e+00 -3.118505e+00 3.003975e+00 75 75 66
-1.061853e+00 -3.118505e+00 3.003975e+00 75 75 66
-1.833404e+00 -3.063573e+00 3.006375e+00 144 146 140
7.324097e-01 -3.053701e+00 2.994702e+00 108 104 94
-2.819808e+00 -2.890958e+00 3.016386e+00 149 156 149
3.856397e+00 -2.908752e+00 2.958384e+00 48 48 41
-1.888369e-01 -2.857630e+00 2.996364e+00 90 91 84
-2.964894e+00 -2.749000e+00 3.019412e+00 89 88 79
-2.643622e+00 -2.721368e+00 3.018848e+00 131 133 124
1.692785e+00 -2.360080e+00 2.985861e+00 78 75 62
-2.654806e+00 -1.633915e+00 3.024127e+00 83 79 65
-1.065106e+00 -1.690099e+00 3.002409e+00 127 128 119
3.204566e+00 -1.808992e+00 2.975707e+00 137 140 132
-9.279841e-01 -1.548765e+00 2.999749e+00 137 137 126
-1.231831e+00 -1.473517e+00 3.005651e+00 43 41 25
-1.294849e+00 -1.414007e+00 3.008033e+00 130 129 109
-1.213184e+00 -1.373176e+00 3.005817e+00 129 122 113
1.585273e+00 -1.544531e+00 2.976068e+00 149 144 128
1.101287e+00 -1.500182e+00 2.975007e+00 81 73 61
-5.281572e-01 -1.324620e+00 2.982919e+00 85 76 68
-4.187466e-01 -1.010949e+00 2.985778e+00 72 65 49
-5.482345e+00 4.062644e-01 2.965642e+00 114 119 107
-5.009141e+00 5.556224e-01 2.964062e+00 106 107 94
1.009874e+00 9.639474e-02 3.156133e+00 152 150 130
4.215470e+00 -4.424824e-01 3.002082e+00 163 176 175
4.237172e+00 -4.134178e-01 3.000150e+00 159 178 175
6.417064e-01 2.800738e-01 3.209963e+00 82 78 73
-4.681066e+00 1.110606e+00 2.967217e+00 72 75 65
2.100758e+00 3.108777e-01 3.027149e+00 110 112 111
4.407544e+00 -2.372068e-02 2.991122e+00 152 157 142
-5.513994e+00 1.440302e+00 2.975126e+00 69 64 49
-5.400459e+00 1.570781e+00 2.982764e+00 83 80 66
1.221507e+00 7.904479e-01 3.046176e+00 123 124 114
-6.352457e+00 1.900336e+00 2.990501e+00 85 81 72
7.460182e-01 1.001814e+00 3.056056e+00 118 118 103
-4.212006e+00 1.706217e+00 2.982820e+00 160 165 151
8.166502e-01 1.083907e+00 3.044611e+00 85 88 79
1.984089e+00 8.578594e-01 3.020934e+00 133 136 126
1.984089e+00 8.578594e-01 3.020934e+00 133 136 126
1.584517e+00 9.427222e-01 3.027026e+00 176 178 171
-1.691319e+00 1.437892e+00 2.957806e+00 157 162 149
1.101379e+00 1.107745e+00 3.035464e+00 168 172 158
1.324172e+00 1.062322e+00 3.030578e+00 159 168 163
-4.672182e+00 1.990755e+00 2.988362e+00 95 97 91
1.386068e+00 1.188788e+00 3.022315e+00 149 158 149
1.386068e+00 1.188788e+00 3.022315e+00 149 158 149
3.242394e-01 1.426262e+00 3.032885e+00 85 86 80
-2.825613e+00 2.710073e+00 3.061287e+00 143 149 142
1.728539e+00 2.068185e+00 3.009686e+00 80 82 70
-5.512086e+00 3.539463e+00 3.007326e+00 66 66 58
5.842161e-01 2.364402e+00 3.015811e+00 93 94 86
-6.819708e+00 3.860948e+00 3.006441e+00 78 78 69
-6.237767e+00 3.762317e+00 3.009824e+00 77 79 68
1.291652e+00 2.249247e+00 3.008641e+00 156 158 153
-4.495784e+00 3.561482e+00 3.019036e+00 93 92 87
3.743504e+00 1.769656e+00 2.985044e+00 183 190 186
4.027598e+00 1.711261e+00 2.980288e+00 149 162 165
-4.146682e+00 3.780522e+00 3.020569e+00 70 69 57
-9.891225e-01 3.131320e+00 3.017884e+00 94 93 88
-1.398567e+00 3.228194e+00 3.017751e+00 88 89 88
-6.220025e+00 4.254088e+00 3.017060e+00 149 154 131
-5.833388e+00 4.182929e+00 3.018213e+00 133 137 122
3.566840e+00 2.013072e+00 2.984213e+00 172 175 174
3.566840e+00 2.013072e+00 2.984213e+00 172 175 174
-5.707743e+00 4.291889e+00 3.021573e+00 164 169 159
-5.707743e+00 4.291889e+00 3.021573e+00 164 169 159
-6.702370e+00 4.553505e+00 3.018076e+00 85 86 71
-6.702370e+00 4.553505e+00 3.018076e+00 85 86 71
-6.340031e+00 4.485146e+00 3.020513e+00 91 89 76
-6.340031e+00 4.485146e+00 3.020513e+00 91 89 76
-7.047800e+00 4.678938e+00 3.017235e+00 155 160 153
-7.047800e+00 4.678938e+00 3.017235e+00 155 160 153
2.664728e+00 2.399311e+00 2.989959e+00 95 92 88
-5.805926e+00 4.433343e+00 3.025325e+00 152 153 130
3.574306e+00 2.160316e+00 2.980995e+00 95 94 89
3.130398e+00 2.299603e+00 2.985344e+00 165 168 157
1.859710e+00 2.637139e+00 2.985094e+00 163 166 149
1.790882e+00 2.723453e+00 2.983755e+00 156 157 141
1.790882e+00 2.723453e+00 2.983755e+00 156 157 141
4.929345e+00 1.953681e+00 2.957256e+00 128 127 127
-3.448621e+00 4.508457e+00 3.057969e+00 111 111 101
-3.748543e+00 5.102873e+00 3.066090e+00 90 91 85
2.182567e+00 3.681306e+00 3.001616e+00 124 125 121
2.297681e+00 3.679028e+00 2.999140e+00 89 90 95
2.270697e+00 3.983110e+00 2.995024e+00 160 171 167
2.270697e+00 3.983110e+00 2.995024e+00 160 171 167
-4.919552e+00 6.440980e+00 3.022129e+00 151 157 152
-2.666820e+00 -2.720229e+00 3.018568e+00 67 73 65
-2.681010e+00 -1.506914e+00 3.029965e+00 123 124 119
1.312665e+00 -1.526108e+00 2.975672e+00 136 130 111
2.755371e+00 -6.335918e-01 3.021192e+00 68 70 65
2.755371e+00 -6.335918e-01 3.021192e+00 68 70 65
1.838970e+00 -3.559949e-01 3.086571e+00 103 101 92
-4.689269e+00 5.993892e-01 2.962671e+00 187 192 186
1.496835e+00 3.514427e-01 3.066510e+00 136 130 114
1.182825e+00 5.338269e-01 3.076667e+00 141 139 126
-4.908587e+00 1.339577e+00 2.975197e+00 73 68 49
-5.936350e+00 1.718839e+00 2.985516e+00 149 147 135
-7.272860e+00 2.651557e+00 2.998241e+00 86 91 84
2.323437e+00 1.792916e+00 2.985908e+00 130 133 130
3.236248e+00 1.811722e+00 2.991258e+00 113 116 111
-5.702896e+00 3.773693e+00 3.017017e+00 100 100 90
-4.800449e+00 3.876944e+00 3.019938e+00 102 100 93
-3.886660e+00 3.799164e+00 3.022477e+00 84 86 78
-3.927979e+00 3.813988e+00 3.021840e+00 83 84 77
-5.000145e+00 4.052399e+00 3.021814e+00 110 107 96
-3.868567e+00 3.877504e+00 3.025431e+00 156 157 148
-3.868567e+00 3.877504e+00 3.025431e+00 156 157 148
-4.994477e+00 4.154307e+00 3.024253e+00 160 163 152
4.941623e+00 1.690253e+00 2.958923e+00 97 100 99
3.386235e+00 2.155367e+00 2.984483e+00 98 94 83
-4.293466e+00 4.092620e+00 3.027210e+00 71 71 59
-4.523340e+00 4.139402e+00 3.027085e+00 64 61 51
-4.360902e+00 4.191710e+00 3.030990e+00 75 76 70
1.956662e+00 2.807076e+00 2.984530e+00 177 182 176
-3.364245e+00 4.661198e+00 3.062503e+00 88 84 73
5.002407e+00 -7.547232e+00 -5.284632e+00 0 255 0
5.021777e+00 -7.577272e+00 -5.319595e+00 255 255 0
-5.008364e-01 -8.163063e-02 2.487310e+00 255 0 0
-5.005723e-01 -8.262056e-02 2.437321e+00 255 255 0
