ply
format ascii 1.0
element face 0
property list uchar int vertex_indices
element vertex 633
property float x
property float y
property float z
property uchar diffuse_red
property uchar diffuse_green
property uchar diffuse_blue
end_header
-2.005300e-01 -3.483513e+00 2.971328e+00 144 149 144
5.245960e-01 -3.355567e+00 2.965555e+00 151 162 159
1.638534e+00 8.452824e-01 3.040999e+00 163 164 163
2.766672e+00 -3.769813e+00 2.937683e+00 176 188 201
-5.842919e+00 1.312509e+00 3.027410e+00 149 159 152
-6.349232e+00 1.491895e+00 3.040093e+00 157 161 153
-5.543739e+00 1.318961e+00 3.025068e+00 156 158 155
-6.427718e+00 1.626839e+00 3.047228e+00 79 74 58
-5.083661e+00 1.640620e+00 3.037369e+00 167 173 168
2.844582e+00 2.413610e+00 3.006120e+00 99 99 89
1.932215e+00 -7.397370e-01 3.083151e+00 121 120 107
4.272143e+00 3.123992e-01 2.976225e+00 169 174 167
1.373201e+00 -3.314294e+00 2.957428e+00 168 173 175
-5.885444e+00 5.651334e+00 3.116677e+00 134 146 140
-3.341895e+00 -4.362372e-01 3.049282e+00 145 147 142
3.355278e+00 -5.255889e-01 2.954651e+00 69 66 61
-2.005300e-01 -3.483513e+00 2.971328e+00 144 149 144
-6.331977e+00 1.790475e+00 3.053645e+00 157 159 148
-1.415477e+00 -3.291985e+00 2.984954e+00 164 169 172
4.601597e+00 1.811577e-01 2.970189e+00 169 172 165
-1.576391e+00 9.541851e-01 2.902623e+00 94 91 82
-2.507954e-01 -3.881935e+00 2.968304e+00 85 83 62
-7.760836e-01 -3.260326e+00 2.979907e+00 166 171 176
1.630604e+00 -3.462052e+00 2.954321e+00 76 68 45
-9.424852e-02 -3.780367e+00 2.968173e+00 80 77 60
-6.387601e-01 -3.144655e+00 2.978951e+00 147 156 154
2.043192e+00 -3.612797e+00 2.947404e+00 93 91 76
-1.904657e+00 -2.895224e+00 2.994333e+00 135 140 130
3.791791e+00 1.488694e-01 2.986509e+00 107 98 81
1.134271e+00 -3.383679e+00 2.961383e+00 82 76 56
1.889217e+00 -3.435102e+00 2.950318e+00 154 155 155
2.296728e+00 -2.137159e+00 2.957441e+00 159 160 152
1.373913e+00 9.801228e-01 3.045394e+00 175 181 177
1.237863e+00 -3.588131e+00 2.963141e+00 138 140 135
1.858534e+00 -2.043626e+00 2.962304e+00 135 135 130
1.883314e+00 1.190220e+00 3.023450e+00 141 148 140
1.445374e+00 -3.407270e+00 2.957108e+00 76 68 47
9.107859e-01 -3.192009e+00 2.962257e+00 148 151 149
1.316688e+00 -3.169206e+00 2.957586e+00 141 142 132
3.408175e+00 -1.076701e+00 2.942656e+00 150 153 153
2.881411e+00 3.570989e+00 3.023424e+00 135 141 140
2.321777e+00 -4.286726e+00 2.945644e+00 45 43 31
1.951289e+00 -3.590285e+00 2.949613e+00 65 59 44
1.309849e+00 -3.360261e+00 2.959698e+00 83 75 59
-2.777726e+00 2.439678e+00 3.078625e+00 93 95 88
1.623490e+00 -3.408978e+00 2.954320e+00 159 165 161
1.121630e+00 -3.293048e+00 2.961046e+00 73 62 44
-5.053112e+00 1.308164e+00 3.021726e+00 72 68 50
-4.828532e+00 1.535312e+00 3.033972e+00 161 162 153
7.501068e-01 1.130393e+00 3.067410e+00 94 94 84
2.995161e+00 3.398960e+00 3.020572e+00 165 182 189
1.529433e+00 -3.827122e+00 2.957285e+00 131 132 125
2.125454e+00 -3.654354e+00 2.946862e+00 68 64 50
1.249712e+00 -3.138724e+00 2.958878e+00 145 148 139
-2.490814e+00 -1.090492e+00 3.034605e+00 139 139 130
1.969433e+00 1.321705e-01 2.999512e+00 139 138 127
1.851683e+00 2.988003e-01 3.043468e+00 138 138 131
-5.027916e+00 1.547998e+00 3.034884e+00 88 82 71
1.223827e-01 1.123842e+00 3.119250e+00 71 67 51
1.702254e+00 2.145676e+00 3.023015e+00 56 56 48
-4.623241e+00 3.663222e+00 3.087720e+00 168 173 169
1.765662e+00 -3.544370e+00 2.952438e+00 119 120 108
-1.283734e+00 -3.119995e+00 2.985110e+00 150 156 151
-2.192140e+00 -2.986257e+00 2.993431e+00 53 50 39
-1.677978e+00 -3.005651e+00 2.988937e+00 72 68 56
4.152965e-01 -3.110921e+00 2.968134e+00 143 149 141
-5.467791e-01 -2.418862e+00 2.984728e+00 87 84 74
-3.775127e+00 -1.337616e+00 3.040335e+00 60 59 48
-2.078539e+00 -1.323953e+00 3.018846e+00 136 137 120
-1.536350e+00 -1.311310e+00 3.012317e+00 133 126 110
-3.001499e+00 -1.072184e+00 3.043665e+00 80 72 49
1.334035e+00 -9.638796e-02 3.129422e+00 143 139 119
1.662872e+00 2.064599e+00 3.025144e+00 49 49 42
1.687780e+00 2.086392e+00 3.024211e+00 125 127 119
1.687780e+00 2.086392e+00 3.024211e+00 125 127 119
2.080508e+00 4.330009e+00 3.038064e+00 111 111 110
2.970476e+00 -4.322601e+00 2.932771e+00 76 73 65
1.154692e+00 -3.261643e+00 2.960336e+00 144 147 143
1.381122e+00 -3.078669e+00 2.955716e+00 56 49 41
3.440296e+00 -2.490246e+00 2.936824e+00 59 55 45
2.030098e+00 -1.558238e+00 2.952994e+00 148 134 117
2.030098e+00 -1.558238e+00 2.952994e+00 148 134 117
1.334035e+00 -9.638796e-02 3.129422e+00 143 139 119
1.819057e+00 4.804605e-01 3.038034e+00 167 173 169
1.867017e+00 5.238511e-01 3.032968e+00 31 31 23
1.867017e+00 5.238511e-01 3.032968e+00 31 31 23
1.882963e+00 7.204472e-01 3.034668e+00 85 84 79
2.723913e+00 1.476653e+00 2.982804e+00 155 159 153
1.214850e+00 2.090578e+00 3.029996e+00 166 175 177
-3.828467e+00 3.248268e+00 3.073174e+00 140 143 132
7.168043e-01 2.404391e+00 3.035737e+00 169 181 178
-4.681186e+00 3.877293e+00 3.095386e+00 168 171 165
-4.681186e+00 3.877293e+00 3.095386e+00 168 171 165
3.938560e-01 2.864287e+00 3.042350e+00 176 176 163
1.778219e+00 3.028379e+00 3.012635e+00 82 81 70
1.972776e+00 3.815514e+00 3.037209e+00 130 140 142
-1.277404e-01 -3.910013e+00 2.969333e+00 44 47 35
1.075384e+00 -3.301442e+00 2.961216e+00 130 130 114
1.658938e+00 -2.669905e+00 2.958831e+00 152 151 139
2.876175e+00 -2.723657e+00 2.947491e+00 63 54 47
2.595263e+00 5.004297e-01 2.978521e+00 175 191 194
-3.823930e+00 1.657998e+00 3.026192e+00 53 54 46
2.070829e+00 8.690286e-01 3.018988e+00 76 73 61
3.061162e+00 2.007773e+00 3.002695e+00 112 112 103
-5.605327e+00 4.002416e+00 3.105518e+00 77 78 70
3.491568e+00 2.187312e+00 2.993947e+00 169 171 168
1.777555e+00 2.985537e+00 3.012761e+00 157 156 143
-4.344415e+00 5.906606e+00 3.125411e+00 151 157 151
-4.024970e+00 6.007087e+00 3.129082e+00 68 67 72
-5.103254e+00 3.444091e+00 3.081445e+00 46 52 51
-2.929004e+00 -5.024779e-01 3.045233e+00 156 158 151
-3.256620e+00 -4.778763e-01 3.047335e+00 163 170 163
-6.310692e+00 1.324539e+00 3.034438e+00 83 83 75
4.696114e-01 5.264915e-01 3.226154e+00 104 97 78
-5.842919e+00 1.312509e+00 3.027410e+00 149 159 152
4.527959e+00 -1.929147e-01 2.976009e+00 31 28 24
-6.184953e+00 1.406038e+00 3.034144e+00 87 88 76
-6.615842e+00 1.577323e+00 3.047476e+00 87 82 68
4.012354e+00 3.685450e-02 2.985902e+00 75 72 63
-5.083657e+00 1.640652e+00 3.037443e+00 167 173 168
3.996525e+00 2.992338e-01 2.981998e+00 167 170 163
-3.798085e+00 -1.282750e+00 3.043911e+00 140 141 135
-3.361994e+00 -8.867757e-01 3.056778e+00 142 145 134
-2.772300e+00 -4.818745e-01 3.045031e+00 143 160 164
1.989192e+00 5.433294e-01 3.031072e+00 95 96 88
-5.399668e+00 2.149098e+00 3.056572e+00 92 92 90
-4.785504e+00 2.060139e+00 3.047446e+00 68 69 64
-4.812568e+00 4.095825e+00 3.104290e+00 63 64 49
2.762244e+00 2.449070e+00 3.007282e+00 90 91 84
-5.946908e+00 5.596238e+00 3.115337e+00 147 157 162
-3.536388e+00 -9.433826e-01 3.056594e+00 84 78 65
4.675338e+00 -9.355182e-01 2.967190e+00 171 176 179
-5.211120e+00 2.663233e-01 2.996824e+00 84 76 56
-5.754977e+00 1.814463e+00 3.047557e+00 156 158 145
-5.768357e+00 1.825751e+00 3.049699e+00 156 158 145
-5.668170e+00 1.824411e+00 3.049349e+00 157 155 147
3.445827e+00 2.211739e+00 2.994177e+00 171 173 166
3.217049e+00 2.287255e+00 3.000352e+00 159 163 158
3.532733e+00 2.196589e+00 2.992698e+00 168 170 164
3.694734e+00 2.165405e+00 2.989947e+00 164 169 163
3.957026e+00 2.124808e+00 2.985214e+00 119 120 121
-2.578576e+00 -6.247194e-01 3.029318e+00 154 159 154
-6.004618e+00 9.829495e-01 3.019272e+00 153 160 154
-2.051202e+00 6.556026e-01 2.917219e+00 47 47 39
-4.286754e+00 1.180394e+00 3.016352e+00 97 94 80
-4.366359e+00 3.916621e+00 3.095464e+00 140 139 129
3.999917e+00 2.096973e+00 2.984760e+00 171 179 171
-1.763688e-01 -2.847991e+00 2.972324e+00 61 66 74
1.985323e+00 4.003413e-01 3.032300e+00 156 162 158
7.185904e-01 2.443206e+00 3.035455e+00 116 117 111
-4.379071e+00 3.990736e+00 3.102292e+00 64 61 51
-4.379071e+00 3.990736e+00 3.102292e+00 64 61 51
1.936743e+00 -3.911052e+00 2.951137e+00 122 124 113
2.738509e+00 -3.791867e+00 2.937927e+00 170 186 202
2.783284e+00 -3.408626e+00 2.940463e+00 165 175 177
-3.020759e+00 -1.449885e+00 3.031795e+00 47 38 29
-3.240418e-01 -1.594961e+00 2.981662e+00 119 116 106
2.434549e+00 -1.765663e+00 2.950258e+00 136 139 130
-2.794708e+00 -1.288651e+00 3.034845e+00 111 113 108
-2.794708e+00 -1.288651e+00 3.034845e+00 111 113 108
1.986550e+00 -1.903297e+00 2.959375e+00 45 41 30
2.868300e+00 -4.068392e+00 2.932943e+00 71 72 64
-5.746570e+00 2.067321e+00 3.055462e+00 168 179 174
4.399861e+00 1.657787e+00 2.977654e+00 136 139 132
3.017667e+00 -4.151865e+00 2.931062e+00 88 85 71
3.078772e+00 -4.113956e+00 2.929444e+00 162 164 178
3.261789e+00 -4.238004e+00 2.925013e+00 160 166 177
2.405954e+00 -4.235885e+00 2.943286e+00 143 145 144
2.265779e+00 -3.732585e+00 2.944886e+00 82 77 64
-1.500446e-02 -3.667083e+00 2.968576e+00 164 168 169
2.183916e+00 -3.623628e+00 2.946217e+00 168 179 181
1.048161e+00 -3.190621e+00 2.960844e+00 144 146 143
1.048161e+00 -3.190621e+00 2.960844e+00 144 146 143
3.285780e+00 -2.060644e+00 2.944763e+00 57 59 46
-3.099535e+00 -1.475809e+00 3.027553e+00 46 42 31
-2.710684e+00 -6.563985e-01 3.028660e+00 138 140 135
4.454172e+00 -7.594997e-01 2.974797e+00 81 82 71
4.370538e+00 -7.031975e-01 2.976828e+00 80 80 68
1.171504e+00 2.693060e-01 3.123910e+00 151 145 133
1.171504e+00 2.693060e-01 3.123910e+00 151 145 133
-5.887082e+00 1.210654e+00 3.024778e+00 34 32 19
-5.543739e+00 1.318961e+00 3.025068e+00 156 158 155
1.507612e+00 6.883593e-01 3.048389e+00 160 171 164
-3.969813e+00 1.578809e+00 3.022080e+00 157 158 151
6.770002e-01 1.104397e+00 3.074799e+00 163 168 156
5.000337e-01 1.163935e+00 3.081920e+00 168 172 161
-6.574128e+00 3.968369e+00 3.106832e+00 153 162 163
3.136776e+00 -4.213765e+00 2.927153e+00 90 91 78
6.105920e-02 -3.704102e+00 2.967434e+00 83 77 62
-2.790639e+00 -5.492187e-01 3.034013e+00 61 63 51
1.692002e+00 -1.217004e-01 3.087826e+00 156 155 150
-2.668048e+00 3.284444e-01 3.047942e+00 171 173 172
-5.438929e+00 9.271759e-01 3.013793e+00 138 145 140
9.182568e-01 4.014393e-01 3.146341e+00 142 138 126
6.570721e-01 5.267954e-01 3.178309e+00 147 143 130
1.049676e+00 5.239299e-01 3.106309e+00 143 143 133
9.206455e-01 5.976798e-01 3.117305e+00 146 143 131
6.822863e-01 7.027915e-01 3.135920e+00 148 143 129
-5.225671e+00 1.385297e+00 3.025124e+00 68 66 53
1.372355e+00 7.687727e-01 3.050150e+00 177 182 180
-5.253214e+00 1.708634e+00 3.041925e+00 164 165 161
1.202208e+00 9.320137e-01 3.052410e+00 98 99 91
1.053836e+00 1.007105e+00 3.058957e+00 107 106 95
9.050259e-01 1.068436e+00 3.062334e+00 104 104 94
3.669539e-01 1.210286e+00 3.086889e+00 171 175 171
2.375381e+00 1.527392e+00 2.988352e+00 79 73 66
4.304533e+00 1.707369e+00 2.980117e+00 138 139 132
-6.302881e+00 4.116605e+00 3.109072e+00 154 158 157
2.983952e+00 -4.262457e+00 2.931989e+00 67 61 50
2.107746e+00 -4.140837e+00 2.948068e+00 71 68 50
2.444152e+00 -3.874831e+00 2.941972e+00 126 123 108
2.444152e+00 -3.874831e+00 2.941972e+00 126 123 108
1.614953e+00 -3.858473e+00 2.956422e+00 130 134 129
2.406191e+00 -3.783424e+00 2.942269e+00 80 77 68
3.436078e-01 -3.724910e+00 2.967891e+00 61 58 48
1.948699e+00 -3.535012e+00 2.949300e+00 166 171 172
9.302814e-01 -3.449019e+00 2.964043e+00 119 114 97
-1.601259e+00 -3.106753e+00 2.988270e+00 144 145 140
-4.690645e-01 -3.145298e+00 2.977073e+00 150 154 152
1.123890e-01 -3.032334e+00 2.970941e+00 132 134 123
-1.814217e-01 -3.021382e+00 2.974170e+00 128 128 118
-3.391692e-01 -3.011324e+00 2.976028e+00 129 132 124
4.275095e+00 -2.576942e+00 2.921220e+00 146 152 148
2.801428e+00 -2.042489e+00 2.952018e+00 97 91 77
-2.020990e+00 -1.541875e+00 3.012988e+00 122 123 114
3.024485e+00 -1.795940e+00 2.945947e+00 141 144 142
-4.750440e+00 -1.081159e+00 3.041249e+00 71 62 44
-4.936702e+00 -1.062515e+00 3.043039e+00 74 68 49
-1.465235e+00 -1.324034e+00 3.010223e+00 133 129 112
-1.597904e+00 -1.236146e+00 3.012164e+00 82 76 62
-1.946672e+00 -1.197152e+00 3.020538e+00 92 86 70
-4.462617e-01 -1.317720e+00 2.975960e+00 98 94 82
-7.629787e-01 -1.298091e+00 2.985708e+00 80 74 60
-9.278656e-01 -1.283980e+00 2.990815e+00 80 75 55
-1.783403e+00 -1.211278e+00 3.020306e+00 92 86 71
-1.774996e+00 -1.210819e+00 3.016926e+00 92 86 71
1.074978e+00 -1.432435e+00 2.957145e+00 90 85 64
1.630354e-01 -1.357755e+00 2.967072e+00 97 91 75
2.963152e+00 -1.588487e+00 2.944956e+00 104 96 81
2.839304e+00 -1.578987e+00 2.946075e+00 99 92 76
4.752723e+00 -1.726210e+00 2.923603e+00 96 90 74
4.807031e+00 -1.727218e+00 2.922754e+00 145 142 134
3.763526e+00 -1.488437e+00 2.930241e+00 96 92 83
3.647153e+00 -1.477655e+00 2.931192e+00 94 89 70
2.634909e+00 -7.367961e-01 3.018817e+00 156 161 157
2.218321e+00 -7.119708e-02 3.033102e+00 143 144 136
1.888814e+00 1.402056e-01 3.049341e+00 131 130 125
-5.793479e+00 1.218053e+00 3.024651e+00 129 131 118
-1.509054e+00 5.166603e-01 2.830411e+00 75 75 66
-1.430631e+00 5.565503e-01 2.823088e+00 76 76 66
-1.430631e+00 5.565503e-01 2.823088e+00 76 76 66
1.694579e+00 3.790707e-01 3.050533e+00 69 66 54
1.466594e+00 5.358566e-01 3.061090e+00 70 70 62
1.238256e+00 6.102585e-01 3.077064e+00 137 136 122
-5.308420e+00 1.582291e+00 3.036942e+00 93 88 75
-5.865281e+00 1.685710e+00 3.044573e+00 142 143 128
-5.627000e+00 1.687233e+00 3.042177e+00 143 142 128
-6.331977e+00 1.790475e+00 3.053645e+00 157 159 148
-6.150578e+00 1.886115e+00 3.054587e+00 106 107 96
4.452475e+00 2.941666e-01 2.972581e+00 92 91 82
3.654495e-01 1.089487e+00 3.100802e+00 137 137 128
1.435415e+00 1.032801e+00 3.041765e+00 174 180 177
9.345418e-01 1.324103e+00 3.049018e+00 47 48 41
6.515968e-01 1.391016e+00 3.055443e+00 55 57 46
-6.930402e+00 2.551653e+00 3.079987e+00 82 80 67
-5.312381e+00 2.320381e+00 3.061911e+00 82 82 69
4.803157e+00 8.741079e-01 2.968243e+00 167 179 185
2.676484e+00 1.450360e+00 2.985461e+00 64 63 52
-6.007996e+00 3.459023e+00 3.090021e+00 169 181 177
4.481568e+00 1.481769e+00 2.977127e+00 164 180 184
4.481568e+00 1.481769e+00 2.977127e+00 164 180 184
4.491463e+00 1.631052e+00 2.976061e+00 82 81 86
-6.343123e+00 3.798746e+00 3.100787e+00 160 171 165
4.565007e+00 1.639438e+00 2.975437e+00 151 158 151
-3.050794e-02 2.677038e+00 3.042278e+00 38 38 36
-4.062411e+00 3.571509e+00 3.082504e+00 165 171 167
2.678737e+00 2.457383e+00 3.008992e+00 99 103 96
3.073433e+00 2.377538e+00 3.002759e+00 90 92 86
4.026231e+00 2.141507e+00 2.984073e+00 103 108 110
4.026231e+00 2.141507e+00 2.984073e+00 103 108 110
2.942419e+00 3.696200e+00 3.021603e+00 164 166 163
-7.924711e+00 7.615034e+00 3.190069e+00 164 167 172
-7.640042e-01 -4.128325e+00 2.969989e+00 130 137 136
7.709691e-01 -3.994583e+00 2.964700e+00 99 102 85
-1.578689e-01 -3.160287e+00 2.973782e+00 146 148 144
-1.973763e+00 -2.991223e+00 2.991805e+00 66 66 53
-3.765154e+00 -2.847843e+00 3.014323e+00 146 155 150
1.893956e-01 -3.037375e+00 2.969605e+00 129 130 122
2.311008e+00 -3.087735e+00 2.946299e+00 125 126 112
-1.904657e+00 -2.895224e+00 2.994333e+00 135 140 130
-1.326248e+00 -2.879976e+00 2.987774e+00 78 72 56
1.578875e+00 -2.965393e+00 2.949828e+00 87 84 69
-1.300567e-01 -2.882298e+00 2.971411e+00 158 173 173
-1.300567e-01 -2.882298e+00 2.971411e+00 158 173 173
-2.803077e+00 -2.740310e+00 3.010340e+00 128 131 121
2.769202e+00 -2.963593e+00 2.937711e+00 146 150 149
2.769202e+00 -2.963593e+00 2.937711e+00 146 150 149
-3.657533e+00 -2.637654e+00 3.021328e+00 135 140 133
-3.886584e+00 -2.595387e+00 3.027207e+00 81 74 65
3.273487e+00 -2.086938e+00 2.946005e+00 59 60 55
-3.232302e+00 -1.422212e+00 3.034404e+00 88 89 77
4.567752e+00 -1.786518e+00 2.927077e+00 71 64 38
3.936883e+00 -1.698369e+00 2.928332e+00 122 124 111
-5.033506e+00 3.368414e-01 2.992187e+00 77 69 48
-4.473270e+00 1.266658e+00 3.020143e+00 92 85 73
-6.248166e+00 1.523691e+00 3.041362e+00 150 152 148
1.501860e+00 5.650293e-01 3.056269e+00 143 144 131
-4.771208e+00 1.381347e+00 3.024667e+00 152 150 136
4.005337e+00 2.347926e-01 2.982636e+00 87 79 67
-6.414070e+00 1.780678e+00 3.054217e+00 156 158 146
1.790245e+00 9.309006e-01 3.022941e+00 156 160 157
1.497082e+00 1.189417e+00 3.024644e+00 69 69 58
1.880111e+00 1.148749e+00 3.025018e+00 81 85 70
-6.783230e+00 2.567111e+00 3.079725e+00 148 149 144
-5.037719e+00 2.321254e+00 3.059849e+00 159 164 154
-1.227859e+00 2.923186e+00 3.052181e+00 180 193 203
3.470964e-01 2.647485e+00 3.040284e+00 194 205 206
3.884467e+00 1.999343e+00 2.987358e+00 168 181 182
2.569404e+00 2.429529e+00 3.011015e+00 149 150 137
3.370968e+00 2.256377e+00 2.997698e+00 160 163 156
3.853238e+00 2.184104e+00 2.986652e+00 110 112 109
1.839685e+00 3.055051e+00 3.011820e+00 88 82 82
1.839685e+00 3.055051e+00 3.011820e+00 88 82 82
-4.484395e+00 5.544917e+00 3.112461e+00 144 155 151
2.514760e+00 -4.362356e+00 2.940353e+00 60 60 46
2.399948e+00 -3.917446e+00 2.943601e+00 113 116 100
1.468392e+00 -3.874028e+00 2.958938e+00 60 58 46
7.508617e-02 -3.811009e+00 2.968096e+00 114 112 98
2.235922e+00 -3.838364e+00 2.946681e+00 118 119 105
2.235922e+00 -3.838364e+00 2.946681e+00 118 119 105
1.441852e+00 -3.808561e+00 2.959923e+00 62 56 43
2.324363e+00 -3.765660e+00 2.943341e+00 139 145 133
1.897384e+00 -3.568492e+00 2.949995e+00 146 143 133
1.667123e+00 -3.488452e+00 2.953592e+00 135 137 125
1.352351e+00 -3.348875e+00 2.958359e+00 85 79 65
-3.899784e-01 -3.255615e+00 2.975840e+00 163 167 166
-1.241767e-01 -3.237751e+00 2.973398e+00 90 88 77
2.317670e+00 -3.252666e+00 2.946407e+00 145 150 147
-1.040820e+00 -3.131312e+00 2.982964e+00 143 145 141
2.857405e+00 -3.259809e+00 2.940173e+00 147 149 140
1.626443e+00 -3.120969e+00 2.954024e+00 71 64 57
2.326893e+00 -3.127079e+00 2.946554e+00 82 78 67
-1.658824e+00 -2.970102e+00 2.989780e+00 145 147 141
1.712727e+00 -3.092822e+00 2.952657e+00 141 143 130
-2.786083e+00 -2.809090e+00 3.008698e+00 139 150 146
-3.938264e+00 -2.679730e+00 3.021160e+00 78 75 65
1.995433e+00 -2.964849e+00 2.946342e+00 103 102 85
3.416751e+00 -2.977685e+00 2.930130e+00 143 148 143
4.116991e+00 -2.575026e+00 2.924503e+00 146 148 145
4.193385e+00 -2.388230e+00 2.922610e+00 151 153 148
7.885781e-01 -2.130148e+00 2.970957e+00 102 95 77
-4.092224e+00 -1.220144e+00 3.027917e+00 67 59 40
2.861866e+00 -1.687992e+00 2.947196e+00 139 140 132
5.218819e-03 -1.425099e+00 2.972285e+00 120 112 102
1.168696e+00 -1.515221e+00 2.959906e+00 73 62 42
1.847481e+00 -1.567593e+00 2.955399e+00 103 90 66
4.699270e+00 -1.788852e+00 2.925098e+00 96 87 67
3.542099e+00 -1.701837e+00 2.931538e+00 173 186 185
3.919876e+00 -1.726771e+00 2.928923e+00 64 62 54
3.695466e+00 -1.607565e+00 2.932178e+00 79 70 57
-9.013563e-01 -7.839644e-01 2.996159e+00 137 142 134
4.388461e+00 -1.029642e+00 2.981339e+00 126 133 128
-5.580866e+00 3.588625e-01 3.008790e+00 161 169 163
-5.743209e+00 5.026949e-01 3.013584e+00 91 91 87
9.681361e-01 1.668922e-01 3.164026e+00 93 88 72
3.219915e-01 6.136621e-01 3.248953e+00 76 65 53
-3.357801e-01 9.352799e-01 3.507207e+00 72 65 52
1.660068e+00 3.161365e-01 3.058585e+00 158 159 144
1.923779e+00 2.901964e-01 3.039637e+00 95 94 80
3.788975e-01 7.718406e-01 3.183990e+00 71 65 49
1.323583e+00 5.480379e-01 3.072264e+00 156 158 144
1.024313e+00 7.079003e-01 3.084008e+00 154 156 145
-5.626374e+00 1.567441e+00 3.034177e+00 155 158 141
-5.632527e+00 1.631642e+00 3.039667e+00 103 97 79
-5.632527e+00 1.631642e+00 3.039667e+00 103 97 79
-5.975050e+00 1.679830e+00 3.045780e+00 71 68 55
-5.734754e+00 1.670254e+00 3.040988e+00 73 66 51
-1.245611e-01 1.109243e+00 3.182268e+00 85 81 70
1.882963e+00 7.204472e-01 3.034668e+00 85 84 79
1.836721e+00 7.422793e-01 3.037401e+00 136 145 139
4.377314e+00 3.404333e-01 2.972761e+00 99 95 84
1.002416e+00 9.714153e-01 3.062727e+00 165 171 161
4.299873e+00 3.691787e-01 2.975051e+00 94 92 79
1.052442e-01 1.217579e+00 3.107313e+00 100 91 81
-4.071715e-02 1.242586e+00 3.106675e+00 85 82 77
-6.550292e-01 1.369474e+00 3.088279e+00 173 177 172
-6.065347e+00 2.463324e+00 3.072120e+00 137 141 134
-4.833827e+00 2.283443e+00 3.057214e+00 127 132 123
1.545701e+00 2.213037e+00 3.027044e+00 76 76 65
4.003677e+00 1.756087e+00 2.987100e+00 154 158 160
-5.741632e+00 3.738083e+00 3.094939e+00 142 147 124
3.115804e+00 2.101450e+00 3.002944e+00 136 142 128
4.740851e+00 1.700199e+00 2.969821e+00 79 76 73
3.529571e+00 2.039886e+00 2.994860e+00 166 180 180
-4.965563e+00 3.774435e+00 3.091637e+00 121 127 112
-5.448577e+00 4.099465e+00 3.105081e+00 153 156 145
-5.448577e+00 4.099465e+00 3.105081e+00 153 156 145
5.055580e-01 2.921738e+00 3.041866e+00 88 88 81
-4.930944e+00 4.031739e+00 3.104810e+00 155 158 146
4.840847e+00 1.885224e+00 2.961462e+00 168 176 175
-3.963914e+00 3.960955e+00 3.096960e+00 76 77 71
-3.963914e+00 3.960955e+00 3.096960e+00 76 77 71
-5.098445e+00 4.210503e+00 3.110802e+00 157 160 142
2.003258e+00 3.015967e+00 3.008283e+00 72 71 64
-4.757574e+00 5.596389e+00 3.116564e+00 161 172 167
2.876039e+00 3.892206e+00 3.021083e+00 99 98 100
1.996971e+00 4.170348e+00 3.038502e+00 81 83 81
1.996971e+00 4.170348e+00 3.038502e+00 81 83 81
2.809342e+00 3.958014e+00 3.024932e+00 87 84 87
1.791786e+00 4.286538e+00 3.042254e+00 76 74 73
2.955504e+00 -4.296315e+00 2.932633e+00 121 121 113
1.637387e+00 -3.758700e+00 2.957347e+00 145 147 141
2.083348e+00 -3.625778e+00 2.947068e+00 84 85 78
1.409078e+00 -3.456116e+00 2.958450e+00 117 117 100
-2.357992e+00 -2.984823e+00 2.995962e+00 60 61 55
-1.929840e+00 -2.997045e+00 2.992609e+00 62 60 51
-2.474333e+00 -2.757296e+00 3.004459e+00 100 100 95
3.196149e+00 -2.996119e+00 2.933336e+00 72 71 57
-2.879518e+00 -2.677482e+00 3.013208e+00 146 152 143
-1.467120e+00 -2.649355e+00 2.990448e+00 153 158 150
-2.189502e+00 -2.544931e+00 2.998398e+00 82 78 71
2.223228e-01 -2.666362e+00 2.976358e+00 146 147 141
4.018471e+00 -2.811800e+00 2.915646e+00 163 169 165
2.125802e-01 -2.625499e+00 2.976166e+00 144 145 140
1.705129e+00 -2.627202e+00 2.958170e+00 156 157 149
4.128861e+00 -2.678729e+00 2.925886e+00 129 134 127
-3.264010e+00 -2.267012e+00 3.018052e+00 135 138 132
2.228066e+00 -2.578723e+00 2.952552e+00 55 54 41
4.133715e+00 -2.652242e+00 2.925394e+00 78 68 63
4.133715e+00 -2.652242e+00 2.925394e+00 78 68 63
4.126251e+00 -2.628210e+00 2.925150e+00 132 134 124
4.119980e+00 -2.600957e+00 2.924552e+00 79 78 65
-2.071071e+00 -1.494756e+00 3.014521e+00 62 62 49
-2.908319e+00 -1.378752e+00 3.036826e+00 87 83 66
1.798491e+00 -1.672205e+00 2.955323e+00 85 76 63
8.623405e-01 -1.559795e+00 2.962188e+00 148 151 132
1.942448e+00 -1.646642e+00 2.954459e+00 78 63 42
4.201528e+00 -1.821227e+00 2.924857e+00 146 153 148
-8.181889e-01 -1.367781e+00 2.994528e+00 72 64 38
-3.655735e+00 -1.005991e+00 3.049181e+00 83 75 62
3.981927e+00 -1.582778e+00 2.929084e+00 139 136 120
4.113123e+00 -1.581060e+00 2.927761e+00 81 70 54
3.127881e+00 -1.350937e+00 2.955632e+00 71 73 67
1.826594e+00 -1.131097e+00 2.965460e+00 169 173 179
1.271155e+00 -9.666224e-01 2.967845e+00 50 47 33
2.547677e+00 -8.163607e-01 3.030021e+00 92 89 77
4.570441e+00 -7.801696e-01 2.970741e+00 134 134 136
2.668466e+00 -5.484022e-01 3.011365e+00 139 142 136
4.088207e+00 -5.148737e-01 2.982589e+00 175 182 175
1.364637e+00 7.073969e-02 3.113172e+00 85 79 63
-5.308639e+00 8.747988e-01 3.005180e+00 55 58 53
1.448291e+00 2.284586e-01 3.089355e+00 86 82 65
-1.459355e+00 4.130674e-01 2.810996e+00 160 165 156
1.274911e+00 3.420144e-01 3.100198e+00 82 78 65
-6.566231e+00 1.431166e+00 3.041937e+00 78 75 68
-6.578821e+00 1.471574e+00 3.043147e+00 156 162 155
1.827607e+00 3.745916e-01 3.040404e+00 103 105 92
-5.236689e+00 1.436061e+00 3.028304e+00 74 68 52
1.057884e+00 6.623899e-01 3.088732e+00 82 75 61
1.080682e+00 6.812377e-01 3.082856e+00 156 160 147
9.166077e-01 7.611481e-01 3.091019e+00 156 154 139
7.051223e-01 8.530659e-01 3.102628e+00 158 157 152
3.261327e-01 9.701748e-01 3.137212e+00 81 78 62
1.236868e-01 1.039144e+00 3.156157e+00 82 80 67
1.280589e+00 8.310782e-01 3.054604e+00 174 179 175
1.076790e+00 9.363877e-01 3.060007e+00 175 176 169
8.500292e-01 1.117939e+00 3.059077e+00 92 90 76
-5.317963e+00 1.999952e+00 3.050628e+00 122 120 106
1.642337e+00 1.021675e+00 3.034679e+00 149 152 140
1.017369e+00 1.172394e+00 3.053491e+00 78 76 72
4.217825e-01 1.286988e+00 3.068846e+00 160 161 155
1.441439e+00 1.068966e+00 3.026735e+00 172 174 166
1.286147e+00 1.142028e+00 3.043853e+00 162 163 158
-4.578801e+00 2.204215e+00 3.051747e+00 83 77 67
2.627258e+00 1.356149e+00 2.986819e+00 141 142 129
-6.972186e+00 3.077911e+00 3.075287e+00 95 92 85
2.170968e+00 1.587663e+00 2.991162e+00 141 143 131
2.170968e+00 1.587663e+00 2.991162e+00 141 143 131
1.713583e+00 2.037597e+00 3.023847e+00 148 154 147
3.541099e+00 1.664050e+00 2.994805e+00 77 80 82
-2.536147e-01 2.733020e+00 3.044020e+00 65 61 55
-4.171912e+00 3.554600e+00 3.083219e+00 149 154 144
-4.171912e+00 3.554600e+00 3.083219e+00 149 154 144
1.326913e+00 2.521123e+00 3.031642e+00 98 100 87
-2.220402e+00 3.284912e+00 3.069144e+00 105 106 91
6.179596e-01 2.748372e+00 3.041916e+00 163 166 161
1.859187e+00 2.500463e+00 3.007213e+00 69 64 57
4.986137e+00 1.785307e+00 2.959799e+00 98 97 94
3.125906e+00 2.317973e+00 3.001768e+00 154 154 142
2.227351e+00 2.630007e+00 3.001261e+00 105 103 98
2.227351e+00 2.630007e+00 3.001261e+00 105 103 98
-3.363629e+00 3.957748e+00 3.112640e+00 81 80 74
2.061893e+00 3.924286e+00 3.036079e+00 159 166 167
2.048758e+00 4.128830e+00 3.037203e+00 79 80 83
2.202782e+00 4.110700e+00 3.031167e+00 104 105 104
3.514832e+00 3.782657e+00 3.004559e+00 168 185 190
3.068801e+00 4.138461e+00 3.018029e+00 108 108 107
-5.188748e+00 6.474537e+00 3.142290e+00 174 185 182
-7.351765e+00 6.902818e+00 2.835536e+00 141 139 134
2.940312e+00 -4.271287e+00 2.933271e+00 51 47 38
2.953014e+00 -4.258597e+00 2.932983e+00 131 132 120
2.663400e+00 -4.119060e+00 2.939542e+00 129 130 116
2.638829e+00 -4.088951e+00 2.939919e+00 60 53 36
2.377726e+00 -3.880590e+00 2.944033e+00 128 125 108
1.914651e+00 -3.757934e+00 2.953195e+00 112 110 95
1.909385e+00 -3.550128e+00 2.949283e+00 85 83 75
1.852264e+00 -3.549534e+00 2.950681e+00 141 144 138
1.477264e+00 -3.530297e+00 2.958237e+00 118 119 107
1.862165e+00 -3.531947e+00 2.950284e+00 87 87 84
1.276343e+00 -3.456238e+00 2.961036e+00 46 35 21
-1.948805e+00 -3.128107e+00 2.989142e+00 82 77 74
-1.200555e+00 -3.159989e+00 2.983631e+00 75 75 66
-1.211488e+00 -3.153455e+00 2.984318e+00 75 75 66
-1.995045e+00 -3.080494e+00 2.990645e+00 144 146 140
6.740416e-01 -3.132506e+00 2.964405e+00 108 104 94
-3.001336e+00 -2.861259e+00 3.008987e+00 149 156 149
4.062307e+00 -3.052785e+00 2.916524e+00 48 48 41
-3.005350e-01 -2.891072e+00 2.973688e+00 90 91 84
-3.145799e+00 -2.711693e+00 3.015079e+00 89 88 79
-2.825256e+00 -2.682297e+00 3.013074e+00 131 133 124
1.677161e+00 -2.394225e+00 2.956091e+00 78 75 62
-2.790191e+00 -1.552037e+00 3.026109e+00 83 79 65
-1.205531e+00 -1.631964e+00 2.999780e+00 127 128 119
3.288226e+00 -1.830742e+00 2.942874e+00 137 140 132
-1.066352e+00 -1.485789e+00 2.998923e+00 137 137 126
-1.371646e+00 -1.403460e+00 3.006101e+00 43 41 25
-1.426251e+00 -1.339603e+00 3.006241e+00 130 129 109
-1.353988e+00 -1.299034e+00 3.008474e+00 129 122 113
1.536795e+00 -1.510825e+00 2.955843e+00 149 144 128
1.026712e+00 -1.457630e+00 2.959424e+00 81 73 61
-6.493104e-01 -1.257653e+00 2.979786e+00 85 76 68
-5.453578e-01 -9.344204e-01 2.992310e+00 72 65 49
-5.466443e+00 5.022440e-01 3.011007e+00 114 119 107
-4.991395e+00 6.459098e-01 3.003826e+00 106 107 94
9.063442e-01 1.929348e-01 3.172293e+00 152 150 130
4.317212e+00 -3.802441e-01 2.982245e+00 163 176 175
4.339227e+00 -3.496596e-01 2.980437e+00 159 178 175
5.274061e-01 3.814618e-01 3.234489e+00 82 78 73
-4.651133e+00 1.177297e+00 3.009518e+00 72 75 65
2.038468e+00 3.693619e-01 3.021322e+00 110 112 111
4.501527e+00 5.967820e-02 2.974629e+00 152 157 142
-5.444596e+00 1.506181e+00 3.032915e+00 69 64 49
-5.324886e+00 1.627812e+00 3.039954e+00 83 80 66
1.114505e+00 8.891070e-01 3.060427e+00 123 124 114
-6.171123e+00 1.924111e+00 3.057983e+00 85 81 72
6.289564e-01 1.099543e+00 3.077400e+00 118 118 103
-4.178387e+00 1.742322e+00 3.027116e+00 160 165 151
6.994947e-01 1.180637e+00 3.064962e+00 85 88 79
1.903047e+00 9.252760e-01 3.020835e+00 133 136 126
1.903047e+00 9.252760e-01 3.020835e+00 133 136 126
1.493092e+00 1.000524e+00 3.026499e+00 176 178 171
-1.763694e+00 1.484134e+00 2.974668e+00 157 162 149
9.873827e-01 1.204826e+00 3.052812e+00 168 172 158
1.214573e+00 1.160446e+00 3.045330e+00 159 168 163
-4.625305e+00 2.031933e+00 3.045065e+00 95 97 91
1.275417e+00 1.286410e+00 3.037180e+00 149 158 149
1.285399e+00 1.249873e+00 3.025900e+00 149 158 149
2.017039e-01 1.515704e+00 3.058874e+00 85 86 80
-2.834251e+00 2.695368e+00 3.107437e+00 143 149 142
1.610590e+00 2.136821e+00 3.025731e+00 80 82 70
-5.309688e+00 3.432638e+00 3.084007e+00 66 66 58
4.636135e-01 2.399279e+00 3.037430e+00 93 94 86
-6.458871e+00 3.700437e+00 3.098677e+00 78 78 69
-5.957408e+00 3.624210e+00 3.095966e+00 77 79 68
1.166522e+00 2.311273e+00 3.029533e+00 156 158 153
-4.374194e+00 3.465396e+00 3.087162e+00 93 92 87
3.697738e+00 1.907691e+00 2.992363e+00 183 190 186
4.002046e+00 1.836524e+00 2.984299e+00 149 162 165
-4.029394e+00 3.659029e+00 3.085953e+00 70 69 57
-1.070792e+00 3.103111e+00 3.055383e+00 94 93 88
-1.462004e+00 3.188467e+00 3.058827e+00 88 89 88
-5.915676e+00 4.065598e+00 3.108662e+00 149 154 131
-5.570892e+00 4.008488e+00 3.105156e+00 133 137 122
3.500079e+00 2.153592e+00 2.995690e+00 172 175 174
3.500079e+00 2.153592e+00 2.995690e+00 172 175 174
-5.427648e+00 4.090240e+00 3.104821e+00 164 169 159
-5.427648e+00 4.090240e+00 3.104821e+00 164 169 159
-6.330752e+00 4.323084e+00 3.118432e+00 85 86 71
-6.330752e+00 4.323084e+00 3.118432e+00 85 86 71
-6.011145e+00 4.269218e+00 3.115968e+00 91 89 76
-5.982908e+00 4.249311e+00 3.112054e+00 91 89 76
-6.629849e+00 4.427156e+00 3.123243e+00 155 160 153
-6.596006e+00 4.404366e+00 3.118962e+00 155 160 153
2.548142e+00 2.518071e+00 3.010812e+00 95 92 88
-5.504958e+00 4.208623e+00 3.110120e+00 152 153 130
3.505890e+00 2.278497e+00 2.992072e+00 95 94 89
3.038679e+00 2.408836e+00 3.000112e+00 165 168 157
1.727030e+00 2.713796e+00 3.009646e+00 163 166 149
1.655576e+00 2.795869e+00 3.009531e+00 156 157 141
1.655576e+00 2.795869e+00 3.009531e+00 156 157 141
4.931446e+00 2.087143e+00 2.962086e+00 128 127 127
-3.378195e+00 4.344451e+00 3.129779e+00 111 111 101
-3.638527e+00 4.872066e+00 3.146555e+00 90 91 85
2.027384e+00 3.726477e+00 3.037790e+00 124 125 121
2.143896e+00 3.721885e+00 3.033887e+00 89 90 95
2.100278e+00 4.029843e+00 3.036020e+00 160 171 167
2.100278e+00 4.029843e+00 3.036020e+00 160 171 167
-4.631582e+00 5.990407e+00 3.126822e+00 151 157 152
-2.844826e+00 -2.687941e+00 3.012627e+00 67 73 65
-2.816789e+00 -1.419957e+00 3.034651e+00 123 124 119
1.249994e+00 -1.488358e+00 2.957961e+00 136 130 111
2.751657e+00 -5.722385e-01 3.007252e+00 68 70 65
2.759161e+00 -5.991863e-01 3.005515e+00 68 70 65
1.773698e+00 -2.754665e-01 3.086835e+00 103 101 92
-4.684965e+00 6.873884e-01 2.999883e+00 187 192 186
1.403969e+00 4.476621e-01 3.075503e+00 136 130 114
1.078543e+00 6.322409e-01 3.090975e+00 141 139 126
-4.854850e+00 1.394924e+00 3.021969e+00 73 68 49
-5.807386e+00 1.760368e+00 3.048104e+00 149 147 135
-6.950477e+00 2.602304e+00 3.083294e+00 86 91 84
2.221594e+00 1.894858e+00 2.998684e+00 130 133 130
3.167400e+00 1.926896e+00 3.000122e+00 113 116 111
-5.472047e+00 3.642033e+00 3.097752e+00 100 100 90
-4.643153e+00 3.748599e+00 3.094255e+00 102 100 93
-3.786339e+00 3.675526e+00 3.085437e+00 84 86 78
-3.825610e+00 3.690722e+00 3.085728e+00 83 84 77
-4.819156e+00 3.904408e+00 3.099800e+00 110 107 96
-3.764747e+00 3.743789e+00 3.088488e+00 156 157 148
-3.764747e+00 3.743789e+00 3.088488e+00 156 157 148
-4.809842e+00 3.996444e+00 3.103348e+00 160 163 152
4.962123e+00 1.822895e+00 2.960478e+00 97 100 99
3.310081e+00 2.270640e+00 2.996412e+00 98 94 83
-4.169426e+00 3.952194e+00 3.100179e+00 71 71 59
-4.357039e+00 3.968400e+00 3.097783e+00 64 61 51
-4.228039e+00 4.040772e+00 3.105539e+00 75 76 70
1.821262e+00 2.880565e+00 3.010547e+00 177 182 176
-3.296578e+00 4.484255e+00 3.135541e+00 88 84 73
6.577720e+00 -9.905999e+00 -8.136557e+00 0 255 0
6.597348e+00 -9.935948e+00 -8.171454e+00 255 255 0
-6.434943e-01 2.583828e-02 2.464304e+00 255 0 0
-6.437047e-01 2.564727e-02 2.414305e+00 255 255 0
6.254890e+00 -1.008907e+01 1.340548e+01 0 255 0
6.234915e+00 -1.005608e+01 1.337366e+01 255 255 0
