ply
format ascii 1.0
element face 0
property list uchar int vertex_indices
element vertex 939
property float x
property float y
property float z
property uchar diffuse_red
property uchar diffuse_green
property uchar diffuse_blue
end_header
1.634599e+00 7.000825e-01 3.318712e+00 149 158 149
5.815105e-01 1.059621e+00 3.325717e+00 85 86 80
-2.803622e+00 2.768626e+00 3.360280e+00 143 149 142
2.060750e+00 1.637790e+00 3.463309e+00 80 82 70
-6.214957e+00 4.197329e+00 3.270421e+00 66 66 58
9.181592e-01 2.040842e+00 3.446366e+00 93 94 86
-8.082386e+00 4.874499e+00 3.243490e+00 78 78 69
-7.255331e+00 4.635508e+00 3.268718e+00 77 79 68
1.635185e+00 1.873653e+00 3.466803e+00 156 158 153
-4.888172e+00 4.066248e+00 3.351020e+00 93 92 87
4.048194e+00 1.238603e+00 3.521375e+00 183 190 186
4.311261e+00 1.149370e+00 3.520035e+00 149 162 165
-4.455863e+00 4.291258e+00 3.408535e+00 70 69 57
-7.266049e-01 3.077619e+00 3.481500e+00 94 93 88
-1.180089e+00 3.239948e+00 3.474239e+00 88 89 88
-7.326995e+00 5.337354e+00 3.368530e+00 149 154 131
-6.766223e+00 5.157113e+00 3.380251e+00 133 137 122
3.909241e+00 1.516108e+00 3.548412e+00 172 175 174
3.909241e+00 1.516108e+00 3.548412e+00 172 175 174
-6.567331e+00 5.248512e+00 3.404402e+00 164 169 159
-6.567331e+00 5.248512e+00 3.404402e+00 164 169 159
-8.096616e+00 5.886532e+00 3.397063e+00 85 86 71
-8.096616e+00 5.886532e+00 3.397063e+00 85 86 71
-7.548825e+00 5.703837e+00 3.409158e+00 91 89 76
-7.490428e+00 5.652480e+00 3.400023e+00 91 89 76
-8.648282e+00 6.159038e+00 3.399311e+00 155 160 153
-8.572999e+00 6.097526e+00 3.389193e+00 155 160 153
3.048774e+00 1.991259e+00 3.560476e+00 95 92 88
-6.719883e+00 5.459911e+00 3.427337e+00 152 153 130
3.932852e+00 1.654168e+00 3.562106e+00 95 94 89
3.507447e+00 1.830533e+00 3.561720e+00 165 168 157
2.258381e+00 2.284970e+00 3.538261e+00 163 166 149
5.260671e+00 1.370251e+00 3.590638e+00 128 127 127
-3.665675e+00 5.208520e+00 3.636458e+00 111 111 101
-4.105682e+00 6.117310e+00 3.744127e+00 90 91 85
2.729247e+00 3.496934e+00 3.752370e+00 124 125 121
2.848619e+00 3.478546e+00 3.753833e+00 89 90 95
2.858420e+00 3.882650e+00 3.806763e+00 160 171 167
2.858420e+00 3.882650e+00 3.806763e+00 160 171 167
-5.837317e+00 8.392881e+00 3.877039e+00 151 157 152
-2.548566e+00 -2.933322e+00 2.574374e+00 67 73 65
-2.561460e+00 -1.780124e+00 2.734249e+00 123 124 119
1.339855e+00 -1.901555e+00 2.918640e+00 136 130 111
2.765735e+00 -1.133602e+00 3.158309e+00 68 70 65
1.931319e+00 -8.379224e-01 3.215551e+00 103 101 92
-4.847901e+00 5.027453e-01 2.810065e+00 187 192 186
1.666291e+00 -1.257765e-01 3.273322e+00 136 130 114
1.374804e+00 7.416958e-02 3.294028e+00 141 139 126
-5.171407e+00 1.358086e+00 2.916650e+00 73 68 49
-6.546001e+00 1.935818e+00 2.924268e+00 149 147 135
-8.527637e+00 3.299475e+00 2.999296e+00 86 91 84
2.627947e+00 1.323971e+00 3.436160e+00 130 133 130
3.540524e+00 1.294846e+00 3.499281e+00 113 116 111
-6.515327e+00 4.554160e+00 3.312902e+00 100 100 90
-5.320999e+00 4.541872e+00 3.389366e+00 102 100 93
-4.128963e+00 4.271647e+00 3.428353e+00 84 86 78
-4.184107e+00 4.301097e+00 3.428529e+00 83 84 77
-5.609254e+00 4.819260e+00 3.411359e+00 110 107 96
-4.109588e+00 4.367835e+00 3.445536e+00 156 157 148
-4.109588e+00 4.367835e+00 3.445536e+00 156 157 148
-5.616985e+00 4.961733e+00 3.433466e+00 160 163 152
5.220138e+00 1.088907e+00 3.552305e+00 97 100 99
3.743018e+00 1.658536e+00 3.553750e+00 98 94 83
-4.690746e+00 4.757605e+00 3.468113e+00 71 71 59
-4.964301e+00 4.819697e+00 3.453874e+00 64 61 51
-4.790509e+00 4.907030e+00 3.487192e+00 75 76 70
2.378417e+00 2.472634e+00 3.570591e+00 177 182 176
-3.572717e+00 5.411500e+00 3.676368e+00 88 84 73
3.094575e+00 -1.054926e+00 3.117754e+00 175 174 181
-1.475110e+00 -2.637976e+00 2.884384e+00 18 19 21
3.150576e+00 -1.639038e+00 3.011159e+00 138 140 138
-1.254867e+00 2.365528e-01 2.317810e+00 127 123 114
2.139093e+00 5.764591e-02 2.912606e+00 141 140 136
2.139093e+00 5.764591e-02 2.912606e+00 141 140 136
1.875682e+00 1.964754e+00 3.295703e+00 139 138 136
-1.893892e+00 -2.390841e+00 3.187421e+00 37 30 25
-4.380283e+00 1.456098e+00 2.674458e+00 148 150 149
2.011426e+00 1.383291e-01 2.952941e+00 132 133 128
-8.474736e-01 9.922198e-01 3.019442e+00 150 148 141
2.065157e+00 1.711695e-01 2.988407e+00 72 67 63
2.814687e+00 -2.013647e-01 3.203225e+00 172 173 177
-5.321824e+00 1.967359e+00 2.675807e+00 49 45 41
1.730267e+00 4.313623e-01 3.013802e+00 91 88 81
-8.563015e-01 1.174598e+00 2.993774e+00 93 86 83
7.626867e-01 -3.297981e+00 2.811576e+00 137 137 133
-6.311727e-01 -3.095305e+00 2.852927e+00 134 137 142
2.427333e-01 -2.619690e+00 2.919454e+00 53 49 46
2.932469e+00 -2.222301e+00 2.936382e+00 136 121 113
1.580490e+00 -1.982202e+00 3.061408e+00 94 81 72
-7.292920e+00 2.230099e+00 1.100173e+00 112 105 89
2.486923e+00 -2.916515e-01 2.912188e+00 72 67 63
4.035810e-01 1.157845e+00 3.144558e+00 68 66 64
-8.974719e-01 1.421600e+00 3.171047e+00 44 42 39
2.233998e+00 8.187087e-01 3.161551e+00 64 62 61
3.369345e-01 -2.312121e+00 2.976483e+00 66 59 49
-2.958663e+00 -2.354392e+00 3.425544e+00 85 79 67
1.365869e+00 -2.897981e-01 2.565893e+00 134 131 126
-3.564550e-01 5.740515e-01 2.601563e+00 63 56 48
2.755939e+00 -8.930603e-02 3.217991e+00 112 117 120
2.759841e+00 -7.939405e-03 3.252556e+00 166 168 168
1.748351e+00 6.973667e-01 3.064404e+00 159 155 152
8.742504e-01 -2.599471e+00 2.857414e+00 117 116 112
3.009367e+00 -2.430181e+00 2.865835e+00 70 72 71
3.901815e-01 -2.316685e+00 2.960162e+00 53 45 40
1.133757e+00 -2.301720e+00 2.944420e+00 81 71 61
2.537427e+00 -9.515196e-01 2.707761e+00 70 64 54
1.774349e+00 -2.810818e-01 2.666870e+00 144 140 136
-9.907693e-01 4.836937e-01 2.528345e+00 63 56 51
1.495639e+00 4.985297e-01 3.030345e+00 161 158 154
1.110980e+00 7.906015e-01 3.062197e+00 75 72 64
1.672423e+00 1.902431e+00 3.291092e+00 166 161 161
-1.773313e-01 2.756876e+00 3.382631e+00 65 61 64
1.824272e+00 2.222706e+00 3.363714e+00 71 63 62
-3.304614e-01 -2.352843e+00 2.731850e+00 134 133 124
-8.375332e-02 -2.231902e+00 3.123359e+00 70 61 54
-1.427916e+00 -2.149636e+00 3.247979e+00 75 62 56
-2.437888e+00 -2.422551e+00 3.804054e+00 48 43 39
1.895184e+00 -1.658293e+00 3.005913e+00 113 109 102
-7.418556e-01 8.565243e-01 2.860094e+00 149 142 135
-4.473699e+00 1.607295e+00 2.861118e+00 130 129 125
-5.556311e-01 1.183968e+00 2.980039e+00 80 77 69
-1.834858e+00 1.524514e+00 3.091835e+00 130 125 121
1.719771e+00 1.974723e+00 3.324381e+00 81 76 72
9.442592e-01 2.399804e+00 3.385032e+00 142 141 137
1.402237e-01 2.834316e+00 3.417732e+00 156 158 157
1.722650e+00 2.048408e+00 3.356549e+00 101 98 93
1.419319e+00 2.220412e+00 3.342892e+00 65 63 64
-1.640219e+00 2.845060e+00 3.341628e+00 31 30 35
1.947506e+00 4.835858e+00 4.336686e+00 239 255 255
3.804281e+00 3.071274e+00 3.901362e+00 69 65 66
3.958150e+00 3.291501e+00 4.147526e+00 154 154 163
3.612319e+00 3.671113e+00 4.222499e+00 123 120 128
1.384585e+00 1.889619e-01 2.757846e+00 93 83 74
1.384585e+00 1.889619e-01 2.757846e+00 93 83 74
-1.026300e+00 6.992061e-01 2.614399e+00 103 92 80
2.247993e+00 -1.032427e-01 2.949360e+00 144 143 139
2.247993e+00 -1.032427e-01 2.949360e+00 144 143 139
9.792233e-01 3.914908e-01 2.779554e+00 89 76 67
-2.483299e-01 1.053471e+00 3.033559e+00 160 157 152
-7.946308e+00 4.271028e+00 2.978260e+00 110 110 108
3.962550e+00 3.321110e+00 4.302426e+00 152 152 154
3.327797e+00 4.092186e+00 4.215728e+00 249 255 250
1.714781e+00 4.996991e+00 4.339324e+00 100 101 113
-5.008955e+00 7.405777e-01 2.362982e+00 119 113 101
4.047794e+00 2.442757e+00 3.725720e+00 104 104 106
2.765276e+00 3.969299e+00 3.964638e+00 161 161 161
2.978369e+00 4.167220e+00 4.181573e+00 101 100 114
-3.902577e+00 7.502511e+00 4.569300e+00 209 231 255
-2.655689e+00 6.730417e+00 4.640591e+00 216 234 254
-2.885911e+00 -1.136534e+00 3.045882e+00 91 82 74
2.484465e+00 -3.131097e-01 2.945290e+00 72 67 63
-2.722074e+00 2.003256e-01 3.304099e+00 75 76 71
-6.442421e+00 2.044490e+00 2.746794e+00 78 74 62
-6.482870e+00 1.860805e+00 2.901441e+00 59 52 44
3.102000e+00 1.920028e+00 3.484061e+00 96 89 83
3.955889e+00 2.714838e+00 3.795077e+00 119 118 116
2.406502e+00 4.239334e+00 3.910465e+00 75 72 71
-3.925666e+00 7.429334e+00 4.840653e+00 83 83 99
1.532424e+00 -2.168118e+00 3.027782e+00 131 130 125
2.440390e+00 -8.669475e-01 2.693166e+00 68 63 59
-2.173336e+00 -5.843436e-02 2.445630e+00 62 58 49
-4.358696e+00 1.076926e+00 2.695260e+00 57 50 42
-4.834171e+00 1.560438e+00 2.861952e+00 37 33 32
-2.402951e+00 1.825524e+00 3.552792e+00 83 79 70
-5.002683e+00 3.604515e+00 2.984521e+00 82 78 75
2.519976e+00 1.937050e+00 3.584618e+00 171 167 166
4.110124e+00 2.368977e+00 3.741103e+00 155 154 156
1.675542e+00 5.011087e+00 4.378246e+00 237 253 253
3.455623e+00 4.043234e+00 4.340723e+00 78 89 120
2.203329e+00 4.878011e+00 4.346987e+00 77 93 118
3.416235e+00 -2.370384e+00 3.198885e+00 88 78 70
3.438428e+00 -2.361301e+00 3.217638e+00 153 143 142
1.041492e-01 -1.418292e+00 3.033157e+00 119 113 101
1.041492e-01 -1.418292e+00 3.033157e+00 119 113 101
-5.878173e+00 7.393032e-01 2.079256e+00 125 118 110
2.175175e+00 5.459540e-02 3.012728e+00 40 34 35
-7.589953e+00 2.205596e+00 2.564391e+00 129 125 116
-2.018376e+00 2.889273e+00 3.367991e+00 76 69 61
-5.930733e+00 4.135215e+00 3.391568e+00 47 47 47
-4.897875e+00 4.242724e+00 3.552849e+00 77 76 74
4.005368e+00 1.426485e+00 3.663274e+00 144 136 125
-5.812892e+00 6.364167e+00 3.628622e+00 147 152 153
-5.006685e+00 6.939423e+00 3.881935e+00 120 120 120
-7.331080e+00 8.295121e+00 3.803349e+00 107 104 101
-4.678265e+00 7.212856e+00 3.796326e+00 104 98 92
1.188566e+00 4.641469e+00 3.905512e+00 143 137 139
3.463633e+00 3.558827e+00 3.962019e+00 69 63 66
3.328525e+00 3.640597e+00 3.967506e+00 71 66 70
-7.304811e+00 8.603284e+00 4.209787e+00 160 160 158
1.155713e+00 4.956571e+00 4.009751e+00 237 251 254
3.902130e+00 3.508412e+00 4.144524e+00 149 149 151
1.857089e+00 4.639328e+00 4.294045e+00 160 155 154
-3.068616e+00 6.753737e+00 4.672333e+00 209 234 254
-2.531424e+00 6.655645e+00 4.622844e+00 111 123 140
-2.531424e+00 6.655645e+00 4.622844e+00 111 123 140
1.766114e+00 4.978554e+00 4.363120e+00 232 252 251
1.735621e+00 4.983750e+00 4.402670e+00 97 106 134
1.735621e+00 4.983750e+00 4.402670e+00 97 106 134
-5.595206e+00 2.158730e+00 2.745178e+00 79 75 76
3.909818e+00 1.594392e+00 3.569181e+00 156 148 137
-2.205458e+00 3.640723e+00 4.088864e+00 139 132 126
-9.247185e+00 7.086591e+00 4.124543e+00 139 145 147
3.183383e+00 3.506873e+00 3.828331e+00 92 87 91
1.525840e+00 4.454687e+00 3.873269e+00 157 151 151
-2.234469e+00 6.413992e+00 4.092653e+00 219 236 251
-2.283348e+00 6.468880e+00 4.134691e+00 223 235 242
-2.283348e+00 6.468880e+00 4.134691e+00 223 235 242
-2.904092e+00 6.890173e+00 4.708919e+00 78 98 124
-2.904092e+00 6.890173e+00 4.708919e+00 78 98 124
-6.844340e+00 9.050048e+00 4.811740e+00 197 222 246
3.344652e+00 3.655938e+00 3.939659e+00 54 54 52
-5.932538e-01 1.091875e+00 2.978483e+00 162 159 150
6.845309e-01 8.538696e-01 3.042502e+00 174 171 166
2.340135e+00 4.317193e+00 3.932447e+00 144 144 140
1.920643e+00 6.409344e-01 3.117127e+00 128 124 114
3.324640e+00 3.657876e+00 3.963766e+00 67 67 65
1.326760e+00 -2.216297e+00 2.992699e+00 144 134 122
3.110910e+00 1.716531e+00 3.523456e+00 151 148 143
-7.526241e+00 8.116039e+00 3.822260e+00 19 24 18
2.612542e+00 -2.215528e+00 3.040629e+00 142 134 125
3.301105e-01 2.756992e+00 3.529724e+00 82 78 76
-3.190989e+00 -2.086644e+00 2.740820e+00 55 52 36
-1.546153e+00 -2.061191e+00 2.876991e+00 84 76 63
-4.758016e+00 8.533532e-01 2.415467e+00 113 114 108
-1.036058e+00 3.149161e+00 3.534086e+00 136 135 134
1.229863e+00 -2.921926e+00 2.821819e+00 55 54 50
-1.944399e-01 -3.215018e+00 2.737077e+00 110 110 100
1.321762e+00 -3.248216e+00 2.829195e+00 121 113 106
2.077433e+00 -3.358019e+00 2.839565e+00 136 134 133
1.986540e+00 -3.351491e+00 2.839105e+00 64 50 51
9.854836e-01 -3.355621e+00 2.778617e+00 131 126 125
2.202082e-01 -2.884164e+00 2.722944e+00 123 120 119
-2.904115e-01 -3.317856e+00 2.690633e+00 62 58 57
-1.322627e+00 -2.234077e+00 2.653448e+00 75 66 59
-9.311421e-01 -5.410179e+00 2.632004e+00 180 173 151
-6.509406e-01 -4.556102e+00 2.674359e+00 92 81 61
6.894933e-01 -3.940266e+00 2.582064e+00 82 70 54
7.473924e-01 -3.731943e+00 2.637632e+00 126 120 111
-1.683367e+00 -5.110360e+00 2.692934e+00 230 225 217
7.298259e-01 -3.557415e+00 2.688488e+00 112 100 77
-1.392327e+00 -2.024277e+00 2.738833e+00 59 52 46
7.722072e-01 -3.197945e+00 2.809479e+00 99 87 73
-1.006613e+00 -5.628998e+00 2.574199e+00 195 188 169
-8.071980e-01 -5.130560e+00 2.613459e+00 177 174 159
-1.033797e+00 -4.976526e+00 2.593178e+00 122 115 97
-8.963980e-01 -4.637207e+00 2.630123e+00 196 191 185
2.203315e+00 -4.141399e+00 2.607073e+00 117 117 104
-5.296338e-01 -4.289940e+00 2.732213e+00 215 216 211
1.071828e+00 -3.655862e+00 2.625150e+00 93 84 68
-1.023667e+00 -5.102993e+00 2.591961e+00 148 132 119
-9.031615e-01 -4.880250e+00 2.790505e+00 207 206 202
-3.981637e-01 -4.226609e+00 2.606629e+00 83 67 49
2.535266e+00 -4.010959e+00 2.675955e+00 97 88 75
-1.395985e+00 -5.962035e+00 2.473948e+00 80 65 59
-1.470356e+00 -5.892638e+00 2.418888e+00 83 68 65
-1.318209e+00 -5.759681e+00 2.514395e+00 103 91 75
-1.042675e+00 -5.711458e+00 2.550535e+00 186 185 159
-1.369928e+00 -5.692960e+00 2.515481e+00 73 59 58
-7.790570e-01 -5.513788e+00 2.571477e+00 81 68 62
-1.098788e+00 -5.155261e+00 2.602740e+00 96 82 71
-1.098788e+00 -5.155261e+00 2.602740e+00 96 82 71
-6.658809e-01 -5.039504e+00 2.571282e+00 219 214 192
2.006437e-01 -3.751930e+00 2.688312e+00 100 88 86
9.799522e-01 -3.203081e+00 2.831102e+00 106 96 89
-8.714071e-01 -5.395884e+00 2.589285e+00 108 100 89
-6.918329e-01 -5.304348e+00 2.629133e+00 139 129 109
-6.693224e-01 -5.095814e+00 2.578541e+00 213 205 192
2.861923e+00 -4.637806e+00 2.536160e+00 47 44 39
-7.283796e-01 -4.723135e+00 2.733131e+00 101 87 81
-8.341531e-01 -4.620062e+00 2.625002e+00 119 110 103
-1.316921e+00 -4.624540e+00 2.782813e+00 64 59 66
-5.892731e-01 -4.399395e+00 2.704938e+00 102 90 84
-4.836223e-01 -4.202783e+00 2.623999e+00 111 100 98
2.617433e-01 -3.783004e+00 2.693645e+00 138 130 107
1.940064e+00 -3.737565e+00 2.718143e+00 125 114 96
-1.876616e+00 -2.486534e+00 2.734943e+00 207 201 189
-1.342692e+00 -6.002269e+00 2.496842e+00 98 90 71
-1.413763e+00 -5.929348e+00 2.465849e+00 183 178 152
-1.399444e+00 -5.904638e+00 2.479293e+00 83 72 65
-1.407022e+00 -5.879159e+00 2.465226e+00 202 194 176
-1.327639e+00 -5.855976e+00 2.515433e+00 181 175 152
-1.440702e+00 -5.851213e+00 2.459707e+00 211 205 186
-1.293621e+00 -5.457052e+00 2.571343e+00 100 89 85
-7.234293e-01 -5.249838e+00 2.571727e+00 90 80 52
-1.057476e+00 -5.269484e+00 2.613431e+00 118 106 82
-7.168282e-01 -5.106727e+00 2.575965e+00 71 63 58
-1.941802e-01 -4.467867e+00 2.576578e+00 221 219 198
-6.676336e-01 -4.546319e+00 2.685285e+00 94 78 61
-3.068735e-01 -2.682187e+00 2.772897e+00 108 99 99
4.449389e-01 -2.495860e+00 2.803467e+00 51 39 43
-1.318306e+00 -5.560002e+00 2.551505e+00 199 187 167
-1.351635e+00 -5.555228e+00 2.540534e+00 111 103 94
-1.351635e+00 -5.555228e+00 2.540534e+00 111 103 94
-1.234889e+00 -5.449210e+00 2.570709e+00 109 99 82
-1.260220e+00 -5.454600e+00 2.574889e+00 217 205 194
-6.755167e-01 -5.125517e+00 2.582451e+00 98 81 74
-1.024000e+00 -5.141889e+00 2.599641e+00 205 200 171
-1.064254e+00 -5.101699e+00 2.615823e+00 219 212 184
-1.127211e+00 -5.078399e+00 2.610282e+00 99 86 86
-5.026222e-01 -4.751228e+00 2.570608e+00 114 105 98
-5.026222e-01 -4.751228e+00 2.570608e+00 114 105 98
-3.833960e-01 -4.242602e+00 2.697270e+00 84 72 55
2.695247e+00 -4.041172e+00 2.667124e+00 161 156 154
1.670329e+00 -3.889234e+00 2.643410e+00 146 140 129
-1.703308e-01 -3.323222e+00 2.736392e+00 172 171 167
9.951642e-01 -3.295120e+00 2.797827e+00 138 131 123
-6.477127e-02 -3.237400e+00 2.764878e+00 74 65 58
-3.598973e-01 -3.190441e+00 2.778710e+00 91 84 74
1.696099e+00 -2.804888e+00 2.877178e+00 213 201 179
-1.354657e+00 -5.938418e+00 2.494279e+00 182 182 162
-9.047633e-01 -5.688536e+00 2.529151e+00 156 149 133
-1.387068e+00 -5.750070e+00 2.486863e+00 202 197 177
-8.586461e-01 -5.506634e+00 2.584944e+00 115 107 101
-7.244108e-01 -5.223799e+00 2.568707e+00 100 92 73
-7.481583e-01 -5.226334e+00 2.570025e+00 133 122 102
-1.026337e+00 -5.187947e+00 2.611043e+00 121 109 94
-1.129154e+00 -5.191761e+00 2.616623e+00 125 113 94
-1.101025e+00 -5.126087e+00 2.612571e+00 187 177 162
-1.090230e+00 -5.055405e+00 2.613741e+00 107 99 89
-9.942408e-01 -4.965801e+00 2.611586e+00 203 190 180
-8.811556e-01 -4.806597e+00 2.616324e+00 96 88 65
-7.838500e-01 -4.661713e+00 2.607069e+00 220 212 193
-1.568489e-01 -4.442976e+00 2.563176e+00 180 168 157
2.725354e+00 -4.266004e+00 2.604617e+00 122 116 104
-4.347367e-01 -4.297996e+00 2.594079e+00 151 140 120
-5.442306e-01 -4.291630e+00 2.630886e+00 188 180 169
-4.594372e-01 -4.239397e+00 2.623597e+00 102 90 78
2.310846e+00 -4.103628e+00 2.623267e+00 107 101 85
-4.880525e-01 -4.106089e+00 2.637589e+00 177 177 177
1.858550e+00 -3.989535e+00 2.637928e+00 89 83 67
1.732563e+00 -3.648713e+00 2.733609e+00 107 96 74
5.743355e-01 -3.605000e+00 2.714303e+00 98 81 66
1.257802e+00 -3.275646e+00 2.812617e+00 86 80 68
3.512994e-01 -3.240575e+00 2.788324e+00 143 134 124
3.835273e-01 -2.602663e+00 2.836976e+00 150 139 136
3.835273e-01 -2.602663e+00 2.836976e+00 150 139 136
-1.324283e+00 -5.908777e+00 2.505387e+00 170 159 139
-1.375257e+00 -5.745764e+00 2.484331e+00 181 176 156
-1.291407e+00 -5.423760e+00 2.573961e+00 140 127 117
-7.417669e-01 -5.282954e+00 2.571706e+00 161 150 128
-1.073061e+00 -5.051013e+00 2.610164e+00 212 203 191
-4.807900e-01 -4.738021e+00 2.566158e+00 209 205 196
-8.792959e-01 -4.718980e+00 2.623229e+00 212 206 187
-8.799700e-01 -4.678495e+00 2.623324e+00 200 192 179
-6.730496e-01 -4.305899e+00 2.635541e+00 160 156 152
-1.215990e-01 -3.999273e+00 2.631482e+00 74 66 49
-1.215990e-01 -3.999273e+00 2.631482e+00 74 66 49
1.910651e+00 -3.882588e+00 2.663243e+00 146 140 127
-4.814545e-02 -3.819352e+00 2.672506e+00 216 215 210
-2.677332e-01 -3.770612e+00 2.663111e+00 175 168 162
5.301622e-01 -3.660498e+00 2.691075e+00 55 42 25
5.842151e-01 -3.585514e+00 2.723497e+00 150 136 127
9.519843e-01 -3.415491e+00 2.771062e+00 149 140 131
1.585737e+00 -3.346113e+00 2.801286e+00 157 153 142
-1.676091e+00 -3.172543e+00 2.744861e+00 157 150 137
-1.721619e+00 -3.173326e+00 2.744033e+00 141 135 123
-6.931512e-02 -3.203822e+00 2.782788e+00 85 78 62
-4.112195e-01 -3.189568e+00 2.783959e+00 160 153 143
2.210317e+00 -3.174179e+00 2.877570e+00 133 133 133
-1.083137e+00 -2.858010e+00 2.694307e+00 100 93 85
3.516266e-01 -2.834521e+00 2.794590e+00 100 91 84
1.606128e+00 -2.551785e+00 2.930499e+00 198 194 182
-1.192605e+00 -1.983072e+00 2.846243e+00 155 148 138
-1.192605e+00 -1.983072e+00 2.846243e+00 155 148 138
4.942443e-01 -1.722643e+00 2.541819e+00 88 86 81
-1.047439e+00 -1.314879e+00 1.933387e+00 84 83 78
1.518778e+00 -1.894383e+00 2.505697e+00 104 113 117
3.471164e-01 -1.397283e+00 2.099474e+00 43 42 40
-1.640771e+00 -1.593184e+00 1.853471e+00 86 88 86
8.135385e-01 -1.471812e+00 2.185992e+00 46 45 43
-2.550568e+00 -8.708764e-01 2.619205e+00 102 93 80
2.611448e+00 -2.912247e+00 2.872680e+00 128 128 121
2.602179e+00 -2.863262e+00 2.890033e+00 133 128 132
-1.735608e+00 -1.895036e+00 2.709301e+00 61 52 47
3.160658e+00 -2.954499e+00 2.916681e+00 69 65 63
-1.486509e+00 -1.877486e+00 2.737536e+00 50 40 38
-1.520370e+00 -1.721711e+00 2.747815e+00 115 106 99
-2.813435e-01 -1.846320e+00 2.831447e+00 59 51 41
-4.135966e-01 -1.798481e+00 2.821627e+00 114 103 91
-4.959042e+00 -1.382133e+00 2.335908e+00 119 110 105
6.656680e-02 -1.896323e+00 2.845222e+00 88 78 68
-2.248688e-01 -1.858010e+00 2.834451e+00 125 122 117
1.092917e-01 -1.739699e+00 2.915444e+00 82 73 68
-3.390700e+00 -3.122614e+00 2.530998e+00 85 84 89
-2.896174e-01 -4.655055e+00 2.599337e+00 56 48 28
-3.963400e-01 -4.312536e+00 2.701359e+00 167 160 141
1.376112e+00 -3.698468e+00 2.611941e+00 123 117 105
-2.271876e+00 -1.796281e+00 2.959091e+00 201 196 188
-6.475402e-01 -4.507840e+00 2.790510e+00 210 211 205
1.038295e+00 -4.032234e+00 2.450332e+00 75 63 49
2.704686e+00 -2.202958e+00 2.980909e+00 69 61 49
9.561143e-01 -3.740396e+00 2.568615e+00 130 123 110
-1.014373e+00 -5.806543e+00 2.539636e+00 101 95 81
-1.504080e-01 -4.768201e+00 2.505164e+00 133 131 115
2.482126e+00 -4.567760e+00 2.489796e+00 51 42 35
2.482126e+00 -4.567760e+00 2.489796e+00 51 42 35
2.280497e+00 -4.526173e+00 2.423433e+00 50 45 33
-1.105962e+00 -5.314524e+00 2.835737e+00 191 189 178
2.368924e+00 -4.569943e+00 2.483444e+00 76 68 56
-5.441803e-01 -4.398159e+00 2.813649e+00 206 202 199
2.368782e+00 -4.166322e+00 2.557579e+00 87 83 72
7.073581e-01 -4.157152e+00 2.472334e+00 139 133 111
1.026048e+00 -3.976715e+00 2.559914e+00 146 140 126
1.017027e+00 -3.937655e+00 2.566018e+00 54 44 38
-5.438262e+00 9.107247e+00 3.730996e+00 44 46 44
1.827499e+00 -4.490081e+00 2.326394e+00 49 39 30
-6.062779e-01 -4.478729e+00 2.784584e+00 96 83 76
4.626116e-01 -4.224361e+00 2.519804e+00 133 127 114
1.827401e+00 -4.151755e+00 2.552706e+00 75 72 57
-2.365402e+00 -9.187720e-01 2.795613e+00 159 153 145
2.780297e+00 -4.930678e+00 2.448866e+00 119 115 106
-2.682737e-01 -4.904158e+00 2.507688e+00 200 198 183
1.098944e+00 -4.214393e+00 2.344815e+00 112 106 91
5.014461e-01 -4.164605e+00 2.534820e+00 56 49 35
-2.736313e+00 -2.681757e+00 2.812938e+00 95 87 81
-1.890973e+00 -1.956381e+00 2.853177e+00 84 80 79
-2.177244e+00 -1.835878e+00 2.947920e+00 90 85 81
2.761088e+00 -2.030232e+00 3.035401e+00 125 117 104
-5.871214e-01 -5.796765e+00 2.547310e+00 97 79 72
2.565663e+00 -4.668577e+00 2.479974e+00 79 73 59
-8.968218e-02 -4.724151e+00 2.512742e+00 139 133 121
-3.205807e-03 -4.674334e+00 2.512916e+00 169 161 150
1.434059e-01 -4.544817e+00 2.508009e+00 136 126 114
1.073622e-01 -4.515591e+00 2.512395e+00 152 144 134
-2.205489e+00 -4.381469e+00 2.874547e+00 157 157 157
9.362861e-01 -3.743604e+00 2.623692e+00 159 152 142
-2.538822e+00 -2.312215e+00 2.887528e+00 228 223 220
-4.090385e-01 -5.305052e+00 2.546731e+00 90 78 66
2.662436e-01 -4.390412e+00 2.517691e+00 120 113 101
9.223488e-01 -3.945871e+00 2.557309e+00 77 65 49
3.153018e+00 -2.922436e+00 2.877421e+00 167 168 163
1.019769e+00 -2.004774e+00 2.984933e+00 163 153 137
3.406399e+00 1.775311e+00 9.021710e-01 54 55 50
3.713411e+00 -2.280226e+00 3.032982e+00 19 19 19
2.775970e+00 -2.151228e+00 2.848904e+00 107 116 120
1.418909e+00 7.981287e+00 8.545147e-01 110 116 116
2.499627e+00 -2.128743e+00 2.744249e+00 102 112 121
3.661289e+00 4.093965e-01 8.784235e-01 99 103 105
3.661289e+00 4.093965e-01 8.784235e-01 99 103 105
-2.552536e+00 1.822619e+00 2.315044e+00 128 139 146
-8.425205e+00 9.501004e+00 3.292480e+00 124 120 110
2.116859e+00 -1.156717e+00 2.178433e+00 112 124 130
-2.033216e+00 -1.386703e+00 3.081290e+00 106 117 120
2.129266e+00 -1.110993e+00 2.211452e+00 30 32 31
8.340433e-01 1.154280e+00 1.326311e+00 122 127 130
3.996121e+00 1.541517e+00 7.825758e-01 111 114 117
-5.730737e-01 1.859068e+00 1.621134e+00 47 44 39
-5.730737e-01 1.859068e+00 1.621134e+00 47 44 39
-9.135733e-01 2.237540e+00 1.955217e+00 150 159 159
2.988490e-01 8.561380e+00 1.772160e+00 160 161 163
8.821544e-01 -2.076943e+00 2.480919e+00 19 18 19
2.733114e+00 -1.785264e+00 2.184472e+00 79 89 97
2.431359e+00 -1.874463e+00 2.634159e+00 90 93 86
-1.951113e+00 -1.441445e+00 3.025451e+00 116 131 138
-2.222765e+00 -1.437562e+00 3.187494e+00 112 125 126
-2.457035e+00 -1.456883e+00 3.242829e+00 117 124 126
-7.304094e+00 4.158527e-01 2.962636e+00 105 107 102
-7.273907e+00 4.853834e-01 3.022788e+00 46 45 43
3.833809e+00 1.516537e+00 7.758247e-01 99 103 101
-2.893766e+00 1.071741e+00 3.054885e+00 155 172 185
3.725921e+00 -2.365535e+00 2.991261e+00 13 11 12
1.877491e+00 2.631937e-01 1.440596e+00 115 128 135
3.294524e+00 5.397774e-01 8.883252e-01 97 94 85
3.294524e+00 5.397774e-01 8.883252e-01 97 94 85
3.238111e+00 7.649764e-01 9.801076e-01 96 95 90
3.238111e+00 7.649764e-01 9.801076e-01 96 95 90
-7.865197e+00 6.652942e-01 3.443425e+00 127 137 136
1.462406e+00 1.347577e+00 1.506872e+00 48 51 52
-6.590760e+00 1.622164e+00 3.169972e+00 62 56 51
3.749578e+00 1.987711e+00 9.479827e-01 128 131 129
-4.810057e+00 1.957180e+00 2.877105e+00 146 156 164
2.622239e+00 -2.313406e+00 2.792122e+00 93 101 105
1.978895e+00 -1.708796e+00 2.481219e+00 49 49 47
2.947284e+00 -1.401835e+00 2.472675e+00 26 27 31
-7.718228e+00 1.014474e+00 3.474626e+00 138 148 155
-7.356612e+00 1.263930e+00 3.370243e+00 70 69 65
1.331059e+00 1.403665e+00 1.502342e+00 129 137 140
2.583524e+00 1.590203e+00 1.236822e+00 130 142 150
-5.384704e+00 1.579310e+00 2.885968e+00 60 55 46
-6.686792e+00 1.603167e+00 3.196561e+00 112 109 100
1.187420e+00 2.263199e+00 1.481129e+00 48 44 34
1.360383e+00 2.250142e+00 1.468311e+00 42 44 41
-5.987290e+00 4.790825e+00 3.168544e+00 108 107 102
-9.832140e-01 4.710629e+00 1.952124e+00 43 44 39
1.307237e+00 8.095735e+00 8.863962e-01 143 147 145
2.277310e+00 -1.980383e+00 2.134915e+00 40 48 54
-5.376616e-01 -1.696477e+00 2.225495e+00 58 61 63
-1.849787e+00 -1.376305e+00 1.836843e+00 96 106 112
-2.757860e+00 -1.233946e+00 1.733842e+00 19 24 29
-8.484866e+00 9.495214e+00 3.324897e+00 146 146 138
1.006590e+00 8.551896e+00 9.706421e-01 87 83 78
2.104257e+00 -3.161244e+00 2.599555e+00 119 112 95
2.231779e+00 -3.706210e+00 2.512410e+00 227 227 229
2.607943e+00 -3.014840e+00 2.179379e+00 129 124 108
5.951042e-01 -3.233181e+00 2.850008e+00 116 106 87
-1.998751e+00 -2.377911e+00 3.481160e+00 201 197 196
3.460201e+00 -5.123756e+00 2.633251e+00 163 160 143
-1.205232e-01 -4.348306e+00 2.979367e+00 133 124 98
1.338178e+00 -3.816838e+00 2.390596e+00 99 89 64
1.303014e+00 -3.505584e+00 2.662693e+00 127 111 90
2.682637e+00 -2.789911e+00 2.136371e+00 219 218 219
2.228076e+00 -2.861654e+00 2.320225e+00 230 232 231
1.733158e+00 -2.907404e+00 2.444519e+00 214 211 218
1.246420e+00 -2.971362e+00 2.643095e+00 219 219 220
7.175617e-01 -3.019990e+00 2.779649e+00 244 244 243
7.175617e-01 -3.019990e+00 2.779649e+00 244 244 243
1.983611e-01 -3.082737e+00 2.945343e+00 197 198 202
3.224924e+00 -2.727181e+00 2.137158e+00 204 203 202
-8.815417e-01 -2.112444e+00 2.899585e+00 73 71 58
-2.898093e-01 -4.534464e+00 2.771110e+00 168 161 146
6.100175e-02 -4.097360e+00 2.891517e+00 86 81 61
1.881350e+00 -3.376815e+00 2.510472e+00 204 206 203
-4.170223e-01 -3.028942e+00 3.168809e+00 25 25 23
3.064617e+00 -2.660125e+00 2.124172e+00 55 60 53
-3.219930e-01 -2.343651e+00 2.583810e+00 39 33 18
-1.287617e+00 -2.708800e+00 3.609031e+00 64 64 62
-2.089745e+00 -2.597320e+00 3.973227e+00 54 53 49
4.477269e+00 -5.167095e+00 3.101609e+00 142 144 139
2.770464e-01 -3.976688e+00 2.719445e+00 172 169 152
1.487343e+00 -3.672944e+00 2.429877e+00 147 144 129
-2.929375e-01 -2.930666e+00 2.854226e+00 218 215 203
1.308011e+00 -2.849641e+00 2.601042e+00 25 23 24
-1.741347e+00 -2.344749e+00 3.369612e+00 212 204 185
-1.741347e+00 -2.344749e+00 3.369612e+00 212 204 185
1.077193e-02 8.947497e-01 1.688435e+00 169 177 167
4.489657e+00 -5.673338e+00 3.204642e+00 73 66 57
3.080504e+00 -3.671677e+00 2.324890e+00 159 155 143
-1.154731e-01 -3.084559e+00 2.962275e+00 90 82 69
2.083279e+00 -2.740292e+00 2.260370e+00 95 86 78
6.889948e-01 -2.457190e+00 2.543986e+00 159 164 157
2.509295e+00 -1.995142e+00 1.973477e+00 66 65 60
2.447811e+00 -1.998347e+00 2.022682e+00 160 159 147
-1.095309e+00 1.243119e-02 2.107593e+00 217 217 211
2.956497e+00 6.811956e-01 7.576801e-01 129 126 107
1.683381e-01 -5.283188e+00 2.518874e+00 131 126 105
3.524863e+00 -4.528143e+00 2.571047e+00 192 200 202
3.124139e+00 -4.502187e+00 2.641325e+00 97 88 68
2.442797e+00 -4.302324e+00 2.384200e+00 156 154 139
1.048209e+00 -4.075929e+00 1.876405e+00 150 148 130
-1.952576e-02 -4.354200e+00 3.077152e+00 113 98 68
-1.714305e-01 -4.188657e+00 2.941254e+00 225 225 218
9.395538e-01 -3.799205e+00 2.211081e+00 100 90 75
9.395538e-01 -3.799205e+00 2.211081e+00 100 90 75
-8.568947e-01 -3.630595e+00 3.205355e+00 196 197 191
5.907683e-01 -3.097716e+00 2.810813e+00 26 26 27
-8.021920e-01 -3.166531e+00 3.136532e+00 41 40 38
2.407157e+00 -2.797857e+00 2.175969e+00 112 108 98
2.710734e+00 -2.679357e+00 2.109177e+00 24 25 39
1.685104e+00 -1.897338e+00 2.060181e+00 54 48 56
8.507150e-01 8.452787e-01 1.355213e+00 131 129 104
3.386806e-01 -5.196674e+00 2.275284e+00 89 76 57
6.670695e-02 -5.156890e+00 2.621674e+00 78 66 48
-2.954166e-01 -5.026281e+00 2.858081e+00 108 94 75
2.559922e+00 -4.402510e+00 2.328448e+00 149 147 135
1.836288e+00 -4.211069e+00 2.205732e+00 146 145 126
8.654919e-01 -4.207460e+00 2.396511e+00 156 151 132
2.510154e+00 -3.963237e+00 2.530249e+00 219 218 213
6.075388e-01 -3.805013e+00 2.552652e+00 66 58 46
1.370190e+00 -3.742550e+00 2.542933e+00 170 168 155
8.201746e-01 -3.713454e+00 2.603343e+00 104 101 91
4.525888e-01 -3.789467e+00 3.079704e+00 169 170 157
1.661397e+00 -3.577465e+00 2.580472e+00 93 80 60
1.714928e+00 -3.557869e+00 2.612794e+00 211 212 205
-1.116000e+00 -3.129986e+00 3.298841e+00 213 204 180
1.358772e+00 -2.083722e+00 2.508863e+00 43 39 45
3.647037e+00 -5.557263e+00 2.793157e+00 54 47 37
3.690552e+00 -5.578201e+00 2.897985e+00 54 47 37
-6.370220e-01 -5.365918e+00 2.452210e+00 159 149 138
3.632754e+00 -4.990922e+00 2.785394e+00 187 190 174
2.062802e+00 -4.839784e+00 1.741193e+00 144 139 118
-5.197725e-01 -5.155067e+00 2.449516e+00 192 190 175
1.237846e-01 -4.524220e+00 2.203357e+00 192 192 180
8.486627e-02 -4.509227e+00 2.140802e+00 192 192 180
1.173488e+00 -4.155673e+00 1.947973e+00 130 122 103
1.173488e+00 -4.155673e+00 1.947973e+00 130 122 103
4.889258e-01 -4.160293e+00 2.049987e+00 147 149 134
2.128353e+00 -3.286860e+00 2.388431e+00 188 188 186
1.309908e+00 -2.879723e+00 2.344422e+00 81 73 81
-8.585869e-01 -3.195879e+00 3.413554e+00 215 216 219
-1.866101e+00 -2.533203e+00 3.432500e+00 61 49 44
2.559495e+00 -1.953634e+00 2.045376e+00 149 149 133
4.659322e-01 -1.591853e+00 2.466814e+00 107 99 81
1.466630e+00 -1.484846e+00 2.195672e+00 147 145 131
2.588484e+00 -6.497315e+00 1.923731e+00 170 161 132
1.246113e+00 -6.220525e+00 1.308935e+00 83 79 67
3.574038e+00 -5.946309e+00 2.793296e+00 34 33 22
2.109770e+00 -5.690152e+00 1.527221e+00 72 63 45
-4.182140e-01 -5.112511e+00 2.207368e+00 85 83 69
2.084708e+00 -4.133985e+00 2.467456e+00 119 103 80
5.361315e-02 -4.207422e+00 3.088316e+00 117 104 87
9.183683e-01 -3.765983e+00 2.196528e+00 80 68 54
8.075464e-01 -3.489877e+00 2.753366e+00 95 84 64
5.497663e-01 -2.248905e+00 2.420468e+00 95 87 79
-1.247085e-01 -1.938607e+00 2.720428e+00 90 87 70
4.043962e+00 -6.264384e+00 3.213153e+00 71 60 54
3.932053e+00 -5.968452e+00 3.038989e+00 38 34 23
3.573971e+00 -5.413409e+00 2.812581e+00 51 43 32
2.200844e+00 -5.334006e+00 1.684303e+00 91 82 57
4.592608e+00 -5.235926e+00 3.064035e+00 213 211 203
4.381268e+00 -5.249954e+00 3.094099e+00 217 217 214
-4.838651e-01 -5.448529e+00 2.585254e+00 208 206 194
-4.572609e-01 -5.222854e+00 2.582080e+00 192 187 170
-4.672916e-01 -5.210642e+00 2.602351e+00 127 123 112
-5.418754e-01 -5.194967e+00 2.512930e+00 127 123 112
-4.293216e-01 -5.094303e+00 2.112530e+00 89 82 64
-3.388112e-01 -4.953629e+00 2.569339e+00 101 94 85
-2.376835e-01 -4.795348e+00 2.410015e+00 189 186 171
2.315734e+00 -4.513882e+00 2.244885e+00 64 56 45
9.639277e-02 -4.522049e+00 1.768613e+00 172 165 147
-4.606439e-01 -4.552143e+00 2.847882e+00 88 76 60
4.146917e-01 -4.178125e+00 2.028785e+00 169 172 152
3.094128e-01 -4.076877e+00 2.622293e+00 178 175 162
1.815519e+00 -3.954346e+00 2.469265e+00 52 39 30
2.211769e+00 -3.760328e+00 2.615111e+00 172 169 161
2.007189e+00 -3.756091e+00 2.656617e+00 114 106 76
3.770548e+00 -6.251273e+00 2.944125e+00 155 152 138
3.913486e+00 -5.951832e+00 3.076441e+00 43 34 29
4.522561e+00 -5.188026e+00 3.050164e+00 210 210 210
-3.056754e-01 -5.256842e+00 2.324593e+00 193 189 169
-5.243829e-01 -5.200360e+00 2.489826e+00 197 193 179
-1.676533e-01 -4.829433e+00 2.568058e+00 191 189 176
-1.590745e-01 -4.807496e+00 2.570157e+00 68 64 52
-4.005664e-02 -4.531801e+00 1.854158e+00 145 139 127
1.330036e+00 -4.404368e+00 1.742232e+00 134 127 104
3.270795e+00 -4.417530e+00 2.584185e+00 152 149 141
2.127379e-01 -4.396977e+00 2.462344e+00 81 75 62
-3.156847e-01 -4.597598e+00 3.110100e+00 109 98 72
3.028254e-01 -4.275101e+00 2.848411e+00 107 102 80
1.450302e+00 -3.239219e+00 2.670237e+00 83 80 69
-3.426006e-01 2.735295e-02 1.436762e+00 60 60 84
5.400829e-01 -3.918581e+00 2.612139e+00 118 110 91
-2.625500e-01 -6.291358e+00 -2.486006e-01 114 101 85
2.267784e+00 -3.551450e+00 2.053616e+00 166 148 134
-1.724631e-01 -3.993555e+00 3.228272e+00 171 153 141
3.556512e+00 -7.198900e-01 2.713296e+00 190 182 171
7.995057e-01 -1.839558e+00 2.753028e+00 64 44 49
8.054882e-01 -2.112655e+00 3.521005e+00 66 46 48
3.347590e+00 -1.666352e+00 2.115630e+00 58 43 48
-2.897441e-01 -3.417409e+00 3.232053e+00 113 100 92
2.577048e+00 -2.294418e+00 2.136503e+00 154 137 115
2.577048e+00 -2.294418e+00 2.136503e+00 154 137 115
-4.703700e-01 -2.342080e+00 4.272127e+00 67 47 49
1.940627e+00 -3.958425e+00 2.300147e+00 122 106 93
2.243073e+00 -3.802691e+00 2.068481e+00 175 165 152
1.687130e+00 -3.490413e+00 2.705038e+00 161 151 142
-1.198059e-01 -3.085119e+00 3.733992e+00 162 144 130
5.343645e-01 -2.770019e+00 2.980394e+00 159 143 127
1.914982e+00 -2.513870e+00 2.337790e+00 170 154 141
-2.150773e-01 -2.573219e+00 3.715103e+00 172 159 142
2.765628e+00 -2.071287e+00 2.079565e+00 165 153 141
3.277007e+00 -1.937772e+00 1.902069e+00 167 154 138
3.277007e+00 -1.937772e+00 1.902069e+00 167 154 138
2.832700e+00 -1.477622e+00 2.380640e+00 180 172 162
2.194716e+00 -1.231004e+00 3.615435e+00 64 63 64
3.245833e+00 -4.848087e-01 2.928925e+00 195 185 173
2.133697e+00 -3.312563e+00 2.218531e+00 181 168 159
2.396729e+00 -3.285445e+00 2.183665e+00 183 171 156
4.430279e-02 -3.234746e+00 3.479957e+00 166 156 144
1.324030e+00 -2.997319e+00 2.714703e+00 178 171 161
3.496507e+00 -2.583629e+00 1.467826e+00 172 165 157
1.016102e+00 -2.688263e+00 2.791246e+00 166 153 137
3.528589e+00 -1.683460e+00 1.897040e+00 169 161 142
3.122241e+00 -1.422273e+00 2.289949e+00 170 171 161
3.696472e+00 -7.479592e-01 2.614725e+00 194 194 181
2.254099e+00 -3.896120e+00 2.565097e+00 104 84 78
2.057185e+00 -3.800572e+00 2.461352e+00 94 74 70
1.500151e+00 -3.562431e+00 2.569029e+00 102 77 70
7.400278e-01 -3.656004e+00 2.858770e+00 103 83 74
1.101531e+00 -3.447409e+00 2.703882e+00 98 74 64
3.089989e+00 -2.530707e+00 1.704892e+00 81 68 66
1.624344e+00 -2.258316e+00 2.799092e+00 171 158 137
4.289446e-01 -2.363689e+00 3.556122e+00 77 63 62
2.063051e+00 -2.048558e+00 2.539965e+00 73 62 60
3.651151e+00 -1.823869e+00 1.846692e+00 70 59 55
2.091022e+00 -1.873263e+00 2.416989e+00 173 159 136
1.972478e+00 -1.792102e+00 2.223774e+00 173 159 136
5.327784e-01 -2.199764e+00 3.549231e+00 159 143 124
1.596602e-01 -1.939044e+00 2.897936e+00 72 50 51
2.171062e+00 -1.809325e+00 2.286547e+00 61 43 44
2.084452e+00 -1.921741e+00 2.674893e+00 65 47 51
2.483695e+00 -4.278067e+00 1.764152e+00 100 87 80
2.628211e+00 -4.207401e+00 2.218829e+00 90 78 72
2.340093e+00 -3.941818e+00 2.531488e+00 85 66 61
1.459233e+00 -3.454568e+00 2.355870e+00 180 167 151
2.286671e+00 -3.062630e+00 2.368313e+00 111 97 88
8.831919e-01 -3.010428e+00 3.152474e+00 50 37 47
-1.805304e-01 -3.094441e+00 3.382981e+00 37 30 39
9.953722e-01 -2.953698e+00 2.960787e+00 51 27 46
2.233156e+00 -2.717448e+00 2.187262e+00 50 26 47
2.233156e+00 -2.717448e+00 2.187262e+00 50 26 47
3.451788e+00 -2.529788e+00 1.639251e+00 109 91 90
9.166846e-01 -2.543136e+00 2.933341e+00 39 25 40
-1.803775e-01 -2.554925e+00 3.887301e+00 161 145 129
3.019828e+00 -1.978397e+00 2.018882e+00 155 143 120
3.222319e-01 -2.265654e+00 3.125485e+00 95 81 76
6.240182e-01 -2.165833e+00 3.247373e+00 145 132 113
2.297854e+00 -1.852498e+00 2.255246e+00 172 156 135
2.424483e+00 -1.903903e+00 2.447424e+00 172 156 135
8.620289e-01 -2.133363e+00 3.415694e+00 62 45 51
3.301253e+00 -1.739323e+00 2.035337e+00 158 147 124
3.584733e-01 -2.186322e+00 3.716947e+00 58 39 43
2.815689e+00 -1.753633e+00 2.262213e+00 47 37 41
2.815689e+00 -1.753633e+00 2.262213e+00 47 37 41
1.569524e+00 -1.946658e+00 2.949866e+00 64 48 49
1.170066e+00 -2.022224e+00 3.211974e+00 60 42 48
2.596788e+00 -1.195126e+00 2.849752e+00 117 104 97
3.899243e+00 -9.401630e-01 2.312900e+00 163 146 131
1.689322e+00 -1.152399e+00 3.556546e+00 181 174 157
7.663324e-01 -3.989864e+00 1.770367e+00 127 108 91
1.695390e+00 -3.548725e+00 2.265828e+00 182 172 152
9.476363e-01 -3.584217e+00 2.458627e+00 96 77 70
1.098751e+00 -3.539604e+00 2.588629e+00 133 120 101
2.750740e+00 -2.831969e+00 1.272333e+00 146 139 121
-1.012395e+00 -3.368544e+00 4.045945e+00 89 69 75
3.111880e+00 -2.612030e+00 1.627867e+00 94 74 85
3.072006e-01 -3.096989e+00 3.341244e+00 124 110 97
4.371652e-01 -2.991408e+00 3.044029e+00 75 53 65
1.898055e+00 -2.790630e+00 2.365971e+00 148 132 119
-2.498804e-01 -3.161856e+00 3.674676e+00 170 155 134
1.840359e+00 -2.807349e+00 2.464331e+00 46 27 47
7.967768e-01 -2.964596e+00 3.183372e+00 134 124 103
3.625829e+00 -2.396940e+00 1.471157e+00 141 133 121
3.138150e-01 -2.750032e+00 3.112781e+00 175 158 141
2.112025e+00 -2.355035e+00 2.436619e+00 97 81 84
-2.839371e-01 -2.601719e+00 4.028332e+00 152 141 113
5.200678e-01 -2.430815e+00 3.482673e+00 152 138 112
5.200678e-01 -2.430815e+00 3.482673e+00 152 138 112
1.038333e+00 -2.350476e+00 3.236549e+00 93 74 77
1.038333e+00 -2.350476e+00 3.236549e+00 93 74 77
9.560817e-01 -2.353748e+00 3.256856e+00 167 152 133
2.495161e+00 -2.023864e+00 2.093973e+00 153 138 116
2.092752e+00 -2.066808e+00 2.341042e+00 157 137 113
2.092752e+00 -2.066808e+00 2.341042e+00 157 137 113
8.305811e-01 -2.328287e+00 3.222695e+00 77 67 67
3.789011e+00 -1.717350e+00 1.894941e+00 170 156 129
3.479898e+00 -4.959127e+00 2.450843e+00 163 151 135
2.143882e+00 -4.137122e+00 2.213583e+00 146 129 110
9.499807e-01 -4.052858e+00 1.789429e+00 129 116 93
4.333860e-01 -4.295759e+00 3.459696e+00 96 77 80
1.663503e+00 -3.945552e+00 2.283837e+00 93 64 61
2.113086e+00 -3.731886e+00 2.551964e+00 177 165 142
1.208938e+00 -3.732942e+00 2.634435e+00 77 60 48
1.213885e+00 -3.686785e+00 2.456971e+00 140 132 111
1.617850e+00 -2.981039e+00 2.575131e+00 188 176 161
3.245933e-01 -3.178059e+00 3.237100e+00 66 42 60
-1.767881e-02 -3.260371e+00 3.586854e+00 54 32 50
1.219105e+00 -3.017772e+00 2.785032e+00 50 29 53
2.608701e-01 -3.172283e+00 3.361939e+00 82 56 66
-1.196695e+00 -3.377416e+00 4.080479e+00 89 68 79
2.480326e+00 -2.773546e+00 2.030508e+00 65 43 68
2.865257e+00 -2.646152e+00 1.855270e+00 141 129 107
4.493336e-01 -2.918025e+00 2.992219e+00 157 141 123
1.059212e+00 -2.511193e+00 3.130298e+00 153 138 117
1.032115e+00 -2.437220e+00 3.223633e+00 71 55 66
1.062622e+00 -2.444602e+00 3.253236e+00 71 55 66
1.309592e+00 -2.295716e+00 3.045505e+00 77 61 65
2.493516e+00 -1.308654e+00 2.821254e+00 102 93 93
3.870758e+00 -1.135048e+00 2.209162e+00 100 91 98
3.870758e+00 -1.135048e+00 2.209162e+00 100 91 98
3.094918e+00 -1.153027e+00 2.560282e+00 153 144 129
2.659871e+00 -1.211549e+00 2.778915e+00 167 156 134
2.659871e+00 -1.211549e+00 2.778915e+00 167 156 134
2.114702e+00 -4.472509e+00 1.805939e+00 131 116 102
3.984565e-02 -4.781445e+00 2.838822e+00 79 49 51
1.687392e+00 -4.426163e+00 1.717883e+00 124 115 93
8.881759e-01 -4.044942e+00 1.456995e+00 127 116 95
8.855329e-01 -4.044867e+00 1.461005e+00 127 116 95
2.012242e+00 -3.879299e+00 1.439797e+00 187 179 160
2.183223e+00 -3.907333e+00 2.081216e+00 101 79 86
1.824432e+00 -3.947740e+00 2.294208e+00 146 132 120
1.394610e+00 -3.957552e+00 2.233190e+00 116 109 88
1.296495e+00 -3.958566e+00 2.703136e+00 70 48 48
1.325914e+00 -3.904765e+00 2.693947e+00 120 109 93
1.102924e+00 -3.853127e+00 2.368913e+00 120 109 93
1.481133e+00 -3.831132e+00 2.463177e+00 77 51 52
1.470747e+00 -3.778016e+00 2.359936e+00 140 129 109
6.260401e-01 -3.791444e+00 2.512574e+00 136 120 96
7.266357e-01 -3.737623e+00 2.507602e+00 146 138 118
1.028012e+00 -3.746607e+00 2.872122e+00 103 85 84
1.091248e+00 -3.668637e+00 2.568429e+00 127 115 92
1.859759e+00 -2.962720e+00 2.272006e+00 149 142 133
2.095890e+00 -3.070443e+00 2.746101e+00 69 53 69
1.654445e+00 -2.969607e+00 2.510172e+00 59 41 54
4.788211e-01 -3.110233e+00 2.980957e+00 175 160 135
3.106893e+00 -2.698315e+00 1.594986e+00 62 39 55
1.336123e+00 -2.949040e+00 2.488048e+00 198 189 178
1.022404e+00 -2.991881e+00 2.726941e+00 92 60 69
1.052072e+00 -2.997241e+00 2.771531e+00 92 60 69
2.622677e+00 -2.713631e+00 1.809145e+00 68 35 63
2.906590e+00 -2.676150e+00 1.786765e+00 54 42 59
1.711311e+00 -2.866192e+00 2.571517e+00 73 53 68
1.995651e+00 -2.402605e+00 2.418173e+00 118 99 100
2.905918e+00 -2.284552e+00 1.976291e+00 161 148 139
2.667849e+00 -2.151923e+00 2.215423e+00 62 45 57
9.312053e-01 -2.127821e+00 3.313166e+00 168 155 135
3.526004e+00 -1.677651e+00 1.910639e+00 175 164 144
-1.011951e+00 -5.810541e+00 1.862648e+00 165 157 145
2.588844e+00 -4.999926e+00 1.732497e+00 141 132 118
1.970047e+00 -4.732738e+00 1.470930e+00 134 123 107
1.784535e+00 -4.503855e+00 1.655511e+00 128 116 103
1.150776e+00 -4.535057e+00 1.739649e+00 116 100 80
2.124520e+00 -4.492612e+00 2.330393e+00 59 44 39
9.050487e-01 -4.641375e+00 3.205417e+00 78 55 55
1.665576e+00 -4.541319e+00 3.031684e+00 113 104 89
-8.990527e-01 -4.743057e+00 3.140147e+00 178 169 158
1.376036e+00 -4.319784e+00 1.675694e+00 75 53 49
1.928013e+00 -4.366991e+00 2.451711e+00 127 115 102
1.274486e+00 -4.242426e+00 1.549357e+00 114 107 88
1.603514e+00 -4.380323e+00 2.536999e+00 72 55 45
1.989148e+00 -4.090198e+00 1.981871e+00 150 137 124
1.018941e+00 -4.280993e+00 2.971605e+00 64 49 41
2.072112e+00 -4.053527e+00 2.259404e+00 81 63 58
1.767666e+00 -3.972329e+00 2.272692e+00 78 54 51
3.966453e-01 -4.264340e+00 3.486726e+00 204 191 181
1.439002e+00 -3.910982e+00 2.581098e+00 80 62 59
2.949728e-01 -4.083826e+00 3.081413e+00 89 66 60
1.140764e+00 -3.885547e+00 2.776132e+00 87 66 65
1.447990e+00 -3.782054e+00 2.469452e+00 127 109 89
5.676164e-01 -3.891736e+00 3.128865e+00 96 73 67
8.407805e-01 -3.323586e+00 2.867362e+00 154 148 133
-7.378626e-02 -3.402371e+00 3.362562e+00 100 87 85
1.988852e+00 -3.080155e+00 2.364685e+00 86 73 65
6.007004e-01 -3.213259e+00 3.061728e+00 137 130 120
5.403785e-01 -3.151794e+00 2.961498e+00 96 76 85
1.205109e+00 -3.071162e+00 2.735879e+00 53 36 55
3.553451e-01 -3.104929e+00 2.908852e+00 77 60 68
-9.119621e-01 -3.320815e+00 3.856627e+00 162 158 159
1.175902e+00 -3.007464e+00 2.792791e+00 58 38 52
2.885104e+00 -2.717588e+00 1.788659e+00 165 157 159
1.949133e+00 -2.876241e+00 2.349496e+00 81 59 64
1.474351e+00 -2.981440e+00 2.757684e+00 69 48 61
2.651238e+00 -2.719215e+00 1.961598e+00 188 182 172
1.448664e+00 -2.601861e+00 2.748720e+00 151 138 130
2.020938e+00 -2.380802e+00 2.425227e+00 201 188 171
2.046072e+00 -2.311102e+00 2.437263e+00 177 164 147
1.210916e+00 -2.413294e+00 2.913207e+00 164 149 138
1.863474e+00 -2.269442e+00 2.634703e+00 143 136 129
1.834020e+00 -2.182031e+00 2.716388e+00 92 74 70
2.296082e+00 -1.980676e+00 2.330469e+00 78 66 66
1.353240e+00 -2.053565e+00 3.054125e+00 163 153 126
3.134155e+00 -1.770807e+00 2.045518e+00 66 46 45
3.549575e+00 -1.697696e+00 1.849225e+00 113 102 98
1.700735e+00 -1.893405e+00 2.915507e+00 135 119 111
1.582351e+00 -1.308107e+00 3.462299e+00 205 204 186
3.039907e+00 -5.257717e+00 1.857903e+00 142 131 111
3.471845e+00 -5.068591e+00 2.395396e+00 81 65 57
2.818516e+00 -5.128532e+00 3.266098e+00 112 102 81
3.297486e+00 -4.846400e+00 2.315378e+00 97 79 78
-8.362806e-01 -5.017905e+00 1.331299e+00 139 128 114
1.479444e+00 -4.729551e+00 9.680886e-01 88 72 60
1.642701e+00 -4.764012e+00 1.185094e+00 88 72 60
2.078565e+00 -4.664894e+00 1.431276e+00 113 101 92
-4.834871e-01 -4.748576e+00 1.932637e+00 101 86 79
1.350433e+00 -4.692446e+00 3.137194e+00 118 104 88
1.203409e-02 -4.750560e+00 3.460537e+00 76 58 58
2.202103e+00 -4.300316e+00 1.921185e+00 150 140 123
2.795852e+00 -4.207436e+00 2.481047e+00 188 170 155
-2.140140e-01 -4.344697e+00 2.539654e+00 109 92 85
-2.236110e-01 -4.344492e+00 2.534091e+00 109 92 85
1.939971e+00 -4.079142e+00 2.057647e+00 161 147 137
2.007940e+00 -4.052092e+00 2.034377e+00 105 89 86
2.100841e+00 -4.079950e+00 2.169213e+00 105 89 86
1.345996e+00 -4.145986e+00 2.739649e+00 74 50 45
1.345996e+00 -4.145986e+00 2.739649e+00 74 50 45
1.950045e+00 -4.011141e+00 2.294868e+00 112 95 80
6.398836e-01 -3.967828e+00 1.779139e+00 120 110 93
2.196043e-01 -3.965295e+00 1.964636e+00 114 102 84
3.702328e-01 -3.867082e+00 1.573688e+00 115 98 88
5.824412e-01 -4.093291e+00 2.990501e+00 68 47 53
2.344083e+00 -3.894503e+00 2.541305e+00 112 91 88
1.045908e+00 -4.012656e+00 2.873648e+00 129 112 100
1.031449e+00 -3.868569e+00 2.376731e+00 131 116 94
1.070368e+00 -3.421938e+00 2.751755e+00 136 119 100
3.113157e-01 -3.485848e+00 3.305513e+00 113 102 94
9.500344e-01 -3.361650e+00 2.931736e+00 115 101 96
1.958358e+00 -3.102721e+00 2.100424e+00 107 88 83
2.359391e+00 -3.160767e+00 2.472163e+00 146 139 122
2.433295e+00 -2.802374e+00 1.409410e+00 97 84 76
1.727953e+00 -3.045902e+00 2.553607e+00 175 170 163
-5.578404e-01 -3.338431e+00 3.777146e+00 191 182 181
2.387096e+00 -2.745320e+00 1.975328e+00 196 189 178
2.284226e+00 -2.787540e+00 2.100180e+00 206 206 197
9.764859e-01 -3.025206e+00 2.967621e+00 188 177 175
2.573213e+00 -2.618380e+00 1.666422e+00 159 148 130
2.600685e+00 -2.493829e+00 1.512694e+00 100 85 81
-2.934074e-01 -2.699752e+00 2.725125e+00 176 159 145
1.056322e+00 -2.555353e+00 3.089915e+00 70 53 58
1.130232e+00 -2.513311e+00 2.989981e+00 125 111 104
1.038054e+00 -2.448120e+00 3.038472e+00 98 80 76
9.600368e-01 -1.411828e+00 3.827120e+00 212 208 191
1.662944e+00 -1.264826e+00 3.468982e+00 181 171 166
2.585831e+00 -4.571178e+00 1.902047e+00 103 89 82
9.261136e+00 -5.828430e+00 1.365229e+01 68 46 46
-5.649537e-02 -4.595182e+00 3.238955e+00 127 112 109
8.112748e-01 -3.989727e+00 1.544990e+00 114 101 85
-3.583967e-02 -4.135041e+00 2.084487e+00 72 53 46
1.667353e+00 -3.910737e+00 2.411821e+00 93 76 62
1.639308e+00 -3.826705e+00 2.201796e+00 142 124 114
1.368668e+00 -3.896400e+00 2.704398e+00 113 106 85
1.341282e+00 -3.779853e+00 2.423636e+00 115 95 86
1.601980e+00 -3.643333e+00 1.875968e+00 119 99 97
3.016197e+00 -3.716954e+00 2.729896e+00 191 182 170
1.883476e+00 -3.661905e+00 2.707230e+00 102 82 76
1.291850e+00 -3.430739e+00 2.792720e+00 151 139 122
1.114531e+00 -3.409866e+00 2.753576e+00 75 59 60
1.155643e+00 -3.326301e+00 2.664773e+00 112 99 83
3.321640e-01 -3.406105e+00 3.251259e+00 129 116 111
5.669414e-01 -3.354555e+00 3.314772e+00 158 150 140
1.404748e+00 -3.051766e+00 2.557136e+00 151 144 143
-7.973377e-01 -3.114160e+00 3.056358e+00 86 62 66
2.139784e+00 -2.907349e+00 2.411798e+00 177 165 167
1.468281e+00 -2.893430e+00 2.518043e+00 159 142 133
1.412935e+00 -2.891148e+00 2.504893e+00 159 141 132
1.323872e+00 -2.962430e+00 2.991369e+00 101 88 80
2.995451e-01 -2.874529e+00 2.750235e+00 153 137 121
3.438242e-02 -2.958974e+00 3.072588e+00 181 167 154
3.438242e-02 -2.958974e+00 3.072588e+00 181 167 154
7.112058e-01 -2.993506e+00 3.223321e+00 123 107 92
1.280068e+00 -2.716863e+00 3.016550e+00 171 156 134
4.718528e-01 -6.853454e+00 -9.814224e-02 27 27 18
-2.932289e-01 -4.426831e+00 2.602429e+00 167 156 136
-9.160766e-01 -6.700260e+00 2.851220e+00 200 186 157
-1.098863e+00 -5.401258e+00 2.505338e+00 170 156 129
3.322234e+00 -5.090579e+00 2.398457e+00 188 176 152
-6.356019e-01 -7.456289e+00 1.558340e+00 179 170 151
-5.894006e-01 -7.451110e+00 1.948053e+00 178 170 151
-5.894006e-01 -7.451110e+00 1.948053e+00 178 170 151
-1.283003e+00 -6.563183e+00 7.139535e-01 204 190 154
-1.093094e+00 -6.635105e+00 1.971893e+00 175 160 131
-1.212321e+00 -6.190717e+00 1.843167e+00 174 159 128
-1.593383e+00 -5.519971e+00 2.466939e-01 164 146 108
1.121758e+00 -5.353130e+00 2.521360e-01 132 113 81
3.494816e+00 -5.483455e+00 2.283350e+00 198 184 155
-1.006681e+00 -5.602977e+00 2.663458e+00 187 173 146
-1.126301e+00 -5.428429e+00 1.708861e+00 155 146 130
-8.894481e-01 -5.309882e+00 2.445934e+00 72 58 29
-1.027851e+00 -5.107649e+00 2.026968e+00 138 126 111
-7.578713e-01 -4.762621e+00 1.607062e+00 154 147 122
2.626643e+00 -4.422878e+00 2.083958e+00 197 183 147
