ply
format ascii 1.0
element face 0
property list uchar int vertex_indices
element vertex 782
property float x
property float y
property float z
property uchar diffuse_red
property uchar diffuse_green
property uchar diffuse_blue
end_header
-2.049124e-01 -3.507705e+00 2.952740e+00 144 149 144
5.197234e-01 -3.380733e+00 2.950583e+00 151 162 159
1.651144e+00 7.997600e-01 3.058062e+00 163 164 163
2.749540e+00 -3.792282e+00 2.928373e+00 176 188 201
-5.869134e+00 1.328914e+00 3.035710e+00 149 159 152
-6.379272e+00 1.514582e+00 3.049390e+00 157 161 153
-5.567926e+00 1.334022e+00 3.034043e+00 156 158 155
-6.456495e+00 1.646580e+00 3.057354e+00 79 74 58
-5.103455e+00 1.647213e+00 3.049964e+00 167 173 168
2.865330e+00 2.391977e+00 3.051190e+00 99 99 89
1.936742e+00 -7.681567e-01 3.095572e+00 121 120 107
4.279105e+00 2.942715e-01 3.009113e+00 169 174 167
1.369323e+00 -3.340563e+00 2.946097e+00 168 173 175
-5.925643e+00 5.715923e+00 3.170727e+00 134 146 140
-3.340969e+00 -4.675597e-01 3.043751e+00 145 147 142
3.358531e+00 -5.544842e-01 2.974590e+00 69 66 61
-2.049124e-01 -3.507705e+00 2.952740e+00 144 149 144
-6.356575e+00 1.805813e+00 3.064967e+00 157 159 148
-1.418871e+00 -3.315002e+00 2.963728e+00 164 169 172
4.606002e+00 1.649740e-01 3.003553e+00 169 172 165
-1.565030e+00 9.340702e-01 2.910082e+00 94 91 82
-2.563746e-01 -3.904255e+00 2.946378e+00 85 83 62
-7.794404e-01 -3.284632e+00 2.961139e+00 166 171 176
1.622393e+00 -3.486796e+00 2.942722e+00 76 68 45
-9.725762e-02 -3.807508e+00 2.947822e+00 80 77 60
-6.409415e-01 -3.169860e+00 2.961558e+00 147 156 154
2.032634e+00 -3.636685e+00 2.936318e+00 93 91 76
-1.907801e+00 -2.918069e+00 2.974686e+00 135 140 130
3.799429e+00 1.266492e-01 3.015195e+00 107 98 81
1.131187e+00 -3.412508e+00 2.948714e+00 82 76 56
1.883271e+00 -3.462269e+00 2.940192e+00 154 155 155
2.292890e+00 -2.162855e+00 2.959001e+00 159 160 152
1.386454e+00 9.362772e-01 3.062263e+00 175 181 177
1.233140e+00 -3.619756e+00 2.949439e+00 138 140 135
1.858832e+00 -2.069681e+00 2.963066e+00 135 135 130
1.894676e+00 1.157822e+00 3.049357e+00 141 148 140
1.438901e+00 -3.433786e+00 2.945294e+00 76 68 47
9.068765e-01 -3.216988e+00 2.949975e+00 148 151 149
1.312063e+00 -3.195068e+00 2.947073e+00 141 142 132
3.414957e+00 -1.096291e+00 2.959169e+00 150 153 153
2.914035e+00 3.570071e+00 3.082171e+00 135 141 140
2.302134e+00 -4.312780e+00 2.930643e+00 45 43 31
1.940953e+00 -3.615741e+00 2.938361e+00 65 59 44
1.303195e+00 -3.386864e+00 2.947694e+00 83 75 59
-2.778941e+00 2.448730e+00 3.105818e+00 93 95 88
1.616459e+00 -3.433799e+00 2.943134e+00 159 165 161
1.116692e+00 -3.319933e+00 2.948872e+00 73 62 44
-5.077798e+00 1.312837e+00 3.031584e+00 72 68 50
-4.849321e+00 1.536402e+00 3.046093e+00 161 162 153
7.662844e-01 1.077275e+00 3.074538e+00 94 94 84
3.023213e+00 3.384714e+00 3.076612e+00 165 182 189
1.519908e+00 -3.854515e+00 2.942660e+00 131 132 125
2.113738e+00 -3.678795e+00 2.935801e+00 68 64 50
1.244640e+00 -3.163285e+00 2.948282e+00 145 148 139
-2.490822e+00 -1.117487e+00 3.028172e+00 139 139 130
1.971933e+00 1.051895e-01 3.017548e+00 139 138 127
-5.049586e+00 1.550128e+00 3.046636e+00 88 82 71
1.326821e-01 1.106003e+00 3.141426e+00 71 67 51
1.721438e+00 2.126930e+00 3.060243e+00 56 56 48
-4.640402e+00 3.686679e+00 3.122009e+00 168 173 169
1.757035e+00 -3.570201e+00 2.940821e+00 119 120 108
-1.285006e+00 -3.145444e+00 2.965658e+00 150 156 151
-2.194049e+00 -3.007934e+00 2.971858e+00 53 50 39
-1.681083e+00 -3.028291e+00 2.969098e+00 72 68 56
4.112087e-01 -3.134982e+00 2.954632e+00 143 149 141
-5.484639e-01 -2.443013e+00 2.973807e+00 87 84 74
-3.777345e+00 -1.352435e+00 3.027337e+00 60 59 48
-2.081118e+00 -1.339221e+00 3.012813e+00 136 137 120
-1.538544e+00 -1.339193e+00 3.010202e+00 133 126 110
-3.004207e+00 -1.086536e+00 3.035927e+00 80 72 49
1.341580e+00 -1.224631e-01 3.145473e+00 143 139 119
1.681183e+00 2.048560e+00 3.061760e+00 49 49 42
1.706968e+00 2.067662e+00 3.060705e+00 125 127 119
1.706968e+00 2.067662e+00 3.060705e+00 125 127 119
2.113742e+00 4.337709e+00 3.101638e+00 111 111 110
2.941748e+00 -4.344076e+00 2.919953e+00 76 73 65
1.150019e+00 -3.287262e+00 2.948478e+00 144 147 143
1.375561e+00 -3.102587e+00 2.946043e+00 56 49 41
3.429968e+00 -2.517160e+00 2.940687e+00 59 55 45
2.032801e+00 -1.582121e+00 2.958540e+00 148 134 117
2.032801e+00 -1.582121e+00 2.958540e+00 148 134 117
1.341580e+00 -1.224631e-01 3.145473e+00 143 139 119
1.874141e+00 4.809783e-01 3.050336e+00 31 31 23
1.874141e+00 4.809783e-01 3.050336e+00 31 31 23
1.231791e+00 2.077413e+00 3.065283e+00 166 175 177
-3.839763e+00 3.265712e+00 3.105219e+00 140 143 132
7.336171e-01 2.397280e+00 3.072925e+00 169 181 178
-4.696733e+00 3.902619e+00 3.131557e+00 168 171 165
-4.696733e+00 3.902619e+00 3.131557e+00 168 171 165
4.112107e-01 2.865862e+00 3.084160e+00 176 176 163
2.005058e+00 3.818645e+00 3.094493e+00 130 140 142
-1.306212e-01 -3.937160e+00 2.947886e+00 44 47 35
1.070919e+00 -3.327466e+00 2.948773e+00 130 130 114
1.654761e+00 -2.695951e+00 2.953545e+00 152 151 139
2.866494e+00 -2.750951e+00 2.946878e+00 63 54 47
2.608391e+00 4.805825e-01 3.005321e+00 175 191 194
-3.839786e+00 1.660368e+00 3.042438e+00 53 54 46
2.082435e+00 8.410489e-01 3.044491e+00 76 73 61
3.080287e+00 1.986357e+00 3.044999e+00 112 112 103
-5.610049e+00 4.015289e+00 3.137758e+00 77 78 70
3.512363e+00 2.172814e+00 3.041057e+00 169 171 168
-4.346428e+00 5.947768e+00 3.182692e+00 151 157 151
-4.024346e+00 6.048836e+00 3.188408e+00 68 67 72
-5.125450e+00 3.462103e+00 3.112076e+00 46 52 51
-2.917996e+00 -5.480689e-01 3.035989e+00 156 158 151
-3.256135e+00 -5.087852e-01 3.041893e+00 163 170 163
-6.341390e+00 1.348460e+00 3.042365e+00 83 83 75
4.781512e-01 5.045594e-01 3.245819e+00 104 97 78
-5.869134e+00 1.328914e+00 3.035710e+00 149 159 152
4.529683e+00 -2.226647e-01 3.004935e+00 31 28 24
-6.218082e+00 1.430176e+00 3.043495e+00 87 88 76
-6.644078e+00 1.598237e+00 3.056587e+00 87 82 68
4.019538e+00 1.711846e-02 3.014807e+00 75 72 63
-5.103444e+00 1.647235e+00 3.050038e+00 167 173 168
4.004488e+00 2.760922e-01 3.013029e+00 167 170 163
-3.795646e+00 -1.309267e+00 3.030081e+00 140 141 135
-3.368298e+00 -9.038689e-01 3.049909e+00 142 145 134
-2.759995e+00 -5.280846e-01 3.035516e+00 143 160 164
2.002513e+00 5.145389e-01 3.053720e+00 95 96 88
-5.420647e+00 2.157166e+00 3.073215e+00 92 92 90
-4.803318e+00 2.065774e+00 3.064639e+00 68 69 64
-4.827029e+00 4.103551e+00 3.140484e+00 63 64 49
2.783062e+00 2.427017e+00 3.052200e+00 90 91 84
-5.986751e+00 5.660029e+00 3.168547e+00 147 157 162
-3.518754e+00 -9.876008e-01 3.041858e+00 84 78 65
4.670843e+00 -9.656510e-01 2.990270e+00 171 176 179
-5.778914e+00 1.828206e+00 3.060628e+00 156 158 145
-5.791662e+00 1.835657e+00 3.062548e+00 156 158 145
-5.690898e+00 1.833763e+00 3.062394e+00 157 155 147
3.464117e+00 2.190643e+00 3.040311e+00 171 173 166
3.237831e+00 2.264958e+00 3.046108e+00 159 163 158
3.551041e+00 2.175614e+00 3.039161e+00 168 170 164
3.712668e+00 2.144857e+00 3.036991e+00 164 169 163
3.973977e+00 2.105279e+00 3.033286e+00 119 120 121
-2.571918e+00 -6.636410e-01 3.021958e+00 154 159 154
-6.035423e+00 1.010138e+00 3.024932e+00 153 160 154
-2.046484e+00 6.411548e-01 2.924017e+00 47 47 39
-4.301793e+00 1.182882e+00 3.026370e+00 97 94 80
-4.378377e+00 3.923775e+00 3.131036e+00 140 139 129
4.017069e+00 2.077319e+00 3.032804e+00 171 179 171
-1.792995e-01 -2.873037e+00 2.958938e+00 61 66 74
1.995468e+00 3.752836e-01 3.054500e+00 156 162 158
7.349392e-01 2.435946e+00 3.072860e+00 116 117 111
-4.393790e+00 4.018356e+00 3.140843e+00 64 61 51
-4.393790e+00 4.018356e+00 3.140843e+00 64 61 51
1.924900e+00 -3.933476e+00 2.937323e+00 122 124 113
2.723708e+00 -3.814372e+00 2.928445e+00 170 186 202
2.770735e+00 -3.433040e+00 2.934137e+00 165 175 177
-3.024576e+00 -1.469516e+00 3.020582e+00 47 38 29
-3.233646e-01 -1.620756e+00 2.979042e+00 119 116 106
2.432765e+00 -1.794176e+00 2.955387e+00 136 139 130
-2.798006e+00 -1.308586e+00 3.025732e+00 111 113 108
-2.798006e+00 -1.308586e+00 3.025732e+00 111 113 108
1.984957e+00 -1.931364e+00 2.961503e+00 45 41 30
2.850981e+00 -4.089112e+00 2.921920e+00 71 72 64
-5.769550e+00 2.076596e+00 3.070575e+00 168 179 174
4.415240e+00 1.633568e+00 3.023335e+00 136 139 132
2.998930e+00 -4.171888e+00 2.920074e+00 88 85 71
3.059944e+00 -4.134151e+00 2.919022e+00 162 164 178
3.240965e+00 -4.257114e+00 2.914489e+00 160 166 177
2.389986e+00 -4.255997e+00 2.928965e+00 143 145 144
2.253581e+00 -3.755756e+00 2.933814e+00 82 77 64
-2.021945e-02 -3.690652e+00 2.949191e+00 164 168 169
2.172718e+00 -3.647394e+00 2.935637e+00 168 179 181
1.042961e+00 -3.216479e+00 2.949105e+00 144 146 143
1.042961e+00 -3.216479e+00 2.949105e+00 144 146 143
3.279584e+00 -2.089693e+00 2.951425e+00 57 59 46
-3.104770e+00 -1.494865e+00 3.016129e+00 46 42 31
-2.715194e+00 -6.738165e-01 3.025772e+00 138 140 135
4.452071e+00 -7.895617e-01 2.998304e+00 81 82 71
4.369220e+00 -7.332003e-01 3.000410e+00 80 80 68
1.180521e+00 2.449227e-01 3.142503e+00 151 145 133
1.180521e+00 2.449227e-01 3.142503e+00 151 145 133
-5.908157e+00 1.212875e+00 3.030893e+00 34 32 19
-5.563291e+00 1.321208e+00 3.032950e+00 156 158 155
1.518876e+00 6.653178e-01 3.071258e+00 160 171 164
-3.980681e+00 1.579224e+00 3.036052e+00 157 158 151
6.887020e-01 1.085105e+00 3.098282e+00 163 168 156
5.115543e-01 1.145359e+00 3.105319e+00 168 172 161
-6.609868e+00 4.002466e+00 3.140232e+00 153 162 163
3.116898e+00 -4.233206e+00 2.916239e+00 90 91 78
5.560319e-02 -3.727553e+00 2.948028e+00 83 77 62
-2.795391e+00 -5.660404e-01 3.031823e+00 61 63 51
1.699609e+00 -1.482744e-01 3.104654e+00 156 155 150
-2.672140e+00 3.158295e-01 3.054175e+00 171 173 172
-5.456819e+00 9.261892e-01 3.018021e+00 138 145 140
9.274481e-01 3.780745e-01 3.165428e+00 142 138 126
6.662031e-01 5.045193e-01 3.197987e+00 147 143 130
1.059660e+00 5.009367e-01 3.126482e+00 143 143 133
9.307146e-01 5.752695e-01 3.137772e+00 146 143 131
6.922982e-01 6.813980e-01 3.156689e+00 148 143 129
-5.243602e+00 1.387285e+00 3.034330e+00 68 66 53
1.383839e+00 7.463570e-01 3.073184e+00 177 182 180
-5.272101e+00 1.713328e+00 3.054405e+00 164 165 161
1.214173e+00 9.107276e-01 3.076240e+00 98 99 91
1.065879e+00 9.865009e-01 3.082924e+00 107 106 95
9.170545e-01 1.048464e+00 3.086278e+00 104 104 94
3.783141e-01 1.192252e+00 3.110231e+00 171 175 171
2.391368e+00 1.506819e+00 3.022699e+00 79 73 66
4.320477e+00 1.683610e+00 3.025812e+00 138 139 132
-6.336776e+00 4.152081e+00 3.144662e+00 154 158 157
2.964642e+00 -4.281771e+00 2.920008e+00 67 61 50
2.093807e+00 -4.161798e+00 2.933208e+00 71 68 50
2.430266e+00 -3.897110e+00 2.930570e+00 126 123 108
2.430266e+00 -3.897110e+00 2.930570e+00 126 123 108
1.604668e+00 -3.881341e+00 2.941707e+00 130 134 129
2.393051e+00 -3.806229e+00 2.931405e+00 80 77 68
3.375830e-01 -3.748444e+00 2.949362e+00 61 58 48
1.938953e+00 -3.559310e+00 2.938424e+00 166 171 172
9.241496e-01 -3.473917e+00 2.949845e+00 119 114 97
-1.604447e+00 -3.129883e+00 2.967920e+00 144 145 140
-4.721989e-01 -3.170394e+00 2.960299e+00 150 154 152
1.086907e-01 -3.057217e+00 2.957044e+00 132 134 123
-1.848467e-01 -3.045988e+00 2.959347e+00 128 128 118
-3.419578e-01 -3.036956e+00 2.960794e+00 129 132 124
4.260340e+00 -2.603649e+00 2.928498e+00 146 152 148
2.797015e+00 -2.071189e+00 2.956580e+00 97 91 77
-2.023223e+00 -1.564313e+00 3.004529e+00 122 123 114
3.020922e+00 -1.825065e+00 2.953531e+00 141 144 142
-4.758105e+00 -1.094999e+00 3.028430e+00 71 62 44
-4.944867e+00 -1.075765e+00 3.029963e+00 74 68 49
-1.466596e+00 -1.346908e+00 3.006276e+00 133 129 112
-1.599096e+00 -1.258958e+00 3.008211e+00 82 76 62
-1.948493e+00 -1.218955e+00 3.015454e+00 92 86 70
-4.443969e-01 -1.343622e+00 2.975295e+00 98 94 82
-7.620209e-01 -1.323244e+00 2.984324e+00 80 74 60
-9.273879e-01 -1.308683e+00 2.989019e+00 80 75 55
-1.785489e+00 -1.233056e+00 3.016118e+00 92 86 71
-1.776516e+00 -1.233098e+00 3.012447e+00 92 86 71
1.076798e+00 -1.459355e+00 2.959630e+00 90 85 64
1.650976e-01 -1.383822e+00 2.967843e+00 97 91 75
2.961113e+00 -1.617348e+00 2.953951e+00 104 96 81
2.837714e+00 -1.607803e+00 2.954572e+00 99 92 76
4.741592e+00 -1.755144e+00 2.940293e+00 96 90 74
4.795553e+00 -1.756140e+00 2.939715e+00 145 142 134
3.759164e+00 -1.517591e+00 2.943911e+00 96 92 83
3.643340e+00 -1.506778e+00 2.944375e+00 94 89 70
2.638561e+00 -7.656103e-01 3.033831e+00 156 161 157
2.226039e+00 -9.817858e-02 3.052134e+00 143 144 136
1.897698e+00 1.143225e-01 3.068936e+00 131 130 125
-5.814087e+00 1.220104e+00 3.031031e+00 129 131 118
-1.501414e+00 5.002843e-01 2.835679e+00 75 75 66
-1.421114e+00 5.385751e-01 2.827783e+00 76 76 66
-1.421114e+00 5.385751e-01 2.827783e+00 76 76 66
1.704554e+00 3.543785e-01 3.071427e+00 69 66 54
1.477137e+00 5.121964e-01 3.082534e+00 70 70 62
1.248883e+00 5.873298e-01 3.098404e+00 137 136 122
-5.327324e+00 1.586045e+00 3.048008e+00 93 88 75
-5.887802e+00 1.691737e+00 3.055543e+00 142 143 128
-5.648100e+00 1.692697e+00 3.053643e+00 143 142 128
-6.354014e+00 1.798430e+00 3.064367e+00 157 159 148
-6.171755e+00 1.894294e+00 3.066606e+00 106 107 96
4.457996e+00 2.652862e-01 3.005547e+00 92 91 82
3.763301e-01 1.070813e+00 3.123262e+00 137 137 128
1.448127e+00 1.011572e+00 3.067451e+00 174 180 177
9.476557e-01 1.305511e+00 3.075351e+00 47 48 41
6.643562e-01 1.373409e+00 3.081258e+00 55 57 46
-6.960280e+00 2.569375e+00 3.097501e+00 82 80 67
-5.333152e+00 2.331051e+00 3.080581e+00 82 82 69
4.811599e+00 8.461152e-01 3.008414e+00 167 179 185
2.692181e+00 1.428744e+00 3.020499e+00 64 63 52
-6.034786e+00 3.484883e+00 3.118934e+00 169 181 177
4.495498e+00 1.456595e+00 3.021504e+00 164 180 184
4.495498e+00 1.456595e+00 3.021504e+00 164 180 184
4.506417e+00 1.606486e+00 3.021938e+00 82 81 86
-6.374566e+00 3.830759e+00 3.132760e+00 160 171 165
4.579823e+00 1.614741e+00 3.021767e+00 151 158 151
-1.675865e-02 2.674725e+00 3.079491e+00 38 38 36
-4.075690e+00 3.593054e+00 3.117370e+00 165 171 167
2.700831e+00 2.442911e+00 3.054574e+00 99 103 96
3.095523e+00 2.360971e+00 3.049306e+00 90 92 86
4.045628e+00 2.120753e+00 3.032696e+00 103 108 110
4.045628e+00 2.120753e+00 3.032696e+00 103 108 110
2.972173e+00 3.690887e+00 3.081428e+00 164 166 163
-7.997622e+00 7.729193e+00 3.262303e+00 164 167 172
-7.695446e-01 -4.148687e+00 2.944311e+00 130 137 136
7.627765e-01 -4.016847e+00 2.945662e+00 99 102 85
-1.611967e-01 -3.185687e+00 2.957962e+00 146 148 144
-1.977114e+00 -3.012753e+00 2.971073e+00 66 66 53
-3.769172e+00 -2.865237e+00 2.989218e+00 146 155 150
1.856038e-01 -3.062313e+00 2.955933e+00 129 130 122
2.302082e+00 -3.113607e+00 2.940392e+00 125 126 112
-1.907801e+00 -2.918069e+00 2.974686e+00 135 140 130
-1.329298e+00 -2.903138e+00 2.970188e+00 78 72 56
1.573455e+00 -2.991899e+00 2.941872e+00 87 84 69
-1.331101e-01 -2.907311e+00 2.957894e+00 158 173 173
-1.331101e-01 -2.907311e+00 2.957894e+00 158 173 173
-2.806929e+00 -2.760432e+00 2.989027e+00 128 131 121
2.759272e+00 -2.989982e+00 2.934775e+00 146 150 149
2.759272e+00 -2.989982e+00 2.934775e+00 146 150 149
-3.661968e+00 -2.655780e+00 2.998310e+00 135 140 133
-3.890936e+00 -2.613133e+00 3.003879e+00 81 74 65
3.267155e+00 -2.115942e+00 2.952394e+00 59 60 55
-3.236463e+00 -1.441227e+00 3.022747e+00 88 89 77
4.557267e+00 -1.815366e+00 2.942312e+00 71 64 38
3.930323e+00 -1.727317e+00 2.941114e+00 122 124 111
-4.486703e+00 1.265771e+00 3.029833e+00 92 85 73
-6.268595e+00 1.529153e+00 3.049511e+00 150 152 148
1.512567e+00 5.414422e-01 3.078077e+00 143 144 131
-4.786525e+00 1.382127e+00 3.034835e+00 152 150 136
4.012358e+00 2.053525e-01 3.012774e+00 87 79 67
-6.436622e+00 1.788833e+00 3.064696e+00 156 158 146
1.802614e+00 9.097387e-01 3.049311e+00 156 160 157
1.510254e+00 1.170510e+00 3.052307e+00 69 69 58
1.893834e+00 1.127245e+00 3.053668e+00 81 85 70
-6.812092e+00 2.584499e+00 3.097674e+00 148 149 144
-5.056593e+00 2.331216e+00 3.079124e+00 159 164 154
-1.220421e+00 2.927817e+00 3.088085e+00 180 193 203
3.625915e-01 2.643448e+00 3.078514e+00 194 205 206
3.903096e+00 1.978159e+00 3.033871e+00 168 181 182
2.591156e+00 2.415271e+00 3.055825e+00 149 150 137
3.392446e+00 2.237853e+00 3.044383e+00 160 163 156
3.873116e+00 2.164070e+00 3.034856e+00 110 112 109
-4.504686e+00 5.600241e+00 3.168343e+00 144 155 151
2.497416e+00 -4.381492e+00 2.925542e+00 60 60 46
2.386005e+00 -3.939525e+00 2.931684e+00 113 116 100
1.458555e+00 -3.896871e+00 2.943522e+00 60 58 46
6.922740e-02 -3.833966e+00 2.947908e+00 114 112 98
2.223217e+00 -3.861005e+00 2.934672e+00 118 119 105
2.223217e+00 -3.861005e+00 2.934672e+00 118 119 105
1.432449e+00 -3.831759e+00 2.944908e+00 62 56 43
2.311705e+00 -3.788615e+00 2.932263e+00 139 145 133
1.887643e+00 -3.592661e+00 2.938650e+00 146 143 133
1.658647e+00 -3.513071e+00 2.941934e+00 135 137 125
1.345589e+00 -3.374145e+00 2.946546e+00 85 79 65
-3.934653e-01 -3.280460e+00 2.958443e+00 163 167 166
-1.277858e-01 -3.262935e+00 2.957071e+00 90 88 77
2.308117e+00 -3.277997e+00 2.939265e+00 145 150 147
-1.043896e+00 -3.155548e+00 2.964333e+00 143 145 141
2.845462e+00 -3.284828e+00 2.935333e+00 147 149 140
1.619526e+00 -3.146506e+00 2.945021e+00 71 64 57
2.317677e+00 -3.152815e+00 2.940410e+00 82 78 67
-1.662059e+00 -2.992381e+00 2.970299e+00 145 147 141
1.705711e+00 -3.118483e+00 2.944219e+00 141 143 130
-2.789868e+00 -2.829131e+00 2.986862e+00 139 150 146
-3.942700e+00 -2.697017e+00 2.996986e+00 78 75 65
1.988263e+00 -2.990997e+00 2.940048e+00 103 102 85
3.403931e+00 -3.003452e+00 2.930058e+00 143 148 143
4.103197e+00 -2.601847e+00 2.931011e+00 146 148 145
4.180532e+00 -2.415595e+00 2.931006e+00 151 153 148
7.876315e-01 -2.157153e+00 2.966829e+00 102 95 77
-4.100083e+00 -1.236040e+00 3.015796e+00 67 59 40
2.859453e+00 -1.717014e+00 2.954904e+00 139 140 132
6.875044e-03 -1.451110e+00 2.972090e+00 120 112 102
1.170073e+00 -1.542340e+00 2.962040e+00 73 62 42
1.848485e+00 -1.595960e+00 2.959673e+00 103 90 66
4.687982e+00 -1.817671e+00 2.940988e+00 96 87 67
3.537237e+00 -1.730705e+00 2.942343e+00 173 186 185
3.913199e+00 -1.755679e+00 2.941386e+00 64 62 54
3.690595e+00 -1.636592e+00 2.944521e+00 79 70 57
-9.002262e-01 -8.067954e-01 2.999980e+00 137 142 134
4.384706e+00 -1.059682e+00 3.002172e+00 126 133 128
-5.594191e+00 3.544201e-01 3.006861e+00 161 169 163
-5.757642e+00 4.995265e-01 3.012710e+00 91 91 87
9.763829e-01 1.423599e-01 3.181416e+00 93 88 72
3.303789e-01 5.925378e-01 3.269268e+00 76 65 53
-3.302550e-01 9.182688e-01 3.532762e+00 72 65 52
1.669738e+00 2.912433e-01 3.078854e+00 158 159 144
1.933387e+00 2.648135e-01 3.060634e+00 95 94 80
3.883016e-01 7.515056e-01 3.205016e+00 71 65 49
1.334043e+00 5.246789e-01 3.093344e+00 156 158 144
1.035061e+00 6.858510e-01 3.105441e+00 154 156 145
-5.642877e+00 1.571095e+00 3.043843e+00 155 158 141
-5.653499e+00 1.636648e+00 3.050551e+00 103 97 79
-5.653499e+00 1.636648e+00 3.050551e+00 103 97 79
-5.998204e+00 1.686066e+00 3.056474e+00 71 68 55
-5.752307e+00 1.675099e+00 3.051522e+00 73 66 51
-1.155110e-01 1.092401e+00 3.204857e+00 85 81 70
1.894630e+00 6.968739e-01 3.059372e+00 85 84 79
1.848470e+00 7.188890e-01 3.062129e+00 136 145 139
4.383425e+00 3.117500e-01 3.005768e+00 99 95 84
1.014227e+00 9.507352e-01 3.086194e+00 165 171 161
4.306448e+00 3.406648e-01 3.007935e+00 94 92 79
1.158803e-01 1.200235e+00 3.130018e+00 100 91 81
-3.038534e-02 1.225689e+00 3.128995e+00 85 82 77
-6.457721e-01 1.354072e+00 3.108560e+00 173 177 172
-6.091738e+00 2.477395e+00 3.090700e+00 137 141 134
-4.851220e+00 2.292487e+00 3.076545e+00 127 132 123
1.563902e+00 2.200886e+00 3.065254e+00 76 76 65
4.021390e+00 1.732332e+00 3.031784e+00 154 158 160
-5.769439e+00 3.766788e+00 3.127650e+00 142 147 124
3.136196e+00 2.082890e+00 3.046872e+00 136 142 128
4.755567e+00 1.675307e+00 3.017617e+00 79 76 73
3.549631e+00 2.019419e+00 3.040099e+00 166 180 180
-4.986773e+00 3.801381e+00 3.126514e+00 121 127 112
-5.474751e+00 4.132249e+00 3.142405e+00 153 156 145
-5.474751e+00 4.132249e+00 3.142405e+00 153 156 145
5.228065e-01 2.919664e+00 3.083586e+00 88 88 81
-4.950700e+00 4.062073e+00 3.142510e+00 155 158 146
4.856560e+00 1.860822e+00 3.011548e+00 168 176 175
-3.976690e+00 3.987178e+00 3.136402e+00 76 77 71
-3.976690e+00 3.987178e+00 3.136402e+00 76 77 71
-5.121695e+00 4.243739e+00 3.150212e+00 157 160 142
-4.779761e+00 5.650297e+00 3.171942e+00 161 172 167
2.905856e+00 3.889926e+00 3.082746e+00 99 98 100
2.026406e+00 4.174528e+00 3.099493e+00 81 83 81
2.026406e+00 4.174528e+00 3.099493e+00 81 83 81
2.840311e+00 3.955869e+00 3.086989e+00 87 84 87
1.820926e+00 4.293033e+00 3.103695e+00 76 74 73
2.936126e+00 -4.315428e+00 2.920267e+00 121 121 113
1.627555e+00 -3.782085e+00 2.943493e+00 145 147 141
2.072553e+00 -3.649585e+00 2.936050e+00 84 85 78
1.401601e+00 -3.480949e+00 2.946026e+00 117 117 100
-2.361432e+00 -3.006286e+00 2.974068e+00 60 61 55
-1.933069e+00 -3.019627e+00 2.972043e+00 62 60 51
-2.477969e+00 -2.778167e+00 2.984046e+00 100 100 95
3.184313e+00 -3.021951e+00 2.932092e+00 72 71 57
-2.883471e+00 -2.697524e+00 2.992185e+00 146 152 143
-1.469905e+00 -2.672683e+00 2.974360e+00 153 158 150
-2.192604e+00 -2.567502e+00 2.980707e+00 82 78 71
2.197759e-01 -2.692262e+00 2.965901e+00 146 147 141
4.003497e+00 -2.837731e+00 2.919780e+00 163 169 165
2.101806e-01 -2.651462e+00 2.966013e+00 144 145 140
1.700471e+00 -2.654156e+00 2.953376e+00 156 157 149
4.114227e+00 -2.705198e+00 2.931619e+00 129 134 127
-3.268742e+00 -2.286383e+00 2.999295e+00 135 138 132
2.222277e+00 -2.606069e+00 2.950295e+00 55 54 41
4.119248e+00 -2.678798e+00 2.931363e+00 78 68 63
4.119248e+00 -2.678798e+00 2.931363e+00 78 68 63
4.112008e+00 -2.654851e+00 2.931276e+00 132 134 124
4.105976e+00 -2.627689e+00 2.930867e+00 79 78 65
-2.074015e+00 -1.516392e+00 3.006513e+00 62 62 49
-2.911864e+00 -1.398617e+00 3.026592e+00 87 83 66
1.799081e+00 -1.700562e+00 2.958552e+00 85 76 63
8.637206e-01 -1.586688e+00 2.962980e+00 148 151 132
1.942860e+00 -1.675065e+00 2.958479e+00 78 63 42
4.192793e+00 -1.849982e+00 2.937944e+00 146 153 148
-8.179573e-01 -1.392360e+00 2.992666e+00 72 64 38
-3.662756e+00 -1.022663e+00 3.040316e+00 83 75 62
3.975965e+00 -1.611896e+00 2.943056e+00 139 136 120
4.106555e+00 -1.610206e+00 2.942406e+00 81 70 54
3.126771e+00 -1.380461e+00 2.967416e+00 71 73 67
1.829097e+00 -1.158628e+00 2.973260e+00 169 173 179
1.275661e+00 -9.939363e-01 2.974868e+00 50 47 33
2.551044e+00 -8.452618e-01 3.044033e+00 92 89 77
4.567639e+00 -8.102859e-01 2.994651e+00 134 134 136
4.089350e+00 -5.445728e-01 3.006420e+00 175 182 175
1.372975e+00 4.526319e-02 3.130637e+00 85 79 63
-5.321537e+00 8.726076e-01 3.008545e+00 55 58 53
1.457424e+00 2.035053e-01 3.108288e+00 86 82 65
-1.453424e+00 3.979929e-01 2.816313e+00 160 165 156
1.284392e+00 3.178009e-01 3.119564e+00 82 78 65
-6.588288e+00 1.436968e+00 3.048606e+00 78 75 68
-6.601125e+00 1.477741e+00 3.050197e+00 156 162 155
1.837605e+00 3.496812e-01 3.061740e+00 103 105 92
-5.254809e+00 1.438466e+00 3.038012e+00 74 68 52
1.068483e+00 6.400460e-01 3.109949e+00 82 75 61
1.091402e+00 6.589470e-01 3.104263e+00 156 160 147
9.273893e-01 7.395696e-01 3.112586e+00 156 154 139
7.158587e-01 8.323958e-01 3.124343e+00 158 157 152
3.363363e-01 9.510328e-01 3.159090e+00 81 78 62
1.334860e-01 1.020974e+00 3.178297e+00 82 80 67
1.292231e+00 8.091384e-01 3.077870e+00 174 179 175
1.088581e+00 9.153750e-01 3.083432e+00 175 176 169
8.621554e-01 1.098343e+00 3.083199e+00 92 90 76
-5.337975e+00 2.007495e+00 3.065948e+00 122 120 106
1.655238e+00 9.999866e-01 3.061119e+00 149 152 140
1.030026e+00 1.152765e+00 3.078793e+00 78 76 72
4.336034e-01 1.269236e+00 3.092847e+00 160 161 155
1.453925e+00 1.049522e+00 3.053009e+00 172 174 166
1.299130e+00 1.121685e+00 3.069939e+00 162 163 158
-4.594314e+00 2.211814e+00 3.070814e+00 83 77 67
2.642422e+00 1.334149e+00 3.020704e+00 141 142 129
-7.005047e+00 3.102281e+00 3.098119e+00 95 92 85
2.187110e+00 1.567872e+00 3.025141e+00 141 143 131
2.187110e+00 1.567872e+00 3.025141e+00 141 143 131
1.731379e+00 2.023546e+00 3.060930e+00 148 154 147
3.558674e+00 1.641439e+00 3.036347e+00 77 80 82
-2.408653e-01 2.732092e+00 3.081066e+00 65 61 55
-4.186082e+00 3.576263e+00 3.117632e+00 149 154 144
-4.186082e+00 3.576263e+00 3.117632e+00 149 154 144
1.345966e+00 2.510520e+00 3.071801e+00 98 100 87
-2.216738e+00 3.293959e+00 3.105098e+00 105 106 91
6.355936e-01 2.741925e+00 3.081617e+00 163 166 161
1.879461e+00 2.487949e+00 3.049239e+00 69 64 57
5.000609e+00 1.760093e+00 3.009644e+00 98 97 94
3.147665e+00 2.300798e+00 3.047944e+00 154 154 142
2.249009e+00 2.617509e+00 3.046289e+00 105 103 98
2.249009e+00 2.617509e+00 3.046289e+00 105 103 98
-3.371290e+00 3.981663e+00 3.153845e+00 81 80 74
2.090325e+00 3.925534e+00 3.094655e+00 159 166 167
2.078189e+00 4.132299e+00 3.097947e+00 79 80 83
2.231947e+00 4.113664e+00 3.092334e+00 104 105 104
3.544928e+00 3.776441e+00 3.067823e+00 168 185 190
3.100387e+00 4.137926e+00 3.083181e+00 108 108 107
-5.217152e+00 6.545440e+00 3.206557e+00 174 185 182
-7.390255e+00 6.976493e+00 2.882777e+00 141 139 134
2.921196e+00 -4.290596e+00 2.921026e+00 51 47 38
2.933912e+00 -4.277980e+00 2.920892e+00 131 132 120
2.646848e+00 -4.139695e+00 2.927226e+00 129 130 116
2.622603e+00 -4.109800e+00 2.927725e+00 60 53 36
2.364116e+00 -3.902895e+00 2.932303e+00 128 125 108
1.903767e+00 -3.781199e+00 2.940469e+00 112 110 95
1.899704e+00 -3.574372e+00 2.938127e+00 85 83 75
1.842798e+00 -3.573810e+00 2.939298e+00 141 144 138
1.469192e+00 -3.554800e+00 2.945508e+00 118 119 107
1.852761e+00 -3.556297e+00 2.939076e+00 87 87 84
1.269259e+00 -3.481097e+00 2.948101e+00 46 35 21
-1.952186e+00 -3.149326e+00 2.967356e+00 82 77 74
-1.203929e+00 -3.182661e+00 2.964143e+00 75 75 66
-1.214626e+00 -3.177307e+00 2.964921e+00 75 75 66
-1.998425e+00 -3.101747e+00 2.969101e+00 144 146 140
6.692254e-01 -3.157527e+00 2.951689e+00 108 104 94
-3.005161e+00 -2.880647e+00 2.986037e+00 149 156 149
4.045262e+00 -3.077706e+00 2.918962e+00 48 48 41
-3.029819e-01 -2.917034e+00 2.959552e+00 90 91 84
-3.149673e+00 -2.731420e+00 2.992934e+00 89 88 79
-2.829169e+00 -2.702472e+00 2.992185e+00 131 133 124
1.673740e+00 -2.421550e+00 2.953019e+00 78 75 62
-2.794715e+00 -1.572028e+00 3.015044e+00 83 79 65
-1.206652e+00 -1.656028e+00 2.993875e+00 127 128 119
3.283543e+00 -1.859486e+00 2.951419e+00 137 140 132
-1.066934e+00 -1.509984e+00 2.994971e+00 137 137 126
-1.372856e+00 -1.426739e+00 3.001753e+00 43 41 25
-1.427149e+00 -1.363173e+00 3.002051e+00 130 129 109
-1.355033e+00 -1.322144e+00 3.005229e+00 129 122 113
1.537855e+00 -1.538301e+00 2.959319e+00 149 144 128
1.028440e+00 -1.484548e+00 2.961560e+00 81 73 61
-6.479298e-01 -1.282962e+00 2.979112e+00 85 76 68
-5.433803e-01 -9.585737e-01 2.995844e+00 72 65 49
-5.483232e+00 4.983296e-01 3.011120e+00 114 119 107
-5.002209e+00 6.411745e-01 3.005635e+00 106 107 94
9.145909e-01 1.686132e-01 3.189793e+00 152 150 130
4.318445e+00 -4.100159e-01 3.008433e+00 163 176 175
4.340589e+00 -3.794123e-01 3.007005e+00 159 178 175
5.355041e-01 3.586352e-01 3.253117e+00 82 78 73
-4.660576e+00 1.174620e+00 3.017012e+00 72 75 65
4.505185e+00 3.030753e-02 3.005705e+00 152 157 142
-5.464108e+00 1.509675e+00 3.042906e+00 69 64 49
-5.344008e+00 1.631978e+00 3.051461e+00 83 80 66
1.126159e+00 8.677770e-01 3.083581e+00 123 124 114
-6.196314e+00 1.933003e+00 3.070794e+00 85 81 72
6.405341e-01 1.080324e+00 3.100670e+00 118 118 103
-4.185466e+00 1.741829e+00 3.041177e+00 160 165 151
7.115505e-01 1.161701e+00 3.089102e+00 85 88 79
1.915534e+00 9.037808e-01 3.047625e+00 133 136 126
1.915534e+00 9.037808e-01 3.047625e+00 133 136 126
1.505346e+00 9.805531e-01 3.052321e+00 176 178 171
-1.754623e+00 1.469094e+00 2.989149e+00 157 162 149
1.000118e+00 1.185444e+00 3.078284e+00 168 172 158
1.227521e+00 1.140343e+00 3.071286e+00 159 168 163
-4.640855e+00 2.038021e+00 3.062217e+00 95 97 91
1.289004e+00 1.266885e+00 3.064522e+00 149 158 149
1.298423e+00 1.231955e+00 3.053310e+00 149 158 149
2.138031e-01 1.499695e+00 3.083922e+00 85 86 80
-2.834538e+00 2.699091e+00 3.135562e+00 143 149 142
1.628606e+00 2.123863e+00 3.063415e+00 80 82 70
-5.330307e+00 3.455477e+00 3.114046e+00 66 66 58
4.787251e-01 2.392582e+00 3.073463e+00 93 94 86
-6.492640e+00 3.730578e+00 3.129435e+00 78 78 69
-5.984555e+00 3.652216e+00 3.126820e+00 77 79 68
1.183998e+00 2.301269e+00 3.067249e+00 156 158 153
-4.387148e+00 3.485094e+00 3.119708e+00 93 92 87
3.716833e+00 1.885847e+00 3.037080e+00 183 190 186
4.019430e+00 1.814143e+00 3.029764e+00 149 162 165
-4.042476e+00 3.681561e+00 3.121873e+00 70 69 57
-1.061959e+00 3.109022e+00 3.093714e+00 94 93 88
-1.455603e+00 3.196761e+00 3.096842e+00 88 89 88
-5.944586e+00 4.100140e+00 3.144534e+00 149 154 131
-5.596349e+00 4.040853e+00 3.141129e+00 133 137 122
3.520893e+00 2.133927e+00 3.041939e+00 172 175 174
3.520893e+00 2.133927e+00 3.041939e+00 172 175 174
-5.453610e+00 4.122830e+00 3.142094e+00 164 169 159
-5.453610e+00 4.122830e+00 3.142094e+00 164 169 159
-6.364907e+00 4.363305e+00 3.156321e+00 85 86 71
-6.364907e+00 4.363305e+00 3.156321e+00 85 86 71
-6.041977e+00 4.307391e+00 3.153943e+00 91 89 76
-6.014341e+00 4.285782e+00 3.149808e+00 91 89 76
-6.667475e+00 4.470186e+00 3.161677e+00 155 160 153
-6.633584e+00 4.444826e+00 3.157056e+00 155 160 153
2.570369e+00 2.504555e+00 3.056442e+00 95 92 88
-5.531910e+00 4.243092e+00 3.148529e+00 152 153 130
3.526591e+00 2.260002e+00 3.039548e+00 95 94 89
3.060112e+00 2.392530e+00 3.046702e+00 165 168 157
1.748014e+00 2.703452e+00 3.053345e+00 163 166 149
4.948344e+00 2.063463e+00 3.014626e+00 128 127 127
-3.385495e+00 4.374260e+00 3.175390e+00 111 111 101
-3.649402e+00 4.912002e+00 3.197691e+00 90 91 85
2.054100e+00 3.725958e+00 3.094094e+00 124 125 121
2.171570e+00 3.720676e+00 3.090609e+00 89 90 95
2.129402e+00 4.032012e+00 3.095902e+00 160 171 167
2.129402e+00 4.032012e+00 3.095902e+00 160 171 167
-4.652943e+00 6.050557e+00 3.186993e+00 151 157 152
-2.848523e+00 -2.708559e+00 2.991604e+00 67 73 65
-2.820206e+00 -1.440135e+00 3.024372e+00 123 124 119
1.251432e+00 -1.515520e+00 2.960583e+00 136 130 111
2.756021e+00 -6.008615e-01 3.024153e+00 68 70 65
2.763211e+00 -6.278451e-01 3.022163e+00 68 70 65
1.780567e+00 -3.026154e-01 3.102645e+00 103 101 92
-4.694180e+00 6.818884e-01 3.002635e+00 187 192 186
1.414058e+00 4.237101e-01 3.096051e+00 136 130 114
1.089041e+00 6.097092e-01 3.112033e+00 141 139 126
-4.865908e+00 1.394429e+00 3.031284e+00 73 68 49
-5.829799e+00 1.766894e+00 3.059964e+00 149 147 135
-6.980804e+00 2.620661e+00 3.101320e+00 86 91 84
2.239406e+00 1.876931e+00 3.036072e+00 130 133 130
3.185986e+00 1.907076e+00 3.042444e+00 113 116 111
-5.495050e+00 3.668476e+00 3.129866e+00 100 100 90
-4.659302e+00 3.773471e+00 3.129374e+00 102 100 93
-3.797401e+00 3.697485e+00 3.122160e+00 84 86 78
-3.837011e+00 3.713010e+00 3.122515e+00 83 84 77
-4.837417e+00 3.932328e+00 3.136293e+00 110 107 96
-3.775673e+00 3.766536e+00 3.126033e+00 156 157 148
-3.775673e+00 3.766536e+00 3.126033e+00 156 157 148
-4.828379e+00 4.025768e+00 3.140927e+00 160 163 152
4.976962e+00 1.797907e+00 3.010570e+00 97 100 99
3.330762e+00 2.252643e+00 3.042881e+00 98 94 83
-4.182197e+00 3.978419e+00 3.138796e+00 71 71 59
-4.373250e+00 3.996002e+00 3.136298e+00 64 61 51
-4.241638e+00 4.068634e+00 3.145074e+00 75 76 70
1.843281e+00 2.871486e+00 3.056462e+00 177 182 176
-3.303491e+00 4.516136e+00 3.183066e+00 88 84 73
3.155028e+00 -6.473151e-01 3.108114e+00 175 174 181
-2.004529e+00 -2.143133e+00 2.898624e+00 18 19 21
3.308932e+00 -1.274733e+00 3.029202e+00 138 140 138
-1.424553e+00 3.462047e-01 2.534175e+00 127 123 114
1.886980e+00 5.029305e-01 2.771970e+00 141 140 136
1.886980e+00 5.029305e-01 2.771970e+00 141 140 136
1.462303e+00 2.176164e+00 3.043561e+00 139 138 136
-2.602888e+00 -1.675064e+00 3.041313e+00 37 30 25
-4.180016e+00 1.441324e+00 2.797780e+00 148 150 149
1.755894e+00 5.639370e-01 2.829393e+00 132 133 128
-1.151052e+00 1.325348e+00 2.901573e+00 150 148 141
1.815769e+00 5.912480e-01 2.868541e+00 72 67 63
2.711594e+00 2.201816e-01 3.136913e+00 172 173 177
-4.877079e+00 1.800408e+00 2.800118e+00 49 45 41
1.446766e+00 8.205429e-01 2.895825e+00 91 88 81
-1.174228e+00 1.499597e+00 2.842909e+00 93 86 83
7.294512e-01 -3.196000e+00 3.035832e+00 137 137 133
-9.630348e-01 -2.821406e+00 3.012674e+00 134 137 142
5.730133e-02 -2.310055e+00 3.056804e+00 53 49 46
3.165830e+00 -1.959332e+00 3.029129e+00 136 121 113
1.597681e+00 -1.677032e+00 3.212818e+00 94 81 72
-5.504688e+00 1.018053e+00 2.301122e+00 112 105 89
2.302490e+00 1.755002e-01 2.778397e+00 72 67 63
8.061207e-02 1.460413e+00 3.007904e+00 68 66 64
-1.191797e+00 1.709275e+00 3.009696e+00 44 42 39
1.937653e+00 1.185365e+00 3.002556e+00 64 62 61
1.526466e-01 -1.949390e+00 3.087666e+00 66 59 49
-4.042006e+00 -1.330145e+00 3.047544e+00 85 79 67
1.050087e+00 1.773874e-01 2.424659e+00 134 131 126
-7.050150e-01 9.243253e-01 2.509491e+00 63 56 48
2.634124e+00 3.249216e-01 3.149277e+00 112 117 120
2.632661e+00 4.001219e-01 3.184175e+00 166 168 168
1.444875e+00 1.061549e+00 2.929740e+00 159 155 152
7.982526e-01 -2.337846e+00 3.006252e+00 117 116 112
3.276381e+00 -2.192651e+00 2.949156e+00 70 72 71
2.167199e-01 -1.964089e+00 3.077316e+00 53 45 40
1.088564e+00 -2.006126e+00 3.086213e+00 81 71 61
2.406350e+00 -4.515130e-01 2.548847e+00 70 64 54
1.493270e+00 1.929875e-01 2.515834e+00 144 140 136
-1.309123e+00 8.130760e-01 2.483292e+00 63 56 51
1.230503e+00 8.109394e-01 2.979121e+00 161 158 154
7.960987e-01 1.133492e+00 2.943038e+00 75 72 64
1.278009e+00 2.103579e+00 3.064926e+00 166 161 161
-4.960487e-01 2.743803e+00 3.127804e+00 65 61 64
1.397817e+00 2.380711e+00 3.096495e+00 71 63 62
-4.982358e-01 -2.142605e+00 3.026524e+00 134 133 124
-3.444270e-01 -1.797302e+00 3.205569e+00 70 61 54
-2.012491e+00 -1.466543e+00 3.143211e+00 75 62 56
-3.678308e+00 -1.214727e+00 3.283902e+00 48 43 39
1.898014e+00 -1.313512e+00 3.098754e+00 113 109 102
-1.067676e+00 1.205097e+00 2.742732e+00 149 142 135
-4.192305e+00 1.516203e+00 3.007352e+00 130 129 125
-8.814198e-01 1.496438e+00 2.832560e+00 80 77 69
-2.078669e+00 1.788791e+00 2.933476e+00 130 125 121
1.321162e+00 2.165847e+00 3.090603e+00 81 76 72
5.635127e-01 2.474773e+00 3.149444e+00 142 141 137
-2.010806e-01 2.800480e+00 3.156365e+00 156 158 157
1.324949e+00 2.216900e+00 3.125230e+00 101 98 93
1.015161e+00 2.352428e+00 3.100980e+00 65 63 64
-1.735162e+00 2.660737e+00 3.192304e+00 31 30 35
1.286504e+00 4.643625e+00 3.573326e+00 239 255 255
3.136499e+00 3.586766e+00 3.131918e+00 69 65 66
3.251979e+00 3.917058e+00 3.247717e+00 154 154 163
2.882990e+00 4.124662e+00 3.351796e+00 123 120 128
-6.478752e+00 7.119345e+00 3.380343e+00 87 90 95
1.142137e+00 4.476974e-01 2.783695e+00 93 83 74
1.142137e+00 4.476974e-01 2.783695e+00 93 83 74
-1.174118e+00 7.683570e-01 2.783015e+00 103 92 80
2.072470e+00 2.404984e-01 2.927152e+00 144 143 139
2.072470e+00 2.404984e-01 2.927152e+00 144 143 139
7.267257e-01 6.196758e-01 2.814539e+00 89 76 67
-4.639581e-01 1.193612e+00 3.059712e+00 160 157 152
-1.467779e+00 1.386950e+00 3.110230e+00 162 162 161
-6.372988e+00 3.206248e+00 3.061103e+00 110 110 108
3.267000e+00 3.989996e+00 3.373892e+00 152 152 154
2.552228e+00 4.399942e+00 3.327027e+00 249 255 250
1.067275e+00 4.738724e+00 3.567794e+00 100 101 113
-4.693456e+00 7.339971e-01 2.680824e+00 119 113 101
3.451655e+00 3.139435e+00 2.965444e+00 104 104 106
2.072560e+00 4.051018e+00 3.277080e+00 161 161 161
2.243049e+00 4.323861e+00 3.381498e+00 101 100 114
-3.634977e+00 6.284677e+00 3.447588e+00 209 231 255
-2.614994e+00 5.733463e+00 3.685832e+00 216 234 254
-3.134030e+00 -7.372226e-01 3.256979e+00 91 82 74
2.351521e+00 3.938652e-02 2.931652e+00 72 67 63
-2.792608e+00 4.495251e-01 3.463375e+00 75 76 71
-5.651477e+00 1.748160e+00 2.969356e+00 78 74 62
-5.898517e+00 1.803444e+00 2.960554e+00 59 52 44
2.664845e+00 2.285380e+00 3.109671e+00 96 89 83
3.332274e+00 3.303893e+00 3.051855e+00 119 118 116
1.713035e+00 4.193753e+00 3.233491e+00 75 72 71
-3.699753e+00 6.368684e+00 3.621496e+00 83 83 99
1.627474e+00 -2.008647e+00 3.351900e+00 131 130 125
2.365464e+00 -5.773822e-01 2.763480e+00 68 63 59
-2.253341e+00 6.247528e-02 2.734803e+00 62 58 49
-4.115436e+00 1.048864e+00 2.928829e+00 57 50 42
-4.463447e+00 1.446579e+00 3.046352e+00 37 33 32
-1.602991e+00 1.038152e+00 3.030307e+00 156 154 145
-2.402412e+00 1.845773e+00 3.527776e+00 83 79 70
-4.532615e+00 3.139576e+00 2.840100e+00 82 78 75
2.140060e+00 2.177811e+00 3.326874e+00 171 167 166
3.528852e+00 3.088656e+00 2.980240e+00 155 154 156
1.041887e+00 4.731792e+00 3.615216e+00 237 253 253
2.645060e+00 4.583511e+00 3.323740e+00 78 89 120
1.489419e+00 4.750999e+00 3.523346e+00 77 93 118
3.839299e+00 -2.210337e+00 3.450575e+00 88 78 70
3.866356e+00 -2.196706e+00 3.467481e+00 153 143 142
2.999797e-03 -1.169451e+00 3.317735e+00 119 113 101
2.999797e-03 -1.169451e+00 3.317735e+00 119 113 101
-5.378350e+00 6.860094e-01 2.476674e+00 125 118 110
1.981003e+00 4.041617e-01 2.973103e+00 40 34 35
-6.440428e+00 1.794020e+00 2.858886e+00 129 125 116
-2.050728e+00 2.672210e+00 3.232005e+00 76 69 61
-5.026199e+00 3.322902e+00 3.298835e+00 47 47 47
-4.467896e+00 3.757888e+00 3.179843e+00 77 76 74
3.637815e+00 2.134765e+00 3.111190e+00 144 136 125
-4.750077e+00 4.803198e+00 3.244948e+00 147 152 153
-4.433094e+00 5.679123e+00 3.056214e+00 120 120 120
-5.581049e+00 5.814382e+00 3.231898e+00 107 104 101
-3.949810e+00 5.487772e+00 3.197877e+00 104 98 92
6.334450e-01 4.294379e+00 3.320032e+00 143 137 139
2.745539e+00 3.918280e+00 3.183098e+00 69 63 66
2.614302e+00 3.942459e+00 3.209975e+00 71 66 70
-5.577376e+00 6.093047e+00 3.451292e+00 160 160 158
5.812621e-01 4.548729e+00 3.359965e+00 237 251 254
3.134167e+00 4.176541e+00 3.169483e+00 149 149 151
1.245388e+00 4.424398e+00 3.611809e+00 160 155 154
-2.972861e+00 5.801575e+00 3.672883e+00 209 234 254
-2.530044e+00 5.710898e+00 3.667843e+00 111 123 140
-2.530044e+00 5.710898e+00 3.667843e+00 111 123 140
1.117298e+00 4.729266e+00 3.590992e+00 232 252 251
1.094254e+00 4.737142e+00 3.626940e+00 97 106 134
1.094254e+00 4.737142e+00 3.626940e+00 97 106 134
-5.103920e+00 1.981525e+00 2.820798e+00 79 75 76
3.507586e+00 2.182348e+00 3.071189e+00 156 148 137
-2.217050e+00 3.397749e+00 3.728434e+00 139 132 126
-6.913237e+00 5.037235e+00 3.621604e+00 139 145 147
2.495195e+00 3.759968e+00 3.142638e+00 92 87 91
9.355515e-01 4.191800e+00 3.288423e+00 157 151 151
-2.255784e+00 5.368265e+00 3.337509e+00 219 236 251
-2.297494e+00 5.417704e+00 3.359032e+00 223 235 242
-2.297494e+00 5.417704e+00 3.359032e+00 223 235 242
-2.833465e+00 5.887720e+00 3.688589e+00 78 98 124
-2.833465e+00 5.887720e+00 3.688589e+00 78 98 124
-5.311659e+00 6.550081e+00 3.758415e+00 197 222 246
2.608498e+00 4.087424e+00 3.081216e+00 54 54 52
-8.425702e-01 1.249129e+00 3.000448e+00 162 159 150
3.893016e-01 1.106358e+00 3.011421e+00 174 171 166
1.610751e+00 4.439120e+00 3.131094e+00 144 144 140
1.640401e+00 9.928032e-01 3.014027e+00 128 124 114
2.594166e+00 4.088239e+00 3.108232e+00 67 67 65
1.349287e+00 -2.026892e+00 3.297178e+00 144 134 122
2.709341e+00 2.201387e+00 3.105992e+00 151 148 143
-5.817186e+00 5.800178e+00 3.119349e+00 19 24 18
2.836058e+00 -2.048303e+00 3.304078e+00 142 134 125
-3.723440e-02 2.818791e+00 3.247194e+00 82 78 76
-3.707383e+00 -1.563545e+00 2.861577e+00 55 52 36
-1.906810e+00 -1.682865e+00 3.097846e+00 84 76 63
-4.466216e+00 8.192324e-01 2.711036e+00 113 114 108
-1.266274e+00 3.028863e+00 3.280817e+00 136 135 134
6.423839e+00 -9.672488e+00 -7.962638e+00 0 255 0
6.443373e+00 -9.702245e+00 -7.997751e+00 255 255 0
-6.367512e-01 1.513014e-02 2.465461e+00 255 0 0
-6.367748e-01 1.537105e-02 2.415462e+00 255 255 0
6.051737e+00 -1.004415e+01 1.314507e+01 0 255 0
6.032040e+00 -1.001073e+01 1.311352e+01 255 255 0
4.074371e+00 -9.848029e+00 1.243054e+01 255 0 0
4.059166e+00 -9.817416e+00 1.239405e+01 255 255 0
1.270062e+01 -9.519477e+00 1.624907e+01 0 255 0
1.267110e+01 -9.492897e+00 1.621869e+01 255 255 0
